ply
format ascii 1.0
comment KinectMotionCapture
element vertex 752
property float x
property float y
property float z
property uchar red
property uchar green
property uchar blue
end_header
-459.882825613022 354.346126317978 2532.99999237061 194 195 197
-845.681071281433 367.528468370438 2687.99996376038 170 174 173
-835.278034210205 366.181343793869 2677.99997329712 154 156 155
-821.837067604065 363.466829061508 2657.99999237061 170 172 171
-808.197975158691 360.615700483322 2637.00008392334 152 154 153
-798.621594905853 359.542340040207 2628.99994850159 158 160 159
-790.894746780396 359.289735555649 2627.00009346008 149 151 148
-783.178389072418 359.037339687347 2625 143 145 142
-774.585783481598 358.374893665314 2619.99988555908 139 139 137
-764.262318611145 356.891810894012 2608.99996757507 144 144 142
-754.578471183777 355.682373046875 2599.99990463257 144 144 142
-745.518147945404 354.746669530869 2592.99993515015 147 147 145
-737.349808216095 354.221522808075 2588.99998664856 133 133 131
-727.792024612427 353.012293577194 2579.99992370605 152 152 150
-717.444658279419 351.392656564713 2568.00007820129 147 147 145
-707.438230514526 349.909782409668 2556.99992179871 174 174 172
-699.682772159576 349.521726369858 2553.99990081787 164 164 162
-692.485272884369 349.407494068146 2552.99997329712 161 161 159
-685.829818248749 349.567085504532 2553.99990081787 153 153 151
-677.573263645172 348.905622959137 2549.00002479553 145 145 143
-669.606328010559 348.381072282791 2545.00007629395 141 140 138
-661.920845508575 347.993463277817 2542.00005531311 142 141 139
-655.281543731689 348.153501749039 2542.99998283386 142 141 139
-648.891031742096 348.450571298599 2545.00007629395 159 158 156
-642.236649990082 348.6108481884 2546.0000038147 157 156 154
-635.076999664307 348.497360944748 2545.00007629395 142 141 139
-627.921879291534 348.383843898773 2543.99991035461 148 147 145
-621.259689331055 348.544359207153 2545.00007629395 142 141 139
-615.315318107605 349.115788936615 2549.00002479553 135 134 132
-608.870983123779 349.413394927979 2551.00011825562 130 129 127
-602.650880813599 349.848031997681 2553.99990081787 118 117 115
-595.947027206421 350.008815526962 2555.0000667572 120 121 116
-589.236855506897 350.169539451599 2555.99999427795 111 112 107
-581.38120174408 349.645286798477 2552.00004577637 106 107 102
-572.871029376984 348.709911108017 2545.00007629395 121 122 117
-562.39652633667 346.54113650322 2529.00004386902 131 131 129
-553.106307983398 345.057159662247 2517.99988746643 129 129 127
-544.091880321503 343.710035085678 2507.99989700317 136 136 134
-536.201894283295 343.047946691513 2503.00002098084 148 148 146
-528.549671173096 342.522829771042 2499.00007247925 157 157 155
-521.335661411285 342.271596193314 2496.99997901917 159 159 159
-513.925492763519 341.883271932602 2493.99995803833 166 166 166
-506.530582904816 341.494798660278 2490.9999370575 195 195 197
-500.154137611389 341.791659593582 2493.00003051758 180 180 182
-493.765741586685 342.088490724564 2494.99988555908 184 184 186
-487.950921058655 342.796593904495 2500 188 188 190
-482.300370931625 343.641817569733 2506.00004196167 193 193 195
-476.615965366364 344.487011432648 2512.00008392334 196 197 199
-470.336884260178 344.920784235001 2515.00010490417 203 204 206
-464.593142271042 345.765858888626 2520.99990844727 198 199 201
-460.631340742111 347.982555627823 2536.99994087219 194 195 197
-846.330285072327 360.474854707718 2690.00005722046 181 185 184
-834.050536155701 358.350664377213 2674.00002479553 158 160 159
-820.620715618134 355.690509080887 2654.00004386902 171 173 172
-809.750914573669 354.102492332459 2641.99995994568 157 159 158
-800.464987754822 353.184819221497 2634.99999046326 162 164 163
-792.421042919159 352.803468704224 2631.99996948242 146 148 145
-783.497989177704 352.020174264908 2625.99992752075 140 142 139
-775.494158267975 351.639211177826 2622.99990653992 139 139 137
-766.04151725769 350.588113069534 2615.00000953674 143 143 141
-755.761206150055 349.134892225266 2604.00009155273 137 137 135
-746.115148067474 347.949832677841 2595.00002861023 140 140 138
-737.08701133728 347.033053636551 2588.00005912781 134 134 132
-727.532088756561 345.848113298416 2578.9999961853 152 152 150
-716.628670692444 343.992650508881 2565.00005722046 141 141 139
-706.907272338867 342.673659324646 2555.0000667572 169 169 167
-699.431180953979 342.427581548691 2552.99997329712 163 163 161
-693.050444126129 342.718183994293 2555.0000667572 160 160 158
-686.389684677124 342.874854803085 2555.99999427795 152 152 150
-678.393542766571 342.360883951187 2552.00004577637 144 144 142
-670.418620109558 341.847002506256 2548.00009727478 147 146 144
-662.985384464264 341.601490974426 2546.0000038147 144 143 141
-655.562222003937 341.355979442596 2543.99991035461 146 145 143
-649.169206619263 341.647356748581 2546.0000038147 144 143 141
-642.259895801544 341.670364141464 2546.0000038147 148 147 145
-636.098444461823 342.096149921417 2549.00002479553 149 148 146
-629.179418087006 342.119336128235 2549.00002479553 145 144 142
-622.747778892517 342.41110086441 2551.00011825562 140 139 137
-615.580201148987 342.300176620483 2549.99995231628 136 135 133
-609.371900558472 342.726320028305 2552.99997329712 129 128 126
-603.146433830261 343.152493238449 2555.99999427795 125 124 122
-596.903681755066 343.578696250916 2559.00001525879 122 123 118
-589.952111244202 343.602240085602 2559.00001525879 115 116 111
-582.771718502045 343.491405248642 2558.00008773804 106 107 102
-574.020087718964 342.440545558929 2549.99995231628 105 106 101
-564.198970794678 340.718060731888 2536.99994087219 130 130 128
-554.44747209549 338.995218276978 2523.9999294281 127 127 125
-545.850574970245 337.94379234314 2516.00003242493 136 136 134
-537.295997142792 336.8920981884 2507.99989700317 146 146 144
-529.207050800323 336.108922958374 2502.00009346008 156 156 154
-521.567225456238 335.594236850739 2497.99990653992 161 161 161
-514.154255390167 335.213750600815 2494.99988555908 174 174 174
-506.349802017212 334.564417600632 2490.00000953674 190 190 192
-499.976009130478 334.855556488037 2492.00010299683 178 178 180
-493.986070156097 335.415333509445 2496.00005149841 182 182 184
-488.558858633041 336.378306150436 2503.00002098084 190 190 192
-482.322633266449 336.803674697876 2506.00004196167 196 196 198
-476.638197898865 337.632179260254 2512.00008392334 196 197 199
-470.733016729355 338.326275348663 2516.99995994568 198 199 201
-465.352386236191 339.423537254334 2525.00009536743 199 200 202
-461.19812130928 341.461896896362 2539.99996185303 197 198 200
-849.81095790863 354.591429233551 2700.99997520447 194 198 197
-837.501645088196 352.510690689087 2684.99994277954 159 161 160
-823.114454746246 349.510997533798 2661.99994087219 171 173 172
-811.610221862793 347.692936658859 2648.00000190735 165 167 166
-801.700711250305 346.531569957733 2638.99993896484 167 169 168
-793.646097183228 346.158146858215 2635.99991798401 146 148 145
-784.115731716156 345.128357410431 2628.00002098084 141 143 140
-776.402354240417 344.886690378189 2625.99992752075 140 140 138
-766.941785812378 343.857169151306 2618.00003051758 140 140 138
-757.814288139343 342.959046363831 2611.00006103516 138 138 136
-748.149335384369 341.798365116119 2601.99999809265 137 137 135
-739.102482795715 340.900421142578 2595.00002861023 132 132 130
-728.118240833282 339.082956314087 2581.00008964539 153 153 151
-716.929972171783 337.134033441544 2565.99998474121 139 139 137
-706.929266452789 335.710614919662 2555.0000667572 164 164 162
-700.001239776611 335.732489824295 2555.0000667572 160 160 158
-693.343997001648 335.886031389236 2555.99999427795 163 163 161
-686.143517494202 335.77686548233 2555.0000667572 152 152 150
-678.681910037994 335.536301136017 2552.99997329712 147 147 145
-671.230554580688 335.295915603638 2551.00011825562 144 143 141
-664.310097694397 335.318475961685 2551.00011825562 148 147 145
-657.388925552368 335.341095924377 2551.00011825562 147 146 144
-650.466978549957 335.363805294037 2551.00011825562 142 141 139
-642.787456512451 334.992229938507 2548.00009727478 144 143 141
-636.121511459351 335.146546363831 2549.00002479553 147 146 144
-629.449367523193 335.300952196121 2549.99995231628 147 146 144
-623.25918674469 335.718393325806 2552.99997329712 139 138 136
-616.32764339447 335.741460323334 2552.99997329712 133 132 130
-609.87251996994 336.027562618256 2555.0000667572 127 126 124
-603.405594825745 336.3136947155 2556.99992179871 124 123 121
-597.626864910126 336.994558572769 2562.00003623962 118 119 114
-590.897619724274 337.149262428284 2562.99996376038 114 115 110
-584.161996841431 337.304025888443 2563.99989128113 106 107 102
-575.619101524353 336.406290531158 2556.99992179871 101 102 97
-566.446006298065 335.113704204559 2546.99993133545 105 105 103
-556.886970996857 333.55775475502 2535.00008583069 125 125 123
-547.609031200409 332.133054733276 2523.9999294281 143 143 141
-538.175702095032 330.576598644257 2512.00008392334 142 142 140
-529.018044471741 329.151421785355 2500.99992752075 154 154 152
-521.589696407318 328.778982162476 2497.99990653992 151 151 151
-513.970553874969 328.274756669998 2493.99995803833 195 195 195
-506.575465202332 327.902019023895 2490.9999370575 176 176 178
-500.198841094971 328.187346458435 2493.00003051758 181 181 183
-494.206070899963 328.735917806625 2496.99997901917 186 186 188
-488.385707139969 329.416126012802 2502.00009346008 188 188 190
-481.959640979767 329.70130443573 2503.99994850159 192 192 194
-475.901067256927 330.249726772308 2507.99989700317 192 193 195
-470.380783081055 331.19323849678 2515.00010490417 199 200 202
-465.189784765244 332.400053739548 2523.9999294281 200 201 203
-460.675030946732 334.13365483284 2536.99994087219 199 200 202
-456.44611120224 336.130827665329 2552.00004577637 201 202 204
-853.606224060059 348.77622127533 2713.00005912781 193 197 196
-839.704930782318 346.096128225327 2691.99991226196 169 171 170
-825.917422771454 343.416094779968 2671.0000038147 170 172 171
-813.162982463837 341.121703386307 2653.00011634827 171 173 172
-801.720976829529 339.341670274735 2638.99993896484 171 173 172
-793.365657329559 338.847607374191 2634.99999046326 147 149 146
-784.434854984283 338.096559047699 2628.99994850159 145 147 144
-777.014672756195 337.988674640656 2628.00002098084 139 139 137
-767.255783081055 336.852103471756 2618.99995803833 138 138 136
-758.996665477753 336.35875582695 2615.00000953674 137 137 135
-749.320983886719 335.22230386734 2605.99994659424 137 137 135
-740.263342857361 334.343254566193 2598.99997711182 132 132 130
-727.857708930969 331.920385360718 2579.99992370605 153 153 151
-716.951608657837 330.140709877014 2565.99998474121 138 138 136
-707.781076431274 329.132974147797 2558.00008773804 163 163 161
-700.845122337341 329.154670238495 2558.00008773804 159 159 157
-693.36599111557 328.919112682343 2555.99999427795 163 163 161
-686.165690422058 328.81236076355 2555.0000667572 154 154 152
-678.969979286194 328.705698251724 2553.99990081787 148 148 146
-671.779096126556 328.599154949188 2552.99997329712 147 146 144
-664.853394031525 328.621387481689 2552.99997329712 146 145 143
-657.926857471466 328.643769025803 2552.99997329712 145 144 142
-651.509523391724 328.923672437668 2555.0000667572 143 142 140
-644.323706626892 328.817427158356 2553.99990081787 143 142 140
-637.142479419708 328.711241483688 2552.99997329712 144 143 141
-629.965841770172 328.605145215988 2552.00004577637 144 143 141
-623.526155948639 328.8853764534 2553.99990081787 138 137 135
-617.07478761673 329.165667295456 2555.99999427795 132 131 129
-610.6116771698 329.446017742157 2558.00008773804 127 126 124
-604.608654975891 329.984039068222 2562.00003623962 123 122 120
-598.582923412323 330.522149801254 2565.99998474121 117 118 113
-592.073500156403 330.802649259567 2568.00007820129 108 109 104
-585.324287414551 330.954402685165 2569.00000572205 106 107 102
-577.668249607086 330.590814352036 2565.99998474121 97 98 93
-569.582521915436 329.969435930252 2561.00010871887 101 101 99
-559.985280036926 328.44603061676 2549.00002479553 129 129 127
-549.367308616638 326.2779712677 2532.00006484985 136 136 134
-538.626551628113 323.980748653412 2513.99993896484 138 138 136
-529.040336608887 322.327524423599 2500.99992752075 152 152 150
-521.611869335175 321.962922811508 2497.99990653992 168 168 168
-514.404773712158 321.727097034454 2496.00005149841 181 181 181
-507.410824298859 321.619987487793 2494.99988555908 175 175 177
-501.023232936859 321.899592876434 2496.99997901917 177 177 179
-494.821697473526 322.30806350708 2500 183 183 185
-488.212198019028 322.45859503746 2500.99992752075 190 190 192
-481.403827667236 322.480082511902 2500.99992752075 192 192 194
-475.732833147049 323.275148868561 2506.99996948242 192 193 195
-470.589309930801 324.457108974457 2516.00003242493 196 197 199
-465.211182832718 325.510084629059 2523.9999294281 197 198 200
-459.606885910034 326.434075832367 2530.99989891052 199 200 202
-454.67883348465 327.873975038528 2542.00005531311 199 200 202
-840.660393238068 339.139610528946 2694.9999332428 176 178 177
-827.174067497253 336.642384529114 2674.99995231628 170 172 171
-813.795924186707 334.145128726959 2654.99997138977 175 177 176
-802.348732948303 332.403033971787 2641.00003242493 172 174 173
-792.783737182617 331.416189670563 2632.99989700317 150 152 149
-783.560216426849 330.555319786072 2625.99992752075 147 149 146
-777.035415172577 330.827564001083 2628.00002098084 138 138 136
-768.448531627655 330.218762159348 2622.99990653992 137 137 135
-760.178744792938 329.736083745956 2618.99995803833 136 136 134
-750.492334365845 328.623920679092 2609.99989509583 137 137 135
-741.708815097809 327.88959145546 2604.00009155273 133 133 131
-730.418145656586 326.021999120712 2588.99998664856 151 151 149
-718.928813934326 324.028372764587 2572.99995422363 138 138 136
-709.18595790863 322.790324687958 2562.99996376038 162 162 160
-701.962649822235 322.685807943344 2562.00003623962 158 158 156
-693.930268287659 322.203546762466 2558.00008773804 163 163 161
-686.724662780762 322.09923863411 2556.99992179871 155 155 153
-678.992033004761 321.743071079254 2553.99990081787 149 149 147
-672.590613365173 322.016894817352 2555.99999427795 148 147 145
-665.396451950073 321.912884712219 2555.0000667572 146 145 143
-658.979952335358 322.186887264252 2556.99992179871 145 144 142
-652.551829814911 322.461038827896 2559.00001525879 146 145 143
-645.102918148041 322.231262922287 2556.99992179871 146 145 143
-637.664139270782 322.001516819 2555.0000667572 143 142 140
-630.482017993927 321.897774934769 2553.99990081787 144 143 141
-624.769449234009 322.550386190414 2559.00001525879 144 143 141
-618.546009063721 322.950959205627 2562.00003623962 140 139 137
-612.305223941803 323.35165143013 2565.00005722046 134 133 131
-605.811238288879 323.626339435577 2566.99991226196 126 125 123
-599.538803100586 324.02715086937 2569.9999332428 122 123 118
-593.71018409729 324.680209159851 2575.00004768372 112 113 108
-586.486279964447 324.576705694199 2573.99988174438 111 112 107
-579.717099666595 324.725449085236 2575.00004768372 100 101 96
-571.829319000244 324.243575334549 2571.00009918213 100 100 98
-563.303172588348 323.383212089539 2563.99989128113 116 116 114
-551.342368125916 320.504575967789 2540.99988937378 131 131 129
-539.719998836517 317.75164604187 2519.00005340576 141 141 139
-529.48534488678 315.755158662796 2503.00002098084 136 136 134
-522.051334381104 315.398395061493 2500 179 179 179
-515.044808387756 315.293878316879 2499.00007247925 172 172 172
-508.44943523407 315.441608428955 2500 175 175 177
-501.245498657227 315.210670232773 2497.99990653992 182 182 184
-494.447231292725 315.232008695602 2497.99990653992 189 189 191
-487.452745437622 315.127074718475 2496.99997901917 198 198 200
-481.040120124817 315.400630235672 2499.00007247925 198 198 200
-475.374579429626 316.179007291794 2505.00011444092 196 197 199
-469.862252473831 317.083537578583 2512.00008392334 193 194 196
-464.310705661774 317.988097667694 2519.00005340576 193 194 196
-458.719909191132 318.892598152161 2526.00002288818 202 203 205
-454.342007637024 320.68082690239 2539.99996185303 196 197 199
-837.5603556633 330.56578040123 2684.99994277954 185 187 186
-826.265871524811 328.984588384628 2671.99993133545 171 173 172
-814.735114574432 327.280342578888 2657.99999237061 178 180 179
-803.583920001984 325.699299573898 2644.99998092651 169 171 170
-793.707072734833 324.610829353333 2635.99991798401 155 157 154
-783.878922462463 323.522567749023 2627.00009346008 145 147 144
-777.351498603821 323.789030313492 2628.99994850159 138 138 136
-769.055187702179 323.316812515259 2625 136 136 134
-760.489702224731 322.721511125565 2619.99988555908 135 135 133
-750.513255596161 321.510434150696 2609.99989509583 137 137 135
-741.729855537415 320.792198181152 2604.00009155273 132 132 130
-731.285691261292 319.334775209427 2592.00000762939 149 149 147
-720.347225666046 317.6309466362 2578.00006866455 139 139 137
-710.314095020294 316.29666686058 2566.99991226196 162 162 160
-702.53199338913 315.948098897934 2563.99989128113 157 157 155
-695.308089256287 315.846145153046 2562.99996376038 163 163 161
-687.820494174957 315.621048212051 2561.00010871887 155 155 153
-680.077135562897 315.272808074951 2558.00008773804 148 148 146
-672.612428665161 315.047830343246 2555.99999427795 146 145 143
-665.418326854706 314.946234226227 2555.0000667572 149 148 146
-658.486485481262 314.967930316925 2555.0000667572 147 146 144
-652.318894863129 315.359592437744 2558.00008773804 142 141 139
-645.629644393921 315.504789352417 2559.00001525879 144 143 141
-638.684570789337 315.526723861694 2559.00001525879 141 140 138
-631.491780281067 315.425455570221 2558.00008773804 142 141 139
-625.2800822258 315.817505121231 2561.00010871887 142 141 139
-619.051158428192 316.209524869919 2563.99989128113 139 138 136
-612.566292285919 316.478371620178 2565.99998474121 133 132 130
-606.305718421936 316.870629787445 2569.00000572205 123 122 120
-600.261092185974 317.386239767075 2572.99995422363 116 117 112
-594.424366950989 318.025350570679 2578.00006866455 113 114 109
-587.420165538788 318.047642707825 2578.00006866455 108 109 104
-580.640077590942 318.193316459656 2578.9999961853 105 106 101
-573.186218738556 317.968785762787 2576.99990272522 104 104 102
-565.083086490631 317.374050617218 2572.00002670288 107 107 105
-553.751349449158 314.928114414215 2552.00004577637 132 132 130
-541.455924510956 311.864703893662 2526.99995040894 134 134 132
-530.564665794373 309.541344642639 2507.99989700317 145 145 143
-522.699356079102 308.945626020432 2503.00002098084 168 168 168
-515.066206455231 308.473169803619 2499.00007247925 174 174 174
-508.674085140228 308.741271495819 2500.99992752075 174 174 176
-501.266717910767 308.392018079758 2497.99990653992 189 189 191
-494.468361139297 308.412998914719 2497.99990653992 194 194 196
-487.66902089119 308.433949947357 2497.99990653992 198 198 200
-480.868548154831 308.454751968384 2497.99990653992 197 197 199
-475.015819072723 309.092849493027 2503.00002098084 199 200 202
-469.13480758667 309.73094701767 2507.99989700317 195 196 198
-463.962733745575 310.863018035889 2516.99995994568 194 195 197
-458.558946847916 311.871618032455 2525.00009536743 203 204 206
-454.004883766174 313.49778175354 2538.00010681152 196 197 199
-838.827311992645 323.731511831284 2688.99989128113 198 200 199
-826.903641223907 321.944713592529 2674.00002479553 176 178 177
-816.287279129028 320.639580488205 2663.00010681152 181 183 182
-805.730164051056 319.33456659317 2651.99995040894 140 142 141
-795.533537864685 318.150013685226 2641.99995994568 166 168 165
-785.390853881836 316.96555018425 2631.99996948242 138 140 137
-776.780307292938 316.383332014084 2627.00009346008 138 138 136
-768.489539623261 315.921634435654 2622.99990653992 136 136 134
-759.929776191711 315.339714288712 2618.00003051758 135 135 133
-750.821471214294 314.516961574554 2611.00006103516 137 137 135
-742.320358753204 313.935220241547 2605.99994659424 131 131 129
-732.717096805573 312.871605157852 2596.99988365173 145 145 143
-722.044587135315 311.326146125793 2584.00011062622 137 137 135
-711.995303630829 310.021579265594 2572.99995422363 159 159 157
-703.375101089478 309.319496154785 2566.99991226196 155 155 153
-696.414470672607 309.340447187424 2566.99991226196 164 164 162
-689.184606075287 309.241026639938 2565.99998474121 158 158 156
-681.69367313385 309.021174907684 2563.99989128113 152 152 150
-673.423290252686 308.439821004868 2559.00001525879 146 145 143
-665.700137615204 308.099508285522 2555.99999427795 150 149 147
-658.76579284668 308.120906352997 2555.99999427795 150 149 147
-652.85062789917 308.624595403671 2559.99994277954 145 144 142
-646.156013011932 308.766752481461 2561.00010871887 143 142 140
-639.205574989319 308.788388967514 2561.00010871887 147 146 144
-632.254242897034 308.810085058212 2561.00010871887 146 145 143
-626.278579235077 309.314131736755 2565.00005722046 144 143 141
-619.79740858078 309.577107429504 2566.99991226196 140 139 137
-613.304555416107 309.840202331543 2569.00000572205 134 133 131
-606.799781322479 310.103297233582 2571.00009918213 121 120 118
-601.216375827789 310.848921537399 2576.99990272522 117 118 113
-595.138251781464 311.353445053101 2581.00008964539 116 117 112
-588.353753089905 311.496049165726 2582.00001716614 115 116 111
-581.337630748749 311.517983675003 2582.00001716614 116 117 112
-573.875606060028 311.298608779907 2579.99992370605 114 114 112
-565.764248371124 310.717165470123 2575.00004768372 106 106 104
-554.424047470093 308.325439691544 2555.0000667572 136 136 134
-542.120218276978 305.329918861389 2529.99997138977 145 145 143
-531.009078025818 302.937418222427 2509.99999046326 174 174 172
-522.720456123352 302.113592624664 2503.00002098084 179 179 179
-514.881134033203 301.530987024307 2497.99990653992 184 184 184
-507.88152217865 301.431149244308 2496.99997901917 190 190 192
-500.284254550934 300.96897482872 2493.00003051758 198 198 200
-493.895351886749 301.231056451797 2494.99988555908 198 198 200
-487.299263477325 301.372349262238 2496.00005149841 202 202 204
-480.696588754654 301.513522863388 2496.99997901917 201 201 203
-474.656760692596 302.016884088516 2500.99992752075 195 196 198
-468.21990609169 302.278637886047 2503.00002098084 195 196 198
-463.245719671249 303.506523370743 2513.00001144409 194 195 197
-457.852751016617 304.492861032486 2520.99990844727 201 202 204
-453.846156597137 306.445509195328 2536.99994087219 199 200 202
-844.773411750793 318.640053272247 2707.99994468689 202 204 203
-828.778266906738 315.364211797714 2680.0000667572 173 175 174
-816.306471824646 313.382714986801 2663.00010681152 182 184 183
-805.141925811768 311.872005462646 2650.00009536743 141 143 142
-795.553088188171 310.949772596359 2641.99995994568 170 172 169
-786.604106426239 310.263067483902 2635.99991798401 136 138 135
-777.687311172485 309.576541185379 2630.00011444092 138 138 136
-769.681632518768 309.243261814117 2627.00009346008 137 137 135
-760.240197181702 308.321446180344 2618.99995803833 135 135 133
-751.129329204559 307.517468929291 2611.99998855591 138 138 136
-742.055892944336 306.713551282883 2605.00001907349 131 131 129
-731.891334056854 305.438697338104 2594.00010108948 144 144 142
-722.065150737762 304.28159236908 2584.00011062622 135 135 133
-712.569415569305 303.242206573486 2575.00004768372 157 157 155
-704.217851161957 302.673935890198 2569.9999332428 155 155 153
-697.249233722687 302.694588899612 2569.9999332428 164 164 162
-689.742803573608 302.479803562164 2568.00007820129 160 160 158
-682.512283325195 302.382856607437 2566.99991226196 154 154 152
-674.233913421631 301.814794540405 2562.00003623962 145 144 142
-666.242361068726 301.364600658417 2558.00008773804 149 148 146
-659.560203552246 301.503449678421 2559.00001525879 152 151 149
-652.871966362 301.642417907715 2559.99994277954 152 151 149
-646.934390068054 302.134990692139 2563.99989128113 149 148 146
-639.476656913757 301.920622587204 2562.00003623962 146 145 143
-633.016347885132 302.177637815475 2563.99989128113 145 144 142
-626.30021572113 302.316904067993 2565.00005722046 141 140 138
-620.060622692108 302.691966295242 2568.00007820129 138 137 135
-613.326191902161 302.831321954727 2569.00000572205 132 131 129
-607.057511806488 303.206503391266 2572.00002670288 118 117 115
-601.238131523132 303.817480802536 2576.99990272522 122 122 120
-594.929456710815 304.192781448364 2579.99992370605 114 115 110
-588.831305503845 304.686039686203 2584.00011062622 118 119 114
-582.485198974609 305.061399936676 2586.99989318848 115 116 111
-575.899302959442 305.318892002106 2588.99998664856 108 108 106
-567.10422039032 304.396957159042 2581.00008964539 102 102 100
-554.879486560822 301.587730646133 2556.99992179871 142 142 140
-541.284203529358 297.952383756638 2526.00002288818 172 172 170
-530.395269393921 295.732021331787 2506.99996948242 173 173 171
-522.323608398438 295.044898986816 2500.99992752075 192 192 192
-514.077305793762 294.239610433578 2493.99995803833 193 193 193
-506.885170936584 294.024109840393 2492.00010299683 193 193 195
-499.702632427216 293.808400630951 2490.00000953674 193 193 195
-493.717819452286 294.300705194473 2493.99995803833 191 191 193
-487.710028886795 294.792890548706 2497.99990653992 198 198 200
-480.909287929535 294.812977313995 2497.99990653992 198 198 200
-474.297314882278 294.951021671295 2499.00007247925 192 193 195
-468.052834272385 295.324981212616 2502.00009346008 194 195 197
-462.712675333023 296.28911614418 2509.99999046326 193 194 196
-457.509398460388 297.3712682724 2519.00005340576 200 201 203
-452.79261469841 298.807561397552 2530.99989891052 201 202 204
-829.415559768677 308.290749788284 2681.99992179871 190 194 195
-817.551612854004 306.585222482681 2667.00005531311 179 183 182
-806.376397609711 305.109649896622 2654.00004386902 144 146 145
-796.475768089294 304.094046354294 2644.99998092651 159 161 160
-787.817299365997 303.538411855698 2640.00010490417 150 152 151
-778.593957424164 302.752912044525 2632.99989700317 142 144 143
-770.287394523621 302.312523126602 2628.99994850159 135 135 133
-760.550379753113 301.297217607498 2619.99988555908 135 135 133
-751.724600791931 300.627022981644 2614.00008201599 136 136 134
-742.07603931427 299.611836671829 2605.00001907349 134 134 132
-732.475757598877 298.59670996666 2595.99995613098 138 138 136
-721.526563167572 297.00642824173 2582.00001716614 136 136 134
-712.312936782837 296.106278896332 2573.99988174438 149 149 147
-704.512357711792 295.781403779984 2571.00009918213 152 152 150
-696.998536586761 295.571625232697 2569.00000572205 157 157 155
-689.494848251343 295.361906290054 2566.99991226196 163 163 161
-682.267248630524 295.267373323441 2565.99998474121 166 166 164
-674.781084060669 295.05780339241 2563.99989128113 158 156 157
-667.044520378113 294.733256101608 2561.00010871887 154 152 153
-660.612165927887 294.984132051468 2562.99996376038 156 154 155
-653.913080692291 295.120030641556 2563.99989128113 152 150 151
-647.712409496307 295.486271381378 2566.99991226196 144 142 143
-639.997005462646 295.161873102188 2563.99989128113 134 132 133
-633.531332015991 295.413106679916 2565.99998474121 133 131 132
-627.054035663605 295.664429664612 2568.00007820129 132 130 131
-620.564758777618 295.91578245163 2569.9999332428 130 128 129
-614.063739776611 296.167224645615 2572.00002670288 126 124 125
-607.314884662628 296.303510665894 2572.99995422363 129 127 128
-601.492881774902 296.900540590286 2578.00006866455 127 126 124
-595.412075519562 297.382444143295 2582.00001716614 122 121 119
-589.764297008514 298.094809055328 2588.00005912781 118 117 115
-583.857655525208 298.691987991333 2592.99993515015 112 111 109
-577.255427837372 298.943668603897 2595.00002861023 103 102 100
-568.004429340363 297.812849283218 2585.00003814697 100 99 97
-554.900527000427 294.607907533646 2556.99992179871 152 152 152
-540.662169456482 290.711164474487 2523.00000190735 163 163 163
-529.992699623108 288.657486438751 2505.00011444092 158 158 158
-521.717429161072 287.871062755585 2497.99990653992 156 156 156
-514.097630977631 287.430286407471 2493.99995803833 175 175 175
-506.905317306519 287.219852209091 2492.00010299683 175 177 176
-499.923408031464 287.124544382095 2490.9999370575 172 174 173
-493.737787008286 287.490248680115 2493.99995803833 186 188 187
-487.534761428833 287.855923175812 2496.99997901917 195 197 196
-481.121748685837 288.106232881546 2499.00007247925 188 190 189
-474.696666002274 288.356453180313 2500.99992752075 184 186 185
-468.446671962738 288.721889257431 2503.99994850159 191 193 192
-462.732225656509 289.433151483536 2509.99999046326 197 199 198
-457.347244024277 290.375053882599 2517.99988746643 195 197 196
-452.454268932343 291.662931442261 2529.00004386902 199 201 200
-830.67125082016 301.430404186249 2686.00010871887 193 197 198
-818.796455860138 299.765467643738 2671.0000038147 179 183 182
-807.002902030945 298.100620508194 2655.99989891052 145 147 146
-797.398149967194 297.221451997757 2648.00000190735 161 163 162
-788.433194160461 296.566873788834 2641.99995994568 151 153 152
-780.091881752014 296.136945486069 2638.00001144409 142 144 143
-772.064864635468 295.819461345673 2634.99999046326 135 135 133
-762.31175661087 294.828414916992 2625.99992752075 134 134 132
-752.3193359375 293.7251329422 2615.9999370575 134 134 132
-743.235409259796 292.958796024323 2608.99996757507 132 132 130
-733.906507492065 292.080163955688 2601.0000705719 136 136 134
-722.943723201752 290.527731180191 2586.99989318848 139 139 137
-712.332963943481 289.087563753128 2573.99988174438 146 146 144
-704.532384872437 288.770496845245 2571.00009918213 156 156 154
-697.018682956696 288.565814495087 2569.00000572205 158 158 156
-689.515113830566 288.361221551895 2566.99991226196 156 156 154
-681.755781173706 288.044333457947 2563.99989128113 168 168 166
-675.06468296051 288.17692399025 2565.00005722046 161 159 160
-667.585968971252 287.972509860992 2562.99996376038 152 150 151
-661.921620368958 288.554757833481 2568.00007820129 157 155 156
-654.954016208649 288.575202226639 2568.00007820129 169 167 168
-648.237943649292 288.70815038681 2569.00000572205 172 170 171
-640.517055988312 288.391590118408 2565.99998474121 172 170 171
-634.292960166931 288.749396800995 2569.00000572205 175 173 174
-628.05163860321 289.107322692871 2572.00002670288 179 177 178
-621.310114860535 289.240449666977 2572.99995422363 170 168 169
-614.800989627838 289.486080408096 2575.00004768372 154 152 153
-608.280062675476 289.731711149216 2576.99990272522 134 132 133
-602.447152137756 290.314704179764 2582.00001716614 130 129 127
-596.586167812347 290.897786617279 2586.99989318848 118 117 115
-591.152727603912 291.705876588821 2594.00010108948 110 109 107
-584.779381752014 292.064160108566 2596.99988365173 105 104 102
-578.388750553131 292.422503232956 2599.99990463257 103 102 100
-569.124102592468 291.318595409393 2589.99991416931 103 102 100
-555.789351463318 288.077294826508 2561.00010871887 155 155 155
-540.896773338318 283.935517072678 2523.9999294281 153 153 153
-529.801249504089 281.705588102341 2503.99994850159 143 143 143
-522.36407995224 281.388014554977 2500.99992752075 153 153 153
-514.735996723175 280.957758426666 2496.99997901917 150 150 150
-507.738828659058 280.864983797073 2496.00005149841 150 152 151
-500.54532289505 280.659526586533 2493.99995803833 168 170 169
-494.153439998627 280.904144048691 2496.00005149841 182 184 183
-488.140106201172 281.373798847198 2500 176 178 177
-481.526255607605 281.505733728409 2500.99992752075 174 176 175
-474.905878305435 281.637579202652 2502.00009346008 189 191 190
-469.02722120285 282.219618558884 2506.99996948242 191 193 192
-463.488876819611 283.026725053787 2513.99993896484 195 197 196
-458.093017339706 283.946484327316 2522.0000743866 195 197 196
-452.652335166931 284.866154193878 2529.99997138977 192 194 193
-447.871714830399 286.236256361008 2542.00005531311 199 201 200
-831.30806684494 294.328808784485 2687.99996376038 195 199 200
-818.508327007294 292.375952005386 2670.00007629395 178 182 181
-808.236837387085 291.299223899841 2660.00008583069 152 154 153
-798.621416091919 290.441572666168 2651.99995040894 163 165 164
-789.048910140991 289.584040641785 2644.00005340576 149 151 150
-780.110895633698 288.945615291595 2638.00001144409 141 143 142
-772.08399772644 288.635969161987 2634.99999046326 137 137 135
-763.201951980591 287.997752428055 2628.99994850159 134 134 132
-753.489136695862 287.031024694443 2619.99988555908 134 134 132
-744.394302368164 286.283403635025 2612.99991607666 133 133 131
-736.18346452713 285.864531993866 2608.99996757507 135 135 133
-724.360644817352 284.021288156509 2592.00000762939 139 139 137
-712.906122207642 282.28747844696 2575.99997520447 149 149 147
-703.730046749115 281.430304050446 2568.00007820129 152 152 150
-696.767210960388 281.449884176254 2568.00007820129 154 154 152
-690.609574317932 281.798422336578 2571.00009918213 145 145 143
-683.371126651764 281.708598136902 2569.9999332428 144 144 142
-676.137506961823 281.618893146515 2569.00000572205 154 152 153
-668.648064136505 281.419605016708 2566.99991226196 147 145 146
-662.457346916199 281.768530607224 2569.9999332428 144 142 143
-656.249642372131 282.117605209351 2572.99995422363 132 130 131
-649.015307426453 282.028168439865 2572.00002670288 131 129 130
-641.286313533783 281.719416379929 2569.00000572205 134 132 133
-634.807229042053 281.959056854248 2571.00009918213 133 131 132
-628.316342830658 282.198697328568 2572.99995422363 135 133 134
-622.055113315582 282.548129558563 2575.99997520447 146 144 145
-615.776658058167 282.897561788559 2578.9999961853 145 143 144
-609.244883060455 283.137440681458 2581.00008964539 138 136 137
-603.401124477386 283.706396818161 2585.99996566772 123 122 120
-597.068071365356 284.056037664413 2588.99998664856 112 111 109
-591.173410415649 284.625172615051 2594.00010108948 107 106 104
-584.800124168396 284.974873065948 2596.99988365173 104 103 101
-577.964544296265 285.105168819427 2598.00004959106 106 105 103
-569.144666194916 284.247636795044 2589.99991416931 107 106 104
-556.67781829834 281.524151563644 2565.00005722046 118 118 118
-542.416930198669 277.812272310257 2530.99989891052 156 156 156
-530.667364597321 275.307357311249 2507.99989700317 146 146 146
-522.383749485016 274.558454751968 2500.99992752075 164 164 164
-514.961719512939 274.248570203781 2497.99990653992 154 154 154
-507.961750030518 274.158120155334 2496.99997901917 167 169 168
-500.966131687164 274.067610502243 2496.00005149841 207 209 208
-494.172751903534 274.086743593216 2496.00005149841 205 207 206
-487.378299236298 274.105846881866 2496.00005149841 175 177 176
-480.775266885757 274.234622716904 2496.99997901917 183 185 184
-474.165588617325 274.363309144974 2497.99990653992 206 208 207
-468.671977519989 275.150984525681 2505.00011444092 199 201 200
-463.507771492004 276.158303022385 2513.99993896484 195 197 196
-458.475053310394 277.27547287941 2523.9999294281 194 196 195
-453.207790851593 278.282821178436 2532.99999237061 191 193 192
-448.242753744125 279.509902000427 2543.99991035461 201 203 202
-817.300140857697 284.671127796173 2665.99988937378 178 182 181
-807.951152324677 283.941656351089 2658.99991989136 156 158 157
-798.94095659256 283.319085836411 2653.00011634827 162 164 163
-789.664268493652 282.589793205261 2645.99990844727 145 147 146
-780.721008777618 281.967431306839 2640.00010490417 141 143 142
-772.688925266266 281.665623188019 2637.00008392334 139 139 137
-764.091849327087 281.150251626968 2631.99996948242 134 134 132
-754.083395004272 280.100882053375 2621.99997901917 135 135 133
-745.553076267242 279.585719108582 2617.00010299683 133 133 131
-737.049341201782 279.07058596611 2611.99998855591 135 135 133
-726.056814193726 277.593910694122 2598.00004959106 135 135 133
-714.032411575317 275.689661502838 2579.99992370605 150 150 148
-704.023420810699 274.53339099884 2569.00000572205 149 149 147
-697.058022022247 274.55261349678 2569.00000572205 153 153 151
-691.434919834137 275.106340646744 2573.99988174438 150 150 148
-684.454441070557 275.125801563263 2573.99988174438 143 143 141
-676.946938037872 274.931579828262 2572.00002670288 140 138 139
-669.188857078552 274.630486965179 2569.00000572205 141 139 140
-662.735104560852 274.863988161087 2571.00009918213 145 143 144
-656.779766082764 275.311410427094 2575.00004768372 150 148 149
-649.287641048431 275.117367506027 2572.99995422363 156 154 155
-642.05527305603 275.03028512001 2572.00002670288 163 161 162
-634.827315807343 274.943262338638 2571.00009918213 169 167 168
-628.580689430237 275.283992290497 2573.99988174438 174 172 173
-622.799754142761 275.838762521744 2578.9999961853 157 155 156
-616.513192653656 276.179671287537 2582.00001716614 140 138 139
-610.209405422211 276.520639657974 2585.00003814697 108 107 105
-603.888154029846 276.861667633057 2588.00005912781 113 112 110
-597.780287265778 277.309715747833 2592.00000762939 115 114 112
-591.421663761139 277.65080332756 2595.00002861023 117 116 114
-584.595263004303 277.777910232544 2595.99995613098 117 116 114
-577.984869480133 278.012067079544 2598.00004959106 115 114 112
-570.263683795929 277.711063623428 2595.00002861023 114 113 111
-559.3022108078 275.80463886261 2576.99990272522 109 109 107
-545.222699642181 272.292345762253 2543.99991035461 117 117 117
-531.744778156281 268.993616104126 2513.00001144409 213 213 213
-522.403061389923 267.728239297867 2500.99992752075 204 204 204
-514.568626880646 267.21203327179 2496.00005149841 216 216 216
-507.573962211609 267.123878002167 2494.99988555908 212 214 213
-500.583708286285 267.035692930222 2493.99995803833 183 185 184
-493.993699550629 267.161548137665 2494.99988555908 172 174 173
-487.397164106369 267.287343740463 2496.00005149841 203 205 204
-480.793982744217 267.41299033165 2496.99997901917 216 218 217
-474.374085664749 267.645686864853 2499.00007247925 201 203 202
-468.503445386887 268.199622631073 2503.99994850159 194 196 195
-462.973147630692 268.967717885971 2510.99991798401 188 190 189
-457.948565483093 270.057171583176 2520.99990844727 195 197 196
-453.047305345535 271.253824234009 2532.00006484985 197 199 198
-448.43727350235 272.664725780487 2545.00007629395 193 195 194
-816.091597080231 276.987671852112 2661.99994087219 184 188 187
-807.665228843689 276.589095592499 2657.99999237061 168 170 169
-798.356592655182 275.878459215164 2651.00002288818 165 167 166
-789.384067058563 275.271981954575 2644.99998092651 144 146 145
-780.147910118103 274.561554193497 2638.00001144409 145 147 146
-772.414326667786 274.37162399292 2635.99991798401 140 140 138
-763.820171356201 273.869574069977 2631.00004196167 134 134 132
-754.9649477005 273.263484239578 2625 134 134 132
-745.571970939636 272.449284791946 2617.00010299683 133 133 131
-737.350344657898 272.051483392715 2612.99991607666 134 134 132
-726.634621620178 270.716726779938 2599.99990463257 135 135 133
-715.435266494751 269.173681735992 2585.00003814697 150 150 148
-705.138623714447 267.942875623703 2572.99995422363 149 149 147
-697.891116142273 267.857640981674 2572.00002670288 152 152 150
-691.722869873047 268.189072608948 2575.00004768372 153 153 151
-685.005664825439 268.312305212021 2575.99997520447 150 150 148
-677.492618560791 268.123149871826 2573.99988174438 148 146 147
-669.729292392731 267.829895019531 2571.00009918213 142 140 141
-663.012325763702 267.953336238861 2572.00002670288 147 145 146
-657.309353351593 268.493622541428 2576.99990272522 159 157 158
-649.811983108521 268.304705619812 2575.00004768372 164 162 163
-642.574191093445 268.219947814941 2573.99988174438 168 166 167
-635.093986988068 268.031060695648 2572.00002670288 166 164 165
-629.088878631592 268.467456102371 2575.99997520447 156 154 155
-623.061120510101 268.903940916061 2579.99992370605 129 127 128
-616.533100605011 269.132047891617 2582.00001716614 123 121 122
-610.229253768921 269.464403390884 2585.00003814697 116 115 113
-603.908121585846 269.796848297119 2588.00005912781 120 119 117
-597.800195217133 270.233541727066 2592.00000762939 121 120 116
-591.213643550873 270.461767911911 2594.00010108948 120 119 115
-584.615170955658 270.689994096756 2595.99995613098 118 117 113
-578.004777431488 270.918250083923 2598.00004959106 112 111 109
-571.382284164429 271.146446466446 2599.99990463257 110 109 107
-562.360525131226 270.227491855621 2591.00008010864 105 105 103
-549.314200878143 267.326503992081 2562.99996376038 95 95 93
-533.668279647827 263.069093227386 2522.0000743866 177 177 177
-522.421956062317 260.897308588028 2500.99992752075 206 206 206
-514.175057411194 260.185718536377 2493.99995803833 211 211 211
-507.38924741745 260.204255580902 2493.99995803833 200 202 201
-500.802993774414 260.327041149139 2494.99988555908 193 195 194
-494.408249855042 260.554105043411 2496.99997901917 205 207 206
-487.806111574173 260.676741600037 2497.99990653992 224 226 225
-481.197446584702 260.799318552017 2499.00007247925 219 221 220
-474.58216547966 260.921806097031 2500 197 199 198
-468.147426843643 261.148571968079 2502.00009346008 196 198 197
-462.438136339188 261.792808771133 2507.99989700317 192 194 193
-457.239955663681 262.750118970871 2516.99995994568 194 196 195
-452.170550823212 263.811856508255 2526.99995040894 198 200 199
-447.574108839035 265.186786651611 2539.99996185303 195 197 196
-819.174766540527 270.744204521179 2671.99993133545 193 197 196
-808.594405651093 269.646912813187 2661.00001335144 167 169 168
-798.37429523468 268.650978803635 2651.00002288818 162 164 163
-789.401948451996 268.06053519249 2644.99998092651 141 143 142
-780.757367610931 267.571538686752 2640.00010490417 145 147 146
-773.018538951874 267.386704683304 2638.00001144409 141 141 139
-764.709413051605 266.999304294586 2634.0000629425 134 134 132
-756.133735179901 266.51057600975 2628.99994850159 132 132 130
-747.584760189056 266.021996736526 2624.00007247925 135 135 133
-739.062130451202 265.533417463303 2618.99995803833 135 135 133
-727.771162986755 264.030992984772 2604.00009155273 137 137 135
-715.453922748566 262.122869491577 2585.00003814697 147 147 145
-705.431282520294 261.025816202164 2573.99988174438 151 151 149
-698.181211948395 260.942935943604 2572.99995422363 160 160 158
-691.204428672791 260.961532592773 2572.99995422363 160 160 158
-684.492826461792 261.081635951996 2573.99988174438 162 162 160
-677.511632442474 261.100381612778 2573.99988174438 160 158 159
-670.269310474396 261.017799377441 2572.99995422363 164 162 163
-663.546979427338 261.138141155243 2573.99988174438 160 158 159
-657.073616981506 261.360049247742 2575.99997520447 143 141 142
-649.831295013428 261.277616024017 2575.00004768372 137 135 136
-642.593502998352 261.195212602615 2573.99988174438 129 127 128
-635.854065418243 261.315792798996 2575.00004768372 132 130 131
-629.840850830078 261.740833520889 2578.9999961853 141 139 140
-623.804986476898 262.166023254395 2582.99994468689 169 167 168
-617.746412754059 262.591272592545 2586.99989318848 171 169 170
-611.192941665649 262.813568115234 2588.99998664856 141 140 138
-604.394197463989 262.934356927872 2589.99991416931 124 123 121
-597.589075565338 263.055175542831 2591.00008010864 114 113 109
-591.46112203598 263.480573892593 2595.00002861023 111 110 106
-585.310339927673 263.906031847 2598.99997711182 111 110 106
-578.914165496826 264.229983091354 2601.99999809265 113 112 108
-572.280883789063 264.452338218689 2604.00009155273 111 110 106
-564.116179943085 263.963758945465 2598.99997711182 108 108 106
-552.548289299011 261.849939823151 2578.00006866455 114 114 112
-536.226332187653 257.399439811707 2533.99991989136 137 137 135
-523.693799972534 254.675209522247 2506.99996948242 144 144 142
-514.605820178986 253.576010465622 2496.00005149841 148 148 146
-507.610976696014 253.492504358292 2494.99988555908 154 156 155
-501.423418521881 253.815412521362 2497.99990653992 168 170 169
-495.218396186829 254.138261079788 2500.99992752075 166 168 167
-488.995879888535 254.461050033569 2503.99994850159 146 148 147
-481.985658407211 254.377275705338 2503.00002098084 132 134 133
-475.169569253922 254.395008087158 2503.00002098084 147 149 148
-468.352317810059 254.412680864334 2503.00002098084 188 190 189
-462.455809116364 254.938453435898 2507.99989700317 220 222 221
-457.075953483582 255.769103765488 2516.00003242493 201 203 202
-451.830297708511 256.701499223709 2525.00009536743 195 197 196
-447.062969207764 257.938832044601 2536.99994087219 194 196 195
-821.644604206085 264.248579740524 2680.0000667572 196 200 199
-808.003783226013 262.194871902466 2658.99991989136 172 174 173
-797.488212585449 261.127263307571 2648.00000190735 166 168 167
-789.121031761169 260.750025510788 2644.00005340576 141 143 142
-781.07076883316 260.471522808075 2641.00003242493 145 147 146
-773.915469646454 260.489046573639 2641.00003242493 142 142 140
-765.30796289444 260.013550519943 2635.99991798401 134 134 132
-757.87752866745 259.932726621628 2634.99999046326 132 132 130
-749.02731180191 259.358733892441 2628.99994850159 135 135 133
-741.055727005005 259.080767631531 2625.99992752075 135 135 133
-729.745924472809 257.618933916092 2611.00006103516 136 136 134
-717.132806777954 255.663633346558 2591.00008010864 145 145 143
-706.819891929626 254.497557878494 2578.9999961853 148 148 146
-699.013531208038 254.219621419907 2575.99997520447 161 161 159
-692.028820514679 254.237860441208 2575.99997520447 169 169 167
-685.309112071991 254.35483455658 2576.99990272522 187 187 185
-677.530288696289 254.077106714249 2573.99988174438 190 188 189
-670.809030532837 254.194289445877 2575.00004768372 188 186 187
-664.339184761047 254.410207271576 2576.99990272522 185 183 184
-657.602488994598 254.527509212494 2578.00006866455 182 180 181
-650.607287883759 254.546135663986 2578.00006866455 183 181 182
-643.611013889313 254.564821720123 2578.00006866455 186 184 185
-637.601554393768 254.978537559509 2582.00001716614 184 182 183
-631.569385528564 255.39231300354 2585.99996566772 180 178 179
-624.548554420471 255.411118268967 2585.99996566772 168 166 167
-618.004322052002 255.627512931824 2588.00005912781 156 154 155
-611.212015151978 255.745142698288 2588.99998664856 120 119 117
-604.646623134613 255.961567163467 2591.00008010864 120 119 115
-597.377479076386 255.881637334824 2589.99991416931 117 116 112
-591.252267360687 256.295710802078 2594.00010108948 115 114 110
-585.329413414001 256.808578968048 2598.99997711182 113 112 108
-579.155683517456 257.222682237625 2602.9999256134 110 109 105
-572.299957275391 257.340401411057 2604.00009155273 109 108 104
-565.220475196838 257.359206676483 2604.00009155273 114 114 112
-555.139124393463 255.994200706482 2589.99991416931 118 118 116
-539.630711078644 252.058982849121 2549.99995231628 132 132 130
-525.592029094696 248.716190457344 2516.00003242493 141 141 139
-515.44851064682 247.152373194695 2500 146 146 144
-508.44269990921 247.071266174316 2499.00007247925 154 156 155
-502.244234085083 247.385576367378 2502.00009346008 156 158 157
-496.424287557602 247.897610068321 2506.99996948242 152 154 153
-489.794760942459 248.014077544212 2507.99989700317 143 145 144
-482.195824384689 247.635960578918 2503.99994850159 155 157 156
-474.997222423553 247.455522418022 2502.00009346008 178 180 179
-468.182533979416 247.472748160362 2502.00009346008 191 193 192
-462.657541036606 248.18229675293 2509.0000629425 202 204 203
-456.729829311371 248.693943023682 2513.99993896484 199 201 200
-450.952708721161 249.304488301277 2519.99998092651 197 199 198
-445.846557617188 250.310719013214 2529.99997138977 197 199 198
-823.50093126297 257.517158985138 2686.00010871887 197 201 200
-809.540092945099 255.424499511719 2664.00003433228 174 176 175
-799.312233924866 254.482418298721 2654.00004386902 167 169 168
-790.630400180817 254.019856452942 2648.9999294281 145 147 146
