ply
format ascii 1.0
comment KinectMotionCapture
element vertex 778
property float x
property float y
property float z
property uchar red
property uchar green
property uchar blue
end_header
276.61868929863 1161.88085079193 2510.99991798401 88 66 52
284.098386764526 1164.66784477234 2516.99995994568 96 70 55
290.339440107346 1162.36519813538 2512.00008392334 100 73 56
297.736555337906 1164.69037532806 2516.99995994568 101 72 56
304.91903424263 1166.09048843384 2519.99998092651 104 73 55
311.870574951172 1166.56577587128 2520.99990844727 105 74 56
311.369210481644 1139.73987102509 2463.00005912781 98 71 54
235.237061977386 1152.22883224487 2505.00011444092 126 127 121
242.891266942024 1156.37612342834 2513.99993896484 127 124 117
249.899134039879 1157.30392932892 2516.00003242493 124 120 111
255.999714136124 1154.09231185913 2509.0000629425 110 100 91
263.005197048187 1155.02083301544 2510.99991798401 102 89 80
269.914299249649 1155.48992156982 2512.00008392334 96 77 63
276.608675718308 1155.03931045532 2510.99991798401 88 66 52
283.523619174957 1155.50923347473 2512.00008392334 94 68 53
289.981842041016 1154.1393995285 2509.0000629425 98 70 56
297.015488147736 1155.07006645203 2510.99991798401 101 72 56
304.302245378494 1156.92114830017 2515.00010490417 105 74 56
311.363458633423 1157.85276889801 2516.99995994568 106 75 57
311.483055353165 1133.48388671875 2463.99998664856 99 72 53
235.605672001839 1147.24063873291 2509.0000629425 133 134 128
242.400839924812 1147.24743366241 2509.0000629425 132 132 124
249.394804239273 1148.16904067993 2510.99991798401 133 128 122
256.195724010468 1148.17667007446 2510.99991798401 125 115 106
262.996762990952 1148.18453788757 2510.99991798401 119 106 97
270.227819681168 1150.02179145813 2515.00010490417 98 79 65
277.040094137192 1150.03049373627 2515.00010490417 92 70 56
284.191101789474 1151.41117572784 2517.99988746643 93 67 52
290.549665689468 1149.59168434143 2513.99993896484 98 70 56
297.359853982925 1149.60134029388 2513.99993896484 102 73 57
304.04931306839 1149.15442466736 2513.00001144409 104 73 55
310.609847307205 1148.25069904327 2510.99991798401 106 75 57
312.73552775383 1131.3419342041 2473.99997711182 99 72 53
242.104336619377 1139.0585899353 2506.00004196167 94 95 89
249.586433172226 1142.24672317505 2513.00001144409 98 95 88
256.086319684982 1140.89000225067 2509.99999046326 97 90 82
262.989044189453 1141.3516998291 2510.99991798401 93 84 75
269.897431135178 1141.81387424469 2512.00008392334 94 78 65
277.251929044724 1144.09446716309 2516.99995994568 90 72 58
284.633725881577 1146.37541770935 2522.0000743866 90 68 54
291.464984416962 1146.38411998749 2522.0000743866 93 67 52
298.05988073349 1145.48408985138 2519.99998092651 95 67 53
304.765164852142 1145.0389623642 2519.00005340576 99 67 52
310.351967811584 1140.50328731537 2509.0000629425 103 72 54
314.241617918015 1130.05840778351 2486.00006103516 100 71 55
250.275313854218 1138.57638835907 2519.99998092651 118 121 114
256.793826818466 1137.22693920135 2516.99995994568 112 113 107
263.505756855011 1136.78169250488 2516.00003242493 110 107 100
270.857036113739 1139.04750347137 2520.99990844727 97 89 78
277.905136346817 1139.95838165283 2523.00000190735 89 79 67
284.738510847092 1139.96589183807 2523.00000190735 85 67 53
291.68763756752 1140.42556285858 2523.9999294281 86 64 50
299.115538597107 1142.69304275513 2529.00004386902 91 65 50
306.086719036102 1143.15354824066 2529.99997138977 96 64 49
312.197685241699 1140.4515504837 2523.9999294281 105 73 58
312.209188938141 1116.06121063232 2470.00002861023 93 64 50
252.653151750565 1142.50576496124 2543.99991035461 135 137 132
257.910132408142 1135.3257894516 2528.00011634827 130 132 127
264.860957860947 1135.78057289124 2529.00004386902 128 129 123
271.280199289322 1133.99040699005 2525.00009536743 120 116 105
278.338760137558 1134.89484786987 2526.99995040894 110 103 93
284.618377685547 1132.6562166214 2522.0000743866 86 70 57
291.911125183105 1134.45973396301 2526.00002288818 77 58 43
299.10746216774 1135.81454753876 2529.00004386902 79 56 42
307.28805065155 1140.76256752014 2539.99996185303 92 63 47
313.549399375916 1138.52536678314 2535.00008583069 95 66 50
314.980894327164 1119.22168731689 2492.00010299683 91 63 49
260.047256946564 1137.83180713654 2549.00002479553 133 135 130
266.112059354782 1134.26578044891 2540.99988937378 132 133 127
272.885829210281 1133.82494449615 2539.99996185303 120 116 107
280.094832181931 1135.16974449158 2542.99998283386 113 106 96
285.966008901596 1131.1582326889 2533.99991989136 103 93 81
293.059796094894 1132.05742835999 2536.00001335144 83 65 51
299.928039312363 1132.06422328949 2536.00001335144 82 59 45
307.764291763306 1135.64240932465 2543.99991035461 90 63 46
314.15981054306 1133.864402771 2539.99996185303 91 64 47
319.901913404465 1129.85444068909 2530.99989891052 89 63 46
266.52604341507 1129.13978099823 2545.00007629395 138 139 131
273.202896118164 1128.2571554184 2542.99998283386 139 136 127
281.190723180771 1132.69889354706 2552.99997329712 134 130 119
287.201553583145 1129.15480136871 2545.00007629395 133 125 114
294.324785470963 1130.04767894745 2546.99993133545 114 100 87
300.631165504456 1127.83539295197 2542.00005531311 102 84 70
308.362275362015 1130.94747066498 2549.00002479553 87 66 49
315.265715122223 1130.95414638519 2549.00002479553 90 69 50
322.422176599503 1131.84857368469 2551.00011825562 92 71 52
328.169465065002 1127.86269187927 2542.00005531311 91 72 55
277.065932750702 1137.22789287567 2578.9999961853 74 74 64
282.727837562561 1131.94060325623 2566.99991226196 78 74 63
288.663476705551 1127.97677516937 2558.00008773804 85 79 67
295.243829488754 1126.6587972641 2555.0000667572 91 79 65
301.571547985077 1124.45914745331 2549.99995231628 91 75 60
308.598130941391 1124.90558624268 2551.00011825562 93 74 57
315.506637096405 1124.91154670715 2551.00011825562 95 76 59
322.794526815414 1126.24049186707 2553.99990081787 93 76 58
328.678697347641 1122.71928787231 2546.0000038147 95 79 63
331.488311290741 1109.05611515045 2515.00010490417 108 95 78
283.054143190384 1126.28901004791 2569.9999332428 100 98 86
289.223283529282 1123.22509288788 2562.99996376038 113 109 98
295.70135474205 1121.47641181946 2559.00001525879 125 117 104
301.921337842941 1118.85130405426 2552.99997329712 124 114 102
308.834791183472 1118.85607242584 2552.99997329712 87 73 60
315.624713897705 1118.4229850769 2552.00004577637 90 77 61
322.535753250122 1118.42823028564 2552.00004577637 92 80 64
328.672379255295 1115.80443382263 2546.0000038147 87 78 61
333.854109048843 1110.1131439209 2532.99999237061 100 91 76
278.670281171799 1129.76717948914 2594.00010108948 86 88 77
283.711522817612 1121.93048000336 2575.99997520447 101 101 89
289.558172225952 1117.57850646973 2565.99998474121 117 115 103
296.044081449509 1115.83983898163 2562.00003623962 126 120 108
302.626669406891 1114.53688144684 2559.00001525879 121 113 102
309.314101934433 1113.66975307465 2556.99992179871 93 83 71
315.619856119156 1111.49644851685 2552.00004577637 90 80 68
322.404235601425 1111.06550693512 2551.00011825562 85 77 64
328.666895627975 1108.89256000519 2546.0000038147 86 78 65
335.561692714691 1108.89792442322 2546.0000038147 103 97 83
345.819354057312 1119.79222297668 2571.00009918213 112 108 96
280.708879232407 1130.95760345459 2612.99991607666 94 96 83
283.378392457962 1113.64710330963 2572.99995422363 117 117 105
289.442360401154 1110.18705368042 2565.00005722046 137 137 125
296.156406402588 1109.32409763336 2562.99996376038 156 154 142
302.50495672226 1107.16307163239 2558.00008773804 153 151 139
308.94747376442 1105.43489456177 2553.99990081787 85 77 66
315.368443727493 1103.70707511902 2549.99995231628 79 73 61
322.526276111603 1104.57670688629 2552.00004577637 82 78 66
329.436749219894 1104.58076000214 2552.00004577637 93 89 77
337.006449699402 1106.74929618835 2556.99992179871 106 102 90
344.872385263443 1109.78400707245 2563.99989128113 128 125 116
277.269393205643 1110.11242866516 2581.00008964539 94 96 82
283.706784248352 1107.96332359314 2575.99997520447 109 111 98
289.891451597214 1104.95448112488 2569.00000572205 127 129 116
296.616077423096 1104.09617424011 2566.99991226196 149 149 139
302.975237369537 1101.94790363312 2562.00003623962 151 151 141
309.307366609573 1099.7998714447 2556.99992179871 140 137 130
315.736204385757 1098.08218479156 2552.99997329712 137 134 127
323.028177022934 1099.37560558319 2555.99999427795 134 134 126
330.207407474518 1100.23927688599 2558.00008773804 132 131 126
337.924808263779 1102.82361507416 2563.99989128113 128 129 123
345.002323389053 1103.25765609741 2565.00005722046 130 131 126
357.299506664276 1120.03672122955 2604.00009155273 135 137 134
277.590483427048 1104.40230369568 2584.00011062622 96 98 84
284.476310014725 1103.97565364838 2582.99994468689 102 104 91
290.679782629013 1100.98505020142 2575.99997520447 115 117 104
297.19203710556 1099.27678108215 2572.00002670288 135 135 125
303.209692239761 1095.85916996002 2563.99989128113 139 139 131
309.667974710464 1094.15125846863 2559.99994277954 124 123 118
316.104710102081 1092.44382381439 2555.99999427795 123 122 118
323.53088259697 1094.15555000305 2559.99994277954 121 122 117
330.978840589523 1095.86775302887 2563.99989128113 120 121 116
338.712155818939 1098.43516349792 2569.9999332428 121 122 117
345.671117305756 1098.43838214874 2569.9999332428 131 133 130
352.218598127365 1097.15962409973 2566.99991226196 130 134 133
285.68708896637 1101.65166854858 2594.00010108948 108 110 97
291.694462299347 1097.82981872559 2585.00003814697 121 123 112
298.230886459351 1096.13180160522 2581.00008964539 138 139 131
304.390966892242 1093.15979480743 2573.99988174438 141 142 136
310.997068881989 1091.88675880432 2571.00009918213 123 123 121
317.33962893486 1089.76459503174 2565.99998474121 118 118 116
324.413508176804 1090.19076824188 2566.99991226196 114 116 115
331.621944904327 1091.04204177856 2569.00000572205 116 118 117
338.973164558411 1092.31817722321 2572.00002670288 117 119 118
346.340715885162 1093.59455108643 2575.00004768372 121 125 124
352.764189243317 1091.89856052399 2571.00009918213 130 134 133
286.017447710037 1095.89457511902 2596.99988365173 117 117 107
292.371273040771 1093.36245059967 2591.00008010864 125 125 117
299.039304256439 1092.09656715393 2588.00005912781 140 141 135
305.336356163025 1089.56468105316 2582.00001716614 139 140 134
311.721980571747 1087.45503425598 2576.99990272522 127 129 126
318.080604076386 1085.34586429596 2572.00002670288 124 126 123
325.044095516205 1085.34669876099 2572.00002670288 117 119 116
332.13672041893 1085.76965332031 2572.99995422363 117 119 118
339.76212143898 1087.88108825684 2578.00006866455 118 122 121
347.549110651016 1090.41452407837 2584.00011062622 122 126 125
355.094313621521 1092.10419654846 2588.00005912781 128 133 129
292.823076248169 1088.02652359009 2595.00002861023 127 128 120
299.617290496826 1087.18729019165 2592.99993515015 146 147 141
305.809497833252 1084.25199985504 2585.99996566772 150 151 146
312.084764242172 1081.73584938049 2579.99992370605 135 137 134
318.698585033417 1080.47795295715 2576.99990272522 131 133 130
325.928211212158 1081.31659030914 2578.9999961853 124 126 123
332.910448312759 1081.31682872772 2578.9999961853 123 127 126
340.156406164169 1082.15606212616 2581.00008964539 125 129 128
348.085820674896 1085.09182929993 2588.00005912781 128 132 131
355.778753757477 1087.18907833099 2592.99993515015 128 133 129
363.498866558075 1089.28692340851 2598.00004959106 144 149 145
286.790251731873 1084.75577831268 2604.00009155273 116 117 109
293.614029884338 1083.92107486725 2601.99999809265 121 122 114
300.080418586731 1081.83681964874 2596.99988365173 143 144 138
306.283235549927 1078.91964912415 2589.99991416931 148 149 144
312.569230794907 1076.41935348511 2584.00011062622 138 140 137
319.31734085083 1075.58536529541 2582.00001716614 134 136 133
326.68662071228 1076.83432102203 2585.00003814697 126 128 125
333.684921264648 1076.83396339417 2585.00003814697 123 127 126
341.210424900055 1078.50003242493 2588.99998664856 124 128 127
348.757714033127 1080.16622066498 2592.99993515015 126 130 129
356.052368879318 1080.99985122681 2595.00002861023 127 132 128
360.279768705368 1072.66891002655 2575.00004768372 139 144 140
288.003593683243 1082.26537704468 2615.00000953674 163 164 158
294.405668973923 1079.77986335754 2608.99996757507 162 163 157
300.775289535522 1077.29470729828 2602.9999256134 162 163 157
306.99422955513 1074.39589500427 2595.99995613098 156 157 152
313.296228647232 1071.91097736359 2589.99991416931 138 140 135
320.184141397476 1071.49565219879 2588.99998664856 134 136 131
327.572166919708 1072.73578643799 2592.00000762939 129 131 128
334.718257188797 1073.14848899841 2592.99993515015 122 124 123
341.474533081055 1072.31998443604 2591.00008010864 121 123 122
348.892450332642 1073.56083393097 2594.00010108948 120 122 119
355.777889490128 1073.1463432312 2592.99993515015 123 128 124
361.258894205093 1068.59362125397 2582.00001716614 137 139 134
295.536488294601 1076.83670520782 2618.99995803833 164 165 159
302.048593759537 1074.77819919586 2614.00008201599 162 163 157
308.29718708992 1071.89774513245 2607.00011253357 153 155 150
314.386874437332 1068.60601902008 2598.99997711182 138 140 135
321.051597595215 1067.37041473389 2595.99995613098 134 136 131
327.826529741287 1066.54596328735 2594.00010108948 129 131 128
334.977865219116 1066.95532798767 2595.00002861023 123 125 122
341.739267110825 1066.13123416901 2592.99993515015 122 124 121
349.296927452087 1067.77441501617 2596.99988365173 120 122 119
356.053113937378 1066.95091724396 2595.00002861023 125 127 124
362.378686666489 1064.89408016205 2589.99991416931 137 139 134
295.53946852684 1069.75698471069 2618.99995803833 155 156 150
302.167028188705 1068.11988353729 2615.00000953674 160 161 155
308.891206979752 1066.89131259918 2611.99998855591 154 156 151
315.236210823059 1064.43750858307 2605.99994659424 137 139 134
322.0434486866 1063.61770629883 2604.00009155273 134 136 131
328.713476657867 1062.38973140717 2601.0000705719 129 131 128
335.754483938217 1062.3871088028 2601.0000705719 124 126 123
342.531949281693 1061.56778335571 2598.99997711182 124 126 123
349.971204996109 1062.79098987579 2601.99999809265 123 125 122
357.015073299408 1062.78896331787 2601.99999809265 125 127 122
364.898443222046 1065.2379989624 2608.00004005432 136 138 133
295.282006263733 1087.84031867981 2680.99999427795 169 171 166
295.543074607849 1062.67917156219 2618.99995803833 168 170 165
302.401691675186 1061.86389923096 2617.00010299683 164 166 161
309.131115674973 1060.64283847809 2614.00008201599 156 158 153
315.965294837952 1059.82768535614 2611.99998855591 135 137 132
322.788596153259 1059.01253223419 2609.99989509583 132 134 129
329.601138830185 1058.19773674011 2608.00004005432 128 129 124
336.5318775177 1057.78872966766 2607.00011253357 123 123 121
343.193620443344 1056.56838417053 2604.00009155273 122 122 120
350.511640310287 1057.37686157227 2605.99994659424 118 118 116
357.977718114853 1058.59136581421 2608.99996757507 119 121 116
366.299629211426 1062.24060058594 2618.00003051758 128 130 125
296.224385499954 1058.02178382874 2625 167 169 164
302.752435207367 1056.00202083588 2619.99988555908 164 166 161
309.726476669312 1055.59468269348 2618.99995803833 155 157 152
316.453069448471 1054.38113212585 2615.9999370575 135 136 131
323.41080904007 1053.97403240204 2615.00000953674 132 133 128
330.489486455917 1053.9698600769 2615.00000953674 129 130 125
337.568074464798 1053.96592617035 2615.00000953674 124 125 120
344.514966011047 1053.55906486511 2614.00008201599 121 122 117
351.725369691849 1053.95841598511 2615.00000953674 115 116 111
359.490096569061 1055.97019195557 2619.99988555908 116 118 113
367.981463670731 1059.99732017517 2630.00011444092 126 128 123
297.696232795715 1056.1363697052 2638.00001144409 164 169 163
304.259389638901 1054.12948131561 2632.99989700317 163 165 160
310.440719127655 1050.92167854309 2625 153 155 150
317.062497138977 1049.31533336639 2621.00005149841 135 136 131
323.662608861923 1047.70910739899 2617.00010299683 133 134 129
330.872982740402 1048.10464382172 2618.00003051758 129 130 125
338.088691234589 1048.50053787231 2618.99995803833 122 123 118
345.178008079529 1048.49600791931 2618.99995803833 120 121 116
352.401793003082 1048.8920211792 2619.99988555908 119 120 115
360.31711101532 1051.28979682922 2625.99992752075 114 116 111
368.544697761536 1054.48853969574 2634.0000629425 123 125 120
376.672983169556 1057.28685855865 2641.00003242493 131 133 128
299.055844545364 1053.78484725952 2650.00009536743 164 169 163
305.189222097397 1050.20022392273 2641.00003242493 163 165 160
310.919046401978 1045.42291164398 2628.99994850159 152 154 149
317.430645227432 1043.42913627625 2624.00007247925 133 134 129
324.038743972778 1041.83292388916 2619.99988555908 132 133 128
331.383496522903 1042.62292385101 2621.99997901917 129 130 125
338.997155427933 1044.20816898346 2625.99992752075 120 121 116
346.368938684464 1044.9982881546 2628.00002098084 118 119 114
353.482484817505 1044.99316215515 2628.00002098084 119 120 115
361.007660627365 1046.1813211441 2631.00004196167 115 116 111
368.409067392349 1046.97167873383 2632.99989700317 123 125 120
377.247631549835 1051.73873901367 2644.99998092651 130 132 127
299.738973379135 1049.00050163269 2655.99989891052 164 169 165
305.888593196869 1045.4398393631 2647.0000743866 164 166 161
311.871081590652 1041.48399829865 2637.00008392334 152 154 149
318.162322044373 1038.71321678162 2630.00011444092 134 135 130
324.78654384613 1037.12725639343 2625.99992752075 135 136 131
332.021117210388 1037.51623630524 2627.00009346008 134 135 130
339.648246765137 1039.09015655518 2631.00004196167 124 125 120
346.769779920578 1039.0841960907 2631.00004196167 119 120 115
353.756844997406 1038.68365287781 2630.00011444092 116 117 112
361.150056123734 1039.46781158447 2631.99996948242 114 115 110
368.414133787155 1039.85726833344 2632.99989700317 122 124 119
376.967281103134 1043.80130767822 2642.99988746643 128 130 125
300.309896469116 1043.79332065582 2661.00001335144 164 169 163
306.357383728027 1039.86394405365 2651.00002288818 164 166 161
312.46891617775 1036.3267660141 2641.99995994568 154 155 150
318.894565105438 1033.96654129028 2635.99991798401 132 133 128
325.782388448715 1033.17534923553 2634.0000629425 131 132 127
332.785695791245 1032.77635574341 2632.99989700317 129 130 125
340.170860290527 1033.55443477631 2634.99999046326 123 124 119
347.566723823547 1034.33227539063 2637.00008392334 119 121 116
354.435354471207 1033.54144096375 2634.99999046326 116 117 112
361.567586660385 1033.53524208069 2634.99999046326 115 115 113
369.119435548782 1034.70575809479 2638.00001144409 124 126 123
377.543389797211 1038.22982311249 2647.0000743866 128 130 127
300.655603408813 1037.78159618378 2664.00003433228 165 170 164
306.711226701736 1033.87856483459 2654.00004386902 166 168 163
313.422203063965 1032.31298923492 2650.00009536743 155 156 151
319.990396499634 1030.35771846771 2644.99998092651 141 142 137
326.902508735657 1029.57129478455 2642.99988746643 132 131 127
333.677381277084 1028.39553356171 2640.00010490417 129 130 125
340.823203325272 1028.38826179504 2640.00010490417 123 124 119
348.10072183609 1028.77068519592 2641.00003242493 120 121 116
354.711055755615 1027.20546722412 2637.00008392334 115 117 112
361.985772848129 1027.58812904358 2638.00001144409 114 114 112
369.825541973114 1029.52885627747 2642.99988746643 123 125 122
377.977639436722 1032.24897384644 2650.00009536743 127 129 126
387.475579977036 1038.47467899323 2665.99988937378 137 139 136
300.889015197754 1031.36813640594 2665.99988937378 165 170 164
307.065606117249 1027.87864208221 2657.00006484985 167 169 164
313.548117876053 1025.54941177368 2651.00002288818 156 157 152
320.481956005096 1024.7677564621 2648.9999294281 142 143 138
327.528595924377 1024.37305450439 2648.00000190735 132 131 127
334.569752216339 1023.97835254669 2647.0000743866 129 130 125
341.734409332275 1023.97048473358 2647.0000743866 124 125 120
349.03085231781 1024.34957027435 2648.00000190735 120 121 116
355.659991502762 1022.79448509216 2644.00005340576 115 117 112
362.679094076157 1022.40002155304 2642.99988746643 112 112 110
370.532333850861 1024.32668209076 2648.00000190735 120 122 119
378.840446472168 1027.41384506226 2655.99989891052 126 128 125
387.918472290039 1032.43517875671 2668.99991035461 135 137 134
304.621785879135 1036.85462474823 2698.99988174438 166 171 165
308.113992214203 1024.16884899139 2665.99988937378 168 170 165
314.739137887955 1022.23944664001 2661.00001335144 157 158 153
321.458101272583 1020.69425582886 2657.00006484985 142 143 138
328.402638435364 1019.91748809814 2654.99997138977 131 130 126
335.336267948151 1019.14072036743 2653.00011634827 129 130 125
342.517167329788 1019.13225650787 2653.00011634827 124 125 120
349.697947502136 1019.12379264832 2653.00011634827 120 121 116
356.609612703323 1018.34726333618 2651.00002288818 114 116 111
364.196509122849 1019.491314888 2654.00004386902 111 111 109
371.51962518692 1019.86718177795 2654.99997138977 119 121 118
379.276037216187 1021.39556407928 2658.99991989136 125 127 124
387.199401855469 1023.30839633942 2664.00003433228 133 135 132
129.748001694679 1095.76809406281 2871.99997901917 14 15 7
309.509664773941 1021.5562582016 2677.99997329712 172 173 168
315.930783748627 1018.87702941895 2671.0000038147 159 158 154
322.434782981873 1016.57903194427 2664.99996185303 144 143 139
329.153597354889 1015.04421234131 2661.00001335144 131 130 126
336.103439331055 1014.27209377289 2658.99991989136 130 129 125
343.171417713165 1013.88168334961 2657.99999237061 124 125 120
350.233882665634 1013.49115371704 2657.00006484985 121 122 117
357.290834188461 1013.10062408447 2655.99989891052 115 116 111
365.165650844574 1014.99903202057 2661.00001335144 111 111 109
372.647613286972 1015.75303077698 2663.00010681152 114 114 112
380.710870027542 1018.03278923035 2668.99991035461 124 126 123
388.370484113693 1019.16837692261 2671.99993133545 130 132 129
398.26700091362 1026.02529525757 2690.00005722046 160 162 159
108.947739005089 1038.03634643555 2740.00000953674 10 11 5
118.407346308231 1056.21612071991 2788.00010681152 11 12 4
126.138985157013 1057.72626399994 2792.00005531311 7 8 0
134.323164820671 1062.64591217041 2805.0000667572 11 12 7
139.845505356789 1047.10781574249 2763.99993896484 11 11 9
157.001003623009 1061.87033653259 2802.99997329712 14 15 10
179.132118821144 1058.06183815002 2792.99998283386 11 12 4
187.297165393829 1061.4640712738 2802.00004577637 18 18 10
309.981346130371 1015.85006713867 2681.99992179871 172 173 168
316.886425018311 1014.70422744751 2678.99990081787 160 159 155
323.291122913361 1012.04311847687 2671.99993133545 144 143 139
330.028861761093 1010.51843166351 2667.99998283386 131 130 126
336.997658014297 1009.75131988525 2665.99988937378 130 129 125
343.826353549957 1008.6053609848 2663.00010681152 125 126 121
351.034104824066 1008.59570503235 2663.00010681152 121 122 117
357.972741127014 1007.82871246338 2661.00001335144 115 116 111
365.998297929764 1010.09166240692 2667.00005531311 112 112 110
373.496383428574 1010.83946228027 2668.99991035461 114 114 112
381.71848654747 1013.48125934601 2676.00011825562 124 126 123
389.396905899048 1014.60778713226 2678.99990081787 130 132 129
400.052607059479 1023.30923080444 2701.99990272522 159 161 158
103.087283670902 1046.46182060242 2782.00006484985 14 14 4
111.417755484581 1053.98035049438 2802.00004577637 17 14 7
119.304291903973 1056.60831928253 2809.00001525879 14 14 4
126.5057772398 1053.21764945984 2799.99995231628 9 9 0
131.838589906693 1035.53318977356 2753.00002098084 15 12 7
139.901965856552 1040.04108905792 2765.00010490417 15 12 7
148.456662893295 1047.55795001984 2785.00008583069 14 13 8
155.327081680298 1043.03777217865 2773.00000190735 16 16 8
162.660896778107 1041.90266132355 2769.99998092651 16 15 10
170.469760894775 1043.77639293671 2775.00009536743 16 16 8
195.240378379822 1055.79006671906 2806.99992179871 24 21 12
214.941069483757 1078.34100723267 2867.00010299683 21 18 9
220.451846718788 1067.42489337921 2838.00005912781 23 24 18
225.64460337162 1055.75656890869 2806.99992179871 26 29 22
306.56886100769 1021.4159488678 2716.00008010864 174 176 171
310.337960720062 1009.74750518799 2684.99994277954 174 175 170
317.132920026779 1008.23307037354 2680.99999427795 164 163 159
323.664039373398 1005.96654415131 2674.99995231628 145 144 140
330.038815736771 1003.32391262054 2667.99998283386 132 128 125
337.134033441544 1002.9376745224 2667.00005531311 128 127 123
344.223648309708 1002.55131721497 2665.99988937378 123 124 119
351.834952831268 1003.66926193237 2668.99991035461 119 120 115
358.520716428757 1002.15482711792 2664.99996185303 115 116 111
366.557031869888 1004.40084934235 2671.0000038147 110 110 108
374.345868825912 1005.89489936829 2674.99995231628 112 112 110
383.012056350708 1009.64510440826 2684.99994277954 120 122 119
391.150861978531 1011.89124584198 2690.99998474121 126 128 125
400.802612304688 1017.897605896 2707.00001716614 156 158 155
95.6249833106995 1039.72399234772 2783.99991989136 16 14 2
103.981234133244 1047.93560504913 2805.99999427795 17 14 5
111.661285161972 1048.67768287659 2808.00008773804 19 15 6
119.09718811512 1047.17862606049 2803.99990081787 17 15 3
126.104682683945 1042.31810569763 2790.99988937378 15 12 3
133.041635155678 1037.45746612549 2778.00011634827 17 13 4
140.616446733475 1037.82486915588 2779.00004386902 17 12 6
154.997661709785 1033.33044052124 2766.99995994568 18 15 6
164.664462208748 1047.14095592499 2803.99990081787 19 16 9
171.152725815773 1040.41171073914 2786.00001335144 20 17 8
178.313031792641 1038.1635427475 2779.99997138977 23 20 11
185.507550835609 1036.28873825073 2775.00009536743 19 16 7
195.944041013718 1051.96487903595 2816.99991226196 20 20 10
222.839966416359 1035.12585163116 2772.0000743866 23 26 19
310.810744762421 1004.00340557098 2688.99989128113 175 176 171
317.734867334366 1002.87258625031 2686.00010871887 165 164 160
324.521541595459 1001.36828422546 2681.99992179871 146 145 141
331.038981676102 999.117493629456 2676.00011825562 132 128 125
337.776601314545 997.613191604614 2671.99993133545 128 127 123
344.879746437073 997.229039669037 2671.0000038147 124 123 119
352.636456489563 998.71152639389 2674.99995231628 121 120 116
359.742045402527 998.327553272247 2674.00002479553 115 116 111
367.665439844131 1000.18322467804 2678.99990081787 113 113 111
375.335931777954 1001.2925863266 2681.99992179871 113 113 111
383.593082427979 1003.89516353607 2688.99989128113 119 121 118
391.597300767899 1005.75113296509 2694.00000572205 126 128 125
400.960981845856 1010.96701622009 2707.99994468689 153 155 152
72.8474855422974 1030.01761436462 2778.00011634827 31 27 15
87.7715572714806 1028.52690219879 2773.9999294281 27 21 9
96.76294028759 1044.46566104889 2816.99991226196 28 22 10
104.356616735458 1044.09027099609 2815.99998474121 29 23 11
111.865244805813 1042.97292232513 2812.99996376038 29 21 10
118.805304169655 1037.0352268219 2796.99993133545 27 21 7
126.426726579666 1037.40036487579 2798.00009727478 27 19 6
133.766055107117 1035.54046154022 2792.99998283386 28 20 7
141.432419419289 1036.27574443817 2795.00007629395 25 17 4
149.802461266518 1041.83042049408 2809.99994277954 22 16 2
157.749474048615 1044.04807090759 2815.99998474121 20 14 2
165.082857012749 1042.18697547913 2811.00010871887 22 18 6
172.081783413887 1038.47193717957 2801.00011825562 24 20 8
179.218828678131 1035.86888313293 2793.99991035461 26 24 12
186.919495463371 1036.60225868225 2796.0000038147 19 19 7
196.508914232254 1047.34539985657 2825.00004768372 19 19 9
203.725874423981 1045.11225223541 2819.00000572205 17 19 8
205.811679363251 1017.66884326935 2744.99988555908 17 19 8
311.977595090866 1000.46288967133 2698.99988174438 178 177 173
318.45560669899 997.856795787811 2691.99991226196 168 164 161
325.258612632751 996.36298418045 2687.99996376038 149 145 142
331.544876098633 993.386268615723 2680.0000667572 131 127 124
338.419795036316 992.26301908493 2677.00004577637 131 127 124
345.407336950302 991.510212421417 2674.99995231628 125 124 120
353.306740522385 993.352174758911 2680.0000667572 122 121 117
360.694885253906 993.711411952972 2680.99999427795 117 118 113
368.499964475632 995.182514190674 2684.99994277954 114 114 112
375.766813755035 995.171070098877 2684.99994277954 112 112 110
383.746802806854 997.012972831726 2690.00005722046 118 120 117
392.189770936966 999.966681003571 2697.99995422363 126 128 125
401.416212320328 1004.77349758148 2710.99996566772 150 152 149
74.3195563554764 1043.15412044525 2834.00011062622 47 41 29
81.7076414823532 1039.46924209595 2823.99988174438 40 34 22
89.0730917453766 1036.15248203278 2815.00005722046 23 17 5
96.5614691376686 1034.67559814453 2811.00010871887 26 20 6
104.62100058794 1039.0876531601 2822.99995422363 32 24 11
111.95008456707 1036.13793849945 2815.00005722046 38 30 17
119.15073543787 1032.45151042938 2805.0000667572 37 29 16
126.703768968582 1032.07755088806 2803.99990081787 33 26 10
134.203359484673 1031.33523464203 2802.00004577637 38 29 14
141.945034265518 1032.43291378021 2805.0000667572 33 24 9
149.702787399292 1033.53035449982 2808.00008773804 27 20 4
157.644689083099 1035.73143482208 2813.99989128113 24 17 1
164.620533585548 1031.67510032654 2802.99997329712 26 20 6
172.581106424332 1033.87570381165 2809.00001525879 27 23 11
180.253267288208 1034.23571586609 2809.99994277954 29 27 14
188.73293697834 1039.01183605194 2822.99995422363 20 20 8
197.70023226738 1045.99618911743 2842.00000762939 17 19 8
205.108031630516 1044.51489448547 2838.00005912781 16 18 7
209.758505225182 993.70664358139 2700.00004768372 18 21 14
312.913775444031 996.133506298065 2707.00001716614 179 178 174
319.413542747498 993.545889854431 2700.00004768372 169 165 162
326.117187738419 991.694092750549 2694.9999332428 150 146 143
333.04101228714 990.578293800354 2691.99991226196 131 127 124
339.948445558548 989.462554454803 2688.99989128113 131 127 124
346.968531608582 988.714694976807 2687.00003623962 125 124 120
354.241281747818 988.702774047852 2687.00003623962 122 121 117
361.379325389862 988.322794437408 2686.00010871887 117 118 113
368.923455476761 989.046573638916 2687.99996376038 113 113 111
376.478314399719 989.770591259003 2690.00005722046 112 112 110
384.614437818527 991.966247558594 2696.00009918213 117 119 116
392.928242683411 994.529783725739 2703.00006866455 125 127 124
401.872038841248 998.565018177032 2713.99998664856 149 151 148
67.045159637928 1041.74304008484 2851.0000705719 31 23 10
74.6904090046883 1040.64333438873 2848.00004959106 100 93 77
82.2035893797874 1038.08152675629 2841.00008010864 103 94 79
89.4572213292122 1032.96184539795 2826.99990272522 62 55 39
96.7723354697227 1029.30319309235 2816.99991226196 56 49 33
104.403756558895 1029.29818630219 2816.99991226196 51 42 27
111.955560743809 1028.56206893921 2815.00005722046 54 42 26
119.411416351795 1027.09484100342 2811.00010871887 58 46 30
127.026244997978 1027.08876132965 2811.00010871887 62 49 32
134.545117616653 1026.35145187378 2809.00001525879 58 45 28
142.306089401245 1027.44090557098 2812.00003623962 51 38 21
149.549975991249 1024.87623691559 2805.0000667572 43 30 13
156.979873776436 1023.77271652222 2802.00004577637 34 22 6
164.393380284309 1022.66883850098 2799.00002479553 36 27 10
172.343447804451 1024.85299110413 2805.0000667572 38 31 15
180.646568536758 1028.86366844177 2815.99998474121 38 34 22
188.875392079353 1032.14311599731 2825.00004768372 30 26 14
197.431057691574 1036.88371181488 2838.00005912781 21 21 9
216.402679681778 1054.40163612366 2885.99991798401 15 17 6
215.983241796494 1015.66481590271 2779.99997138977 15 18 9
237.605839967728 1044.50643062592 2858.99996757507 22 27 20
313.612878322601 1014.7876739502 2778.00011634827 180 181 176
313.503712415695 990.665972232819 2711.99989318848 180 179 175
320.371985435486 989.192605018616 2707.99994468689 169 165 162
326.855391263962 986.623346805573 2700.99997520447 150 146 143
333.671778440475 985.14997959137 2697.00002670288 131 127 124
340.592801570892 984.041631221771 2694.00000572205 131 127 124
348.013788461685 984.394311904907 2694.9999332428 125 124 120
355.176359415054 984.016478061676 2694.00000572205 123 122 118
362.467914819717 984.003961086273 2694.00000572205 119 118 114
369.759261608124 983.991324901581 2694.00000572205 113 113 111
377.750217914581 985.805034637451 2698.99988174438 113 113 111
385.768055915833 987.618565559387 2703.9999961853 118 120 117
394.248843193054 990.527868270874 2711.99989318848 124 126 123
403.365135192871 994.898200035095 2723.99997711182 147 149 146
67.0015513896942 1033.34629535675 2848.99997711182 89 82 66
75.0089436769485 1037.33241558075 2859.99989509583 95 87 68
82.2656378149986 1031.16250038147 2842.99993515015 92 81 61
89.5250514149666 1026.08013153076 2828.9999961853 62 54 35
96.7772305011749 1021.72303199768 2816.99991226196 59 51 32
104.446105659008 1022.08054065704 2818.00007820129 58 47 29
111.921399831772 1020.6241607666 2813.99989128113 60 47 28
119.544848799706 1020.61831951141 2813.99989128113 66 49 31
127.122968435287 1020.24936676025 2812.99996376038 72 54 34
134.791299700737 1020.60544490814 2813.99989128113 68 49 32
142.464935779572 1020.96116542816 2815.00005722046 64 47 29
149.823918938637 1019.14048194885 2809.99994277954 64 47 29
157.323718070984 1018.4074640274 2808.00008773804 61 45 29
164.871260523796 1018.0367231369 2806.99992179871 70 54 38
173.027649521828 1021.29256725311 2815.99998474121 64 51 35
180.976018309593 1023.09739589691 2821.00009918213 72 63 48
189.151838421822 1025.98977088928 2828.9999961853 61 53 40
197.301268577576 1028.51903438568 2835.99996566772 29 25 14
206.28347992897 1035.03739833832 2854.00009155273 28 24 13
216.712728142738 1048.08306694031 2890.00010490417 13 10 1
221.898078918457 1035.74240207672 2855.99994659424 16 19 10
314.903408288956 987.710773944855 2723.99997711182 180 179 175
321.685969829559 985.88502407074 2719.00010108948 167 163 160
327.957153320313 982.608914375305 2710.00003814697 146 142 139
334.798008203506 981.145679950714 2706.00008964539 132 128 125
341.616958379745 979.682326316834 2701.99990272522 131 127 124
349.18886423111 980.39448261261 2703.9999961853 127 126 122
356.375843286514 980.018794536591 2703.00006866455 124 123 119
363.691747188568 980.005621910095 2703.00006866455 116 117 112
371.007531881332 979.992568492889 2703.00006866455 118 118 116
379.162818193436 982.154667377472 2709.00011062622 112 112 110
386.92232966423 983.228981494904 2711.99989318848 116 118 115
395.279467105865 985.75359582901 2719.00010108948 129 131 128
404.266566038132 989.728212356567 2730.00001907349 139 141 138
67.0756325125694 1026.76129341125 2851.99999809265 133 117 101
74.724368751049 1025.67744255066 2848.99997711182 112 94 74
82.2699517011642 1023.51319789886 2842.99993515015 95 77 57
89.7512584924698 1020.98858356476 2835.99996566772 82 65 45
96.9540551304817 1015.94352722168 2822.00002670288 48 33 14
104.71099615097 1017.01819896698 2825.00004768372 48 33 14
112.126082181931 1014.85252380371 2819.00000572205 67 46 27
119.635969400406 1013.76640796661 2815.99998474121 74 52 31
127.265051007271 1013.75997066498 2815.99998474121 88 63 43
135.133519768715 1015.55323600769 2821.00009918213 80 59 40
143.028914928436 1017.34602451324 2825.99997520447 68 49 32
150.57797729969 1016.61837100983 2823.99988174438 72 53 36
158.003985881805 1015.17057418823 2819.9999332428 70 51 34
165.40814936161 1013.72241973877 2815.99998474121 80 61 46
173.0976998806 1014.07384872437 2816.99991226196 85 68 52
181.049108505249 1015.86496829987 2822.00002670288 91 78 62
188.826814293861 1016.57557487488 2823.99988174438 91 79 65
197.032600641251 1019.44577693939 2832.00001716614 31 23 12
206.36573433876 1027.71520614624 2855.00001907349 26 19 9
218.297943472862 1047.86312580109 2911.00001335144 19 12 2
315.725654363632 982.892155647278 2730.99994659424 182 181 177
322.172313928604 979.999840259552 2723.00004959106 169 165 162
328.454345464706 976.747334003448 2713.99998664856 148 144 141
335.182338953018 974.93451833725 2709.00011062622 133 129 126
342.009514570236 973.481416702271 2704.99992370605 132 128 125
349.718749523163 974.547505378723 2707.99994468689 128 127 123
357.18035697937 974.893808364868 2709.00011062622 125 124 120
365.050792694092 976.319551467896 2713.00005912781 120 121 116
372.119069099426 975.58605670929 2710.99996566772 116 116 114
379.73615527153 976.291954517365 2713.00005912781 112 112 110
387.078523635864 976.278126239777 2713.00005912781 115 117 114
395.293027162552 978.423476219177 2719.00010108948 125 127 124
405.02056479454 984.167039394379 2734.99989509583 137 139 136
60.1629503071308 1033.02764892578 2891.00003242493 86 66 55
67.1733394265175 1020.51794528961 2855.99994659424 157 135 121
74.8333111405373 1019.44196224213 2852.9999256134 131 109 88
82.2165012359619 1015.14995098114 2841.00008010864 115 93 72
89.6927863359451 1012.64405250549 2834.00011062622 72 51 32
97.1653908491135 1010.49506664276 2828.00006866455 66 47 30
104.938969016075 1011.56151294708 2831.00008964539 62 43 26
112.291127443314 1008.69715213776 2822.99995422363 77 54 36
119.769759476185 1007.26163387299 2819.00000572205 86 61 39
127.31696665287 1006.5404176712 2816.99991226196 83 56 35
135.236412286758 1008.6772441864 2822.99995422363 80 54 37
142.935141921043 1009.02712345123 2823.99988174438 66 43 25
150.745764374733 1010.09130477905 2826.99990272522 62 39 21
158.516436815262 1010.79785823822 2828.9999961853 62 39 21
166.062816977501 1010.07485389709 2826.99990272522 55 32 14
173.598155379295 1009.35137271881 2825.00004768372 73 52 35
181.250765919685 1009.34219360352 2825.00004768372 84 67 51
189.103826880455 1010.40470600128 2828.00006866455 104 88 73
197.599083185196 1014.68217372894 2839.99991416931 50 36 23
206.448286771774 1020.38836479187 2855.99994659424 32 20 8
316.779583692551 978.751122951508 2740.00000953674 183 182 178
322.895735502243 974.808096885681 2729.00009155273 170 166 163
329.315155744553 971.936643123627 2720.99995613098 144 140 137
336.185932159424 970.494031906128 2717.00000762939 135 131 128
343.161255121231 969.408273696899 2713.99998664856 134 130 127
350.378334522247 969.037055969238 2713.00005912781 129 128 124
357.457965612412 968.308568000793 2710.99996566772 127 126 122
365.199327468872 969.36571598053 2713.99998664856 120 121 116
372.682154178619 969.708740711212 2714.99991416931 116 116 114
380.450129508972 970.765888690948 2717.99993515015 114 114 112
388.091385364532 971.465706825256 2720.00002861023 116 118 115
396.179407835007 973.237097263336 2724.99990463257 122 124 121
405.923277139664 978.936910629272 2740.9999370575 133 135 132
59.8957389593124 1020.64049243927 2878.00002098084 138 114 102
67.1770498156548 1012.83490657806 2855.99994659424 157 131 116
74.8374462127686 1011.76702976227 2852.9999256134 129 100 82
82.2210162878037 1007.50708580017 2841.00008010864 112 83 65
89.5710960030556 1003.60131263733 2829.99992370605 89 63 46
97.101978957653 1002.17759609222 2825.99997520447 84 61 43
104.907616972923 1003.59058380127 2829.99992370605 80 57 41
112.21768707037 1000.39303302765 2821.00009918213 98 71 54
119.776248931885 999.677419662476 2819.00000572205 109 81 60
127.504631876945 1000.3799200058 2821.00009918213 93 65 44
135.24366915226 1001.08194351196 2822.99995422363 82 55 36
142.942801117897 1001.42908096313 2823.99988174438 84 58 41
150.913789868355 1003.54874134064 2829.99992370605 77 52 32
159.085214138031 1006.73198699951 2838.99998664856 78 53 33
166.835248470306 1007.07769393921 2839.99991416931 79 54 34
174.283236265182 1005.65028190613 2835.99996566772 92 69 51
181.645199656487 1003.86798381805 2831.00008964539 96 75 58
189.180493354797 1003.14891338348 2828.9999961853 114 95 80
197.609230875969 1007.03918933868 2839.99991416931 95 77 65
207.037195563316 1015.53905010223 2864.00008201599 61 44 34
218.169823288918 1031.48436546326 2908.99991989136 33 19 8
223.951146006584 1021.89934253693 2881.99996948242 28 8 1
232.159242033958 1023.66065979004 2887.00008392334 37 18 11
316.909104585648 971.725940704346 2740.9999370575 184 183 179
323.501378297806 969.2302942276 2733.99996757507 171 167 164
329.934448003769 966.379940509796 2726.0000705719 142 138 135
337.19003200531 966.010987758636 2724.99990463257 136 132 129
344.060629606247 964.57839012146 2720.99995613098 134 130 127
351.038485765457 963.500320911407 2717.99993515015 129 128 124
357.867956161499 962.067663669586 2713.99998664856 127 126 122
365.617543458939 963.116466999054 2717.00000762939 121 122 117
373.3831346035 964.165091514587 2720.00002861023 117 117 115
381.304621696472 965.568006038666 2723.99997711182 113 113 111
389.390259981155 967.325448989868 2729.00009155273 115 117 114
397.793501615524 969.79159116745 2736.00006103516 123 125 122
60.0864477455616 1016.06643199921 2887.00008392334 166 138 126
67.3455148935318 1007.61604309082 2862.99991607666 153 124 108
74.7892111539841 1003.38864326477 2851.0000705719 111 78 59
82.0809453725815 998.105049133301 2835.99996566772 112 79 60
89.4811674952507 994.932651519775 2826.99990272522 116 87 69
97.073070704937 994.223535060883 2825.00004768372 101 74 55
104.691058397293 993.86590719223 2823.99988174438 105 79 62
111.945457756519 990.340411663055 2813.99989128113 131 104 85
119.485460221767 989.630103111267 2812.00003623962 115 87 66
127.240464091301 990.679025650024 2815.00005722046 112 81 60
134.915754199028 991.023600101471 2815.99998474121 108 79 61
142.646908760071 991.719782352448 2818.00007820129 97 68 50
150.548711419106 993.471205234528 2822.99995422363 98 70 49
158.925727009773 998.037695884705 2835.99996566772 97 69 48
166.785523295403 999.08447265625 2838.99998664856 100 72 51
174.4155138731 998.723208904266 2838.00005912781 101 73 52
181.719064712524 996.602118015289 2832.00001716614 111 84 67
189.324304461479 996.240258216858 2831.00008964539 134 107 90
198.037192225456 1001.50835514069 2845.99995613098 150 127 113
207.048043608665 1007.83181190491 2864.00008201599 130 106 94
216.306135058403 1014.85848426819 2884.0000629425 41 19 6
226.449474692345 1025.40349960327 2914.00003433228 77 44 35
235.870450735092 1032.07743167877 2933.00008773804 107 74 65
318.195343017578 968.214452266693 2752.00009346008 193 192 188
324.93582367897 966.088891029358 2746.00005149841 176 172 169
330.796241760254 961.500525474548 2733.00004005432 142 138 135
338.194698095322 961.485624313354 2733.00004005432 134 130 127
344.960629940033 959.71155166626 2727.9999256134 132 128 125
351.957470178604 958.641052246094 2724.99990463257 127 126 122
358.674168586731 956.866979598999 2720.00002861023 125 124 120
366.574615240097 958.258867263794 2723.99997711182 122 123 118
374.496430158615 959.65051651001 2727.9999256134 116 116 114
382.719665765762 961.745738983154 2733.99996757507 113 113 111
390.547037124634 962.785482406616 2736.99998855591 113 115 112
399.553596973419 966.639339923859 2747.99990653992 120 122 119
60.2980740368366 1011.79361343384 2897.0000743866 158 130 118
67.2553107142448 998.517990112305 2858.99996757507 154 125 109
74.5836496353149 992.925822734833 2842.99993515015 133 100 81
82.0277780294418 989.7780418396 2834.00011062622 137 105 84
89.5179808139801 987.677574157715 2828.00006866455 117 90 71
97.1473529934883 987.322747707367 2826.99990272522 96 71 51
104.808248579502 987.316966056824 2826.99990272522 105 79 62
112.230330705643 985.215425491333 2821.00009918213 137 112 92
119.747199118137 984.160959720612 2818.00007820129 106 79 58
127.202451229095 982.756912708282 2813.99989128113 117 89 67
135.114997625351 984.844863414764 2819.9999332428 118 90 69
142.857402563095 985.535442829132 2822.00002670288 92 64 43
150.717124342918 986.924052238464 2825.99997520447 102 74 53
158.654347062111 988.661527633667 2831.00008964539 103 72 52
166.559725999832 990.049183368683 2835.00003814697 105 74 54
174.363642930984 990.738153457642 2836.99989318848 103 72 52
181.921541690826 990.02993106842 2835.00003814697 112 83 65
189.869597554207 991.416454315186 2838.99998664856 135 106 90
198.535025119781 996.294796466827 2852.9999256134 143 115 101
207.20374584198 1000.82337856293 2865.9999370575 139 113 100
216.992735862732 1010.24055480957 2892.99988746643 43 16 5
226.539179682732 1017.91083812714 2914.99996185303 117 80 71
235.480755567551 1022.4381685257 2927.99997329712 116 79 70
314.711511135101 973.038494586945 2786.99994087219 188 190 185
319.250792264938 963.945925235748 2760.99991798401 194 193 189
325.187414884567 959.392189979553 2747.99990653992 177 173 170
331.053376197815 954.838395118713 2734.99989509583 141 137 134
338.581144809723 955.1722407341 2736.00006103516 134 130 127
345.734685659409 954.45853471756 2733.99996757507 132 128 125
353.264540433884 954.792022705078 2734.99989509583 127 126 122
360.140174627304 953.37986946106 2730.99994659424 125 124 120
367.801368236542 954.062283039093 2733.00004005432 121 122 117
375.88495016098 955.791771411896 2737.99991607666 117 117 115
383.855372667313 957.172095775604 2742.00010299683 116 116 114
391.70441031456 958.203136920929 2744.99988555908 114 116 113
400.732755661011 962.02689409256 2756.00004196167 119 121 118
60.8428344130516 1013.01229000092 2923.00009727478 147 125 111
67.2357678413391 990.481674671173 2858.00004005432 159 133 116
74.5618119835854 984.932363033295 2842.00000762939 128 100 78
82.1483805775642 983.541429042816 2838.00005912781 127 99 77
89.7448286414146 982.496798038483 2835.00003814697 92 67 47
97.2905084490776 981.104969978333 2831.00008964539 76 54 33
104.962684214115 981.099009513855 2831.00008964539 105 84 65
112.515345215797 980.052828788757 2828.00006866455 58 37 18
119.966626167297 978.313386440277 2822.99995422363 84 63 42
127.34542787075 976.22674703598 2816.99991226196 63 38 16
135.074853897095 976.912260055542 2819.00000572205 95 68 49
142.916202545166 978.290319442749 2822.99995422363 94 63 43
150.619029998779 978.62833738327 2823.99988174438 84 53 33
158.383131027222 979.312539100647 2825.99997520447 108 77 57
166.157871484756 979.996383190155 2828.00006866455 116 83 64
174.189075827599 982.065856456757 2834.00011062622 123 90 71
182.124242186546 983.442008495331 2838.00005912781 131 98 79
190.348327159882 986.203491687775 2845.99995613098 132 101 83
198.893964290619 990.350842475891 2858.00004005432 151 119 104
208.082780241966 997.269928455353 2878.00002098084 127 98 84
217.679664492607 1005.57434558868 2901.99995040894 55 25 14
226.706922054291 1010.75983047485 2917.00005531311 91 53 44
235.413014888763 1014.21225070953 2927.00004577637 142 105 97
315.630167722702 968.306124210358 2795.00007629395 196 198 193
320.422440767288 959.976017475128 2770.99990844727 191 190 186
325.794547796249 953.72462272644 2753.00002098084 166 162 159
331.553071737289 948.858976364136 2739.00008201599 137 133 130
339.091777801514 949.18954372406 2740.00000953674 134 130 127
346.50918841362 949.173629283905 2740.00000953674 132 128 125
354.055404663086 949.504017829895 2740.9999370575 128 127 123
361.211210489273 948.795080184937 2739.00008201599 128 127 123
368.894159793854 949.471414089203 2740.9999370575 123 124 119
376.862227916718 950.840532779694 2744.99988555908 116 116 114
385.131657123566 952.902317047119 2750.99992752075 118 118 116
392.862468957901 953.578472137451 2753.00002098084 117 119 116
402.203321456909 958.064556121826 2766.00003242493 122 124 121
60.7840605080128 1004.11891937256 2920.00007629395 135 118 102
67.4750879406929 986.233472824097 2868.00003051758 140 119 100
74.8811513185501 981.414914131165 2854.00009155273 130 103 82
82.3559463024139 978.31517457962 2845.00002861023 108 81 60
89.8134931921959 975.558936595917 2836.99989318848 78 56 35
97.2963124513626 973.490238189697 2831.00008964539 74 53 34
105.080164968967 974.515855312347 2834.00011062622 90 69 52
