ply
format ascii 1.0
comment KinectMotionCapture
element vertex 779
property float x
property float y
property float z
property uchar red
property uchar green
property uchar blue
end_header
-792.418897151947 143.29506456852 2607.00011253357 46 48 43
-783.852934837341 143.03033053875 2601.99999809265 15 17 12
-775.313496589661 142.765656113625 2596.99988365173 30 32 27
-767.096638679504 142.556011676788 2592.99993515015 27 29 24
-756.555795669556 141.906589269638 2581.00008964539 27 30 23
-751.016438007355 142.191872000694 2585.99996566772 24 26 21
-743.723213672638 142.147377133369 2585.00003814697 20 23 16
-738.14457654953 142.432868480682 2589.99991416931 15 18 11
-726.327896118164 141.508549451828 2572.99995422363 14 16 11
-710.444152355194 141.144812107086 2565.99998474121 15 18 11
-704.037487506866 141.265541315079 2568.00007820129 15 18 11
-695.718944072723 141.001224517822 2562.99996376038 15 17 12
-689.307868480682 141.122058033943 2565.00005722046 15 17 12
-681.820929050446 141.022861003876 2562.99996376038 15 18 11
-676.713943481445 141.418933868408 2569.9999332428 19 22 15
-671.567857265472 141.815081238747 2576.99990272522 21 24 17
-662.256836891174 141.330763697624 2568.00007820129 21 24 17
-656.310796737671 141.561895608902 2572.00002670288 16 19 12
-648.322463035584 141.352757811546 2568.00007820129 13 16 9
-641.10392332077 141.308724880219 2566.99991226196 10 13 6
-634.878039360046 141.484931111336 2569.9999332428 9 12 5
-628.634750843048 141.661152243614 2572.99995422363 8 11 4
-623.582243919373 142.112717032433 2581.00008964539 9 12 5
-616.812944412231 142.178907990456 2582.00001716614 11 14 7
-610.27318239212 142.30015873909 2584.00011062622 15 18 11
-602.087318897247 142.035916447639 2578.9999961853 48 50 45
-592.542946338654 141.441136598587 2568.00007820129 94 96 91
-582.373082637787 140.680998563766 2553.99990081787 125 127 122
-572.954177856445 140.086010098457 2542.99998283386 120 122 119
-564.484179019928 139.711245894432 2536.00001335144 130 132 129
-556.930601596832 139.556780457497 2532.99999237061 138 140 139
-549.609243869781 139.457374811172 2530.99989891052 131 133 132
-542.512059211731 139.413014054298 2529.99997138977 131 132 134
-535.419046878815 139.368608593941 2529.00004386902 146 147 149
-528.95724773407 139.489486813545 2530.99989891052 145 146 148
-522.689640522003 139.665469527245 2533.99991989136 153 154 156
-516.608119010925 139.8965716362 2538.00010681152 155 155 155
-511.105954647064 140.29298722744 2545.00007629395 160 162 161
-504.970133304596 140.524044632912 2549.00002479553 163 165 164
-499.592781066895 140.975594520569 2556.99992179871 164 166 165
-493.014752864838 141.096353530884 2559.00001525879 172 174 173
-871.035158634186 139.658391475677 2674.99995231628 119 125 121
-857.981443405151 138.727560639381 2657.00006484985 7 9 4
-814.853250980377 136.362135410309 2611.00006103516 38 40 35
-812.115371227264 137.102708220482 2625 36 38 33
-796.727955341339 135.701954364777 2598.00004959106 36 38 33
-788.781225681305 135.554760694504 2595.00002861023 19 21 16
-779.645323753357 135.198667645454 2588.00005912781 12 14 9
-770.546913146973 134.842649102211 2581.00008964539 28 30 25
-753.927767276764 134.391903877258 2572.00002670288 25 28 21
-753.640413284302 135.603651404381 2595.00002861023 24 27 20
-743.56997013092 136.355429887772 2608.99996757507 23 26 19
-682.428300380707 131.440117955208 2513.99993896484 23 26 19
-682.868659496307 132.861971855164 2540.99988937378 23 26 19
-679.171323776245 133.499711751938 2552.99997329712 23 26 19
-678.56776714325 134.765103459358 2576.99990272522 22 25 18
-674.96645450592 135.455459356308 2589.99991416931 23 26 19
-650.146484375 131.85703754425 2520.99990844727 24 27 20
-643.307328224182 131.867319345474 2520.99990844727 24 27 20
-645.303606987 133.708536624908 2555.99999427795 24 27 20
-636.619210243225 133.352786302567 2549.00002479553 26 29 22
-630.689144134521 133.57250392437 2552.99997329712 25 28 21
-625.469326972961 133.949235081673 2559.99994277954 21 24 17
-623.109877109528 134.953960776329 2578.9999961853 18 21 14
-617.301523685455 135.226219892502 2584.00011062622 16 19 12
-610.992550849915 135.393798351288 2586.99989318848 13 16 9
-601.164221763611 134.776338934898 2575.00004768372 15 17 12
-591.630756855011 134.211108088493 2563.99989128113 9 11 6
-582.155823707581 133.645758032799 2552.99997329712 137 139 134
-573.415458202362 133.237361907959 2545.00007629395 122 124 121
-564.939975738525 132.881253957748 2538.00010681152 126 128 125
-557.600736618042 132.786840200424 2536.00001335144 135 137 136
-550.488412380219 132.744774222374 2535.00008583069 139 141 140
-543.165802955627 132.650271058083 2532.99999237061 144 146 145
-536.276340484619 132.660493254662 2532.99999237061 146 147 149
-529.803693294525 132.775411009789 2535.00008583069 146 147 149
-523.525178432465 132.942706346512 2538.00010681152 149 150 152
-517.229020595551 133.109956979752 2540.99988937378 153 153 153
-510.915398597717 133.27719271183 2543.99991035461 158 160 159
-504.980444908142 133.549198508263 2549.00002479553 161 163 162
-499.993860721588 134.083166718483 2559.00001525879 162 164 163
-493.988215923309 134.355127811432 2563.99989128113 170 172 171
-871.695220470428 132.46177136898 2677.00004577637 6 12 8
-796.655595302582 127.465754747391 2575.00004768372 36 38 33
-793.056964874268 128.01918387413 2585.99996566772 34 36 31
-781.495332717896 127.285599708557 2571.00009918213 16 18 13
-729.544997215271 124.409593641758 2512.00008392334 26 29 22
-746.620297431946 128.529787063599 2595.00002861023 25 28 21
-693.851947784424 124.159000813961 2506.00004196167 24 27 20
-680.266618728638 124.177992343903 2506.00004196167 24 27 20
-680.51153421402 126.774251461029 2558.00008773804 24 27 20
-651.446044445038 125.217527151108 2526.00002288818 21 24 17
-643.827795982361 125.078603625298 2523.00000190735 23 26 19
-631.93291425705 124.096803367138 2503.00002098084 24 27 20
-632.63326883316 125.594034790993 2532.99999237061 24 27 20
-625.017404556274 125.455111265182 2529.99997138977 24 27 20
-620.104432106018 125.861704349518 2538.00010681152 21 24 17
-610.556304454803 125.326052308083 2526.99995040894 19 22 15
-607.278168201447 126.079887151718 2542.00005531311 16 19 12
-607.696354389191 127.627477049828 2572.99995422363 13 16 9
-597.672462463379 126.992598176003 2559.99994277954 17 19 14
-591.179430484772 127.10177898407 2562.00003623962 6 8 3
-581.709921360016 126.565992832184 2551.00011825562 108 110 105
-572.749674320221 126.129329204559 2542.00005531311 113 115 112
-564.950048923492 125.940680503845 2538.00010681152 119 121 118
-557.610809803009 125.851228833199 2536.00001335144 134 136 135
-550.498425960541 125.811383128166 2535.00008583069 143 145 144
-543.604731559753 125.821128487587 2535.00008583069 150 152 151
-536.498010158539 125.781178474426 2533.99991989136 147 148 150
-530.44056892395 125.98942220211 2538.00010681152 147 148 150
-523.947596549988 126.098349690437 2539.99996185303 146 147 149
-517.646014690399 126.25689804554 2542.99998283386 153 153 153
-511.326909065247 126.415446400642 2546.0000038147 158 160 159
-504.990220069885 126.573950052261 2549.00002479553 161 163 162
-499.612778425217 126.98070704937 2556.99992179871 162 164 163
-493.420004844666 127.188861370087 2561.00010871887 170 172 171
-864.174723625183 123.048730194569 2631.99996948242 106 112 108
-850.212037563324 122.074760496616 2611.00006103516 13 19 15
-795.117199420929 120.206169784069 2569.9999332428 32 34 29
-781.4120054245 119.185499846935 2548.00009727478 33 35 30
-769.345283508301 118.398658931255 2530.99989891052 15 17 12
-761.889159679413 118.313543498516 2529.00004386902 22 24 19
-743.494391441345 119.798712432384 2559.99994277954 19 22 15
-735.696375370026 119.66722458601 2556.99992179871 19 22 15
-723.534405231476 119.966022670269 2562.99996376038 18 21 14
-716.309607028961 119.928285479546 2562.00003623962 16 19 12
-706.320762634277 119.42245811224 2551.00011825562 16 19 12
-689.262270927429 117.699354887009 2513.99993896484 16 19 12
-682.447493076324 117.708392441273 2513.99993896484 16 19 12
-678.319454193115 118.185721337795 2523.9999294281 16 19 12
-674.934327602386 118.803650140762 2536.99994087219 16 19 12
-672.79452085495 119.655855000019 2555.0000667572 20 23 16
-666.907489299774 119.852513074875 2559.00001525879 20 23 16
-656.355679035187 119.206137955189 2545.00007629395 20 23 16
-643.837332725525 118.184939026833 2523.00000190735 22 25 18
-639.264047145844 118.615828454494 2532.00006484985 22 25 18
-631.394147872925 118.437752127647 2528.00011634827 24 27 20
-626.015186309814 118.728183209896 2533.99991989136 24 27 20
-618.159413337708 118.550099432468 2529.99997138977 22 25 18
-617.331147193909 119.730979204178 2555.0000667572 20 23 16
-601.651191711426 120.79044431448 2576.99990272522 13 15 10
-590.727686882019 120.003059506416 2559.99994277954 8 10 5
-581.491529941559 119.543671607971 2549.99995231628 7 9 4
-573.435187339783 119.318634271622 2545.00007629395 166 168 163
-566.072583198547 119.234189391136 2542.99998283386 159 161 158
-558.499872684479 119.102813303471 2539.99996185303 163 165 164
-550.725042819977 118.924506008625 2536.00001335144 158 160 159
-543.399631977081 118.839927017689 2533.99991989136 150 152 151
-536.930859088898 118.942923843861 2536.00001335144 140 141 143
-531.076967716217 119.186609983444 2540.99988937378 142 143 145
-524.575769901276 119.289569556713 2542.99998283386 152 153 155
-517.858862876892 119.345590472221 2543.99991035461 153 153 153
-511.938750743866 119.589246809483 2549.00002479553 158 160 159
-506.188154220581 119.879804551601 2555.0000667572 161 163 162
-501.185238361359 120.358049869537 2565.00005722046 162 164 163
-494.777888059616 120.507828891277 2568.00007820129 170 172 171
-487.78310418129 120.516777038574 2568.00007820129 173 175 174
-873.047292232513 117.059096693993 2658.99991989136 28 34 30
-869.757533073425 117.594927549362 2671.0000038147 0 4 0
-803.932845592499 111.497297883034 2532.00006484985 20 22 17
-795.50439119339 111.284650862217 2526.99995040894 18 20 15
-802.083253860474 113.186046481133 2569.9999332428 15 17 12
-794.197261333466 113.061763346195 2566.99991226196 22 24 19
-783.873558044434 112.585164606571 2555.99999427795 27 29 24
-766.313791275024 111.051365733147 2520.99990844727 12 14 9
-757.67970085144 110.794983804226 2515.00010490417 20 22 17
-752.341568470001 112.044729292393 2542.99998283386 18 20 15
-754.541218280792 113.418906927109 2573.99988174438 18 21 14
-751.344621181488 114.000156521797 2586.99989318848 19 22 15
-733.978688716888 112.422145903111 2551.00011825562 20 23 16
-734.477758407593 113.576464354992 2576.99990272522 20 23 16
-727.495431900024 113.585025072098 2576.99990272522 20 23 16
-719.673633575439 113.461419939995 2573.99988174438 21 24 17
-707.713961601257 112.676575779915 2555.99999427795 21 24 17
-693.931937217712 111.583039164543 2530.99989891052 21 24 17
-685.985326766968 111.415281891823 2526.99995040894 21 24 17
-678.05951833725 111.247524619102 2523.00000190735 21 24 17
-672.815024852753 111.520759761333 2529.00004386902 21 24 17
-667.273640632629 111.749939620495 2533.99991989136 17 20 13
-661.964893341064 112.023286521435 2539.99996185303 18 21 14
-655.075252056122 112.032063305378 2539.99996185303 18 21 14
-646.653413772583 111.776202917099 2533.99991989136 17 20 13
-639.525651931763 111.740879714489 2532.99999237061 17 20 13
-633.401215076447 111.882016062737 2536.00001335144 22 25 18
-628.000676631927 112.155579030514 2542.00005531311 21 24 17
-623.543858528137 112.605668604374 2552.00004577637 19 22 15
-613.957643508911 112.129144370556 2540.99988937378 17 20 13
-607.296884059906 112.182132899761 2542.00005531311 16 19 12
-604.172468185425 112.897142767906 2558.00008773804 13 16 9
-594.65628862381 112.42052167654 2546.99993133545 7 10 3
-589.352250099182 112.738363444805 2553.99990081787 17 20 13
-581.272602081299 112.526513636112 2549.00002479553 0 2 0
-573.66955280304 112.402901053429 2546.0000038147 169 171 166
-566.972017288208 112.455859780312 2546.99993133545 171 173 170
-559.168517589569 112.288035452366 2542.99998283386 164 166 163
-551.168382167816 112.075991928577 2538.00010681152 152 154 151
-543.837547302246 111.996375024319 2536.00001335144 142 144 143
-537.151515483856 112.049214541912 2536.99994087219 141 143 142
-531.503915786743 112.322889268398 2542.99998283386 143 145 144
-524.997293949127 112.419866025448 2545.00007629395 151 152 154
-518.682062625885 112.560994923115 2548.00009727478 152 152 152
-512.951731681824 112.834639847279 2553.99990081787 157 159 158
-506.791293621063 113.019920885563 2558.00008773804 160 162 161
-501.389384269714 113.381914794445 2565.99998474121 161 163 162
-495.171964168549 113.567180931568 2569.9999332428 169 171 170
-488.741517066956 113.708205521107 2572.99995422363 172 174 173
-873.711287975311 109.889604151249 2661.00001335144 44 50 46
-859.344482421875 108.988091349602 2638.99993896484 2 8 4
-853.492856025696 109.160400927067 2642.99988746643 25 27 22
-799.906671047211 103.178486227989 2497.99990653992 26 28 23
-804.326355457306 105.547092854977 2555.0000667572 26 28 23
-806.772351264954 106.793724000454 2585.00003814697 24 26 21
-790.182828903198 105.520352721214 2553.99990081787 24 26 21
-786.334753036499 105.940952897072 2563.99989128113 28 30 25
-769.665122032166 104.626186192036 2532.00006484985 20 22 17
-760.097563266754 104.261763393879 2523.00000190735 19 21 16
-760.729312896729 105.30249774456 2548.00009727478 27 29 24
-760.337471961975 106.219455599785 2569.9999332428 25 27 22
-740.185439586639 104.367271065712 2525.00009536743 29 32 25
-751.062452793121 106.89651966095 2585.99996566772 29 32 25
-742.33078956604 106.656469404697 2579.99992370605 29 32 25
-723.940491676331 105.010770261288 2539.99996185303 24 27 20
-730.044603347778 106.920622289181 2585.99996566772 21 24 17
-717.165648937225 106.060430407524 2565.00005722046 21 24 17
-708.276212215424 105.779074132442 2558.00008773804 23 26 19
-692.843556404114 104.505181312561 2526.99995040894 21 24 17
-685.179233551025 104.389175772667 2523.9999294281 18 21 14
-676.186680793762 104.066379368305 2516.00003242493 19 22 15
-672.557353973389 104.570850729942 2528.00011634827 22 25 18
-667.282104492188 104.827217757702 2533.99991989136 23 26 19
-659.367203712463 104.669943451881 2529.99997138977 25 28 21
-651.215136051178 104.471288621426 2525.00009536743 26 29 22
-646.917223930359 104.893296957016 2535.00008583069 23 26 19
-642.563879489899 105.315372347832 2545.00007629395 24 27 20
-635.657668113709 105.323679745197 2545.00007629395 21 24 17
-631.96212053299 105.870045721531 2558.00008773804 20 23 16
-624.529778957367 105.795621871948 2555.99999427795 16 19 12
-617.348968982697 105.762600898743 2555.0000667572 14 17 10
-610.411286354065 105.770967900753 2555.0000667572 12 15 8
-602.291584014893 105.572327971458 2549.99995231628 10 13 6
-596.532702445984 105.787679553032 2555.0000667572 4 7 0
-594.206869602203 106.624186038971 2575.00004768372 17 20 13
-583.789646625519 106.011427938938 2559.99994277954 11 14 7
-575.480699539185 105.771288275719 2553.99990081787 64 66 61
-568.316221237183 105.738170444965 2552.99997329712 130 132 127
-560.276508331299 105.539366602898 2548.00009727478 111 113 110
-552.479863166809 105.381913483143 2543.99991035461 116 118 115
-544.918179512024 105.265818536282 2540.99988937378 124 126 125
-538.21861743927 105.315431952477 2542.00005531311 142 144 143
-531.930327415466 105.447873473167 2545.00007629395 146 148 147
-525.418162345886 105.538859963417 2546.99993133545 147 149 148
-519.097447395325 105.671271681786 2549.99995231628 153 153 153
-513.160884380341 105.886548757553 2555.0000667572 155 157 156
-507.195830345154 106.10181838274 2559.99994277954 157 159 158
-501.983880996704 106.482863426208 2569.00000572205 160 162 161
-496.721595525742 106.863915920258 2578.00006866455 168 170 169
-491.219103336334 107.203535735607 2585.99996566772 170 172 171
-865.509510040283 101.667657494545 2635.99991798401 27 33 29
-867.817938327789 102.792784571648 2664.99996185303 17 23 19
-801.724314689636 97.4121689796448 2525.00009536743 21 23 18
-805.907249450684 98.7691581249237 2559.99994277954 18 20 15
-804.282665252686 99.4319021701813 2576.99990272522 19 21 16
-793.283820152283 98.9371910691261 2563.99989128113 36 38 33
-786.341965198517 98.9441648125649 2563.99989128113 29 31 26
-773.016214370728 98.1407687067986 2542.99998283386 19 21 16
-766.431450843811 98.1864109635353 2543.99991035461 19 21 16
-764.9165391922 98.8883003592491 2562.00003623962 20 22 17
-767.44544506073 100.130759179592 2594.00010108948 22 24 19
-746.935248374939 98.3623787760735 2548.00009727478 24 27 20
-717.089116573334 95.3197628259659 2469.00010108948 26 29 22
-731.404900550842 98.145380616188 2542.00005531311 30 33 26
-725.088179111481 98.2299894094467 2543.99991035461 31 34 27
-715.372323989868 97.8512838482857 2533.99991989136 31 34 27
-707.730174064636 98.7159088253975 2555.99999427795 26 29 22
-696.964025497437 98.182775080204 2542.00005531311 25 28 21
-685.187041759491 97.4950790405273 2523.9999294281 22 25 18
-677.807033061981 97.4254012107849 2522.0000743866 24 27 20
-675.225734710693 98.0511233210564 2538.00010681152 26 29 22
-670.186758041382 98.3292534947395 2545.00007629395 26 29 22
-660.938918590546 97.9892089962959 2536.00001335144 27 30 23
-653.286337852478 97.8809893131256 2532.99999237061 26 29 22
-645.394027233124 97.7341309189796 2529.00004386902 24 27 20
-643.581867218018 98.5148027539253 2549.00002479553 24 27 20
-636.914610862732 98.5612496733665 2549.99995231628 24 27 20
-633.452475070953 99.1102084517479 2563.99989128113 23 26 19
-625.270962715149 98.9247858524323 2559.00001525879 20 23 16
-617.84029006958 98.8552942872047 2556.99992179871 18 21 14
-611.613929271698 98.979115486145 2559.99994277954 16 19 12
-605.606436729431 99.1416350007057 2563.99989128113 13 16 9
-600.743412971497 99.4975119829178 2572.99995422363 11 14 7
-595.138072967529 99.7374132275581 2578.9999961853 13 16 9
-585.394084453583 99.2811769247055 2566.99991226196 16 19 12
-575.939476490021 98.8635346293449 2555.99999427795 21 23 18
-568.546831607819 98.7939387559891 2553.99990081787 113 115 110
-560.944139957428 98.6856445670128 2551.00011825562 111 113 110
-553.573668003082 98.6159890890121 2549.00002479553 117 119 116
-546.427309513092 98.5849946737289 2548.00009727478 126 128 127
-539.920330047607 98.6700356006622 2549.99995231628 142 144 143
-533.192276954651 98.7163782119751 2551.00011825562 146 148 147
-526.663780212402 98.801389336586 2552.99997329712 148 150 149
-520.326733589172 98.9250913262367 2555.99999427795 151 151 151
-513.972103595734 99.0487635135651 2559.00001525879 154 156 155
-508.194267749786 99.2885455489159 2565.00005722046 157 159 158
-502.382457256317 99.5283350348473 2571.00009918213 160 162 161
-496.72931432724 99.8068079352379 2578.00006866455 169 171 170
-490.277051925659 99.9304205179214 2581.00008964539 171 173 172
-864.530682563782 94.3704396486282 2632.99989700317 42 48 44
-806.493401527405 91.0612419247627 2539.99996185303 33 35 30
-802.136182785034 91.3542956113815 2548.00009727478 31 33 28
-798.983573913574 91.7908623814583 2559.99994277954 52 54 49
-801.334857940674 92.8730294108391 2589.99991416931 46 48 43
-790.949165821075 92.4851149320602 2578.9999961853 36 38 33
-764.028251171112 90.9561365842819 2536.00001335144 34 36 31
-763.132154941559 91.680109500885 2555.99999427795 31 33 28
-740.233838558197 89.7498056292534 2502.00009346008 31 33 28
-735.802531242371 90.0434106588364 2509.99999046326 28 31 24
-729.875206947327 90.1577398180962 2513.00001144409 27 30 23
-722.780108451843 90.128630399704 2512.00008392334 24 27 20
-717.399835586548 90.3148427605629 2516.99995994568 24 27 20
-716.2264585495 91.0393893718719 2536.99994087219 24 27 20
-708.792746067047 90.9745767712593 2535.00008583069 20 23 16
-703.861057758331 91.2327915430069 2542.00005531311 22 25 18
-689.020097255707 90.1989340782166 2513.00001144409 22 25 18
-681.936740875244 90.1700258255005 2512.00008392334 21 24 17
-675.933063030243 90.2847498655319 2515.00010490417 22 25 18
-674.434900283813 91.0098180174828 2535.00008583069 23 26 19
-670.457482337952 91.4118885993958 2546.0000038147 20 23 16
-663.031280040741 91.347262263298 2543.99991035461 18 21 14
-655.099153518677 91.2108197808266 2539.99996185303 19 22 15
-647.953391075134 91.1821201443672 2539.00003433228 23 26 19
-642.579436302185 91.4048328995705 2545.00007629395 23 26 19
-636.672377586365 91.5557444095612 2549.00002479553 22 25 18
-632.471859455109 91.9581279158592 2559.99994277954 22 25 18
-625.034213066101 91.8935835361481 2558.00008773804 20 23 16
-616.39815568924 91.6493982076645 2551.00011825562 19 22 15
-613.771796226501 92.3034027218819 2569.00000572205 17 20 13
-609.629392623901 92.7419140934944 2581.00008964539 14 17 10
-601.217985153198 92.5336554646492 2575.00004768372 15 18 11
-596.530258655548 92.9003655910492 2585.00003814697 13 16 9
-587.226033210754 92.5483107566834 2575.00004768372 22 25 18
-578.200280666351 92.2321230173111 2565.99998474121 0 2 0
-570.335268974304 92.0955911278725 2562.00003623962 97 99 94
-562.490880489349 91.959036886692 2558.00008773804 118 120 115
-554.666936397552 91.8224304914474 2553.99990081787 118 120 117
-547.292530536652 91.7576923966408 2552.00004577637 124 126 123
-540.774703025818 91.8367579579353 2553.99990081787 136 138 137
-534.035742282867 91.8798521161079 2555.0000667572 141 143 142
-527.289986610413 91.922901570797 2555.99999427795 147 149 148
-520.537614822388 91.9659286737442 2556.99992179871 149 149 149
-514.381110668182 92.1168550848961 2561.00010871887 154 156 155
-508.399605751038 92.3037156462669 2565.99998474121 157 159 158
-502.585053443909 92.5265550613403 2572.00002670288 161 163 162
-496.736586093903 92.7493944764137 2578.00006866455 169 171 170
-490.094214677811 92.828281223774 2579.99992370605 172 174 173
-797.419965267181 83.905354142189 2532.99999237061 35 37 32
-800.55034160614 84.9712416529655 2565.00005722046 46 48 43
-803.506970405579 86.0373228788376 2596.99988365173 33 35 30
-770.293295383453 83.9620977640152 2533.99991989136 35 37 32
-765.540897846222 84.2001214623451 2540.99988937378 35 37 32
-749.411761760712 83.9473083615303 2532.99999237061 30 32 27
-740.792512893677 83.7546661496162 2526.99995040894 27 30 23
-736.271440982819 84.0260833501816 2535.00008583069 25 28 21
-725.663959980011 83.6014524102211 2522.0000743866 23 26 19
-722.53680229187 84.0387418866158 2535.00008583069 23 26 19
-718.491673469543 84.3766778707504 2545.00007629395 23 26 19
-713.273167610168 84.582082927227 2551.00011825562 21 24 17
-699.991285800934 83.8259309530258 2528.00011634827 22 25 18
-687.107563018799 83.102859556675 2506.00004196167 23 26 19
-677.599966526031 82.777664065361 2496.00005149841 22 25 18
-676.20849609375 83.4474563598633 2516.00003242493 22 25 18
-672.845482826233 83.8851779699326 2529.00004386902 23 26 19
-670.464396476746 84.4556838274002 2546.0000038147 23 26 19
-664.341330528259 84.5618695020676 2549.00002479553 22 25 18
-658.459007740021 84.7012400627136 2552.99997329712 22 25 18
-649.236261844635 84.4093263149261 2543.99991035461 26 29 22
-642.33386516571 84.4160169363022 2543.99991035461 26 29 22
-634.181618690491 84.2567980289459 2539.00003433228 25 28 21
-630.255401134491 84.6617445349693 2551.00011825562 25 28 21
-623.575091362 84.7016572952271 2552.00004577637 25 28 21
-617.371618747711 84.807962179184 2555.0000667572 23 26 19
-612.345278263092 85.0802734494209 2562.99996376038 21 24 17
-607.27447271347 85.3526219725609 2571.00009918213 18 21 14
-598.18971157074 85.0605964660645 2562.00003623962 13 16 7
-594.460368156433 85.5321884155273 2575.99997520447 12 15 8
-587.233066558838 85.5057686567307 2575.00004768372 11 14 7
-579.55926656723 85.41289716959 2572.00002670288 9 12 5
-571.010112762451 85.1871520280838 2565.00005722046 29 31 26
-564.037084579468 85.1938650012016 2565.00005722046 111 113 108
-555.759787559509 85.00125259161 2559.00001525879 113 115 110
-548.37167263031 84.9414616823196 2556.99992179871 117 119 116
-541.416764259338 84.9480926990509 2556.99992179871 132 134 131
-534.669637680054 84.9879160523415 2558.00008773804 138 140 137
-527.915716171265 85.0277170538902 2559.00001525879 143 145 144
-521.358728408813 85.1007252931595 2561.00010871887 147 147 147
-514.789521694183 85.1737037301064 2562.99996376038 155 157 156
-508.802652359009 85.3463783860207 2568.00007820129 158 160 159
-502.982616424561 85.5522602796555 2573.99988174438 159 161 160
-497.12860584259 85.7581421732903 2579.99992370605 165 167 166
-490.100860595703 85.7645645737648 2579.99992370605 168 170 169
-843.161523342133 80.0228044390678 2632.99989700317 36 38 33
-814.442932605743 77.9614150524139 2565.00005722046 31 33 28
-805.610716342926 77.7843818068504 2559.00001525879 34 36 31
-804.301261901855 78.3369466662407 2576.99990272522 35 37 32
-800.72820186615 78.676849603653 2588.00005912781 29 31 26
-803.228914737701 79.6249061822891 2618.99995803833 37 39 34
-781.850636005402 78.2015845179558 2572.00002670288 38 40 35
-760.123789310455 76.7172798514366 2523.00000190735 36 38 33
-744.683921337128 76.5460580587387 2516.99995994568 30 32 27
-747.247934341431 77.5249749422073 2549.00002479553 31 34 27
-738.020181655884 77.2874429821968 2540.99988937378 29 32 25
-730.273842811584 77.2020071744919 2538.00010681152 24 27 20
-723.113000392914 77.1774351596832 2536.99994087219 23 26 19
-721.038699150085 77.7005031704903 2553.99990081787 22 25 18
-709.364771842957 77.1892219781876 2536.99994087219 26 29 22
-698.059141635895 76.7083242535591 2520.99990844727 26 29 22
-686.565339565277 76.1969685554504 2503.99994850159 27 30 23
-677.877604961395 75.9898647665977 2496.99997901917 27 30 23
-675.946056842804 76.5436217188835 2515.00010490417 26 29 22
-675.246298313141 77.2496834397316 2538.00010681152 26 29 22
-671.78750038147 77.6514708995819 2551.00011825562 27 30 23
-664.087116718292 77.5662660598755 2548.00009727478 25 28 21
-656.660079956055 77.5115117430687 2546.0000038147 25 28 21
-648.987591266632 77.4263143539429 2542.99998283386 25 28 21
-643.602848052979 77.6151567697525 2549.00002479553 24 27 20
-634.437739849091 77.3472487926483 2539.99996185303 25 28 21
-627.791106700897 77.3838609457016 2540.99988937378 25 28 21
-621.138095855713 77.4204805493355 2542.00005531311 26 29 22
-616.653203964233 77.7312368154526 2552.00004577637 25 28 21
-611.157298088074 77.9201984405518 2558.00008773804 23 26 19
-606.808543205261 78.2614946365356 2569.00000572205 20 23 16
-598.663091659546 78.1153813004494 2563.99989128113 14 17 8
-596.082329750061 78.7005051970482 2582.99994468689 12 15 8
-590.204298496246 78.8590982556343 2588.00005912781 16 19 12
-583.171188831329 78.8653418421745 2588.00005912781 16 19 12
-573.687970638275 78.536331653595 2576.99990272522 10 12 7
-565.802693367004 78.4206166863441 2572.99995422363 117 119 114
-556.41770362854 78.0914947390556 2562.00003623962 104 106 101
-549.021482467651 78.0366435647011 2559.99994277954 111 113 110
-541.846573352814 78.0122503638268 2559.00001525879 133 135 132
-535.302996635437 78.0793055891991 2561.00010871887 139 141 138
-528.540909290314 78.1158357858658 2562.00003623962 136 138 137
-521.772086620331 78.1523510813713 2562.99996376038 145 145 145
-515.197515487671 78.2193392515183 2565.00005722046 155 157 156
-508.80891084671 78.3168077468872 2568.00007820129 158 160 159
-502.793431282043 78.4752517938614 2572.99995422363 158 160 159
-497.134804725647 78.694686293602 2579.99992370605 163 165 164
-491.436749696732 78.914113342762 2586.99989318848 166 168 167
-849.77114200592 71.5804323554039 2588.00005912781 43 49 45
-851.233184337616 72.3042637109756 2614.00008201599 44 49 45
-845.772564411163 72.447344660759 2618.99995803833 35 37 32
-819.782674312592 72.0470771193504 2604.00009155273 46 48 43
-808.051705360413 71.6370269656181 2588.99998664856 49 51 46
-797.020673751831 71.282334625721 2575.99997520447 38 40 35
-789.433002471924 71.2320432066917 2573.99988174438 32 34 29
-764.346957206726 70.2182352542877 2536.99994087219 32 34 29
-758.372783660889 70.3064128756523 2539.99996185303 31 33 28
-753.86118888855 70.5330520868301 2548.00009727478 37 39 34
-744.615018367767 70.3168213367462 2539.99996185303 33 36 29
-735.121250152588 70.0729116797447 2530.99989891052 32 35 28
-728.552937507629 70.1058804988861 2532.00006484985 29 32 25
-722.833633422852 70.2219605445862 2536.00001335144 27 30 23
-713.421702384949 69.9780881404877 2526.99995040894 25 28 21
-708.811342716217 70.2050253748894 2535.00008583069 24 27 20
-697.788000106812 69.7949901223183 2519.99998092651 24 27 20
-690.135419368744 69.7173029184341 2516.99995994568 24 27 20
-680.597960948944 69.4457367062569 2506.99996948242 24 27 20
-677.026867866516 69.7836056351662 2519.00005340576 22 25 18
-670.995235443115 69.8722004890442 2522.0000743866 21 24 17
-664.682984352112 69.933108985424 2523.9999294281 20 23 16
-662.268579006195 70.4097002744675 2540.99988937378 23 26 19
-655.118346214294 70.3875496983528 2539.99996185303 23 26 19
-648.483037948608 70.4208537936211 2540.99988937378 21 24 17
-643.86123418808 70.6758946180344 2549.99995231628 22 25 18
-636.691629886627 70.6538036465645 2549.00002479553 21 24 17
-629.03243303299 70.5762729048729 2546.0000038147 22 25 18
-622.610151767731 70.6373453140259 2548.00009727478 23 26 19
-616.175830364227 70.6984251737595 2549.99995231628 23 26 19
-610.207438468933 70.8149597048759 2553.99990081787 21 24 17
-600.673139095306 70.5155953764915 2542.99998283386 17 20 13
-595.867216587067 70.7707926630974 2552.00004577637 13 16 7
-591.703534126282 71.1092203855515 2563.99989128113 12 15 6
-590.210258960724 71.7805325984955 2588.00005912781 11 14 5
-584.078431129456 71.8971788883209 2592.00000762939 16 19 12
-573.248624801636 71.4312791824341 2575.00004768372 5 7 2
-565.148890018463 71.2982043623924 2569.9999332428 26 28 23
-556.64074420929 71.1096078157425 2562.99996376038 117 119 114
-549.456238746643 71.087434887886 2562.00003623962 110 112 109
-542.69939661026 71.1207464337349 2562.99996376038 126 128 125
-536.144852638245 71.1817890405655 2565.00005722046 137 139 136
-528.959274291992 71.1595490574837 2563.99989128113 139 141 140
-522.592186927795 71.2483078241348 2566.99991226196 139 139 139
-515.805840492249 71.2815523147583 2568.00007820129 153 153 153
-509.805202484131 71.4257881045341 2572.99995422363 156 158 157
-503.189921379089 71.4867487549782 2575.00004768372 157 159 158
-497.71848320961 71.7142596840858 2582.99994468689 162 164 163
-492.012292146683 71.9140022993088 2589.99991416931 166 168 167
-861.74601316452 64.8909285664558 2602.9999256134 210 215 211
-855.357587337494 64.9449601769447 2605.00001907349 39 44 40
-854.168474674225 65.3979778289795 2622.99990653992 36 41 37
-839.964210987091 64.8537576198578 2601.0000705719 47 50 43
-833.244204521179 64.8830384016037 2601.99999809265 40 43 36
-826.201140880585 64.8874491453171 2601.99999809265 37 40 33
-818.52799654007 64.8420304059982 2599.99990463257 43 46 39
-807.744443416595 64.5472556352615 2588.00005912781 43 46 39
-798.26295375824 64.3522515892982 2579.99992370605 40 43 36
-782.077193260193 63.6084973812103 2549.99995231628 38 41 34
-771.221280097961 63.2887706160545 2536.99994087219 38 41 34
-767.063438892365 63.5178983211517 2546.0000038147 40 43 36
-759.870648384094 63.4975954890251 2545.00007629395 36 39 32
-755.937159061432 63.7518018484116 2555.0000667572 34 37 30
-742.274761199951 63.1826147437096 2532.00006484985 29 32 25
-737.159371376038 63.337080180645 2538.00010681152 26 29 22
-725.968301296234 62.9674941301346 2523.00000190735 25 28 21
-718.84822845459 62.9473254084587 2522.0000743866 26 29 22
-710.321247577667 62.802366912365 2516.00003242493 16 19 12
-704.062938690186 62.8571212291718 2517.99988746643 27 30 23
-697.793066501617 62.9119127988815 2519.99998092651 26 29 22
-691.237330436707 62.9417598247528 2520.99990844727 29 32 25
-683.860957622528 62.8967359662056 2519.00005340576 30 33 26
-677.569448947906 62.9516020417213 2520.99990844727 25 28 21
-670.202195644379 62.9066079854965 2519.00005340576 22 25 18
-663.898229598999 62.9615187644959 2520.99990844727 23 26 19
-656.539916992188 62.9165470600128 2519.00005340576 22 25 18
-654.607892036438 63.3961334824562 2538.00010681152 21 24 17
-644.660174846649 63.1013959646225 2526.00002288818 21 24 17
-642.351567745209 63.5561048984528 2543.99991035461 22 25 18
-637.446343898773 63.7610480189323 2552.00004577637 23 26 19
-629.531919956207 63.6661946773529 2548.00009727478 23 26 19
-623.348534107208 63.7462362647057 2551.00011825562 23 26 19
-618.114352226257 63.9262571930885 2558.00008773804 22 25 18
-611.168622970581 63.931368291378 2558.00008773804 21 24 17
-601.150929927826 63.6115372180939 2545.00007629395 20 23 16
-592.370212078094 63.4166374802589 2536.99994087219 17 20 11
-590.093493461609 63.9216527342796 2556.99992179871 14 17 8
-584.970235824585 64.1267448663712 2565.00005722046 14 17 8
-584.309220314026 64.8319125175476 2592.99993515015 14 17 10
-574.14448261261 64.4869804382324 2578.9999961853 10 12 7
-565.814018249512 64.3420442938805 2572.99995422363 8 10 5
-557.297646999359 64.172051846981 2565.99998474121 123 125 122
-550.104916095734 64.1520768404007 2565.00005722046 107 109 108
-543.339848518372 64.1821101307869 2565.99998474121 118 120 119
-536.986231803894 64.2621591687202 2569.00000572205 125 127 126
-529.99609708786 64.2671510577202 2569.00000572205 134 136 135
-523.411750793457 64.3221512436867 2571.00009918213 142 142 140
-516.815304756165 64.3771439790726 2572.99995422363 148 148 146
-510.999262332916 64.5322054624558 2578.9999961853 157 157 157
-504.172146320343 64.5621344447136 2579.99992370605 161 163 162
-498.109042644501 64.6921470761299 2585.00003814697 157 158 160
-491.447508335114 64.7470653057098 2586.99989318848 157 158 160
-869.364380836487 58.3017058670521 2625.99992752075 100 105 101
-857.003271579742 57.9502061009407 2609.99989509583 25 30 24
-852.54430770874 58.1316351890564 2618.00003051758 34 39 33
-841.583013534546 57.8690059483051 2605.99994659424 38 41 34
-830.045998096466 57.5619898736477 2592.00000762939 44 47 40
-823.0299949646 57.5659051537514 2592.00000762939 56 59 52
-815.384030342102 57.5254522264004 2589.99991416931 47 50 43
-800.88222026825 56.9963753223419 2565.99998474121 31 34 27
-781.559467315674 56.1118423938751 2526.00002288818 28 31 24
-769.200205802917 55.7159632444382 2507.99989700317 29 32 25
-767.577707767487 56.0976639389992 2525.00009536743 29 32 25
-767.971575260162 56.6349774599075 2549.00002479553 29 32 25
-761.666476726532 56.6835775971413 2551.00011825562 27 30 23
-754.462242126465 56.6655397415161 2549.99995231628 26 29 22
-748.14248085022 56.7142143845558 2552.00004577637 32 35 28
-734.840333461761 56.2295131385326 2529.99997138977 36 39 32
-730.576694011688 56.4338117837906 2539.00003433228 41 44 37
-724.268436431885 56.482557207346 2540.99988937378 43 46 39
-717.101633548737 56.4646497368813 2539.99996185303 42 45 38
-707.422971725464 56.246679276228 2529.99997138977 35 38 31
-698.351562023163 56.0731701552868 2522.0000743866 32 35 28
-695.080757141113 56.3665889203548 2535.00008583069 24 27 20
-687.394857406616 56.3042722642422 2532.00006484985 23 26 19
-679.186820983887 56.1974942684174 2526.99995040894 21 24 17
-669.142663478851 55.9350289404392 2515.00010490417 21 24 17
-662.586152553558 55.961687117815 2516.00003242493 22 25 18
-654.198825359344 55.8326505124569 2509.99999046326 22 25 18
-647.132813930511 55.8148436248302 2509.0000629425 23 26 19
-645.430564880371 56.2642328441143 2529.00004386902 23 26 19
-639.578878879547 56.3577190041542 2532.99999237061 24 27 20
-632.205665111542 56.3177056610584 2530.99989891052 22 25 18
-625.830590724945 56.3667118549347 2532.99999237061 22 25 18
-623.353362083435 56.7717999219894 2551.00011825562 22 25 18
-620.293915271759 57.1324415504932 2566.99991226196 22 25 18
-613.323628902435 57.1370013058186 2566.99991226196 22 25 18
-603.281557559967 56.85218796134 2553.99990081787 21 24 17
-597.044885158539 56.9235123693943 2556.99992179871 19 22 13
-589.175164699554 56.8389929831028 2552.99997329712 15 18 9
-582.922577857971 56.9103211164474 2555.99999427795 14 17 8
-578.680515289307 57.1820475161076 2568.00007820129 15 18 11
-577.711343765259 57.7878430485725 2595.00002861023 14 16 11
-568.237721920013 57.5474388897419 2584.00011062622 14 16 11
-558.822691440582 57.3069751262665 2572.99995422363 4 6 3
-550.753057003021 57.2001151740551 2568.00007820129 100 100 98
-543.97988319397 57.2268702089787 2569.00000572205 126 126 126
-536.990940570831 57.2313405573368 2569.00000572205 128 128 128
-530.825972557068 57.3249012231827 2572.99995422363 146 146 146
-524.23083782196 57.3739036917686 2575.00004768372 136 136 134
-517.623424530029 57.4228838086128 2576.99990272522 135 135 135
-511.202037334442 57.4941337108612 2579.99992370605 139 141 140
-504.176735877991 57.4985109269619 2579.99992370605 149 150 152
-498.113662004471 57.6143078505993 2585.00003814697 177 181 184
-491.072148084641 57.6186403632164 2585.00003814697 189 193 196
-872.678518295288 51.3337552547455 2635.99991798401 15 20 16
-857.335209846497 50.8501790463924 2611.00006103516 33 38 32
-847.337424755096 50.6782159209251 2601.99999809265 29 34 28
-839.326083660126 50.623144954443 2598.99997711182 29 32 25
-827.808082103729 50.3538437187672 2585.00003814697 36 39 32
-822.398602962494 50.4546724259853 2589.99991416931 49 52 45
-814.75818157196 50.4191964864731 2588.00005912781 35 38 31
-796.828389167786 49.7407987713814 2552.99997329712 21 24 17
-775.993764400482 48.8674975931644 2507.99989700317 19 22 15
-764.296770095825 48.5592149198055 2492.00010299683 24 27 20
-762.109577655792 48.8550215959549 2506.99996948242 25 28 21
-747.488141059875 48.3518652617931 2480.99994659424 32 35 28
-739.277064800262 48.2579618692398 2476.0000705719 35 38 31
-749.436438083649 49.372561275959 2532.99999237061 35 38 31
-752.543747425079 50.0390082597733 2566.99991226196 40 43 36
-742.977023124695 49.8673282563686 2558.00008773804 47 50 43
-727.703273296356 49.3057072162628 2529.00004386902 44 47 40
-719.141840934753 49.1924807429314 2523.00000190735 38 41 34
-717.387914657593 49.5472252368927 2540.99988937378 29 32 25
-708.545506000519 49.414549022913 2533.99991989136 24 27 20
-697.247982025146 49.10634085536 2517.99988746643 22 25 18
-691.520273685455 49.1881817579269 2522.0000743866 18 21 14
-690.113842487335 49.582127481699 2542.00005531311 18 21 14
-682.147562503815 49.5079942047596 2538.00010681152 20 23 16
-674.468100070953 49.453366547823 2535.00008583069 21 24 17
-666.013896465302 49.3402183055878 2529.00004386902 22 25 18
-653.681695461273 48.9343889057636 2507.99989700317 23 26 19
-645.589411258698 48.8407164812088 2503.00002098084 24 27 20
-643.137872219086 49.176350235939 2519.99998092651 24 27 20
-640.088140964508 49.4730100035667 2535.00008583069 25 28 21
-635.20735502243 49.6331006288528 2542.99998283386 24 27 20
-624.846577644348 49.3638031184673 2529.00004386902 24 27 20
-624.823689460754 49.914326518774 2556.99992179871 24 27 20
-620.056509971619 50.0940196216106 2565.99998474121 23 26 19
-612.85012960434 50.0785037875175 2565.00005722046 22 25 18
-605.64798116684 50.0629842281342 2563.99989128113 20 23 16
-607.556462287903 50.8090071380138 2601.99999809265 21 24 15
-595.641314983368 50.4029653966427 2581.00008964539 17 20 11
-584.523260593414 50.0554367899895 2562.99996376038 15 18 9
-578.234076499939 50.118014216423 2565.99998474121 14 17 10
-578.606188297272 50.7665872573853 2598.99997711182 14 16 11
-571.980476379395 50.8096739649773 2601.0000705719 14 16 11
-562.084794044495 50.5597181618214 2588.00005912781 0 1 0
-552.258610725403 50.3097102046013 2575.00004768372 24 24 22
-544.831097126007 50.2745695412159 2572.99995422363 114 114 114
-537.413239479065 50.2394214272499 2571.00009918213 107 107 107
-531.655311584473 50.3605753183365 2576.99990272522 123 123 123
-525.049269199371 50.403568893671 2578.9999961853 121 121 119
-518.631875514984 50.4660904407501 2582.00001716614 129 131 128
-511.602461338043 50.4699572920799 2582.00001716614 164 166 165
-504.767119884491 50.4933558404446 2582.99994468689 177 178 180
-498.117744922638 50.5362786352634 2585.00003814697 177 181 184
-490.886270999908 50.5205355584621 2584.00011062622 174 178 181
-879.48215007782 44.1241636872292 2634.99999046326 203 208 204
-870.033025741577 44.0097413957119 2628.00002098084 16 21 15
-856.6814661026 43.6943732202053 2608.99996757507 28 33 27
-844.735383987427 43.4460081160069 2594.00010108948 36 41 35
-832.224369049072 43.1641452014446 2576.99990272522 33 36 29
-824.928998947144 43.1503020226955 2575.99997520447 27 30 23
-828.117311000824 43.6893105506897 2608.00004005432 26 29 22
-781.566441059113 42.3245206475258 2526.00002288818 43 46 39
-773.194253444672 42.2437526285648 2520.99990844727 42 45 38
-763.328850269318 42.079221457243 2510.99991798401 39 42 35
-747.792720794678 41.5962748229504 2482.00011253357 47 50 43
-752.102732658386 42.6081083714962 2542.00005531311 43 46 39
-751.081585884094 42.9465547204018 2562.00003623962 44 47 40
-741.528153419495 42.7988991141319 2552.99997329712 37 40 33
-727.706789970398 42.3997789621353 2529.00004386902 21 24 17
-717.720150947571 42.2185733914375 2517.99988746643 21 24 17
-711.462676525116 42.2553494572639 2519.99998092651 25 28 21
-704.634428024292 42.2586090862751 2519.99998092651 16 19 12
-697.805345058441 42.2618873417377 2519.99998092651 18 21 14
-690.152823925018 42.21485927701 2516.99995994568 22 25 18
-684.687733650208 42.3020347952843 2522.0000743866 22 25 18
-680.538535118103 42.4731038510799 2532.00006484985 23 26 19
-674.47167634964 42.5267815589905 2535.00008583069 24 27 20
-663.647353649139 42.2784872353077 2519.99998092651 24 27 20
-652.903497219086 42.0301631093025 2505.00011444092 25 28 21
-650.235652923584 42.3019789159298 2520.99990844727 26 29 22
-645.438492298126 42.4396023154259 2529.00004386902 26 29 22
-640.344321727753 42.5604730844498 2536.00001335144 26 29 22
-633.712291717529 42.5806492567062 2536.99994087219 27 30 23
-631.274163722992 42.8861938416958 2555.0000667572 26 29 22
-624.827444553375 42.9232008755207 2556.99992179871 25 28 21
-619.818687438965 43.0609434843063 2565.00005722046 24 27 20
-611.181318759918 42.9468639194965 2558.00008773804 22 25 18
-606.596529483795 43.118204921484 2568.00007820129 20 23 16
-606.159210205078 43.5918271541595 2595.99995613098 23 26 17
-597.491264343262 43.4777550399303 2588.99998664856 20 23 16
-584.070920944214 43.0109798908234 2561.00010871887 17 20 13
-579.139113426209 43.165560811758 2569.9999332428 11 14 7
-575.93834400177 43.4545427560806 2586.99989318848 11 13 8
-571.104466915131 43.6259694397449 2596.99988365173 11 13 8
-564.477622509003 43.6630249023438 2598.99997711182 19 20 15
-554.835915565491 43.4648431837559 2586.99989318848 3 3 1
-546.317040920258 43.3506369590759 2579.99992370605 134 134 132
-538.461983203888 43.2868115603924 2575.99997520447 131 131 129
-532.071650028229 43.3405973017216 2578.9999961853 139 139 139
-525.460064411163 43.3775670826435 2581.00008964539 129 131 130
-518.434643745422 43.3809161186218 2581.00008964539 155 159 160
-511.407911777496 43.3842465281487 2581.00008964539 163 167 168
-504.575252532959 43.4043630957603 2582.00001716614 166 170 171
-497.928619384766 43.4412769973278 2584.00011062622 174 178 179
-491.079747676849 43.4613600373268 2585.00003814697 177 181 182
-872.809290885925 36.6568639874458 2615.00000953674 57 62 58
-862.752199172974 36.5330278873444 2605.99994659424 28 33 27
-850.773751735687 36.3250933587551 2591.00008010864 41 46 40
-839.201927185059 36.1311845481396 2576.99990272522 30 35 29
-820.923984050751 35.6428325176239 2542.00005531311 40 43 36
-832.617461681366 36.4585444331169 2599.99990463257 40 43 36
-821.769595146179 36.2927541136742 2588.00005912781 41 44 37
-778.24455499649 34.6684232354164 2471.99988365173 40 43 36
-786.534607410431 35.3440679609776 2519.99998092651 46 49 42
-764.916181564331 34.9843874573708 2493.99995803833 51 54 47
-762.723684310913 35.1973362267017 2509.0000629425 48 51 44
-756.532907485962 35.2279618382454 2510.99991798401 53 56 49
-750.629186630249 35.2726429700851 2513.99993896484 48 51 44
-750.922203063965 35.612016916275 2538.00010681152 38 41 34
-748.739123344421 35.8392000198364 2553.99990081787 22 25 18
-737.464785575867 35.6313921511173 2539.00003433228 22 25 18
-726.558804512024 35.4376100003719 2525.00009536743 18 21 14
-718.293190002441 35.3701338171959 2519.99998092651 18 21 14
-707.513093948364 35.1763367652893 2506.00004196167 17 20 13
-704.078137874603 35.347506403923 2517.99988746643 19 22 15
-698.362231254578 35.406406968832 2522.0000743866 21 24 17
-689.607560634613 35.3108868002892 2515.00010490417 24 27 20
-682.247400283813 35.2855697274208 2513.00001144409 24 27 20
-677.585005760193 35.4006811976433 2520.99990844727 24 27 20
-674.208641052246 35.5860367417336 2533.99991989136 25 28 21
-664.440512657166 35.4343689978123 2523.00000190735 26 29 22
-652.385175228119 35.1562686264515 2503.00002098084 26 29 22
-651.528418064117 35.4821421205997 2526.00002288818 27 30 23
-650.801002979279 35.822119563818 2549.99995231628 27 30 23
-639.589905738831 35.5861485004425 2532.99999237061 26 29 22
-632.466554641724 35.574946552515 2532.00006484985 24 27 20
-627.324044704437 35.6761515140533 2539.00003433228 24 27 20
-622.142672538757 35.7773788273335 2546.0000038147 24 27 20
-615.472197532654 35.7942990958691 2546.99993133545 23 26 19
-609.03412103653 35.8252748847008 2549.00002479553 22 25 18
-602.82027721405 35.8703099191189 2552.00004577637 21 24 17
-595.655024051666 35.8591265976429 2551.00011825562 20 25 18
-591.955721378326 36.0588021576405 2565.00005722046 22 25 18
-584.074020385742 36.0054448246956 2561.00010871887 19 22 15
-574.410021305084 35.8395874500275 2549.00002479553 13 16 9
-573.047280311584 36.1939668655396 2573.99988174438 13 14 8
-568.468749523163 36.351528018713 2585.00003814697 13 14 8
-564.046323299408 36.523163318634 2596.99988365173 17 18 13
-556.554794311523 36.4979133009911 2595.00002861023 20 19 15
-547.378897666931 36.3601259887218 2585.00003814697 127 126 124
-539.928317070007 36.3348312675953 2582.99994468689 122 121 119
-532.693684101105 36.3235995173454 2582.00001716614 145 145 143
-526.07399225235 36.3545529544353 2584.00011062622 156 158 157
-519.040286540985 36.3573580980301 2584.00011062622 155 159 158
-512.005388736725 36.3601483404636 2584.00011062622 154 158 157
-505.164563655853 36.3769978284836 2585.00003814697 162 164 163
-498.124301433563 36.3797545433044 2585.00003814697 178 180 179
-490.892827510834 36.3684296607971 2584.00011062622 180 182 181
-485.912412405014 36.5259796380997 2595.00002861023 187 189 186
-866.469621658325 29.309906065464 2595.99995613098 55 60 54
-856.795251369476 29.2214434593916 2588.00005912781 53 58 52
-846.507251262665 29.1104149073362 2578.00006866455 30 35 28
-835.947573184967 28.988104313612 2566.99991226196 27 32 25
-824.801564216614 28.8432221859694 2553.99990081787 37 40 33
-821.731507778168 28.9806947112083 2565.99998474121 43 46 39
-821.771860122681 29.2311664670706 2588.00005912781 45 48 41
-769.212245941162 28.3355507999659 2507.99989700317 50 53 46
-757.254064083099 28.1455181539059 2490.9999370575 49 52 45
-756.836533546448 28.384868055582 2512.00008392334 27 30 23
-750.63157081604 28.40955555439 2513.99993896484 32 35 28
-746.782243251801 28.5246763378382 2523.9999294281 44 47 40
-741.998791694641 28.6059249192476 2530.99989891052 33 36 29
-735.724449157715 28.6306887865067 2532.99999237061 26 29 22
-724.259197711945 28.4519977867603 2516.99995994568 27 30 23
-719.720900058746 28.5446122288704 2525.00009536743 30 33 26
-713.726818561554 28.5807214677334 2528.00011634827 27 30 23
-704.919397830963 28.503779321909 2520.99990844727 31 34 27
-697.810888290405 28.4946896135807 2519.99998092651 31 34 27
