ply
format ascii 1.0
comment KinectMotionCapture
element vertex 802
property float x
property float y
property float z
property uchar red
property uchar green
property uchar blue
end_header
597.035348415375 -421.986639499664 2526.00002288818 15 18 11
606.024742126465 -423.463881015778 2535.00008583069 18 21 14
624.732911586761 -431.622505187988 2584.00011062622 20 23 16
642.238676548004 -438.777983188629 2627.00009346008 11 14 7
652.313768863678 -440.755099058151 2638.99993896484 9 11 6
660.703837871552 -441.563099622726 2644.00005340576 9 11 6
662.047624588013 -437.695205211639 2621.00005149841 8 10 5
665.308713912964 -435.163795948029 2605.99994659424 8 10 5
677.002012729645 -438.142985105515 2624.00007247925 9 11 6
686.445653438568 -439.619243144989 2632.99989700317 9 11 6
695.937395095825 -441.095471382141 2641.99995994568 9 10 5
703.348219394684 -441.236168146133 2642.99988746643 10 13 6
708.075881004334 -439.707696437836 2634.0000629425 12 15 8
712.754130363464 -438.179522752762 2625 15 18 11
716.012001037598 -435.817122459412 2611.00006103516 16 19 12
720.578491687775 -434.289783239365 2601.99999809265 14 17 10
741.314709186554 -442.442834377289 2651.00002288818 14 17 10
758.362770080566 -448.258817195892 2686.00010871887 13 18 14
772.464215755463 -452.238708734512 2710.00003814697 13 17 16
452.673405408859 -428.880542516708 2523.00000190735 16 19 12
460.614949464798 -429.87534403801 2529.00004386902 16 19 10
469.142645597458 -431.379735469818 2538.00010681152 21 24 15
477.530628442764 -432.71392583847 2546.0000038147 17 20 9
486.72217130661 -434.727519750595 2558.00008773804 17 20 9
492.890030145645 -434.02174115181 2553.99990081787 16 19 10
495.1211810112 -429.917424917221 2529.99997138977 15 18 9
497.816503047943 -426.323235034943 2509.0000629425 14 17 8
497.581213712692 -420.350611209869 2473.99997711182 12 15 8
504.289388656616 -420.325070619583 2473.99997711182 15 18 11
512.855529785156 -421.828359365463 2483.00004005432 13 16 9
521.888136863709 -423.671215772629 2493.99995803833 14 17 10
526.104271411896 -421.606868505478 2482.00011253357 16 19 12
529.825031757355 -419.202983379364 2467.99993515015 14 17 10
536.295056343079 -419.007331132889 2467.00000762939 15 18 11
548.261225223541 -423.057526350021 2490.9999370575 16 19 12
557.014524936676 -424.559861421585 2500 16 19 12
565.364599227905 -425.72233080864 2506.99996948242 14 17 10
572.382569313049 -425.865888595581 2507.99989700317 13 16 9
580.097854137421 -426.518768072128 2512.00008392334 14 17 10
590.637624263763 -429.209023714066 2528.00011634827 14 17 10
591.809391975403 -425.108075141907 2503.99994850159 13 16 9
601.695477962494 -427.288889884949 2516.99995994568 15 18 11
622.772037982941 -437.277972698212 2575.99997520447 17 20 13
634.144127368927 -440.306574106216 2594.00010108948 11 14 7
651.545107364655 -447.408407926559 2635.99991798401 8 10 5
662.675738334656 -450.096696615219 2651.99995040894 8 10 5
672.629415988922 -451.936304569244 2663.00010681152 8 10 5
675.238430500031 -448.854446411133 2644.99998092651 8 10 5
678.007364273071 -445.942848920822 2628.00002098084 8 10 5
682.247996330261 -444.049775600433 2617.00010299683 8 10 5
692.223370075226 -445.889830589294 2628.00002098084 12 13 8
702.789843082428 -448.06906580925 2641.00003242493 13 16 9
708.856344223022 -447.364270687103 2637.00008392334 14 17 10
716.258108615875 -447.50788807869 2638.00001144409 15 18 11
718.180418014526 -444.259136915207 2618.99995803833 15 18 11
727.199614048004 -445.421099662781 2625.99992752075 15 18 11
740.730166435242 -449.296861886978 2648.9999294281 13 16 9
756.64347410202 -454.529345035553 2680.0000667572 16 21 17
773.578941822052 -460.270196199417 2713.99998664856 4 8 7
453.365951776505 -436.422765254974 2526.99995040894 19 22 15
458.039939403534 -434.325158596039 2515.00010490417 18 21 12
475.031852722168 -443.797379732132 2569.9999332428 20 23 14
480.318158864975 -442.217320203781 2561.00010871887 16 19 8
481.558948755264 -437.011301517487 2530.99989891052 16 19 8
485.337793827057 -434.222936630249 2515.00010490417 16 19 10
489.420235157013 -431.780070066452 2500.99992752075 16 19 10
493.425726890564 -429.337352514267 2486.99998855591 15 18 9
495.544373989105 -425.341218709946 2463.99998664856 14 17 10
502.021610736847 -425.143003463745 2463.00005912781 16 19 12
512.210071086884 -428.05153131485 2480.00001907349 14 17 10
521.234333515167 -429.923981428146 2490.9999370575 14 17 10
527.773916721344 -429.72531914711 2490.00000953674 16 19 12
531.945765018463 -427.628308534622 2477.9999256134 14 17 10
544.529438018799 -432.261317968369 2505.00011444092 15 18 11
547.794878482819 -429.474115371704 2489.00008201599 15 18 11
554.760336875916 -429.62047457695 2490.00000953674 15 18 11
563.759744167328 -431.319445371628 2500 14 17 10
570.758700370789 -431.465566158295 2500.99992752075 13 16 9
576.607704162598 -430.749237537384 2496.99997901917 14 17 10
582.200527191162 -429.860472679138 2492.00010299683 14 17 10
593.437552452087 -433.1114590168 2510.99991798401 12 15 8
605.49384355545 -436.879575252533 2532.99999237061 13 16 9
614.042222499847 -438.060253858566 2539.99996185303 15 18 11
632.89487361908 -446.48402929306 2588.99998664856 8 11 4
646.821737289429 -451.285541057587 2617.00010299683 8 10 5
663.148105144501 -457.638382911682 2654.00004386902 8 10 5
667.550444602966 -455.714285373688 2642.99988746643 8 10 5
678.530037403107 -458.273321390152 2657.99999237061 8 10 5
677.206695079803 -452.556878328323 2625 8 10 5
676.486372947693 -447.358399629593 2595.00002861023 8 10 5
689.299643039703 -451.124548912048 2617.00010299683 10 11 6
702.497363090515 -455.062836408615 2640.00010490417 11 14 7
712.324559688568 -456.760108470917 2650.00009536743 12 15 8
719.218671321869 -456.561505794525 2648.9999294281 13 16 9
725.83281993866 -456.190824508667 2647.0000743866 13 16 9
730.77404499054 -454.786390066147 2638.99993896484 14 17 10
736.230909824371 -453.726947307587 2632.99989700317 11 14 7
758.876502513886 -463.179081678391 2687.99996376038 12 17 13
775.263607501984 -468.667477369308 2720.00002861023 5 9 8
450.190842151642 -446.9935297966 2548.00009727478 12 14 9
454.775840044022 -444.687515497208 2535.00008583069 19 21 16
461.110532283783 -444.135755300522 2532.00006484985 19 22 13
464.101016521454 -440.426617860794 2510.99991798401 17 20 11
463.413268327713 -433.385461568832 2470.99995613098 17 20 9
480.391532182693 -442.83053278923 2525.00009536743 17 20 9
483.96110534668 -439.82321023941 2507.99989700317 16 19 10
491.351127624512 -440.323323011398 2510.99991798401 15 18 9
493.201583623886 -435.913532972336 2486.00006103516 14 17 8
494.312077760696 -430.978089570999 2457.99994468689 15 18 11
499.957680702209 -430.075734853745 2453.00006866455 16 19 12
512.597143650055 -435.13411283493 2482.00011253357 14 17 10
520.998954772949 -436.510413885117 2490.00000953674 14 17 10
527.959585189819 -436.659336090088 2490.9999370575 16 19 12
536.212742328644 -437.859982252121 2497.99990653992 14 17 10
542.111933231354 -437.13241815567 2493.99995803833 14 17 10
548.64889383316 -436.930745840073 2493.00003051758 15 18 11
552.728831768036 -434.801250696182 2480.99994659424 15 18 11
558.772444725037 -434.24916267395 2477.9999256134 14 17 10
567.765593528748 -435.975193977356 2487.99991607666 13 16 9
571.039497852325 -433.32052230835 2473.00004959106 13 16 9
579.37079668045 -434.520751237869 2480.00001907349 13 16 9
591.756820678711 -438.699334859848 2503.99994850159 11 14 7
606.184363365173 -444.278985261917 2536.00001335144 13 16 9
622.718155384064 -451.25937461853 2575.99997520447 15 18 11
631.645619869232 -452.633678913116 2584.00011062622 8 11 4
649.760246276855 -460.488706827164 2628.99994850159 8 10 5
656.124532222748 -459.93584394455 2625.99992752075 8 10 5
664.997577667236 -461.134523153305 2632.99989700317 8 10 5
675.949990749359 -463.734239339828 2648.00000190735 8 10 5
682.339251041412 -463.181674480438 2644.99998092651 8 10 5
680.891454219818 -457.376152276993 2611.99998855591 8 10 5
687.956213951111 -457.349598407745 2611.99998855591 10 11 6
704.067349433899 -463.276088237762 2645.99990844727 10 13 6
714.179635047913 -465.175449848175 2657.00006484985 12 15 8
717.020630836487 -462.34804391861 2641.00003242493 13 16 9
720.871210098267 -460.221290588379 2628.99994850159 13 16 9
730.748474597931 -461.946099996567 2638.99993896484 13 16 9
740.399777889252 -463.495880365372 2648.00000190735 10 13 6
762.521028518677 -472.746878862381 2700.99997520447 9 14 10
458.517402410507 -455.310463905334 2555.99999427795 17 19 14
464.362651109695 -454.215794801712 2549.99995231628 19 22 13
469.989508390427 -452.942907810211 2542.99998283386 18 21 12
479.140520095825 -455.054044723511 2555.0000667572 18 21 10
482.648342847824 -451.82192325592 2536.99994087219 18 21 10
487.987190485001 -450.370967388153 2529.00004386902 16 19 10
493.868678808212 -449.454218149185 2523.9999294281 14 17 8
496.746361255646 -445.86655497551 2503.99994850159 12 15 6
496.297210454941 -439.430356025696 2467.99993515015 14 17 10
498.70902299881 -435.665488243103 2447.00002670288 16 19 12
510.092735290527 -439.734280109406 2470.00002861023 14 17 10
519.926428794861 -442.378371953964 2484.99989509583 16 19 12
527.509331703186 -443.064004182816 2489.00008201599 16 19 12
532.966554164886 -441.96954369545 2483.00004005432 14 17 10
539.477229118347 -441.76509976387 2482.00011253357 13 16 9
546.641767024994 -442.094564437866 2483.99996757507 13 16 9
548.024237155914 -437.796831130981 2460.00003814697 13 16 9
558.520615100861 -440.795838832855 2476.99999809265 13 16 9
570.021092891693 -444.506227970123 2497.99990653992 14 17 10
578.632831573486 -445.903062820435 2506.00004196167 10 13 6
572.803437709808 -436.268478631973 2451.99990272522 11 14 7
621.240675449371 -457.181662321091 2569.9999332428 16 19 12
639.684796333313 -465.514987707138 2617.00010299683 10 13 6
648.991227149963 -467.088252305985 2625.99992752075 8 10 5
656.596899032593 -467.416495084763 2628.00002098084 8 10 5
665.727913379669 -468.811869621277 2635.99991798401 8 10 5
674.901604652405 -470.207273960114 2644.00005340576 8 10 5
682.31213092804 -470.357775688171 2644.99998092651 8 10 5
684.253454208374 -466.774195432663 2625 8 10 5
694.250643253326 -468.703329563141 2635.99991798401 10 11 6
706.169366836548 -471.877068281174 2654.00004386902 11 14 7
710.927724838257 -470.250219106674 2644.99998092651 12 15 8
711.836159229279 -466.134935617447 2621.99997901917 13 16 9
715.635716915131 -463.975757360458 2609.99989509583 13 16 9
725.738644599915 -465.905547142029 2621.00005149841 11 14 7
738.976240158081 -469.790577888489 2642.99988746643 12 15 8
748.380243778229 -471.187144517899 2651.00002288818 12 17 13
455.969452857971 -466.796100139618 2581.00008964539 17 19 14
462.258368730545 -466.046422719955 2576.99990272522 18 20 15
467.614203691483 -464.392572641373 2568.00007820129 19 22 13
476.801216602325 -466.536074876785 2579.99992370605 17 20 11
484.927207231522 -467.59432554245 2585.99996566772 17 20 9
489.470392465591 -465.216934680939 2572.99995422363 17 20 9
489.11851644516 -458.319842815399 2535.00008583069 16 19 10
493.646562099457 -456.123739480972 2523.00000190735 15 18 9
498.703688383102 -454.470127820969 2513.99993896484 13 16 7
499.287396669388 -448.839873075485 2483.00004005432 12 15 8
500.517308712006 -443.93315911293 2456.00008964539 15 18 11
511.305451393127 -447.521865367889 2476.0000705719 13 16 9
523.665904998779 -452.375292778015 2503.00002098084 14 17 10
524.939656257629 -447.649747133255 2476.99999809265 16 19 12
531.008303165436 -447.081089019775 2473.99997711182 14 17 10
537.277102470398 -446.693122386932 2471.99988365173 13 16 9
544.194579124451 -446.847349405289 2473.00004959106 13 16 9
547.997832298279 -444.471895694733 2460.00003814697 13 16 9
558.719515800476 -447.697579860687 2477.9999256134 13 16 9
575.927019119263 -455.981254577637 2523.9999294281 14 17 10
579.991400241852 -453.786492347717 2512.00008392334 11 14 7
579.551637172699 -448.159843683243 2480.99994659424 12 15 8
576.580226421356 -440.727651119232 2440.00005722046 11 14 7
626.047790050507 -467.766374349594 2589.99991416931 16 19 12
647.478699684143 -478.394001722336 2648.9999294281 14 17 10
655.389070510864 -478.907763957977 2651.99995040894 8 10 5
657.568633556366 -475.268423557281 2631.99996948242 8 10 5
663.427531719208 -474.338054656982 2627.00009346008 8 10 5
670.024454593658 -473.949551582336 2625 8 10 5
680.479109287262 -476.269394159317 2638.00001144409 8 10 5
686.833083629608 -475.700587034225 2634.99999046326 8 10 5
692.906975746155 -474.951535463333 2631.00004196167 9 10 5
704.280078411102 -477.813005447388 2647.0000743866 10 13 6
706.600904464722 -474.537283182144 2628.99994850159 11 14 7
707.466423511505 -470.359653234482 2605.99994659424 12 15 8
717.255055904388 -472.138613462448 2615.9999370575 12 15 8
729.035615921021 -475.180864334106 2632.99989700317 11 14 7
737.55270242691 -476.05761885643 2638.00001144409 13 16 9
454.000055789948 -471.782028675079 2569.9999332428 21 23 20
463.308274745941 -474.142134189606 2582.99994468689 16 18 13
468.680292367935 -472.463518381119 2573.99988174438 16 19 12
477.328926324844 -474.088788032532 2582.99994468689 17 20 11
485.462844371796 -475.163102149963 2588.99998664856 17 20 11
486.399918794632 -469.263315200806 2556.99992179871 16 19 10
487.741321325302 -463.914722204208 2528.00011634827 13 16 9
491.076529026031 -460.584968328476 2509.99999046326 13 16 9
495.503336191177 -458.356499671936 2497.99990653992 13 16 9
499.059945344925 -455.394297838211 2482.00011253357 15 18 11
510.272622108459 -459.404081106186 2503.99994850159 14 17 10
515.821874141693 -458.27654004097 2497.99990653992 14 17 10
525.312721729279 -460.634589195251 2510.99991798401 15 18 11
528.091847896576 -457.122355699539 2492.00010299683 15 18 11
531.410992145538 -454.160690307617 2476.0000705719 14 17 10
538.337230682373 -454.317420721054 2476.99999809265 13 16 9
547.248542308807 -456.124752759933 2486.99998855591 13 16 9
551.758170127869 -454.264014959335 2476.99999809265 13 16 9
562.976658344269 -457.904934883118 2496.99997901917 12 15 8
574.530899524689 -461.728811264038 2517.99988746643 12 15 8
578.810036182404 -459.684729576111 2506.99996948242 13 16 9
577.422678470612 -453.240513801575 2471.99988365173 12 15 8
581.98881149292 -451.563954353333 2463.00005912781 10 13 6
630.37097454071 -478.092342615128 2608.00004005432 16 19 12
649.65033531189 -487.229913473129 2657.99999237061 13 16 9
662.033259868622 -491.050958633423 2678.99990081787 8 10 5
661.787986755371 -485.524028539658 2648.9999294281 8 10 5
662.1373295784 -480.547785758972 2621.99997901917 8 10 5
667.444705963135 -479.237496852875 2615.00000953674 8 10 5
679.420113563538 -482.692152261734 2634.0000629425 8 10 5
690.194487571716 -485.230356454849 2648.00000190735 8 10 5
700.517416000366 -487.402021884918 2660.00008583069 7 8 3
702.390849590302 -483.710408210754 2640.00010490417 9 12 5
701.736748218536 -478.370547294617 2611.00006103516 11 14 7
714.770019054413 -482.374757528305 2632.99989700317 11 14 7
723.535120487213 -483.447760343552 2638.99993896484 11 14 7
738.700449466705 -488.734096288681 2667.99998283386 12 15 8
746.753215789795 -489.257633686066 2671.0000038147 12 14 9
459.979653358459 -485.09019613266 2604.00009155273 21 23 20
464.357823133469 -482.269316911697 2588.99998664856 17 19 14
468.107461929321 -478.889763355255 2571.00009918213 17 20 13
472.128033638 -475.882917642593 2555.0000667572 19 22 15
475.310802459717 -472.131311893463 2535.00008583069 16 19 10
479.905813932419 -469.869762659073 2523.00000190735 15 18 11
485.592424869537 -468.725800514221 2516.99995994568 13 16 9
488.897889852524 -465.347230434418 2499.00007247925 13 16 9
497.460246086121 -466.996431350708 2507.99989700317 13 15 10
503.054678440094 -465.852439403534 2502.00009346008 14 17 10
510.449588298798 -466.384202241898 2505.00011444092 13 16 9
520.75070142746 -469.522148370743 2522.0000743866 13 16 9
525.285661220551 -467.447191476822 2510.99991798401 14 17 10
531.455397605896 -466.861605644226 2507.99989700317 14 17 10
536.5349650383 -465.34538269043 2500 13 16 9
543.526291847229 -465.504497289658 2500.99992752075 13 16 9
549.202024936676 -464.546829462051 2496.00005149841 13 16 9
557.745397090912 -466.008573770523 2503.99994850159 13 16 9
567.007780075073 -468.028545379639 2515.00010490417 12 15 8
568.115234375 -463.349163532257 2490.00000953674 12 15 8
576.936066150665 -464.996933937073 2499.00007247925 13 16 9
580.666184425354 -462.551116943359 2486.00006103516 12 15 8
582.907497882843 -458.989351987839 2467.00000762939 11 14 7
602.491438388824 -469.009071588516 2520.99990844727 14 16 11
627.684354782104 -483.120262622833 2596.99988365173 16 18 13
649.622082710266 -494.43981051445 2657.99999237061 13 15 10
662.74619102478 -498.875737190247 2681.99992179871 7 9 4
662.009954452515 -492.895364761353 2650.00009536743 7 9 4
662.362337112427 -487.845718860626 2622.99990653992 8 10 7
671.245872974396 -489.120125770569 2630.00011444092 8 10 7
680.16654253006 -490.394413471222 2637.00008392334 8 10 7
690.949141979218 -492.970496416092 2651.00002288818 8 10 5
697.593331336975 -492.571264505386 2648.9999294281 9 12 5
700.235545635223 -489.383280277252 2631.99996948242 10 13 6
705.74164390564 -488.241076469421 2625.99992752075 12 15 8
714.47229385376 -489.330172538757 2631.99996948242 12 15 8
728.718042373657 -494.137525558472 2657.99999237061 10 15 8
736.459493637085 -494.483172893524 2660.00008583069 8 13 7
736.9424700737 -489.995867013931 2635.99991798401 11 16 10
767.49861240387 -505.398213863373 2719.00010108948 12 16 15
464.510381221771 -489.483147859573 2589.99991416931 13 15 10
467.352449893951 -485.109686851501 2566.99991226196 13 16 9
468.960136175156 -479.602813720703 2538.00010681152 15 18 11
474.159181118011 -477.875471115112 2529.00004386902 13 16 7
481.020420789719 -477.848768234253 2529.00004386902 13 16 9
484.022378921509 -474.043190479279 2509.0000629425 13 16 9
491.610050201416 -474.772125482559 2513.00001144409 14 17 10
503.185212612152 -479.279160499573 2536.99994087219 14 16 11
509.260356426239 -478.49628329277 2532.99999237061 14 17 10
513.275325298309 -475.824505090714 2519.00005340576 13 16 9
517.626345157623 -473.530620336533 2506.99996948242 13 16 9
524.003446102142 -473.125815391541 2505.00011444092 14 17 10
530.580639839172 -472.909718751907 2503.99994850159 14 17 10
538.439333438873 -473.826795816422 2509.0000629425 13 16 9
544.368386268616 -473.044157028198 2505.00011444092 13 16 9
546.974658966064 -469.429135322571 2486.00006103516 13 16 9
552.818179130554 -468.646883964539 2482.00011253357 13 16 9
561.344504356384 -470.130324363709 2490.00000953674 12 15 8
568.088233470917 -470.103234052658 2490.00000953674 12 15 8
578.986704349518 -473.474323749542 2507.99989700317 13 16 9
581.573605537415 -470.049262046814 2490.00000953674 12 15 8
585.24364233017 -467.56836771965 2476.99999809265 11 14 7
599.118709564209 -473.204284906387 2506.99996948242 13 15 10
653.01513671875 -504.291236400604 2671.99993133545 13 15 10
660.740852355957 -504.640102386475 2674.00002479553 7 9 4
659.23398733139 -498.006820678711 2638.99993896484 7 9 4
662.839770317078 -495.337158441544 2625 8 10 7
671.473443508148 -496.441662311554 2631.00004196167 8 10 7
681.686520576477 -498.678296804428 2642.99988746643 8 10 7
688.57604265213 -498.462229967117 2641.99995994568 8 10 5
699.146151542664 -500.887513160706 2654.99997138977 7 9 4
700.740873813629 -496.898770332336 2634.0000629425 11 14 7
708.671271800995 -497.437924146652 2637.00008392334 12 15 8
718.789041042328 -499.486267566681 2648.00000190735 12 15 8
725.950181484222 -499.459892511368 2648.00000190735 9 14 7
726.743400096893 -495.095729827881 2625 9 14 8
766.625642776489 -512.206315994263 2716.00008010864 13 17 16
463.458508253098 -503.054916858673 2624.00007247925 14 16 13
465.55957198143 -497.660040855408 2595.99995613098 13 15 10
471.876889467239 -496.866106987 2592.00000762939 12 15 8
468.194365501404 -485.721319913864 2533.99991989136 14 17 10
476.569682359695 -487.227946519852 2542.00005531311 12 15 6
483.656197786331 -487.392604351044 2542.99998283386 12 15 8
487.853676080704 -484.682381153107 2529.00004386902 13 16 9
499.60333108902 -489.446222782135 2553.99990081787 14 17 10
511.884391307831 -494.592756032944 2581.00008964539 14 16 11
504.408121109009 -480.768471956253 2509.0000629425 15 18 11
513.248085975647 -482.657372951508 2519.00005340576 13 16 9
516.153931617737 -478.989660739899 2500 14 17 10
520.629465579987 -476.855129003525 2489.00008201599 15 18 11
531.189024448395 -480.27628660202 2506.99996948242 14 17 10
538.841128349304 -481.015235185623 2510.99991798401 14 17 10
541.516125202179 -477.348327636719 2492.00010299683 13 16 9
533.086895942688 -464.104771614075 2423.00009727478 13 16 9
552.122950553894 -474.804043769836 2479.00009155273 13 16 9
561.091959476471 -476.692169904709 2489.00008201599 12 15 8
567.148685455322 -476.090520620346 2486.00006103516 12 15 8
574.573397636414 -476.637929677963 2489.00008201599 12 15 8
581.780135631561 -476.993829011917 2490.9999370575 13 16 9
584.744334220886 -473.903208971024 2474.99990463257 11 14 7
594.312310218811 -476.174026727676 2486.99998855591 13 15 10
652.986526489258 -511.537611484528 2671.99993133545 12 14 9
658.982753753662 -510.551869869232 2667.00005531311 7 9 4
657.957017421722 -504.206478595734 2634.0000629425 7 9 4
660.034596920013 -500.35035610199 2614.00008201599 8 10 7
669.659495353699 -502.236843109131 2624.00007247925 8 10 7
682.432770729065 -506.419897079468 2645.99990844727 8 10 7
691.936671733856 -508.114814758301 2654.99997138977 8 10 5
694.905638694763 -505.025506019592 2638.99993896484 9 12 5
699.11777973175 -502.893507480621 2628.00002098084 11 14 7
707.838416099548 -504.014909267426 2634.0000629425 12 15 8
720.391154289246 -507.815182209015 2654.00004386902 12 15 8
727.294623851776 -507.597386837006 2653.00011634827 9 14 7
728.93238067627 -503.744781017303 2632.99989700317 9 14 8
748.91185760498 -512.519299983978 2678.99990081787 13 18 12
460.782080888748 -507.25656747818 2608.99996757507 14 16 13
468.401670455933 -507.81261920929 2611.99998855591 12 14 9
474.03421998024 -506.229996681213 2604.00009155273 9 12 5
481.654703617096 -506.785690784454 2607.00011253357 10 13 6
481.917440891266 -492.540955543518 2533.99991989136 12 15 8
492.648899555206 -496.401071548462 2553.99990081787 13 16 9
503.096759319305 -499.8719394207 2572.00002670288 13 16 9
511.261582374573 -501.010179519653 2578.00006866455 13 15 10
503.174722194672 -486.407518386841 2503.00002098084 15 18 11
510.572135448456 -486.963331699371 2506.00004196167 14 17 10
518.191277980804 -487.713247537613 2509.99999046326 14 17 10
522.275626659393 -485.159993171692 2496.99997901917 15 18 11
530.737936496735 -486.68697476387 2505.00011444092 15 18 11
537.097036838531 -486.271023750305 2503.00002098084 14 17 10
539.533317089081 -482.358366250992 2483.00004005432 13 16 9
542.520403862 -479.028850793839 2466.00008010864 13 16 9
552.763998508453 -482.109725475311 2482.00011253357 13 16 9
561.290144920349 -483.636349439621 2490.00000953674 12 15 8
567.577719688416 -483.22069644928 2487.99991607666 12 15 8
572.238028049469 -481.445699930191 2479.00009155273 11 14 7
580.118238925934 -482.389628887177 2483.99996757507 13 16 9
588.497459888458 -483.721911907196 2490.9999370575 12 15 8
596.674978733063 -484.860002994537 2496.99997901917 13 15 10
652.469158172607 -518.395066261292 2670.00007629395 12 14 9
661.425054073334 -519.725441932678 2677.00004577637 7 9 4
658.678352832794 -511.931538581848 2637.00008392334 7 9 4
662.27924823761 -509.18573141098 2622.99990653992 8 10 7
674.225389957428 -512.846231460571 2641.99995994568 8 10 7
687.305212020874 -517.282903194427 2664.99996185303 8 10 7
695.557594299316 -518.031477928162 2668.99991035461 8 10 5
696.72167301178 -513.540029525757 2645.99990844727 9 12 5
699.357032775879 -510.213732719421 2628.99994850159 10 13 6
707.274258136749 -510.769188404083 2631.99996948242 11 14 7
718.464612960815 -513.653457164764 2647.0000743866 12 15 8
725.349426269531 -513.43297958374 2645.99990844727 10 15 8
734.166383743286 -514.571070671082 2651.99995040894 8 13 7
746.370077133179 -518.037617206573 2670.00007629395 12 17 11
461.6379737854 -515.318691730499 2614.00008201599 20 22 19
466.76042675972 -513.122856616974 2602.9999256134 18 20 15
472.18644618988 -511.321425437927 2594.00010108948 14 17 10
479.410111904144 -511.491060256958 2595.00002861023 15 18 11
483.264058828354 -508.112728595734 2578.00006866455 11 14 5
491.078346967697 -501.751005649567 2546.0000038147 13 16 9
499.743908643723 -503.497123718262 2555.0000667572 13 16 9
501.51664018631 -498.34606051445 2529.00004386902 12 14 9
502.946555614471 -492.998480796814 2502.00009346008 14 17 10
511.155962944031 -494.350403547287 2509.0000629425 12 15 8
517.957448959351 -494.323015213013 2509.0000629425 13 16 9
523.921549320221 -493.507534265518 2505.00011444092 14 17 10
529.439389705658 -492.298007011414 2499.00007247925 13 16 9
535.996794700623 -492.073595523834 2497.99990653992 13 16 9
541.027009487152 -490.470409393311 2490.00000953674 13 16 9
547.113060951233 -489.852130413055 2486.99998855591 13 16 9
554.741024971008 -490.6125664711 2490.9999370575 13 16 9
564.644038677216 -493.342489004135 2505.00011444092 12 15 8
569.831609725952 -491.936445236206 2497.99990653992 12 15 8
575.903952121735 -491.318374872208 2494.99988555908 11 14 7
583.827614784241 -492.275714874268 2500 13 16 9
591.305255889893 -492.839187383652 2503.00002098084 12 15 8
611.223638057709 -503.640830516815 2558.00008773804 12 14 9
653.417885303497 -526.422202587128 2674.00002479553 12 14 9
659.419775009155 -525.409162044525 2668.99991035461 7 9 4
669.89004611969 -527.93961763382 2681.99992179871 7 9 4
681.853115558624 -525.91460943222 2671.99993133545 8 10 7
690.372169017792 -526.870667934418 2677.00004577637 8 10 7
699.438810348511 -528.220295906067 2684.00001525879 8 10 5
698.010981082916 -521.698474884033 2651.00002288818 10 13 6
697.734177112579 -516.161322593689 2622.99990653992 9 12 5
714.771628379822 -523.415267467499 2660.00008583069 10 13 6
720.337927341461 -522.207915782928 2654.00004386902 12 15 8
722.033739089966 -518.246352672577 2634.0000629425 10 15 8
736.078143119812 -523.138999938965 2658.99991989136 9 14 8
747.741758823395 -526.260793209076 2674.99995231628 12 17 11
464.581400156021 -517.783880233765 2591.00008010864 19 21 16
467.244416475296 -512.960493564606 2566.99991226196 19 22 15
473.101586103439 -511.734366416931 2561.00010871887 13 16 9
477.238148450851 -508.709788322449 2546.0000038147 11 14 5
482.433497905731 -506.884336471558 2536.99994087219 10 13 6
490.279406309128 -507.855832576752 2542.00005531311 12 15 8
496.000111103058 -506.629645824432 2536.00001335144 13 16 9
499.109596014023 -502.806603908539 2516.99995994568 12 14 9
501.914262771606 -498.784095048904 2496.99997901917 15 18 11
509.906232357025 -499.955236911774 2503.00002098084 14 17 10
514.214217662811 -497.530996799469 2490.9999370575 14 17 10
519.711196422577 -496.30531668663 2484.99989509583 13 16 9
527.081549167633 -496.877163648605 2487.99991607666 13 16 9
536.398470401764 -499.246180057526 2500 13 16 9
543.389558792114 -499.418288469315 2500.99992752075 12 15 8
547.305703163147 -496.794998645782 2487.99991607666 12 15 8
554.045617580414 -496.767610311508 2487.99991607666 12 15 8
562.137126922607 -497.938185930252 2493.99995803833 12 15 8
567.979514598846 -497.112274169922 2490.00000953674 11 14 7
574.261009693146 -496.68562412262 2487.99991607666 10 13 6
582.866251468658 -498.255372047424 2496.00005149841 12 15 8
600.963354110718 -507.809460163116 2543.99991035461 12 15 8
615.018784999847 -513.769805431366 2573.99988174438 12 14 9
639.626681804657 -528.311908245087 2647.0000743866 13 15 10
652.655959129334 -533.07318687439 2671.0000038147 11 13 8
660.626530647278 -533.643186092377 2674.00002479553 8 10 5
663.117825984955 -529.823005199432 2654.99997138977 8 10 5
674.594700336456 -533.1871509552 2671.99993133545 8 10 7
682.590484619141 -533.757448196411 2674.99995231628 7 9 6
687.76524066925 -532.133162021637 2667.00005531311 7 9 6
690.551102161407 -528.713643550873 2650.00009536743 7 9 4
691.138088703156 -523.698627948761 2625 8 11 4
708.081126213074 -531.053006649017 2661.99994087219 9 12 5
715.819418430328 -531.424939632416 2664.00003433228 11 14 7
721.39698266983 -530.201315879822 2657.99999237061 12 15 8
722.007691860199 -525.387763977051 2634.0000629425 10 15 8
730.792582035065 -526.558458805084 2640.00010490417 12 17 11
744.361639022827 -531.12006187439 2663.00010681152 13 18 12
464.585036039352 -532.93913602829 2631.00004196167 24 26 23
463.836818933487 -523.999154567719 2586.99989318848 19 21 16
461.210817098618 -513.237059116364 2533.99991989136 21 24 17
470.857530832291 -516.247987747192 2549.00002479553 15 18 11
475.336462259293 -513.587892055511 2536.00001335144 13 16 7
482.976615428925 -514.370679855347 2539.99996185303 12 15 8
491.21618270874 -515.760600566864 2546.99993133545 13 16 9
496.16813659668 -513.708114624023 2536.99994087219 13 16 9
501.263320446014 -511.85816526413 2528.00011634827 11 13 8
510.529756546021 -514.260113239288 2539.99996185303 12 15 8
507.4343085289 -504.312038421631 2490.9999370575 14 17 10
512.741982936859 -502.867579460144 2483.99996757507 14 17 10
519.265651702881 -502.637803554535 2483.00004005432 15 18 11
527.054190635681 -503.622531890869 2487.99991607666 14 17 10
538.301825523376 -507.84569978714 2509.0000629425 14 17 10
542.927503585815 -505.794048309326 2499.00007247925 13 16 9
547.058343887329 -503.337800502777 2486.99998855591 13 16 9
552.014231681824 -501.691460609436 2479.00009155273 13 16 9
563.236653804779 -505.711376667023 2499.00007247925 13 16 9
571.145415306091 -506.695687770844 2503.99994850159 12 15 8
576.310992240906 -505.25176525116 2496.99997901917 10 13 6
584.940612316132 -506.843090057373 2505.00011444092 12 15 8
595.975041389465 -510.457515716553 2523.00000190735 12 15 8
616.663336753845 -522.164106369019 2581.00008964539 12 14 9
640.564560890198 -536.297082901001 2651.00002288818 13 15 10
650.183856487274 -538.291335105896 2661.00001335144 11 13 8
656.398057937622 -537.453591823578 2657.00006484985 8 10 5
660.841822624207 -535.200238227844 2645.99990844727 8 10 5
660.176277160645 -528.902173042297 2615.00000953674 7 9 6
676.94878578186 -536.55993938446 2653.00011634827 7 9 6
682.064294815063 -534.914195537567 2644.99998092651 7 9 6
684.790968894959 -531.448841094971 2628.00002098084 7 9 4
688.478291034698 -528.792858123779 2615.00000953674 8 11 4
703.532218933105 -534.832179546356 2644.99998092651 9 12 5
714.449107646942 -537.636160850525 2658.99991989136 10 13 6
720.827639102936 -537.002861499786 2655.99989891052 12 15 8
713.21040391922 -526.059031486511 2601.99999809265 9 14 7
730.48996925354 -533.51354598999 2638.99993896484 10 15 9
739.304721355438 -534.700870513916 2644.99998092651 12 17 11
453.433364629745 -527.140140533447 2568.00007820129 23 25 22
456.996619701386 -523.213028907776 2549.00002479553 18 20 15
464.823812246323 -524.212181568146 2553.99990081787 18 21 14
468.79842877388 -520.901024341583 2538.00010681152 17 20 13
477.558314800262 -522.926032543182 2548.00009727478 15 18 9
490.174382925034 -529.055058956146 2578.00006866455 14 17 10
491.574257612228 -523.076057434082 2549.00002479553 14 17 10
499.660640954971 -524.279475212097 2555.0000667572 13 16 9
505.597651004791 -523.225605487823 2549.99995231628 11 13 8
512.109756469727 -522.78733253479 2548.00009727478 10 13 6
521.665692329407 -525.426506996155 2561.00010871887 11 14 7
517.66836643219 -514.52511548996 2507.99989700317 14 17 10
520.283877849579 -510.394692420959 2487.99991607666 15 18 11
528.085827827454 -511.392831802368 2493.00003051758 14 17 10
537.416040897369 -513.826787471771 2505.00011444092 14 17 10
544.420599937439 -514.004170894623 2506.00004196167 14 17 10
545.711159706116 -508.849084377289 2480.99994659424 14 17 10
553.100109100342 -509.436905384064 2483.99996757507 14 17 10
561.406075954437 -510.845005512238 2490.9999370575 13 16 9
571.117877960205 -513.483464717865 2503.99994850159 12 15 8
580.437839031219 -515.711605548859 2515.00010490417 10 13 6
588.182151317596 -516.504108905792 2519.00005340576 12 15 8
593.82164478302 -515.451431274414 2513.99993896484 12 15 8
604.689598083496 -518.909454345703 2530.99989891052 12 14 9
635.461866855621 -539.178073406219 2630.00011444092 13 15 10
650.888204574585 -546.119630336761 2664.00003433228 11 13 8
655.628502368927 -544.041097164154 2654.00004386902 7 9 4
662.062287330627 -543.397784233093 2651.00002288818 7 9 4
666.712164878845 -541.319906711578 2641.00003242493 7 9 6
680.748045444489 -546.82582616806 2667.99998283386 7 9 6
687.967360019684 -546.797931194305 2667.99998283386 6 8 5
685.024321079254 -538.777649402618 2628.99994850159 6 8 3
697.665870189667 -543.053984642029 2650.00009536743 7 10 3
701.37757062912 -540.363013744354 2637.00008392334 8 11 4
712.272822856903 -543.204963207245 2651.00002288818 9 12 5
718.901336193085 -542.768537998199 2648.9999294281 11 14 7
722.777843475342 -540.283679962158 2637.00008392334 10 15 8
726.035475730896 -537.389576435089 2622.99990653992 13 18 12
738.999783992767 -541.666388511658 2644.00005340576 12 17 11
444.578260183334 -523.702383041382 2517.99988746643 16 18 15
454.997539520264 -527.835190296173 2538.00010681152 21 23 18
462.612688541412 -528.639912605286 2542.00005531311 14 17 10
471.726298332214 -531.108021736145 2553.99990081787 19 22 15
472.845435142517 -524.63436126709 2523.00000190735 17 20 11
487.674802541733 -533.340156078339 2565.00005722046 15 18 11
495.596081018448 -534.351885318756 2569.9999332428 15 18 11
498.850524425507 -530.373573303223 2551.00011825562 15 18 11
510.674893856049 -528.238713741302 2540.99988937378 11 14 7
513.693809509277 -524.261236190796 2522.0000743866 12 15 8
518.879055976868 -522.570490837097 2513.99993896484 12 15 8
524.438500404358 -521.295547485352 2507.99989700317 14 17 10
530.811905860901 -520.852208137512 2506.00004196167 15 18 11
538.460910320282 -521.655797958374 2509.99999046326 15 18 11
545.044660568237 -521.420240402222 2509.0000629425 13 16 9
550.742506980896 -520.353436470032 2503.99994850159 13 16 9
554.18598651886 -517.208814620972 2489.00008201599 13 16 9
565.66059589386 -521.544873714447 2509.99999046326 13 16 9
573.143005371094 -522.140502929688 2513.00001144409 12 15 8
582.948803901672 -524.813830852509 2526.00002288818 10 13 6
590.022444725037 -524.99383687973 2526.99995040894 12 15 8
593.321859836578 -521.850168704987 2512.00008392334 12 15 8
610.873520374298 -531.170666217804 2556.99992179871 12 14 9
639.299094676971 -549.630105495453 2645.99990844727 13 15 10
649.637818336487 -552.30176448822 2658.99991989136 8 10 5
658.564269542694 -553.727090358734 2665.99988937378 8 10 5
670.774638652802 -557.852447032928 2686.00010871887 8 10 5
679.306030273438 -558.862268924713 2690.99998474121 7 9 6
686.58834695816 -558.8338971138 2690.99998474121 7 9 6
690.260231494904 -555.898606777191 2677.00004577637 7 9 6
698.545873165131 -556.701302528381 2680.99999427795 7 9 4
699.218213558197 -551.482796669006 2655.99989891052 6 9 2
711.723387241364 -555.60827255249 2676.00011825562 7 10 3
715.201556682587 -552.67459154129 2661.99994087219 8 11 4
724.845230579376 -554.516434669495 2671.0000038147 12 15 8
721.655547618866 -546.601355075836 2632.99989700317 11 16 9
733.483254909515 -550.10461807251 2650.00009536743 12 17 11
446.365833282471 -524.601519107819 2490.00000953674 25 27 22
457.490116357803 -529.631018638611 2513.99993896484 17 20 13
471.881121397018 -530.419528484344 2517.99988746643 17 20 11
478.711485862732 -530.392169952393 2517.99988746643 16 19 12
490.940243005753 -536.262392997742 2546.0000038147 16 19 12
497.062742710114 -535.392105579376 2542.00005531311 16 19 12
500.387191772461 -531.573295593262 2523.9999294281 13 15 10
502.005636692047 -526.070058345795 2497.99990653992 12 15 8
508.777737617493 -526.042520999908 2497.99990653992 11 14 7
515.755593776703 -526.225566864014 2499.00007247925 11 14 7
523.365318775177 -527.040183544159 2503.00002098084 13 16 9
530.360579490662 -527.222990989685 2503.99994850159 14 17 10
536.502540111542 -526.563704013824 2500.99992752075 15 18 11
545.885801315308 -529.062390327454 2513.00001144409 13 16 9
552.254319190979 -528.61350774765 2510.99991798401 13 16 9
559.947192668915 -529.427826404572 2515.00010490417 13 16 9
564.956784248352 -527.716040611267 2506.99996948242 12 15 8
573.343336582184 -529.161810874939 2513.99993896484 11 14 7
575.53642988205 -524.924695491791 2493.99995803833 10 13 6
586.025655269623 -528.264760971069 2509.99999046326 12 15 8
595.420062541962 -530.552327632904 2520.99990844727 12 15 8
608.456790447235 -535.996317863464 2546.99993133545 12 14 9
641.203284263611 -558.48491191864 2654.00004386902 13 15 10
651.563704013824 -561.19179725647 2667.00005531311 11 13 8
654.089510440826 -557.165324687958 2648.00000190735 9 11 6
664.253354072571 -559.66192483902 2660.00008583069 9 11 6
679.277539253235 -566.155731678009 2690.99998474121 9 11 8
686.304986476898 -565.917074680328 2690.00005722046 8 10 7
691.779315471649 -564.416348934174 2683.00008773804 8 10 7
695.912718772888 -561.864256858826 2671.0000038147 8 10 5
706.562101840973 -564.571380615234 2684.00001525879 7 9 4
717.015326023102 -567.068099975586 2696.00009918213 7 10 3
722.428560256958 -565.568625926971 2688.99989128113 8 11 4
715.320885181427 -554.395020008087 2635.99991798401 10 13 6
727.111220359802 -557.944357395172 2653.00011634827 9 14 7
736.225426197052 -559.390664100647 2660.00008583069 9 14 8
441.499441862106 -525.588095188141 2463.00005912781 23 25 20
450.184494256973 -527.90892124176 2473.99997711182 29 32 25
458.55912566185 -529.802680015564 2483.00004005432 18 21 12
466.794282197952 -531.482696533203 2490.9999370575 19 22 13
476.783066987991 -535.082638263702 2507.99989700317 19 22 13
486.863285303116 -538.681983947754 2525.00009536743 17 20 11
496.83940410614 -542.067646980286 2540.99988937378 16 19 10
501.548945903778 -539.693295955658 2529.99997138977 13 16 7
507.202863693237 -538.385570049286 2523.9999294281 10 13 6
506.713569164276 -530.679106712341 2487.99991607666 10 13 6
517.172574996948 -534.490823745728 2506.00004196167 10 13 6
525.428414344788 -535.955965518951 2513.00001144409 12 15 8
530.121088027954 -533.795535564423 2503.00002098084 14 17 10
535.616815090179 -532.488346099854 2496.99997901917 16 19 12
544.554650783539 -534.593105316162 2506.99996948242 12 15 8
553.106248378754 -536.271214485168 2515.00010490417 12 15 8
559.474170207977 -535.81690788269 2513.00001144409 12 15 8
565.379858016968 -534.936368465424 2509.0000629425 12 15 8
574.227869510651 -536.827504634857 2517.99988746643 11 14 7
575.970649719238 -532.109797000885 2496.00005149841 10 13 6
585.06441116333 -534.21413898468 2506.00004196167 12 15 8
592.79465675354 -535.03942489624 2509.99999046326 12 15 8
610.101282596588 -544.390797615051 2553.99990081787 12 14 9
640.20824432373 -564.824759960175 2650.00009536743 13 15 10
649.092018604279 -566.288113594055 2657.00006484985 8 10 5
652.332246303558 -562.849760055542 2641.00003242493 9 11 6
659.979999065399 -563.247799873352 2642.99988746643 9 11 6
677.229881286621 -571.743786334991 2683.00008773804 9 11 8
686.276793479919 -573.207259178162 2690.00005722046 9 11 8
688.915371894836 -569.34380531311 2671.99993133545 9 11 8
696.14577293396 -569.316208362579 2671.99993133545 8 10 7
703.902304172516 -569.714963436127 2674.00002479553 9 12 5
712.201058864594 -570.540070533752 2677.99997329712 8 11 4
717.834651470184 -569.234907627106 2671.99993133545 8 11 4
719.636559486389 -564.947843551636 2651.99995040894 9 12 5
729.003608226776 -566.626012325287 2660.00008583069 8 13 6
744.225859642029 -572.777450084686 2688.99989128113 11 16 10
451.152175664902 -543.931782245636 2516.99995994568 10 12 7
461.075216531754 -547.578394412994 2533.99991989136 32 34 29
465.180337429047 -544.309914112091 2519.00005340576 20 23 14
469.203233718872 -541.041553020477 2503.99994850159 20 23 14
479.607135057449 -545.11946439743 2523.00000190735 20 23 12
487.992495298386 -546.820342540741 2530.99989891052 18 21 10
496.420502662659 -548.520982265472 2539.00003433228 16 19 8
502.512335777283 -547.628998756409 2535.00008583069 13 16 7
501.146852970123 -538.744449615479 2493.99995803833 11 14 7
508.31538438797 -539.148926734924 2496.00005149841 10 13 6
516.113042831421 -540.201306343079 2500.99992752075 10 13 6
522.26459980011 -539.52568769455 2497.99990653992 11 14 7
527.5519490242 -537.986218929291 2490.9999370575 12 15 8
533.444225788116 -537.094831466675 2486.99998855591 13 16 9
543.658137321472 -540.522515773773 2503.00002098084 14 17 10
553.29829454422 -543.301999568939 2516.00003242493 13 16 9
556.997537612915 -540.251195430756 2502.00009346008 10 13 6
563.324213027954 -539.791762828827 2500 10 13 6
571.463763713837 -541.059732437134 2506.00004196167 11 14 7
581.711828708649 -544.270575046539 2520.99990844727 11 14 7
585.270404815674 -541.220605373383 2506.99996948242 11 14 7
595.129013061523 -543.999671936035 2519.99998092651 13 16 9
614.851057529449 -555.628836154938 2573.99988174438 12 14 9
638.005435466766 -570.063054561615 2641.00003242493 11 13 8
649.796366691589 -574.135661125183 2660.00008583069 8 10 5
654.527008533478 -571.948945522308 2650.00009536743 9 11 6
663.447737693787 -573.431491851807 2657.00006484985 9 11 6
673.415541648865 -575.777351856232 2667.99998283386 8 10 7
686.24871969223 -580.496966838837 2690.00005722046 8 10 7
692.497134208679 -579.605877399445 2686.00010871887 9 11 8
696.899890899658 -577.204585075378 2674.99995231628 10 12 9
702.558934688568 -575.882792472839 2668.99991035461 11 12 7
707.387268543243 -573.913991451263 2660.00008583069 12 13 8
709.480345249176 -569.788217544556 2641.00003242493 11 13 8
710.384786128998 -564.800202846527 2618.00003051758 11 13 8
731.992423534393 -576.208174228668 2671.0000038147 10 12 7
743.093013763428 -579.202473163605 2684.99994277954 3 5 2
756.784498691559 -584.13827419281 2707.99994468689 21 23 20
790.069818496704 -603.957176208496 2799.99995231628 10 12 11
815.306603908539 -617.30420589447 2861.99998855591 64 68 69
826.787412166595 -620.082080364227 2875 110 114 117
457.936108112335 -559.066355228424 2555.0000667572 33 35 30
463.049471378326 -556.850969791412 2545.00007629395 23 26 19
467.922985553741 -554.41677570343 2533.99991989136 22 25 16
472.736090421677 -551.982760429382 2523.00000190735 22 25 16
476.538360118866 -548.455059528351 2506.99996948242 20 23 12
485.458523035049 -550.834000110626 2517.99988746643 19 22 11
496.001601219177 -554.962575435638 2536.99994087219 17 20 9
500.898599624634 -552.747368812561 2526.99995040894 14 17 8
504.334270954132 -549.001216888428 2509.99999046326 13 16 9
507.269620895386 -544.817924499512 2490.9999370575 11 14 7
514.434576034546 -545.227885246277 2493.00003051758 10 13 6
519.728183746338 -543.669462203979 2486.00006103516 11 14 7
524.983167648315 -542.111217975616 2479.00009155273 12 15 8
533.202230930328 -543.614447116852 2486.00006103516 14 17 10
545.150756835938 -548.83474111557 2509.99999046326 13 16 9
553.270518779755 -550.118923187256 2516.00003242493 13 16 9
557.637870311737 -547.686159610748 2505.00011444092 12 15 8
559.466242790222 -542.848765850067 2483.00004005432 11 14 7
573.260426521301 -549.598515033722 2513.99993896484 10 13 6
581.684172153473 -551.10114812851 2520.99990844727 11 14 7
590.145409107208 -552.603781223297 2528.00011634827 12 15 8
598.171591758728 -553.669214248657 2532.99999237061 13 16 9
617.689490318298 -565.226018428802 2585.99996566772 12 14 9
639.667987823486 -578.748941421509 2648.00000190735 11 13 8
653.18775177002 -584.402859210968 2674.00002479553 9 11 6
659.438371658325 -583.50020647049 2670.00007629395 8 10 5
665.167450904846 -582.160711288452 2664.00003433228 8 10 5
672.125637531281 -581.914246082306 2663.00010681152 8 10 7
684.434950351715 -586.256504058838 2683.00008773804 9 11 8
696.872532367706 -584.453284740448 2674.99995231628 10 12 9
703.32145690918 -583.77069234848 2671.99993133545 12 13 8
705.499172210693 -579.593062400818 2653.00011634827 12 13 7
708.916842937469 -576.508224010468 2638.99993896484 12 15 8
720.12722492218 -579.759001731873 2654.00004386902 11 14 7
729.500114917755 -581.480741500854 2661.99994087219 11 14 7
737.255811691284 -581.892132759094 2664.00003433228 18 20 15
808.44384431839 -619.819402694702 2838.00005912781 99 103 104
821.873009204865 -624.161720275879 2858.00004005432 107 111 114
461.672335863113 -570.640027523041 2575.99997520447 17 19 16
462.658196687698 -563.302576541901 2542.99998283386 31 34 27
465.679883956909 -558.623611927032 2522.0000743866 23 26 17
470.46035528183 -556.159913539886 2510.99991798401 23 26 17
474.610298871994 -553.031921386719 2496.99997901917 22 25 16
472.321629524231 -542.595684528351 2450.00004768372 21 24 15
493.236869573593 -558.735191822052 2523.00000190735 19 22 13
501.663625240326 -560.479044914246 2530.99989891052 16 19 10
506.114840507507 -557.794034481049 2519.00005340576 17 20 13
509.482085704803 -554.002046585083 2502.00009346008 14 17 10
511.724650859833 -549.103319644928 2480.00001907349 12 15 8
517.610251903534 -548.190355300903 2476.0000705719 11 14 7
527.073383331299 -551.041007041931 2489.00008201599 12 15 8
535.104990005493 -552.341818809509 2494.99988555908 12 15 8
542.082488536835 -552.535593509674 2496.00005149841 12 15 8
553.462624549866 -557.156503200531 2516.99995994568 13 16 9
562.95257806778 -559.784948825836 2529.00004386902 13 16 9
563.043892383575 -553.117096424103 2499.00007247925 12 15 8
575.285017490387 -558.401465415955 2523.00000190735 10 13 6
584.425389766693 -560.586929321289 2532.99999237061 12 15 8
590.351283550262 -559.674143791199 2529.00004386902 12 15 8
599.088609218597 -561.416983604431 2536.99994087219 13 16 9
621.483147144318 -575.772821903229 2601.99999809265 13 15 10
643.504440784454 -589.463651180267 2664.00003433228 11 13 8
654.380440711975 -592.754006385803 2678.99990081787 10 12 7
658.42217206955 -589.849352836609 2665.99988937378 9 11 6
667.136788368225 -591.148614883423 2671.99993133545 8 10 5
673.611998558044 -590.456902980804 2668.99991035461 8 10 7
682.621598243713 -591.977775096893 2676.00011825562 9 11 8
688.574850559235 -590.844094753265 2671.0000038147 10 12 9
695.282220840454 -590.374410152435 2668.99991035461 10 12 9
704.87380027771 -592.338144779205 2677.99997329712 12 13 8
708.663702011108 -589.436054229736 2664.99996185303 13 14 8
715.874969959259 -589.409708976746 2664.99996185303 13 14 8
721.45801782608 -588.056743144989 2658.99991989136 12 15 8
730.022668838501 -589.136779308319 2664.00003433228 11 14 7
733.356237411499 -586.015582084656 2650.00009536743 10 12 7
747.512102127075 -591.518878936768 2674.99995231628 17 19 14
805.569648742676 -625.299870967865 2828.00006866455 117 121 120
816.959142684937 -628.148913383484 2841.00008010864 112 116 119
462.994694709778 -570.639431476593 2545.00007629395 23 26 19
465.098679065704 -564.782559871674 2519.00005340576 22 25 16
469.871014356613 -562.28905916214 2507.99989700317 23 26 17
477.434039115906 -563.158571720123 2512.00008392334 23 26 17
475.957542657852 -553.491592407227 2469.00010108948 21 24 15
493.209183216095 -565.569460391998 2523.00000190735 20 23 14
501.041293144226 -566.662549972534 2528.00011634827 18 21 12
510.507047176361 -569.548606872559 2540.99988937378 17 20 13
510.268867015839 -561.676025390625 2506.00004196167 16 19 12
515.411138534546 -559.855341911316 2497.99990653992 15 18 11
521.345555782318 -558.931350708008 2493.99995803833 13 16 9
524.293124675751 -554.870128631592 2476.0000705719 13 16 9
529.930412769318 -553.722321987152 2470.99995613098 12 15 8
539.666056632996 -556.832075119019 2484.99989509583 12 15 8
552.335560321808 -562.854588031769 2512.00008392334 13 16 9
560.25367975235 -563.947260379791 2516.99995994568 13 16 9
565.269470214844 -562.127232551575 2509.0000629425 12 15 8
