ply
format ascii 1.0
comment KinectMotionCapture
element vertex 788
property float x
property float y
property float z
property uchar red
property uchar green
property uchar blue
end_header
405.236721038818 1038.25211524963 2625.99992752075 254 255 255
410.951882600784 1034.69061851501 2617.00010299683 254 255 253
418.055891990662 1034.68751907349 2617.00010299683 250 252 247
426.134794950485 1037.0569229126 2622.99990653992 253 253 245
436.063319444656 1043.77591609955 2640.00010490417 255 254 243
447.091609239578 1052.86729335785 2663.00010681152 244 230 219
456.368148326874 1057.60991573334 2674.99995231628 209 190 176
464.323490858078 1059.19003486633 2678.99990081787 195 168 151
471.068441867828 1058.0028295517 2676.00011825562 181 154 137
479.048490524292 1059.58366394043 2680.0000667572 160 139 120
485.961705446243 1058.79271030426 2677.99997329712 183 164 147
494.337648153305 1061.16509437561 2684.00001525879 192 175 157
502.746403217316 1063.53807449341 2690.00005722046 147 138 123
511.756837368011 1067.09742546082 2698.99988174438 129 123 109
565.980970859528 971.500873565674 2457.00001716614 56 58 47
574.290156364441 974.279463291168 2463.99998664856 41 43 32
572.499096393585 960.056364536285 2427.99997329712 45 47 34
581.961333751678 964.813590049744 2440.00005722046 52 54 41
591.730833053589 969.967305660248 2453.00006866455 60 62 49
591.813802719116 959.304928779602 2426.00011825562 62 64 51
397.354394197464 1029.17313575745 2621.00005149841 255 254 255
402.462810277939 1024.06418323517 2608.00004005432 252 254 253
409.542143344879 1024.06024932861 2608.00004005432 250 254 253
416.461735963821 1023.66375923157 2607.00011253357 252 255 253
423.538476228714 1023.66030216217 2607.00011253357 254 255 251
431.936651468277 1026.79824829102 2615.00000953674 255 254 246
442.560911178589 1035.04109382629 2635.99991798401 250 240 230
453.981727361679 1044.85476016998 2661.00001335144 202 186 173
463.111937046051 1049.17168617249 2671.99993133545 170 147 133
470.717668533325 1049.95501041412 2674.00002479553 168 145 129
478.691875934601 1051.52404308319 2677.99997329712 136 119 101
486.687988042831 1053.09355258942 2681.99992179871 117 101 85
494.890242815018 1055.05609512329 2687.00003623962 101 88 71
502.1852850914 1055.05585670471 2687.00003623962 92 86 70
510.997474193573 1058.19714069366 2694.9999332428 108 106 93
559.816181659698 977.361142635345 2489.00008201599 38 40 29
563.847362995148 972.657322883606 2476.99999809265 25 27 16
565.049767494202 963.242053985596 2453.00006866455 52 54 43
570.550382137299 961.288094520569 2447.99995422363 53 55 44
563.763797283173 938.915491104126 2391.00003242493 43 45 34
616.380035877228 960.200130939484 2444.9999332428 49 50 42
680.688917636871 966.668665409088 2460.99996566772 86 87 79
389.053761959076 1018.95487308502 2612.99991607666 254 253 249
394.327074289322 1014.27018642426 2601.0000705719 253 253 251
400.61554312706 1012.31527328491 2595.99995613098 253 254 255
407.662034034729 1012.31062412262 2595.99995613098 251 255 255
415.187776088715 1013.47589492798 2598.99997711182 252 255 255
422.404944896698 1013.86141777039 2599.99990463257 254 255 253
429.957985877991 1015.0271654129 2602.9999256134 255 253 248
439.374178647995 1020.48277854919 2617.00010299683 255 251 243
451.254963874817 1031.39770030975 2644.99998092651 208 198 189
462.421238422394 1040.36319255829 2667.99998283386 143 127 114
470.895946025848 1043.08998584747 2674.99995231628 157 139 125
479.229927062988 1045.42708396912 2680.99999427795 137 124 107
487.052381038666 1046.59485816956 2684.00001525879 108 96 80
495.259582996368 1048.5428571701 2688.99989128113 78 71 55
502.74658203125 1048.93159866333 2690.00005722046 72 70 55
542.604029178619 952.256262302399 2441.99991226196 40 40 30
556.210219860077 964.351177215576 2473.00004959106 37 37 27
563.384056091309 965.138077735901 2474.99990463257 40 40 30
569.18728351593 963.586211204529 2470.99995613098 48 48 38
572.638630867004 958.135306835175 2457.00001716614 46 46 36
572.241902351379 946.445524692535 2427.00004577637 39 39 29
598.942399024963 968.304574489594 2483.00004005432 50 50 42
593.495011329651 948.817491531372 2433.00008773804 52 52 44
590.514779090881 923.493802547455 2368.00003051758 46 46 38
601.239204406738 930.137455463409 2384.99999046326 49 48 43
618.589699268341 936.797916889191 2401.99995040894 68 67 62
604.563653469086 906.003475189209 2322.99995422363 66 65 60
678.451597690582 956.829309463501 2453.00006866455 100 101 93
684.014022350311 955.293476581573 2448.99988174438 66 68 57
387.272745370865 1007.22813606262 2601.0000705719 255 254 250
391.90685749054 1001.02627277374 2585.00003814697 254 254 252
398.305982351303 999.471545219421 2581.00008964539 253 254 255
405.468583106995 999.853253364563 2582.00001716614 251 255 255
413.275539875031 1001.78408622742 2586.99989318848 251 255 255
420.947343111038 1003.32808494568 2591.00008010864 251 253 252
428.475707769394 1004.48501110077 2594.00010108948 255 254 250
437.867194414139 1009.90176200867 2608.00004005432 255 254 248
448.870211839676 1018.80371570587 2631.00004196167 155 145 135
461.211442947388 1030.41660785675 2661.00001335144 120 107 98
471.075057983398 1036.22138500214 2676.00011825562 128 116 102
479.590237140656 1038.92850875854 2683.00008773804 122 113 96
487.417638301849 1040.08722305298 2686.00010871887 93 86 70
495.077341794968 1040.85898399353 2687.99996376038 61 58 43
534.37739610672 931.28901720047 2404.99997138977 33 33 23
558.824598789215 950.661659240723 2454.99992370605 32 32 22
562.499701976776 945.634305477142 2441.99991226196 29 29 19
565.638482570648 939.832985401154 2427.00004577637 29 29 19
564.216494560242 926.674664020538 2392.99988746643 29 29 21
577.87412405014 938.300788402557 2423.00009727478 32 32 24
587.112307548523 942.570090293884 2434.00001525879 37 37 29
597.142577171326 948.00192117691 2447.99995422363 44 44 36
589.737713336945 925.939440727234 2391.00003242493 44 44 36
591.998279094696 919.367611408234 2374.00007247925 43 43 35
606.519341468811 931.772828102112 2405.99989891052 51 50 45
602.865219116211 906.627655029297 2341.00008010864 65 64 59
630.051612854004 937.625706195831 2421.0000038147 68 67 62
633.744418621063 933.382034301758 2410.00008583069 56 55 50
629.030585289001 889.689743518829 2296.99993133545 87 88 80
655.472993850708 917.985737323761 2369.99988555908 71 73 62
668.349206447601 926.91695690155 2392.99988746643 56 58 47
384.30118560791 992.491662502289 2581.00008964539 255 254 250
389.487236738205 987.870633602142 2569.00000572205 254 254 254
396.923005580902 989.01778459549 2572.00002670288 253 254 255
403.903931379318 989.011585712433 2572.00002670288 250 254 255
411.20433807373 989.774644374847 2573.99988174438 250 254 255
418.028235435486 989.384293556213 2572.99995422363 253 255 254
427.324444055557 994.762122631073 2586.99989318848 253 252 248
437.200427055359 1001.29377841949 2604.00009155273 255 253 247
448.192328214645 1010.13255119324 2627.00009346008 154 145 136
460.522443056107 1021.66330814362 2657.00006484985 108 98 88
471.959263086319 1030.88712692261 2680.99999427795 116 106 94
481.9176197052 1036.65053844452 2696.00009918213 110 103 85
490.142911672592 1038.56921195984 2700.99997520447 84 78 62
534.098923206329 947.431325912476 2463.99998664856 25 25 17
542.76579618454 950.895071029663 2473.00004959106 32 32 24
546.14919424057 945.130884647369 2457.99994468689 33 33 23
549.226701259613 938.982844352722 2441.99991226196 35 35 25
552.900612354279 933.988988399506 2428.99990081787 29 29 19
559.959530830383 934.763550758362 2430.99999427795 26 26 16
560.504078865051 924.772202968597 2404.99997138977 26 26 16
567.038118839264 924.779117107391 2404.99997138977 27 27 19
574.049711227417 925.55570602417 2407.00006484985 33 33 25
585.655689239502 933.639109134674 2427.99997329712 33 33 25
592.741787433624 934.417366981506 2430.0000667572 33 33 25
596.632957458496 930.197358131409 2418.99991035461 39 39 31
615.92561006546 949.819803237915 2470.00002861023 44 44 36
609.783887863159 930.219650268555 2418.99991035461 45 44 39
616.105556488037 929.847598075867 2417.99998283386 47 46 41
615.727126598358 919.477820396423 2391.00003242493 58 57 52
628.214597702026 928.336977958679 2414.00003433228 56 55 50
678.508102893829 925.409376621246 2405.99989891052 43 45 34
377.010613679886 984.745502471924 2578.9999961853 253 253 251
382.223606109619 980.156064033508 2566.99991226196 255 254 252
387.826353311539 976.7125248909 2558.00008773804 254 254 254
396.003693342209 979.759991168976 2565.99998474121 253 254 255
402.811169624329 979.371309280396 2565.00005722046 251 255 255
409.932553768158 979.746341705322 2565.99998474121 251 255 255
416.734546422958 979.3581366539 2565.00005722046 254 254 252
425.51326751709 983.551621437073 2575.99997520447 255 255 253
436.030685901642 991.563558578491 2596.99988365173 255 255 250
448.197692632675 1003.01206111908 2627.00009346008 153 146 138
460.874229669571 1015.22433757782 2658.99991989136 101 92 85
473.372399806976 1026.6729593277 2688.99989128113 105 96 87
484.067231416702 1033.92219543457 2707.99994468689 96 90 76
534.683763980865 953.717350959778 2497.99990653992 17 17 9
539.299011230469 949.90086555481 2487.99991607666 28 28 20
545.616209506989 949.139356613159 2486.00006103516 35 35 27
556.811094284058 956.777811050415 2506.00004196167 35 35 25
551.246881484985 935.782134532928 2450.99997520447 31 31 21
552.668392658234 927.004635334015 2427.99997329712 28 28 18
556.959807872772 923.191070556641 2417.99998283386 27 27 17
570.985674858093 935.413897037506 2450.00004768372 26 26 16
571.039617061615 924.72916841507 2421.99993133545 25 25 15
580.243051052094 928.935587406158 2433.00008773804 27 27 17
576.964020729065 913.288533687592 2391.99995994568 29 29 19
585.415005683899 916.351020336151 2400.00009536743 29 29 21
616.07438325882 933.17985534668 2444.00000572205 40 40 32
613.545477390289 919.445335865021 2407.99999237061 45 44 39
671.543598175049 945.880234241486 2476.99999809265 71 70 65
670.067965984344 934.442341327667 2447.00002670288 45 46 38
649.348080158234 896.655261516571 2348.00004959106 32 34 23
674.170732498169 921.879351139069 2414.00003433228 30 32 21
678.76797914505 919.227123260498 2407.00006484985 42 44 33
683.043479919434 916.193902492523 2398.9999294281 46 47 39
367.579579353333 971.326172351837 2562.00003623962 239 240 242
374.825596809387 972.076237201691 2563.99989128113 253 253 251
379.997789859772 967.51880645752 2552.00004577637 253 253 251
386.469274759293 966.37350320816 2549.00002479553 253 253 253
394.930750131607 970.156848430634 2559.00001525879 253 255 254
401.090800762177 968.253672122955 2553.99990081787 253 255 254
408.182233572006 968.625545501709 2555.0000667572 254 255 255
414.466738700867 967.10193157196 2551.00011825562 252 252 250
423.868000507355 972.781419754028 2565.99998474121 255 255 253
434.022307395935 979.977667331696 2585.00003814697 255 255 250
447.350770235062 993.997693061829 2621.99997901917 152 145 137
462.786763906479 1012.18783855438 2670.00007629395 106 99 91
474.962532520294 1022.79627323151 2697.99995422363 110 103 93
534.663617610931 959.064781665802 2529.99997138977 26 26 18
537.6797914505 952.241361141205 2512.00008392334 19 19 11
531.927943229675 930.255174636841 2453.9999961853 23 23 15
544.736504554749 940.870404243469 2482.00011253357 40 40 32
549.698531627655 937.839269638062 2473.99997711182 26 26 16
543.822050094604 916.613042354584 2417.99998283386 23 23 13
547.201931476593 911.308646202087 2404.00004386902 25 25 15
559.719681739807 921.168088912964 2430.0000667572 26 26 16
562.357723712921 914.727747440338 2413.00010681152 23 23 13
579.282760620117 920.803248882294 2428.99990081787 28 28 18
598.665356636047 940.901160240173 2482.00011253357 31 31 21
594.920098781586 924.60709810257 2438.99989128113 33 33 23
592.964589595795 901.498377323151 2378.00002098084 37 37 29
614.551603794098 924.253642559052 2437.99996376038 42 42 34
620.158910751343 922.747254371643 2434.00001525879 49 49 41
633.173584938049 912.925720214844 2407.99999237061 52 51 46
639.807283878326 894.770622253418 2359.99989509583 43 43 35
639.107882976532 884.928941726685 2334.00011062622 30 32 21
659.008979797363 903.524339199066 2382.99989700317 28 30 19
666.88996553421 905.438601970673 2388.00001144409 25 27 16
681.567072868347 916.454076766968 2417.00005531311 26 28 17
688.715815544128 917.233049869537 2418.99991035461 41 43 32
699.325859546661 922.563672065735 2433.00008773804 45 47 36
366.440266370773 961.380302906036 2553.99990081787 252 253 255
372.056424617767 957.9838514328 2545.00007629395 253 253 253
377.623587846756 954.587519168854 2536.00001335144 253 253 253
384.051501750946 953.449785709381 2532.99999237061 254 254 254
391.080439090729 953.817784786224 2533.99991989136 253 255 254
398.271769285202 954.562425613403 2536.00001335144 253 255 254
405.314117670059 954.930782318115 2536.99994087219 253 255 254
412.849396467209 956.428527832031 2540.99988937378 252 252 250
422.553777694702 962.819695472717 2558.00008773804 254 253 249
433.693557977676 972.221910953522 2582.99994468689 241 240 236
448.552042245865 989.52853679657 2628.99994850159 120 117 112
534.664571285248 952.197372913361 2529.99997138977 17 17 9
532.543003559113 936.389088630676 2487.99991607666 19 19 11
529.326677322388 919.075787067413 2441.99991226196 34 34 26
534.859359264374 917.194068431854 2437.00003623962 25 25 17
544.808983802795 922.839999198914 2451.99990272522 24 24 14
551.691770553589 923.217594623566 2453.00006866455 24 24 14
558.808028697968 923.972010612488 2454.99992370605 25 25 15
556.261420249939 908.919870853424 2414.99996185303 25 25 15
563.985288143158 910.804688930511 2420.00007629395 23 23 13
571.501076221466 912.31381893158 2424.00002479553 25 25 15
599.141657352448 934.905469417572 2483.99996757507 29 29 19
605.673313140869 914.224743843079 2428.99990081787 32 32 24
612.778007984161 914.985656738281 2430.99999427795 46 46 38
618.365466594696 913.489103317261 2427.00004577637 50 50 42
617.494225502014 902.583479881287 2398.00000190735 39 38 33
660.960853099823 936.493992805481 2487.99991607666 55 54 49
647.061228752136 907.524168491364 2411.00001335144 47 46 41
659.311294555664 915.443181991577 2431.99992179871 33 33 25
654.973447322845 900.401651859283 2391.99995994568 31 33 22
672.177731990814 906.081438064575 2407.00006484985 20 22 11
677.599787712097 904.593944549561 2403.00011634827 16 18 7
695.812702178955 920.047581195831 2444.00000572205 34 36 25
703.040540218353 920.821368694305 2446.00009918213 42 44 33
361.571043729782 941.762506961823 2519.99998092651 251 252 254
368.264347314835 941.379606723785 2519.00005340576 253 253 255
374.207526445389 939.128160476685 2513.00001144409 253 253 253
380.269646644592 937.25061416626 2507.99989700317 254 254 254
387.539237737656 938.362717628479 2510.99991798401 253 255 254
394.825160503387 939.475178718567 2513.99993896484 253 255 254
402.606457471848 941.708743572235 2519.99998092651 253 255 254
410.257875919342 943.568766117096 2525.00009536743 253 253 251
421.240150928497 952.902495861053 2549.99995231628 255 255 251
434.037238359451 965.973377227783 2585.00003814697 246 245 241
450.265944004059 986.144006252289 2638.99993896484 104 101 96
529.050469398499 947.57616519928 2536.00001335144 36 36 28
537.413656711578 950.189113616943 2542.99998283386 25 25 17
538.109481334686 939.351260662079 2513.99993896484 30 30 22
528.460383415222 910.95244884491 2437.99996376038 30 30 22
552.88827419281 907.589197158813 2428.99990081787 23 23 13
561.556994915009 910.953462123871 2437.99996376038 25 25 15
570.041835308075 913.944780826569 2446.00009918213 25 25 15
585.879266262054 928.519606590271 2484.99989509583 24 24 14
594.059228897095 930.76491355896 2490.9999370575 26 26 16
596.242189407349 923.669576644897 2471.99988365173 29 29 19
610.412120819092 924.800932407379 2474.99990463257 32 32 22
600.180566310883 899.398505687714 2407.00006484985 35 35 25
598.654389381409 887.448132038116 2375 36 36 28
645.806014537811 908.42068195343 2430.99999427795 37 36 31
670.128166675568 933.09623003006 2496.99997901917 33 32 27
671.496272087097 925.635933876038 2476.99999809265 24 24 16
661.25625371933 902.480959892273 2414.99996185303 23 25 14
667.271852493286 901.748538017273 2413.00010681152 23 25 12
669.926583766937 896.532475948334 2398.9999294281 23 25 12
689.424514770508 913.740396499634 2444.9999332428 22 24 11
700.348317623138 919.364631175995 2460.00003814697 26 28 17
707.905948162079 920.505404472351 2463.00005912781 33 35 24
354.178130626678 933.470129966736 2516.00003242493 246 247 249
359.428346157074 929.379045963287 2505.00011444092 254 255 255
366.227060556412 929.369270801544 2505.00011444092 252 253 255
371.38757109642 925.278544425964 2493.99995803833 252 254 253
378.004521131516 924.898087978363 2493.00003051758 253 255 254
384.307265281677 923.775494098663 2490.00000953674 254 254 254
392.478346824646 927.105188369751 2499.00007247925 254 254 254
400.218844413757 929.321944713593 2505.00011444092 254 254 254
408.80423784256 933.393597602844 2516.00003242493 250 250 248
419.431656599045 941.917181015015 2539.00003433228 252 251 249
431.862950325012 954.150497913361 2572.00002670288 255 255 253
449.591994285584 977.513015270233 2634.99999046326 126 125 121
526.55041217804 936.245381832123 2523.9999294281 8 8 0
536.359906196594 941.435158252716 2538.00010681152 33 33 25
539.182066917419 934.384346008301 2519.00005340576 31 31 23
549.921333789825 941.058576107025 2536.99994087219 38 38 30
555.710911750793 939.202070236206 2532.00006484985 27 27 19
554.025888442993 902.848303318024 2434.00001525879 24 24 14
556.488394737244 896.171748638153 2415.99988937378 25 25 15
555.590927600861 884.303092956543 2384.0000629425 25 25 15
575.738847255707 905.818700790405 2441.99991226196 25 25 13
594.903171062469 904.71476316452 2438.99989128113 27 27 17
588.950037956238 885.801315307617 2388.00001144409 30 30 20
595.686256885529 886.17730140686 2388.99993896484 32 32 22
616.961419582367 888.793706893921 2395.99990844727 33 33 25
623.674154281616 879.908084869385 2371.99997901917 32 32 24
640.216290950775 894.014358520508 2410.00008583069 27 27 19
648.646414279938 896.621942520142 2417.00005531311 25 25 17
651.422560214996 891.440212726593 2403.00011634827 21 21 13
660.968482494354 895.533502101898 2414.00003433228 19 21 10
665.044844150543 892.208456993103 2404.99997138977 21 23 10
674.37881231308 895.932912826538 2414.99996185303 21 23 10
684.332013130188 900.400578975677 2427.00004577637 19 21 8
697.198510169983 908.579468727112 2448.99988174438 20 22 11
353.062063455582 923.717737197876 2507.99989700317 248 249 251
358.434021472931 920.024275779724 2497.99990653992 252 253 255
364.044040441513 917.067587375641 2490.00000953674 252 253 255
369.312644004822 913.374423980713 2480.00001907349 252 254 253
375.891506671906 912.996053695679 2479.00009155273 253 255 254
382.619172334671 912.986040115356 2479.00009155273 254 254 254
389.975011348724 914.449274539948 2483.00004005432 254 254 252
397.831708192825 917.01740026474 2490.00000953674 254 254 252
406.376332044601 921.058773994446 2500.99992752075 252 252 250
415.310949087143 925.836682319641 2513.99993896484 252 252 250
522.381186485291 934.191823005676 2536.99994087219 13 14 6
527.180433273315 930.504679679871 2526.99995040894 25 25 17
529.389560222626 922.399461269379 2505.00011444092 33 33 25
545.61710357666 915.393114089966 2486.00006103516 27 27 19
599.77799654007 905.452072620392 2459.00011062622 27 27 15
587.219536304474 876.734137535095 2381.00004196167 28 28 18
594.933390617371 878.579139709473 2385.99991798401 28 28 18
605.699837207794 884.843826293945 2403.00011634827 26 26 16
624.202370643616 902.155876159668 2450.00004768372 25 25 15
632.832050323486 895.541310310364 2431.99992179871 27 27 19
634.97120141983 889.289379119873 2414.99996185303 26 26 18
643.39417219162 891.875803470612 2421.99993133545 21 21 13
646.488666534424 887.098371982574 2408.99991989136 22 22 14
651.682019233704 885.267734527588 2404.00004386902 21 21 11
655.206143856049 881.228446960449 2392.99988746643 18 20 9
670.008718967438 892.288684844971 2423.00009727478 19 21 8
674.36420917511 889.356017112732 2414.99996185303 21 23 10
679.804921150208 887.897372245789 2411.00001335144 20 22 9
687.217831611633 889.017701148987 2414.00003433228 17 19 8
691.486537456512 886.087954044342 2405.99989891052 30 33 24
351.805806159973 913.644313812256 2499.00007247925 245 246 248
357.009738683701 909.611701965332 2487.99991607666 254 255 255
363.031148910522 907.772958278656 2483.00004005432 252 253 255
368.578493595123 904.837369918823 2474.99990463257 252 254 253
375.446945428848 905.192315578461 2476.0000705719 253 255 254
381.394654512405 903.353810310364 2470.99995613098 254 254 254
388.257443904877 903.708934783936 2471.99988365173 254 254 252
395.125567913055 904.064178466797 2473.00004959106 253 253 251
403.461486101151 907.70959854126 2483.00004005432 255 255 253
411.355972290039 910.258412361145 2490.00000953674 255 255 253
419.624179601669 913.538575172424 2499.00007247925 177 177 175
518.268525600433 920.003116130829 2516.99995994568 14 15 7
525.516510009766 920.728445053101 2519.00005340576 30 30 22
519.25003528595 898.061573505402 2457.00001716614 32 32 24
514.573693275452 878.684878349304 2404.00004386902 29 29 21
537.788927555084 906.824767589569 2480.99994659424 26 26 18
540.1331782341 899.51092004776 2460.99996566772 27 27 19
536.369979381561 882.329046726227 2414.00003433228 28 28 18
568.664014339447 881.590604782104 2411.99994087219 28 28 16
586.585879325867 888.901770114899 2431.99992179871 28 28 16
610.48424243927 885.257303714752 2421.99993133545 25 25 15
609.165251255035 873.931050300598 2391.00003242493 24 24 14
632.04437494278 887.831687927246 2428.99990081787 26 26 18
637.592673301697 886.376559734344 2424.99995231628 24 24 16
644.713759422302 887.11541891098 2427.00004577637 22 22 14
652.651429176331 888.951420783997 2431.99992179871 22 22 14
653.840243816376 881.650447845459 2411.99994087219 21 21 11
659.849345684052 880.929827690125 2410.00008583069 17 19 6
672.761380672455 889.348328113556 2433.00008773804 18 20 7
683.286368846893 894.478380680084 2447.00002670288 20 22 9
681.482374668121 883.525252342224 2417.00005531311 22 24 11
683.217108249664 877.325236797333 2400.00009536743 19 21 8
695.493757724762 884.6515417099 2420.00007629395 16 18 5
702.658295631409 885.398924350739 2421.99993133545 29 32 21
343.65376830101 903.268933296204 2489.00008201599 241 242 244
349.423706531525 900.717198848724 2482.00011253357 248 249 254
355.729430913925 899.61713552475 2479.00009155273 253 254 255
362.01873421669 898.51713180542 2476.0000705719 252 253 255
368.142634630203 897.054195404053 2471.99988365173 252 254 253
374.548047780991 896.317362785339 2470.00002861023 253 255 254
380.942404270172 895.580410957336 2467.99993515015 254 254 254
387.95405626297 896.295130252838 2470.00002861023 254 254 252
394.656836986542 896.284162998199 2470.00002861023 253 253 251
402.497053146362 898.813366889954 2476.99999809265 252 252 250
409.879475831985 900.25407075882 2480.99994659424 255 255 253
417.451471090317 902.057766914368 2486.00006103516 209 209 209
520.539879798889 917.171239852905 2528.00011634827 29 29 21
515.508472919464 896.484911441803 2470.99995613098 20 20 12
540.177822113037 904.087007045746 2492.00010299683 24 24 16
553.259968757629 903.352618217468 2490.00000953674 28 28 18
566.306889057159 871.41489982605 2401.99995040894 23 25 12
571.874022483826 869.963109493256 2398.00000190735 22 24 11
587.446570396423 854.72971200943 2355.99994659424 27 27 17
614.766061306 875.414788722992 2413.00010681152 25 25 15
632.134735584259 890.656173229218 2454.99992370605 24 24 14
621.109902858734 865.991234779358 2387.00008392334 24 24 14
628.909468650818 867.810845375061 2391.99995994568 23 23 15
642.580926418304 877.612948417664 2418.99991035461 21 21 13
651.569604873657 880.885720252991 2427.99997329712 20 20 12
658.981382846832 881.982445716858 2430.99999427795 17 17 7
658.470153808594 872.558534145355 2404.99997138977 15 17 4
671.367645263672 880.913317203522 2427.99997329712 17 19 6
680.760979652405 884.552597999573 2437.99996376038 18 20 7
684.006810188293 880.210876464844 2426.00011825562 20 22 9
689.465641975403 878.772616386414 2421.99993133545 22 24 11
692.317247390747 874.069809913635 2408.99991989136 20 23 12
704.672753810883 881.341576576233 2428.99990081787 25 28 17
707.7676653862 877.003729343414 2417.00005531311 37 40 31
342.422813177109 893.297731876373 2480.00001907349 222 223 225
348.44982624054 891.48485660553 2474.99990463257 247 248 253
354.593008756638 890.032291412354 2470.99995613098 250 251 255
361.445426940918 890.380501747131 2471.99988365173 252 253 255
367.55844950676 888.9279961586 2467.99993515015 253 255 254
373.801201581955 887.835741043091 2464.99991416931 252 254 253
380.027621984482 886.743605136871 2461.99989318848 253 255 254
387.180000543594 887.812495231628 2464.99991416931 252 254 253
394.188731908798 888.521313667297 2467.00000762939 251 251 251
401.695609092712 890.31058549881 2471.99988365173 246 246 246
409.229665994644 892.100214958191 2476.99999809265 252 252 250
416.454792022705 893.169343471527 2480.00001907349 232 232 230
423.354774713516 893.518388271332 2480.99994659424 175 175 173
510.436296463013 904.566168785095 2512.00008392334 87 88 82
518.899738788605 907.439172267914 2519.99998092651 28 28 18
523.651480674744 903.830826282501 2509.99999046326 33 30 21
535.534560680389 912.465989589691 2533.99991989136 28 25 16
537.701785564423 904.537677764893 2512.00008392334 23 23 13
548.636972904205 911.37307882309 2530.99989891052 26 27 19
565.246045589447 883.624494075775 2453.9999961853 23 25 12
570.741593837738 881.821274757385 2448.99988174438 23 25 12
561.593055725098 857.694208621979 2381.99996948242 21 25 11
575.213491916656 868.494749069214 2411.99994087219 19 22 11
570.504426956177 842.20814704895 2338.99998664856 22 24 13
583.760499954224 852.290451526642 2367.00010299683 24 26 15
588.940918445587 850.490987300873 2361.99998855591 19 21 8
595.858991146088 851.212799549103 2364.00008201599 19 21 8
604.57181930542 854.455769062042 2372.99990653992 19 21 8
613.849103450775 858.41965675354 2384.0000629425 19 21 8
621.105134487152 859.503746032715 2387.00008392334 19 21 8
629.692733287811 862.389028072357 2394.99998092651 18 20 9
637.527465820313 864.194929599762 2400.00009536743 15 15 7
648.878693580627 870.682597160339 2417.99998283386 15 15 7
653.822779655457 868.529260158539 2411.99994087219 16 16 8
657.639801502228 864.936351776123 2401.99995040894 16 16 8
664.444923400879 865.305423736572 2403.00011634827 17 17 9
677.1200299263 873.237371444702 2424.99995231628 17 17 7
685.686588287354 875.768959522247 2431.99992179871 24 26 15
688.314080238342 870.739281177521 2417.99998283386 19 21 10
696.326851844788 872.552752494812 2423.00009727478 19 21 10
707.558751106262 878.328442573547 2438.99989128113 28 30 19
719.464421272278 884.825706481934 2457.00001716614 30 32 21
341.744512319565 884.806096553802 2474.99990463257 222 223 227
347.47639298439 882.291257381439 2467.99993515015 232 233 238
353.457063436508 880.491495132446 2463.00005912781 238 239 243
359.995305538177 880.121648311615 2461.99989318848 245 246 248
366.52797460556 879.751920700073 2460.99996566772 249 250 252
372.751653194427 878.667175769806 2457.99994468689 249 250 252
379.422068595886 878.655016422272 2457.99994468689 252 254 253
386.563509702683 879.715323448181 2460.99996566772 254 255 255
394.360214471817 882.205426692963 2467.99993515015 254 254 254
401.544809341431 883.265793323517 2470.99995613098 247 247 247
409.076005220413 885.041177272797 2476.0000705719 238 238 236
416.29832983017 886.10166311264 2479.00009155273 238 238 236
423.70742559433 887.519836425781 2483.00004005432 205 205 203
515.407145023346 894.535064697266 2503.00002098084 30 27 18
532.371699810028 900.237381458282 2519.00005340576 26 23 14
538.136541843414 898.443102836609 2513.99993896484 21 21 13
542.573750019073 894.505143165588 2503.00002098084 23 24 16
535.318911075592 871.627032756805 2438.99989128113 23 24 16
544.159412384033 875.194907188416 2448.99988174438 24 25 17
559.576809406281 889.126837253571 2487.99991607666 23 26 15
563.142120838165 884.118974208832 2473.99997711182 23 27 13
570.511639118195 874.819457530975 2447.99995422363 19 21 8
566.546440124512 858.735144138336 2403.00011634827 19 22 11
565.199077129364 846.93968296051 2369.99988555908 17 20 9
564.396560192108 836.217105388641 2339.99991416931 16 19 8
567.577958106995 831.570208072662 2326.99990272522 18 21 10
588.692903518677 853.011012077332 2387.00008392334 20 22 11
599.661648273468 859.443366527557 2404.99997138977 22 24 13
600.394487380981 851.224839687347 2381.99996948242 17 19 6
604.060113430023 847.295224666595 2371.00005149841 17 19 6
614.103674888611 852.300345897675 2384.99999046326 17 19 6
621.101438999176 853.017926216125 2387.00008392334 17 19 6
628.899395465851 854.808211326599 2391.99995994568 16 18 7
637.787759304047 858.028829097748 2401.00002288818 16 16 8
648.067474365234 863.03722858429 2414.99996185303 16 16 8
658.453285694122 859.476447105408 2404.99997138977 17 17 9
660.288572311401 853.408873081207 2388.00001144409 17 17 9
673.759639263153 862.352013587952 2413.00010681152 17 17 9
683.702230453491 866.65016412735 2424.99995231628 23 25 14
690.579652786255 867.018163204193 2426.00011825562 18 20 9
699.475169181824 869.888961315155 2434.00001525879 19 21 10
709.865689277649 874.547719955444 2447.00002670288 26 28 17
335.580974817276 879.548251628876 2479.00009155273 208 209 211
341.619074344635 877.761423587799 2473.99997711182 219 220 224
347.488969564438 875.619769096375 2467.99993515015 223 224 229
353.469640016556 873.833060264587 2463.00005912781 231 232 236
359.715431928635 872.755944728851 2460.00003814697 234 235 237
366.391569375992 872.74307012558 2460.00003814697 239 240 242
372.612506151199 871.666014194489 2457.00001716614 243 244 246
378.817051649094 870.589077472687 2453.9999961853 253 255 254
385.476350784302 870.576322078705 2453.9999961853 254 255 255
393.254011869431 873.047113418579 2460.99996566772 254 254 254
400.419503450394 874.098718166351 2463.99998664856 253 253 253
408.096849918365 876.214802265167 2470.00002861023 239 239 237
415.638625621796 877.97600030899 2474.99990463257 229 229 227
423.548698425293 880.446970462799 2482.00011253357 214 214 212
512.892186641693 895.211338996887 2523.9999294281 73 73 65
515.003979206085 887.044429779053 2500.99992752075 29 26 17
520.329236984253 884.552896022797 2493.99995803833 30 28 16
536.217570304871 888.437747955322 2505.00011444092 21 21 13
526.756465435028 861.830353736877 2430.0000667572 21 22 14
530.716121196747 857.567369937897 2417.99998283386 22 23 15
541.499018669128 864.299237728119 2437.00003623962 22 23 15
551.935434341431 870.322346687317 2453.9999961853 21 23 12
563.830018043518 878.47363948822 2476.99999809265 21 21 9
567.787766456604 874.212563037872 2464.99991416931 22 20 8
571.680724620819 869.952201843262 2453.00006866455 18 18 6
569.378912448883 856.471598148346 2414.99996185303 18 20 9
564.48632478714 839.445233345032 2367.00010299683 15 18 7
568.016588687897 835.186719894409 2355.00001907349 15 18 7
581.482291221619 845.469057559967 2384.0000629425 16 18 7
598.065376281738 860.007762908936 2424.99995231628 17 19 8
604.149997234344 859.297633171082 2423.00009727478 17 19 8
607.955634593964 855.396211147308 2411.99994087219 17 19 8
612.975835800171 853.268623352051 2405.99989891052 17 19 8
612.5568151474 843.694448471069 2378.99994850159 17 19 8
619.017124176025 843.696236610413 2378.99994850159 16 18 7
627.581417560577 846.536040306091 2387.00008392334 15 17 6
635.924100875854 849.021852016449 2394.00005340576 18 18 10
644.842147827148 852.217793464661 2403.00011634827 18 18 10
658.688962459564 861.798286437988 2430.0000667572 17 17 9
670.21918296814 868.187844753265 2447.99995422363 17 17 9
667.746424674988 856.491029262543 2414.99996185303 16 16 8
675.426244735718 857.917249202728 2418.99991035461 16 16 8
688.203573226929 865.728318691254 2440.99998474121 25 27 16
694.26953792572 865.028500556946 2438.99989128113 17 19 8
698.314130306244 861.847102642059 2430.0000667572 22 24 13
708.402574062347 866.114616394043 2441.99991226196 24 26 15
335.32327413559 872.144401073456 2476.99999809265 202 203 205
341.494023799896 870.722770690918 2473.00004959106 204 205 209
347.361296415329 868.596971035004 2467.00000762939 203 204 209
353.195637464523 866.471111774445 2460.99996566772 208 209 213
359.43603515625 865.401685237885 2457.99994468689 214 215 217
366.106688976288 865.388333797455 2457.99994468689 219 220 222
372.322171926498 864.318907260895 2454.99992370605 227 228 230
378.521233797073 863.249540328979 2451.99990272522 250 251 253
385.017991065979 862.884283065796 2450.99997520447 254 255 255
392.308056354523 864.279329776764 2454.99992370605 254 254 254
399.294793605804 864.970445632935 2457.00001716614 254 254 254
406.787782907486 866.717576980591 2461.99989318848 250 250 250
414.475679397583 868.816792964935 2467.99993515015 241 241 239
422.19603061676 870.916247367859 2473.99997711182 233 233 231
429.428726434708 871.959507465363 2476.99999809265 130 130 128
518.102288246155 885.549306869507 2516.00003242493 28 25 16
513.244688510895 865.829706192017 2460.00003814697 26 26 16
534.727394580841 879.18609380722 2497.99990653992 20 20 12
529.365420341492 859.468340873718 2441.99991226196 20 21 13
534.674108028412 857.348740100861 2436.00010871887 19 20 12
551.282644271851 873.178899288177 2480.99994659424 21 21 13
547.893285751343 857.334434986115 2436.00010871887 22 22 12
554.730832576752 857.679903507233 2437.00003623962 19 17 5
564.107656478882 861.897110939026 2448.99988174438 19 15 4
570.753276348114 861.891627311707 2448.99988174438 22 20 8
570.56200504303 851.68069601059 2420.00007629395 19 19 9
570.451974868774 841.82220697403 2391.99995994568 17 18 10
571.396231651306 833.724021911621 2368.99995803833 16 17 9
585.87509393692 845.334589481354 2401.99995040894 16 17 9
602.259755134583 859.409153461456 2441.99991226196 17 18 10
606.644451618195 856.239974498749 2433.00008773804 17 18 10
611.98890209198 854.479074478149 2427.99997329712 16 17 9
615.268588066101 849.903345108032 2414.99996185303 16 17 9
610.495984554291 834.418773651123 2371.00005149841 16 17 9
614.8521900177 831.604063510895 2362.99991607666 16 17 9
623.372375965118 834.421098232269 2371.00005149841 15 16 8
637.78030872345 844.98119354248 2401.00002288818 17 17 9
644.838154315948 845.688223838806 2403.00011634827 17 17 9
657.328724861145 853.434562683105 2424.99995231628 16 16 8
665.011465549469 854.847133159637 2428.99990081787 16 16 8
671.887338161469 855.204701423645 2430.0000667572 15 15 7
677.931725978851 854.507386684418 2427.99997329712 15 15 7
688.758969306946 859.793961048126 2443.00007820129 24 26 15
696.252763271332 860.858201980591 2446.00009918213 16 18 7
703.763663768768 861.923277378082 2448.99988174438 22 24 13
329.807370901108 868.609249591827 2486.00006103516 152 154 151
335.336804389954 865.450978279114 2476.99999809265 189 190 192
341.645628213882 864.389002323151 2473.99997711182 190 191 195
347.51558303833 862.278878688812 2467.99993515015 195 196 201
353.496223688126 860.518276691437 2463.00005912781 199 200 204
359.59580540657 859.107077121735 2459.00011062622 208 209 211
366.120219230652 858.743846416473 2457.99994468689 212 213 215
372.335702180862 857.682049274445 2454.99992370605 217 218 220
378.380298614502 856.270790100098 2450.99997520447 239 240 242
384.403020143509 854.85976934433 2447.00002670288 249 250 252
391.20277762413 855.195462703705 2447.99995422363 255 255 255
398.170411586761 855.880558490753 2450.00004768372 254 254 254
405.644357204437 857.613801956177 2454.99992370605 254 254 254
413.481175899506 860.045611858368 2461.99989318848 249 249 249
420.843869447708 861.429572105408 2466.00008010864 240 240 240
427.534610033035 861.416280269623 2466.00008010864 148 148 146
524.290382862091 889.212727546692 2546.0000038147 26 23 14
524.10364151001 877.327442169189 2512.00008392334 27 24 15
523.098409175873 864.395081996918 2474.99990463257 23 20 11
529.598832130432 864.03626203537 2473.99997711182 21 21 13
536.527574062347 864.376366138458 2474.99990463257 21 21 13
544.998228549957 867.161512374878 2483.00004005432 19 19 11
538.180291652679 845.849812030792 2421.99993133545 20 17 8
548.350214958191 851.42982006073 2437.99996376038 23 16 8
554.965019226074 851.422488689423 2437.99996376038 30 20 11
563.192486763 853.860318660736 2444.9999332428 30 20 10
570.292890071869 854.552447795868 2447.00002670288 24 14 4
576.696991920471 854.197442531586 2446.00009918213 19 15 6
575.703024864197 843.017101287842 2414.00003433228 18 15 8
583.701252937317 845.107853412628 2420.00007629395 16 16 8
593.195676803589 849.294245243073 2431.99992179871 17 17 9
596.096932888031 844.052672386169 2417.00005531311 17 18 12
604.651808738709 846.843481063843 2424.99995231628 17 18 12
609.973907470703 845.095276832581 2420.00007629395 15 16 10
616.288363933563 844.744503498077 2418.99991035461 15 16 10
612.555801868439 830.775082111359 2378.99994850159 16 15 10
626.560568809509 840.902209281921 2407.99999237061 16 15 10
634.676277637482 842.998027801514 2414.00003433228 15 14 9
637.778103351593 838.459551334381 2401.00002288818 16 16 8
646.98189496994 841.953754425049 2411.00001335144 16 16 8
656.240701675415 845.448791980743 2421.0000038147 16 16 8
665.006816387177 848.246216773987 2428.99990081787 16 16 8
671.605288982391 848.250806331635 2428.99990081787 17 17 9
680.717408657074 851.39924287796 2437.99996376038 17 17 9
688.187718391418 852.453231811523 2440.99998474121 21 23 12
701.083362102509 860.143482685089 2463.00005912781 15 17 6
710.076451301575 862.945675849915 2470.99995613098 21 23 12
699.388384819031 842.000961303711 2411.00001335144 20 22 11
331.944048404694 867.439687252045 2502.00009346008 173 175 172
336.16304397583 860.838234424591 2483.00004005432 167 169 168
341.797739267349 858.050405979156 2474.99990463257 171 172 174
347.670435905457 855.956256389618 2469.00010108948 189 190 194
353.510230779648 853.8618683815 2463.00005912781 188 189 193
359.609812498093 852.460980415344 2459.00011062622 201 202 206
365.687370300293 851.060032844543 2454.99992370605 208 209 213
371.894627809525 850.005805492401 2451.99990272522 211 212 216
378.085494041443 848.951637744904 2448.99988174438 221 222 224
384.259849786758 847.89764881134 2446.00009918213 233 234 236
390.737235546112 847.53680229187 2444.9999332428 253 253 255
397.696673870087 848.21605682373 2447.00002670288 252 252 252
405.162453651428 849.935054779053 2451.99990272522 255 255 255
412.655174732208 851.654291152954 2457.00001716614 255 255 255
419.662863016129 852.333605289459 2459.00011062622 250 250 250
426.334530115128 852.319836616516 2459.00011062622 193 193 191
528.2142162323 888.902544975281 2565.00005722046 25 22 13
527.869820594788 876.76203250885 2529.99997138977 26 23 14
524.470925331116 849.017560482025 2450.00004768372 22 22 14
535.66974401474 856.284916400909 2470.99995613098 21 21 13
543.251156806946 857.661545276642 2474.99990463257 21 18 9
546.188056468964 851.76146030426 2457.99994468689 21 17 6
551.506996154785 849.673748016357 2451.99990272522 24 15 6
559.525191783905 851.744771003723 2457.99994468689 40 26 17
565.733373165131 851.044118404388 2456.00008964539 43 26 16
571.69771194458 849.997282028198 2453.00006866455 25 11 2
576.231479644775 846.87203168869 2444.00000572205 22 13 6
578.331708908081 840.282320976257 2424.99995231628 19 16 9
589.977204799652 847.553431987762 2446.00009918213 19 16 9
595.151305198669 845.469415187836 2440.00005722046 20 17 10
598.073482513428 840.267479419708 2424.99995231628 18 19 13
600.416004657745 834.373235702515 2407.99999237061 18 19 13
614.261209964752 844.41864490509 2437.00003623962 16 17 11
616.035223007202 837.832689285278 2417.99998283386 17 18 12
622.083783149719 837.137877941132 2415.99988937378 17 16 11
628.902673721313 837.48334646225 2417.00005531311 17 16 11
632.30961561203 833.324909210205 2404.99997138977 16 15 10
639.901876449585 834.711194038391 2408.99991989136 16 16 8
648.321628570557 837.137699127197 2415.99988937378 16 16 8
658.948481082916 842.337191104889 2430.99999427795 17 17 9
671.026289463043 849.269807338715 2450.99997520447 17 17 9
668.835937976837 838.185369968414 2418.99991035461 18 18 10
675.686299800873 838.536202907562 2420.00007629395 18 18 10
690.154910087585 848.243534564972 2447.99995422363 18 20 9
702.499330043793 855.179846286774 2467.99993515015 17 19 8
718.114376068115 865.928947925568 2499.00007247925 22 24 13
695.898413658142 831.285715103149 2398.9999294281 26 28 17
337.125182151794 856.537640094757 2490.00000953674 165 167 166
342.50271320343 853.083074092865 2480.00001907349 164 165 167
347.966492176056 849.972546100616 2470.99995613098 177 178 182
353.811740875244 847.894012928009 2464.99991416931 180 181 185
359.624236822128 845.815539360046 2459.00011062622 196 197 201
365.403920412064 843.737006187439 2453.00006866455 202 203 207
371.454060077667 842.346489429474 2448.99988174438 209 210 212
377.79113650322 841.643989086151 2447.00002670288 216 217 219
383.960038423538 840.59751033783 2444.00000572205 227 228 230
390.59180021286 840.58290719986 2444.00000572205 248 248 250
397.223383188248 840.56830406189 2444.00000572205 252 252 254
404.680967330933 842.273354530334 2448.99988174438 255 255 255
411.325693130493 842.258751392365 2448.99988174438 255 255 255
418.652981519699 843.620181083679 2453.00006866455 254 254 254
425.654947757721 844.293534755707 2454.99992370605 251 251 249
433.548092842102 846.686601638794 2461.99989318848 255 255 251
531.996548175812 865.429520606995 2516.99995994568 30 26 15
541.821300983429 870.231866836548 2530.99989891052 31 27 16
542.61702299118 860.593855381012 2503.00002098084 22 18 9
545.236349105835 854.050874710083 2483.99996757507 27 20 10
545.752942562103 844.414114952087 2456.00008964539 33 20 11
558.263599872589 853.343904018402 2482.00011253357 31 17 6
562.26521730423 849.209189414978 2470.00002861023 82 60 49
566.892921924591 846.10641002655 2460.99996566772 108 81 70
571.705102920532 843.348026275635 2453.00006866455 50 26 16
573.644757270813 836.464583873749 2433.00008773804 28 13 6
581.199824810028 837.832808494568 2437.00003623962 22 15 9
586.606085300446 836.107313632965 2431.99992179871 22 17 11
596.375942230225 840.57080745697 2444.9999332428 21 18 11
596.351563930511 831.283271312714 2417.99998283386 17 16 11
603.162586688995 831.622421741486 2418.99991035461 18 19 13
608.971238136292 830.587089061737 2415.99988937378 16 17 11
618.840217590332 835.052847862244 2428.99990081787 16 17 11
624.403059482574 833.675086498261 2424.99995231628 17 16 12
627.863109111786 829.547703266144 2413.00010681152 16 15 11
629.680871963501 823.358178138733 2394.99998092651 17 14 9
636.979758739471 824.388980865479 2398.00000190735 16 16 8
648.589015007019 830.920934677124 2417.00005531311 17 17 9
661.657273769379 839.172542095184 2440.99998474121 18 18 10
667.464554309845 838.142871856689 2437.99996376038 16 16 8
672.703385353088 836.426496505737 2433.00008773804 15 15 7
667.305827140808 821.647107601166 2390.00010490417 16 16 8
694.942355155945 847.435116767883 2464.99991416931 20 22 11
704.201102256775 850.534439086914 2473.99997711182 20 22 11
338.223218917847 852.540910243988 2497.99990653992 160 162 159
342.931926250458 847.406566143036 2483.00004005432 163 165 164
347.981363534927 843.295991420746 2470.99995613098 179 180 182
353.826701641083 841.233313083649 2464.99991416931 186 187 189
359.492927789688 838.829278945923 2457.99994468689 193 194 198
365.418821573257 837.10777759552 2453.00006866455 199 200 204
371.31729722023 835.386335849762 2447.99995422363 208 209 213
377.651631832123 834.688782691956 2446.00009918213 214 215 219
383.974879980087 833.991169929504 2444.00000572205 223 224 226
390.606641769409 833.976030349731 2444.00000572205 239 239 241
396.750569343567 832.937300205231 2440.99998474121 247 247 249
403.704315423965 833.604753017426 2443.00007820129 255 255 255
409.996777772903 832.907378673553 2440.99998474121 255 255 255
416.960895061493 833.574891090393 2443.00007820129 255 255 255
423.935621976852 834.242403507233 2444.9999332428 255 255 253
432.329922914505 837.639689445496 2454.99992370605 255 255 251
441.314697265625 842.060506343842 2467.99993515015 158 157 153
528.102099895477 863.401830196381 2530.99989891052 39 31 20
532.219648361206 858.954906463623 2517.99988746643 37 31 19
537.979364395142 857.237339019775 2513.00001144409 40 34 22
542.627990245819 853.814661502838 2503.00002098084 23 16 6
543.490886688232 844.593524932861 2476.0000705719 30 22 11
552.207112312317 847.652733325958 2484.99989509583 31 17 6
559.622704982758 848.665833473206 2487.99991607666 36 16 5
563.184857368469 843.880593776703 2473.99997711182 64 36 24
567.362308502197 840.119361877441 2463.00005912781 108 76 63
571.480095386505 836.358428001404 2451.99990272522 52 22 11
576.245844364166 833.621382713318 2444.00000572205 29 12 4
582.160830497742 832.590401172638 2440.99998474121 24 15 8
587.095022201538 830.195665359497 2434.00001525879 25 18 10
589.308261871338 824.049472808838 2415.99988937378 16 16 6
600.303053855896 830.18285036087 2434.00001525879 15 15 7
606.907546520233 830.177366733551 2434.00001525879 16 17 9
613.008320331573 829.49024438858 2431.99992179871 16 17 9
618.334293365479 827.780663967133 2427.00004577637 16 17 11
624.148428440094 826.753795146942 2424.00002479553 17 16 12
628.125369548798 823.340177536011 2414.00003433228 18 14 11
628.893613815308 815.834403038025 2391.99995994568 17 14 9
638.04304599762 819.243609905243 2401.99995040894 16 15 10
649.125635623932 825.040817260742 2418.99991035461 17 17 9
657.31954574585 827.087163925171 2424.99995231628 17 17 9
668.284356594086 832.54486322403 2440.99998474121 16 16 8
653.623163700104 806.284189224243 2364.00008201599 16 16 8
671.769917011261 820.611298084259 2405.99989891052 17 17 9
689.863681793213 834.598362445831 2447.00002670288 15 17 6
699.641764163971 838.354110717773 2457.99994468689 17 19 8
343.637824058533 842.3912525177 2487.99991607666 160 162 157
348.137557506561 836.958527565002 2471.99988365173 169 171 168
353.84202003479 834.572911262512 2464.99991416931 173 175 174
359.362006187439 831.848859786987 2457.00001716614 185 186 190
365.583181381226 830.817639827728 2453.9999961853 190 191 195
371.484369039536 829.109191894531 2448.99988174438 201 202 206
377.821415662766 828.416526317596 2447.00002670288 207 208 212
383.990228176117 827.385365962982 2444.00000572205 213 214 218
390.462160110474 827.031314373016 2443.00007820129 228 228 230
396.278232336044 825.323104858398 2437.99996376038 235 235 237
402.562737464905 824.630618095398 2436.00010871887 248 248 250
408.500194549561 823.261082172394 2431.99992179871 252 252 254
415.098458528519 823.245644569397 2431.99992179871 254 254 255
422.043353319168 823.907494544983 2434.00001525879 252 252 252
430.407762527466 827.27724313736 2444.00000572205 255 254 253
439.004987478256 830.985426902771 2454.99992370605 253 249 248
448.20636510849 835.709035396576 2469.00010108948 255 254 251
530.201613903046 859.934151172638 2540.99988937378 99 90 75
531.175315380096 850.44527053833 2513.00001144409 50 41 26
536.064743995667 847.38689661026 2503.99994850159 49 39 27
539.170980453491 841.621696949005 2486.99998855591 32 22 10
544.819116592407 839.917957782745 2482.00011253357 35 23 9
553.773522377014 843.290448188782 2492.00010299683 46 27 13
560.30797958374 842.941105365753 2490.9999370575 41 15 2
563.877701759338 838.192999362946 2476.99999809265 109 71 58
567.602038383484 833.783805370331 2463.99998664856 145 103 89
572.421312332153 831.067264080048 2456.00008964539 58 20 7
