ply
format ascii 1.0
comment KinectMotionCapture
element vertex 799
property float x
property float y
property float z
property uchar red
property uchar green
property uchar blue
end_header
584.915339946747 -211.347997188568 2471.99988365173 14 17 10
612.906217575073 -218.940705060959 2561.00010871887 13 16 9
626.856029033661 -221.403241157532 2589.99991416931 11 14 7
635.822415351868 -222.070395946503 2598.00004959106 9 12 5
647.057950496674 -223.506674170494 2615.00000953674 6 9 2
657.884299755096 -224.771857261658 2630.00011444092 7 10 3
667.020738124847 -225.438639521599 2638.00001144409 8 11 4
677.732825279236 -226.618081331253 2651.99995040894 9 12 5
682.063043117523 -225.661233067513 2641.00003242493 10 13 6
686.072111129761 -224.619150161743 2628.99994850159 11 14 7
687.378644943237 -222.722947597504 2607.00011253357 10 13 6
697.08913564682 -223.560720682144 2617.00010299683 10 13 4
704.431295394897 -223.629638552666 2618.00003051758 10 13 4
713.408529758453 -224.211096763611 2625 10 13 4
720.775961875916 -224.280118942261 2625.99992752075 10 13 4
738.680899143219 -227.594465017319 2664.99996185303 10 13 4
747.839629650116 -228.175759315491 2671.99993133545 13 16 9
746.862590312958 -225.683093070984 2642.99988746643 9 11 8
453.001409769058 -229.752972722054 2599.99990463257 24 27 20
444.317758083344 -221.873179078102 2510.99991798401 20 23 16
457.427799701691 -224.950358271599 2546.0000038147 19 22 13
461.972445249558 -223.786219954491 2532.99999237061 19 22 11
465.149641036987 -222.003757953644 2513.00001144409 13 16 5
477.231949567795 -224.461540579796 2540.99988937378 17 20 9
481.844127178192 -223.385706543922 2529.00004386902 19 22 13
486.776381731033 -222.486555576324 2519.00005340576 18 21 12
492.241054773331 -221.852406859398 2512.00008392334 15 18 11
498.063802719116 -221.394836902618 2506.99996948242 15 18 11
506.073534488678 -221.908628940582 2513.00001144409 15 18 11
516.767919063568 -223.57015311718 2532.00006484985 14 17 10
518.464624881744 -221.346497535706 2506.99996948242 10 13 6
530.500590801239 -223.537385463715 2532.00006484985 10 13 6
539.911866188049 -224.580243229866 2543.99991035461 11 14 7
544.658482074738 -223.680928349495 2533.99991989136 13 16 9
545.649588108063 -221.281185746193 2506.99996948242 15 18 11
548.917233943939 -219.852566719055 2490.9999370575 14 17 10
550.089478492737 -217.62989461422 2466.00008010864 13 16 9
559.027314186096 -218.496069312096 2476.0000705719 11 14 7
577.157855033875 -222.891673445702 2526.00002288818 10 13 6
583.998382091522 -222.874999046326 2526.00002288818 9 12 5
586.627423763275 -221.270173788071 2507.99989700317 11 14 7
610.216379165649 -227.517157793045 2578.9999961853 12 15 8
623.658716678619 -229.881808161736 2605.99994659424 13 16 9
637.48824596405 -232.334360480309 2634.0000629425 11 14 7
645.839273929596 -232.757896184921 2638.99993896484 8 11 4
650.999844074249 -232.034921646118 2631.00004196167 7 10 3
660.118401050568 -232.723027467728 2638.99993896484 7 10 3
667.256414890289 -232.705637812614 2638.99993896484 8 11 4
676.693379878998 -233.481854200363 2648.00000190735 10 13 6
680.754661560059 -232.406467199326 2635.99991798401 11 14 7
685.011267662048 -231.419458985329 2625 11 14 7
686.570882797241 -229.551136493683 2604.00009155273 10 13 6
693.609654903412 -229.534208774567 2604.00009155273 10 13 4
707.643389701843 -231.809020042419 2630.00011444092 10 13 4
716.381311416626 -232.320845127106 2635.99991798401 10 13 4
725.150942802429 -232.832714915276 2641.99995994568 10 13 4
741.713166236877 -235.812023282051 2676.00011825562 10 13 4
731.870114803314 -230.420008301735 2615.00000953674 10 13 6
746.56355381012 -232.782438397408 2641.99995994568 10 12 9
446.190863847733 -233.288243412971 2561.00010871887 24 27 20
456.68837428093 -235.094115138054 2581.00008964539 19 22 15
459.208607673645 -232.800975441933 2555.99999427795 20 23 16
463.050931692123 -231.236636638641 2539.00003433228 20 23 14
467.725157737732 -230.12775182724 2526.99995040894 12 15 4
482.662320137024 -234.027251601219 2569.9999332428 16 19 8
485.638469457626 -232.098609209061 2549.00002479553 16 19 10
486.180603504181 -229.07754778862 2516.00003242493 19 22 13
493.204653263092 -229.152232408524 2516.99995994568 21 24 17
498.047649860382 -228.225409984589 2506.99996948242 18 21 14
503.439366817474 -227.571740746498 2500 16 19 12
510.628819465637 -227.737307548523 2502.00009346008 15 18 11
520.929872989655 -229.267984628677 2519.00005340576 12 15 8
529.855370521545 -230.161309242249 2529.00004386902 11 14 7
539.046227931976 -231.145396828651 2539.99996185303 10 13 6
547.435820102692 -231.765359640121 2546.99993133545 10 13 6
548.679888248444 -229.382514953613 2520.99990844727 13 16 9
552.646636962891 -228.182762861252 2507.99989700317 15 18 11
556.318759918213 -226.892188191414 2493.99995803833 15 18 11
565.783977508545 -227.966949343681 2506.00004196167 12 15 8
576.912462711334 -229.678228497505 2525.00009536743 10 13 6
586.062073707581 -230.570644140244 2535.00008583069 9 12 5
591.990232467651 -230.189621448517 2530.99989891052 10 13 6
602.391183376312 -231.536537408829 2546.0000038147 12 15 8
620.530188083649 -235.79315841198 2592.99993515015 13 16 9
637.470543384552 -239.50357735157 2634.0000629425 11 14 7
648.024141788483 -240.758568048477 2648.00000190735 8 11 4
654.446244239807 -240.467876195908 2644.99998092651 9 12 5
657.599449157715 -238.995432853699 2628.99994850159 9 12 5
665.721654891968 -239.341229200363 2632.99989700317 10 13 6
673.864841461182 -239.687070250511 2637.00008392334 11 14 7
678.413033485413 -238.760456442833 2627.00009346008 11 14 7
686.559617519379 -239.106327295303 2631.00004196167 10 13 6
686.817348003387 -236.726000905037 2605.00001907349 10 13 6
690.662562847137 -235.618218779564 2592.99993515015 10 13 4
701.168656349182 -236.782193183899 2605.99994659424 10 13 4
716.0924077034 -239.39973115921 2634.99999046326 10 13 4
724.859356880188 -239.927485585213 2641.00003242493 10 13 4
727.283179759979 -238.365903496742 2624.00007247925 10 13 4
731.013834476471 -237.258836627007 2611.99998855591 11 14 7
734.113693237305 -235.970333218575 2598.00004959106 7 9 6
448.788106441498 -241.67637526989 2575.99997520447 27 29 24
454.371929168701 -240.909516811371 2568.00007820129 11 14 7
459.371984004974 -239.861190319061 2556.99992179871 20 23 16
460.116773843765 -236.655503511429 2523.00000190735 18 21 12
485.087007284164 -242.249757051468 2582.99994468689 13 16 7
486.57438158989 -239.513143897057 2553.99990081787 17 20 11
490.608334541321 -238.089635968208 2539.00003433228 19 22 13
495.343446731567 -237.041279673576 2528.00011634827 18 21 14
501.6068816185 -236.743047833443 2525.00009536743 16 19 12
506.644666194916 -235.882252454758 2516.00003242493 14 17 10
515.918135643005 -236.99015378952 2528.00011634827 13 16 9
520.499229431152 -235.94181239605 2516.99995994568 12 15 8
527.324199676514 -235.924661159515 2516.99995994568 11 14 7
539.453446865082 -238.250553607941 2542.00005531311 11 14 7
545.913994312286 -238.045632839203 2539.99996185303 10 13 6
553.88605594635 -238.496705889702 2545.00007629395 11 14 7
555.714428424835 -236.32387816906 2522.0000743866 15 18 11
559.870541095734 -235.182017087936 2509.99999046326 17 20 13
570.507824420929 -236.757352948189 2526.99995040894 15 18 11
579.179883003235 -237.489297986031 2535.00008583069 13 16 9
588.356494903564 -238.408431410789 2545.00007629395 11 14 7
592.20677614212 -237.172961235046 2532.00006484985 9 12 5
601.427316665649 -238.091960549355 2542.00005531311 10 13 6
610.940277576447 -239.104464650154 2552.99997329712 12 15 8
626.077890396118 -242.270722985268 2586.99989318848 11 14 7
642.622232437134 -245.904788374901 2625.99992752075 8 11 4
646.758019924164 -244.762897491455 2614.00008201599 8 11 4
655.330240726471 -245.306506752968 2619.99988555908 9 12 5
662.922620773315 -245.475575327873 2621.99997901917 10 13 6
669.758260250092 -245.363831520081 2621.00005149841 11 14 7
675.55445432663 -244.877681136131 2615.9999370575 10 13 6
682.627558708191 -244.85969543457 2615.9999370575 9 12 5
697.081923484802 -247.462406754494 2644.00005340576 10 11 6
689.313411712646 -242.203444242477 2588.00005912781 10 13 6
705.994188785553 -245.554745197296 2624.00007247925 10 13 6
710.911452770233 -244.788363575935 2615.9999370575 10 13 4
718.529284000397 -244.957864284515 2618.00003051758 11 14 3
724.217057228088 -244.472488760948 2612.99991607666 11 14 3
732.116043567657 -244.73574757576 2615.9999370575 15 18 11
743.421375751495 -246.121630072594 2631.00004196167 19 24 18
455.914288759232 -252.655684947968 2617.00010299683 21 23 20
453.470706939697 -247.425615787506 2562.99996376038 20 22 17
460.433274507523 -247.408762574196 2562.99996376038 21 24 17
465.024024248123 -246.137008070946 2549.99995231628 17 20 11
473.429590463638 -246.892169117928 2558.00008773804 22 25 16
483.379691839218 -248.419165611267 2573.99988174438 16 19 10
489.224433898926 -247.822761535645 2568.00007820129 17 20 11
486.533492803574 -242.980420589447 2517.99988746643 18 21 12
493.954688310623 -243.252694606781 2520.99990844727 17 20 13
501.986861228943 -243.814289569855 2526.99995040894 15 18 11
507.231533527374 -243.025049567223 2519.00005340576 15 18 11
514.880359172821 -243.393436074257 2523.00000190735 15 18 11
519.034445285797 -242.121860384941 2509.99999046326 13 16 9
524.373829364777 -241.429105401039 2503.00002098084 13 16 9
535.615980625153 -243.436917662621 2523.9999294281 12 15 8
550.194680690765 -246.891051530838 2559.99994277954 11 14 7
552.562475204468 -244.847849011421 2539.00003433228 10 13 6
557.239055633545 -243.865579366684 2529.00004386902 13 16 9
560.968220233917 -242.497771978378 2515.00010490417 15 18 11
569.135427474976 -243.05833876133 2520.99990844727 15 18 11
578.248083591461 -244.004458189011 2530.99989891052 14 17 10
585.564494132996 -244.179219007492 2532.99999237061 13 16 9
591.019511222839 -243.582785129547 2526.99995040894 10 13 6
596.677541732788 -243.08280646801 2522.0000743866 9 12 5
608.768582344055 -245.185121893883 2543.99991035461 13 16 9
627.753794193268 -249.98551607132 2594.00010108948 12 15 8
633.304834365845 -249.388843774796 2588.00005912781 9 12 5
643.028497695923 -250.430315732956 2598.99997711182 8 11 4
652.560532093048 -251.375317573547 2608.99996757507 9 12 5
663.662731647491 -252.898246049881 2625 10 13 6
669.739902019501 -252.494335174561 2621.00005149841 10 13 6
675.278007984161 -251.897841691971 2615.00000953674 10 13 6
685.218751430511 -252.93892621994 2625.99992752075 9 12 5
695.481717586517 -254.076272249222 2638.00001144409 10 11 6
707.140505313873 -255.695015192032 2654.99997138977 10 13 6
709.204614162445 -253.846824169159 2635.99991798401 10 13 6
705.18684387207 -249.880522489548 2595.00002861023 11 14 5
713.296949863434 -250.247776508331 2598.99997711182 12 15 4
725.585222244263 -252.0592212677 2618.00003051758 12 15 4
736.576199531555 -253.389179706573 2631.99996948242 15 18 11
747.07704782486 -254.526555538177 2644.00005340576 13 18 12
451.193541288376 -257.10740685463 2589.99991416931 20 22 19
462.122917175293 -259.273916482925 2611.99998855591 19 21 16
462.751507759094 -255.683153867722 2575.99997520447 17 20 13
465.918630361557 -253.581464290619 2555.0000667572 18 21 12
474.707841873169 -254.556477069855 2565.00005722046 15 18 9
482.235491275787 -254.836559295654 2568.00007820129 16 19 10
480.634272098541 -250.35348534584 2523.00000190735 17 20 11
484.970450401306 -249.046072363853 2509.99999046326 18 21 14
492.761701345444 -249.524593353271 2515.00010490417 18 21 14
496.407330036163 -247.919589281082 2499.00007247925 17 20 13
507.616579532623 -250.084310770035 2520.99990844727 16 19 12
509.760916233063 -247.784927487373 2497.99990653992 16 19 12
517.776012420654 -248.362258076668 2503.99994850159 14 17 10
527.079463005066 -249.534457921982 2516.00003242493 14 17 10
533.051609992981 -249.119713902473 2512.00008392334 12 15 8
547.167658805847 -252.473175525665 2546.0000038147 12 15 8
547.974169254303 -249.67834353447 2517.99988746643 10 13 6
553.475320339203 -249.065205454826 2512.00008392334 12 15 8
562.288343906403 -249.939203262329 2520.99990844727 14 17 10
563.925087451935 -247.640773653984 2497.99990653992 14 17 10
565.893113613129 -245.540872216225 2476.99999809265 14 17 10
581.847429275513 -249.48762357235 2516.99995994568 14 17 10
590.767323970795 -250.361263751984 2526.00002288818 11 14 7
600.444674491882 -251.532107591629 2538.00010681152 8 11 4
608.03234577179 -251.810848712921 2540.99988937378 13 16 9
620.475113391876 -254.07138466835 2563.99989128113 15 18 11
633.041381835938 -256.331622600555 2586.99989318848 13 16 9
643.504559993744 -257.699877023697 2601.0000705719 9 12 5
657.043874263763 -260.256767272949 2627.00009346008 9 12 5
667.68890619278 -261.624544858933 2641.00003242493 9 12 5
677.386820316315 -262.595951557159 2651.00002288818 10 13 6
680.940330028534 -261.190116405487 2637.00008392334 10 13 6
681.547045707703 -258.695065975189 2611.99998855591 10 13 6
694.408535957336 -260.855048894882 2634.0000629425 11 12 7
701.528787612915 -260.836213827133 2634.0000629425 11 14 7
707.03387260437 -260.22332906723 2628.00002098084 12 15 8
714.679658412933 -260.402709245682 2630.00011444092 14 17 8
717.121005058289 -258.701056241989 2612.99991607666 14 17 6
728.615701198578 -260.266691446304 2628.99994850159 15 18 7
737.117767333984 -260.743319988251 2634.0000629425 14 17 10
749.884486198425 -262.704759836197 2654.00004386902 12 17 11
459.015160799026 -268.754810094833 2634.99999046326 9 11 8
457.682341337204 -263.841420412064 2586.99989318848 19 21 16
460.039436817169 -261.172145605087 2561.00010871887 10 13 6
464.989364147186 -260.032683610916 2549.99995231628 16 19 10
475.985497236252 -262.258142232895 2572.00002670288 10 13 4
479.213118553162 -260.20085811615 2552.00004577637 13 16 7
479.092627763748 -256.410598754883 2515.00010490417 14 17 8
484.37312245369 -255.577087402344 2506.99996948242 16 19 12
488.825380802155 -254.335910081863 2494.99988555908 18 21 14
499.170392751694 -256.15268945694 2513.00001144409 20 23 16
499.745935201645 -252.974897623062 2482.00011253357 18 21 14
503.417074680328 -251.428097486496 2467.00000762939 18 21 14
524.581372737885 -258.543729782104 2536.99994087219 16 19 12
533.555209636688 -259.544193744659 2546.99993133545 16 19 12
540.460169315338 -259.5254778862 2546.99993133545 15 18 11
537.47832775116 -254.819869995117 2500.99992752075 14 17 10
539.903998374939 -252.763748168945 2480.99994659424 11 14 7
552.575528621674 -255.495935678482 2507.99989700317 11 14 7
560.708522796631 -256.088465452194 2513.99993896484 12 15 8
558.037340641022 -251.791775226593 2471.99988365173 13 16 9
556.736767292023 -248.208582401276 2437.00003623962 14 17 10
566.110014915466 -249.41249191761 2448.99988174438 15 18 11
586.071312427521 -255.198836326599 2506.00004196167 12 15 8
596.16756439209 -256.605684757233 2519.99998092651 9 12 5
607.056379318237 -258.317798376083 2536.99994087219 12 15 8
615.374445915222 -258.909732103348 2542.99998283386 14 17 10
627.149641513824 -260.926872491837 2562.99996376038 13 16 9
642.00097322464 -264.165312051773 2595.00002861023 9 12 5
656.774342060089 -267.301499843597 2625.99992752075 9 12 5
674.242615699768 -271.455109119415 2667.00005531311 9 12 5
684.521734714508 -272.656619548798 2678.99990081787 9 12 5
683.761477470398 -269.482046365738 2648.00000190735 10 13 6
683.09360742569 -266.40972495079 2618.00003051758 10 13 6
687.798798084259 -265.474677085876 2608.99996757507 11 12 7
700.977027416229 -267.795771360397 2631.99996948242 12 15 8
704.593658447266 -266.454011201859 2618.99995803833 12 15 8
713.845729827881 -267.248898744583 2627.00009346008 14 17 8
724.237740039825 -268.450617790222 2638.99993896484 15 18 7
726.934194564819 -266.804218292236 2622.99990653992 15 18 7
735.700011253357 -267.395794391632 2628.99994850159 10 13 6
741.389632225037 -266.868680715561 2624.00007247925 17 22 16
450.113266706467 -270.593613386154 2584.00011062622 6 8 5
462.087154388428 -273.507505655289 2611.99998855591 10 12 7
458.225309848785 -267.102152109146 2551.00011825562 9 12 5
462.96563744545 -265.827715396881 2539.00003433228 14 17 8
474.486738443375 -268.426805734634 2563.99989128113 14 17 8
478.443801403046 -266.733467578888 2548.00009727478 12 15 6
479.265064001083 -263.365417718887 2516.00003242493 12 15 6
484.54824090004 -262.509763240814 2507.99989700317 14 17 10
491.550117731094 -262.596100568771 2509.0000629425 16 19 12
494.980871677399 -260.798513889313 2492.00010299683 17 20 13
502.546489238739 -261.198669672012 2496.00005149841 19 22 15
506.459712982178 -259.715169668198 2482.00011253357 19 22 15
514.017641544342 -260.115206241608 2486.00006103516 17 20 13
526.204586029053 -262.816816568375 2512.00008392334 16 19 12
540.6534075737 -266.564160585403 2548.00009727478 16 19 12
534.236133098602 -260.059148073196 2486.00006103516 15 18 11
539.667844772339 -259.41276550293 2480.00001907349 12 15 8
553.438007831573 -262.74099946022 2512.00008392334 10 13 6
559.12846326828 -262.198984622955 2506.99996948242 10 13 6
562.081933021545 -260.402053594589 2490.00000953674 11 14 7
554.205536842346 -253.69057059288 2426.00011825562 14 17 10
562.624275684357 -254.508554935455 2434.00001525879 13 16 9
577.867329120636 -258.35856795311 2470.99995613098 13 16 9
589.524686336517 -260.53524017334 2492.00010299683 12 15 8
599.619805812836 -261.979788541794 2506.00004196167 11 14 7
610.999703407288 -263.946831226349 2525.00009536743 11 14 7
618.811130523682 -264.345675706863 2529.00004386902 14 17 10
639.260172843933 -270.074903964996 2584.00011062622 10 13 6
654.253661632538 -273.399591445923 2615.9999370575 9 12 5
672.705769538879 -278.082400560379 2661.00001335144 9 12 5
685.779273509979 -280.465662479401 2684.00001525879 9 12 5
684.258162975311 -276.892840862274 2650.00009536743 9 12 5
681.508660316467 -272.902637720108 2611.99998855591 11 14 7
689.888477325439 -273.405432701111 2617.00010299683 13 14 9
698.827028274536 -274.117112159729 2624.00007247925 12 15 8
708.340764045715 -275.037735700607 2632.99989700317 13 16 9
712.196052074432 -273.764878511429 2621.00005149841 14 17 8
715.162515640259 -272.178947925568 2605.99994659424 14 17 6
731.349349021912 -275.606244802475 2638.99993896484 14 17 6
727.006375789642 -271.305471658707 2598.00004959106 10 13 6
751.542210578918 -277.760803699493 2660.00008583069 14 19 13
773.274719715118 -283.066838979721 2710.99996566772 14 19 15
455.668985843658 -281.071484088898 2615.9999370575 0 1 0
463.130056858063 -281.267732381821 2618.00003051758 16 18 13
467.726856470108 -279.744923114777 2604.00009155273 8 11 4
474.434465169907 -279.511243104935 2601.99999809265 15 18 11
476.688832044601 -276.699483394623 2575.99997520447 10 13 4
483.494937419891 -276.573210954666 2575.00004768372 10 13 4
488.199144601822 -275.265395641327 2562.99996376038 11 14 5
489.74597454071 -272.239357233047 2535.00008583069 9 12 3
491.923272609711 -269.643157720566 2510.99991798401 11 14 7
499.530583620071 -270.053833723068 2515.00010490417 12 15 8
502.930462360382 -268.209546804428 2497.99990653992 19 22 15
511.746227741241 -269.264221191406 2507.99989700317 19 22 15
520.201563835144 -270.103961229324 2516.00003242493 18 21 14
532.888531684875 -273.090422153473 2543.99991035461 17 20 13
537.663459777832 -271.997511386871 2533.99991989136 16 19 12
541.738331317902 -270.58270573616 2520.99990844727 15 18 11
545.524060726166 -269.060701131821 2506.99996948242 13 16 9
549.45319890976 -267.646223306656 2493.99995803833 10 13 6
559.109210968018 -269.021898508072 2506.99996948242 9 12 5
560.708403587341 -266.53453707695 2483.99996757507 10 13 6
567.893028259277 -266.729831695557 2486.00006103516 12 15 8
569.539844989777 -264.350175857544 2463.99998664856 12 15 8
572.70348072052 -262.721836566925 2448.99988174438 14 17 10
583.828032016754 -264.740884304047 2467.99993515015 13 16 9
597.686350345612 -267.939507961273 2497.99990653992 10 13 6
605.656862258911 -268.456339836121 2503.00002098084 9 12 5
616.834104061127 -270.36726474762 2520.99990844727 14 17 10
631.571352481842 -273.779332637787 2552.99997329712 10 13 6
663.079261779785 -281.245350837708 2622.99990653992 8 11 4
667.618334293365 -280.152946710587 2612.99991607666 9 12 5
674.426257610321 -280.025631189346 2611.99998855591 10 13 6
679.401576519012 -279.147982597351 2604.00009155273 11 14 7
685.387313365936 -278.699308633804 2599.99990463257 13 14 9
697.475731372833 -280.716001987457 2618.99995803833 12 15 8
706.707000732422 -281.553566455841 2627.00009346008 13 16 9
717.611014842987 -283.034116029739 2641.00003242493 13 16 7
721.180438995361 -281.621187925339 2628.00002098084 13 16 5
731.884241104126 -282.994568347931 2641.00003242493 13 16 5
732.5838804245 -280.510604381561 2618.00003051758 15 18 11
748.132526874542 -283.705502748489 2648.00000190735 11 16 10
767.550647258759 -288.292825222015 2690.99998474121 9 13 14
459.750115871429 -286.305814981461 2598.99997711182 14 16 11
471.479713916779 -289.15074467659 2625 13 16 9
478.791207075119 -289.241492748261 2625.99992752075 16 19 12
480.370670557022 -285.917848348618 2595.99995613098 13 16 7
487.981915473938 -286.228775978088 2598.99997711182 12 15 6
491.03707075119 -283.896625041962 2578.00006866455 13 16 7
495.52246928215 -282.445579767227 2565.00005722046 10 13 4
495.626360177994 -278.572231531143 2529.99997138977 11 14 7
496.134966611862 -275.029629468918 2497.99990653992 11 14 7
503.515362739563 -275.340676307678 2500.99992752075 13 16 9
512.543141841888 -276.532292366028 2512.00008392334 15 18 11
521.629393100739 -277.723580598831 2523.00000190735 19 22 15
527.632355690002 -277.263641357422 2519.00005340576 18 21 14
534.885585308075 -277.464032173157 2520.99990844727 16 19 12
542.578339576721 -277.88445353508 2525.00009536743 15 18 11
547.02764749527 -276.654064655304 2513.99993896484 16 19 12
547.230660915375 -273.333132266998 2483.99996757507 16 19 12
550.169110298157 -271.442979574203 2467.00000762939 13 16 9
563.397645950317 -274.614036083221 2496.00005149841 12 15 8
566.502928733826 -272.834062576294 2480.00001907349 12 15 8
563.973248004913 -268.414109945297 2440.00005722046 15 18 11
571.281254291534 -268.724739551544 2443.00007820129 16 19 12
581.916272640228 -270.575165748596 2460.00003814697 19 22 15
597.906053066254 -274.844944477081 2499.00007247925 19 22 15
604.427337646484 -274.715065956116 2497.99990653992 19 22 15
614.857017993927 -276.344776153564 2513.00001144409 19 22 15
646.641314029694 -287.430644035339 2614.00008201599 15 18 11
661.542057991028 -287.719160318375 2617.00010299683 6 9 2
667.087078094482 -287.038952112198 2611.00006103516 8 11 4
672.85680770874 -286.468833684921 2605.99994659424 10 13 6
681.468605995178 -287.107944488525 2611.99998855591 11 14 7
689.584910869598 -287.527203559875 2615.9999370575 13 14 9
697.7219581604 -287.94652223587 2619.99988555908 13 16 9
708.300888538361 -289.354890584946 2632.99989700317 13 16 9
717.319250106812 -290.103912353516 2640.00010490417 13 16 7
724.453568458557 -290.083676576614 2640.00010490417 13 16 5
735.743999481201 -291.711688041687 2654.99997138977 13 16 5
742.357969284058 -291.471898555756 2653.00011634827 13 16 9
756.023526191711 -293.978720903397 2676.00011825562 14 19 13
773.235261440277 -297.803491353989 2710.99996566772 16 21 17
459.730952978134 -293.384402990341 2598.99997711182 18 20 15
465.533316135406 -292.574852705002 2592.00000762939 16 19 12
474.760562181473 -293.909758329391 2604.00009155273 15 18 11
481.831401586533 -293.890029191971 2604.00009155273 15 18 9
482.329696416855 -289.92024064064 2569.00000572205 14 17 8
499.173164367676 -291.573196649551 2584.00011062622 12 15 6
494.039744138718 -284.557640552521 2522.0000743866 13 16 9
497.704476118088 -282.732754945755 2506.00004196167 12 15 8
505.710363388062 -283.389985561371 2512.00008392334 10 13 6
512.319445610046 -283.257335424423 2510.99991798401 12 15 8
518.508434295654 -282.899022102356 2507.99989700317 18 21 14
522.795140743256 -281.525611877441 2496.00005149841 20 23 16
532.531797885895 -283.084660768509 2509.99999046326 17 20 13
537.401258945465 -282.049596309662 2500.99992752075 15 18 11
541.132867336273 -280.450791120529 2486.99998855591 17 20 13
542.584598064423 -277.724534273148 2463.00005912781 18 21 14
552.602469921112 -279.395967721939 2477.9999256134 17 20 13
560.66906452179 -280.05239367485 2483.99996757507 13 16 9
571.508288383484 -282.061547040939 2502.00009346008 13 16 9
568.576276302338 -277.306795120239 2460.00003814697 14 17 10
575.236797332764 -277.286887168884 2460.00003814697 15 18 11
584.02544260025 -278.281360864639 2469.00010108948 19 22 15
594.536423683167 -280.064582824707 2484.99989509583 21 24 17
605.133175849915 -281.847596168518 2500.99992752075 22 25 18
616.794228553772 -284.081101417542 2520.99990844727 21 24 17
642.167806625366 -292.511582374573 2595.99995613098 15 18 11
655.692756175995 -295.420080423355 2621.99997901917 10 13 6
672.137916088104 -299.567490816116 2658.99991989136 6 9 2
677.030146121979 -298.532277345657 2650.00009536743 8 11 4
679.032683372498 -296.258151531219 2630.00011444092 8 11 4
683.013379573822 -294.885545969009 2618.00003051758 9 12 5
691.673099994659 -295.540541410446 2624.00007247925 13 14 9
698.500335216522 -295.407146215439 2622.99990653992 12 15 8
708.818435668945 -296.737879514694 2634.99999046326 13 16 9
720.01576423645 -298.406332731247 2650.00009536743 14 17 8
730.195701122284 -299.624264240265 2661.00001335144 14 17 6
738.494753837585 -300.054043531418 2664.99996185303 15 18 7
750.732123851776 -302.060037851334 2683.00008773804 15 18 11
761.936008930206 -303.615570068359 2697.00002670288 10 15 9
770.933210849762 -304.270535707474 2703.00006866455 16 21 17
455.437451601028 -302.331626415253 2615.00000953674 16 18 15
451.044261455536 -294.797360897064 2549.99995231628 16 18 13
469.271242618561 -297.532558441162 2573.99988174438 16 19 10
459.793090820313 -287.225723266602 2484.99989509583 19 22 13
481.664896011353 -292.271912097931 2529.00004386902 19 22 13
492.648661136627 -290.61421751976 2515.00010490417 20 23 16
500.862181186676 -291.402995586395 2522.0000743866 20 23 16
506.294310092926 -290.574043989182 2515.00010490417 17 20 13
514.747619628906 -291.47806763649 2523.00000190735 15 18 11
512.07959651947 -286.143749952316 2476.99999809265 14 17 10
521.308898925781 -287.509828805923 2489.00008201599 16 19 12
525.510430335999 -286.103546619415 2476.99999809265 18 21 14
537.595868110657 -288.970738649368 2502.00009346008 17 20 13
539.807260036469 -286.525070667267 2480.99994659424 17 20 13
546.309471130371 -286.389201879501 2480.00001907349 18 21 14
553.474247455597 -286.599814891815 2482.00011253357 18 21 14
567.645668983459 -290.389716625214 2515.00010490417 14 17 10
572.401523590088 -289.329916238785 2506.00004196167 13 16 9
574.33408498764 -286.884844303131 2484.99989509583 12 15 8
579.893290996552 -286.287188529968 2480.00001907349 11 14 7
591.337740421295 -288.575321435928 2500 15 18 11
599.061727523804 -289.016395807266 2503.99994850159 19 22 15
610.677540302277 -291.304022073746 2523.9999294281 21 24 17
644.125580787659 -300.494313240051 2604.00009155273 13 16 9
652.670621871948 -301.165282726288 2609.99989509583 9 12 5
677.17170715332 -309.105157852173 2678.99990081787 6 9 2
678.030610084534 -306.198984384537 2654.00004386902 7 10 3
683.142364025116 -305.254459381104 2645.99990844727 7 10 3
686.644792556763 -303.618013858795 2631.99996948242 8 11 4
699.823319911957 -306.249767541885 2654.99997138977 10 11 6
701.674938201904 -303.921580314636 2634.99999046326 10 13 6
709.335625171661 -304.131150245667 2637.00008392334 11 14 7
720.810055732727 -305.955350399017 2653.00011634827 14 17 8
730.998039245605 -307.202756404877 2664.00003433228 15 18 7
740.136623382568 -307.988941669464 2671.0000038147 16 19 8
734.482824802399 -302.664190530777 2625 23 26 19
746.09512090683 -304.488480091095 2641.00003242493 11 16 10
758.934020996094 -306.773811578751 2661.00001335144 7 11 12
766.698122024536 -306.983977556229 2663.00010681152 18 22 23
442.355871200562 -300.577133893967 2539.99996185303 7 9 6
452.793478965759 -302.924156188965 2559.99994277954 20 22 17
457.771301269531 -301.602751016617 2549.00002479553 15 18 11
463.599860668182 -300.872921943665 2542.99998283386 17 20 11
470.50479054451 -300.852924585342 2542.99998283386 16 19 10
473.466098308563 -298.348486423492 2522.0000743866 20 23 14
483.168452978134 -300.102740526199 2536.99994087219 20 23 14
488.894671201706 -299.372643232346 2530.99989891052 19 22 13
492.432624101639 -297.341614961624 2513.99993896484 22 25 18
497.465878725052 -296.256810426712 2505.00011444092 23 26 19
503.455698490143 -295.763343572617 2500.99992752075 20 23 16
505.954504013062 -293.259620666504 2480.00001907349 18 21 14
516.814112663269 -295.604109764099 2500 15 18 11
517.72803068161 -292.272925376892 2471.99988365173 15 18 11
525.490045547485 -292.843610048294 2476.99999809265 18 21 14
530.914664268494 -292.113721370697 2470.99995613098 18 21 14
541.092157363892 -293.98450255394 2486.99998855591 17 20 13
550.474286079407 -295.382142066956 2499.00007247925 18 21 14
558.582425117493 -296.070426702499 2505.00011444092 17 20 13
566.721975803375 -296.758532524109 2510.99991798401 15 18 11
574.893116950989 -297.446548938751 2516.99995994568 15 18 11
577.78012752533 -295.416593551636 2500 13 16 9
586.18575334549 -296.222746372223 2506.99996948242 13 16 9
591.553509235382 -295.492798089981 2500.99992752075 15 18 11
605.260968208313 -298.89789223671 2529.99997138977 17 20 13
611.866354942322 -298.75859618187 2529.00004386902 17 20 13
638.036966323853 -308.069258928299 2608.00004005432 17 20 13
643.609285354614 -307.338744401932 2601.99999809265 11 14 7
655.399680137634 -309.56107378006 2621.00005149841 8 11 4
661.7311835289 -309.184938669205 2618.00003051758 8 11 4
672.133147716522 -310.698419809341 2631.00004196167 8 11 4
682.604372501373 -312.211662530899 2644.00005340576 7 10 3
695.232152938843 -314.669460058212 2664.99996185303 11 14 7
697.429478168488 -312.404245138168 2645.99990844727 11 12 7
697.39305973053 -309.195011854172 2618.99995803833 10 13 6
702.589690685272 -308.347344398499 2611.99998855591 10 13 6
712.366461753845 -309.506595134735 2621.99997901917 13 16 7
729.604840278625 -313.852697610855 2658.99991989136 14 17 6
725.983738899231 -309.228420257568 2619.99988555908 23 26 17
735.581338405609 -310.269743204117 2628.99994850159 12 15 8
746.074378490448 -311.665087938309 2641.00003242493 21 26 20
752.638936042786 -311.408340930939 2638.99993896484 23 27 28
769.556641578674 -315.399676561356 2673.00009727478 2 6 7
443.206965923309 -308.098137378693 2545.00007629395 25 27 24
450.2974152565 -308.199226856232 2546.0000038147 19 21 16
452.902615070343 -305.274099111557 2522.0000743866 14 17 10
456.834733486176 -303.317427635193 2506.00004196167 18 21 12
461.788952350616 -302.087068557739 2496.00005149841 21 24 15
461.619079113007 -297.589153051376 2459.00011062622 22 25 16
470.388472080231 -298.900365829468 2470.00002861023 21 24 15
482.886373996735 -302.510291337967 2500 19 22 15
487.123668193817 -300.916850566864 2486.99998855591 21 24 17
494.268029928207 -301.138281822205 2489.00008201599 20 23 16
504.441618919373 -303.174316883087 2506.00004196167 20 23 16
507.974088191986 -301.217883825302 2490.00000953674 21 24 17
518.754601478577 -299.60373044014 2476.99999809265 19 22 15
523.984372615814 -298.736274242401 2470.00002861023 18 21 14
533.901810646057 -300.529450178146 2484.99989509583 20 23 16
542.376577854156 -301.47585272789 2493.00003051758 19 22 15
551.334202289581 -302.663892507553 2503.00002098084 19 22 15
553.209781646729 -299.98254776001 2480.99994659424 17 20 13
562.864065170288 -301.533162593842 2493.99995803833 17 20 13
569.161951541901 -301.27015709877 2492.00010299683 19 22 15
577.990055084229 -302.336841821671 2500.99992752075 19 22 15
592.241883277893 -302.65673995018 2503.99994850159 18 21 14
600.455105304718 -303.36058139801 2509.99999046326 16 19 12
615.231990814209 -307.327270507813 2542.99998283386 15 18 11
635.323882102966 -313.831180334091 2596.99988365173 14 17 10
653.97584438324 -319.488406181335 2644.00005340576 9 12 5
658.128142356873 -318.015992641449 2631.99996948242 8 11 4
666.258752346039 -318.477004766464 2635.99991798401 9 12 5
666.235566139221 -315.07208943367 2608.00004005432 9 12 5
688.261806964874 -322.056621313095 2665.99988937378 8 11 4
691.036105155945 -319.980770349503 2648.9999294281 13 16 9
696.880459785461 -319.354712963104 2644.00005340576 16 17 12
704.560935497284 -319.574266672134 2645.99990844727 13 16 9
702.299296855927 -315.325498580933 2611.00006103516 12 15 8
713.703393936157 -317.23615527153 2627.00009346008 12 15 6
737.540483474731 -324.580490589142 2687.99996376038 13 16 5
739.539802074432 -322.264462709427 2668.99991035461 13 16 5
738.078355789185 -318.500101566315 2638.00001144409 12 15 8
738.708734512329 -315.702229738235 2615.00000953674 21 26 20
752.903401851654 -318.699389696121 2640.00010490417 12 16 17
447.714596986771 -318.244993686676 2571.00009918213 13 14 9
450.45405626297 -315.253883600235 2546.99993133545 24 25 20
451.086759567261 -310.901612043381 2512.00008392334 19 20 14
454.627096652985 -308.653593063354 2493.99995803833 7 8 0
461.213707923889 -308.509558439255 2493.00003051758 24 25 17
469.29544210434 -309.35525894165 2500 21 24 15
464.845597743988 -302.034318447113 2440.99998474121 20 23 14
484.604060649872 -310.427397489548 2509.0000629425 21 24 17
492.587119340897 -311.148792505264 2515.00010490417 21 24 17
505.367338657379 -314.838916063309 2545.00007629395 19 21 16
510.2578997612 -313.580483198166 2535.00008583069 22 25 18
512.033045291901 -310.466676950455 2509.99999046326 21 24 17
510.984301567078 -305.745363235474 2471.99988365173 19 22 15
518.733561038971 -306.342631578445 2476.99999809265 18 21 14
527.357459068298 -307.434439659119 2486.00006103516 18 21 14
533.450961112976 -307.042151689529 2483.00004005432 18 21 14
542.790353298187 -308.504521846771 2494.99988555908 18 21 14
545.365810394287 -306.133836507797 2476.0000705719 20 23 16
551.850616931915 -305.988788604736 2474.99990463257 23 26 19
556.072294712067 -304.607510566711 2463.99998664856 23 26 19
568.226933479309 -307.55290389061 2487.99991607666 23 26 19
574.039995670319 -307.036906480789 2483.99996757507 24 27 20
583.103537559509 -308.251321315765 2493.99995803833 22 25 18
592.929899692535 -309.836387634277 2506.99996948242 16 19 12
603.064894676209 -311.544746160507 2520.99990844727 15 18 11
612.790942192078 -313.005775213242 2532.99999237061 15 18 11
641.172707080841 -323.857367038727 2621.00005149841 14 17 10
657.66316652298 -328.52977514267 2658.99991989136 14 17 10
659.355878829956 -325.788855552673 2637.00008392334 13 16 9
663.456201553345 -324.283748865128 2625 11 14 7
677.708685398102 -327.720016241074 2653.00011634827 11 14 7
684.625148773193 -327.57380604744 2651.99995040894 12 15 8
685.27489900589 -324.463427066803 2627.00009346008 13 16 9
693.695485591888 -325.05863904953 2631.99996948242 11 12 7
704.805076122284 -326.888829469681 2647.0000743866 10 13 6
720.567464828491 -330.818116664886 2678.99990081787 10 13 6
721.288442611694 -327.832251787186 2654.99997138977 9 12 5
733.951508998871 -330.279588699341 2674.99995231628 8 11 4
744.228422641754 -331.615567207336 2686.00010871887 8 11 4
739.176154136658 -326.161623001099 2641.99995994568 6 9 2
742.359936237335 -324.411898851395 2628.00002098084 10 15 9
749.175012111664 -324.267208576202 2627.00009346008 10 14 13
449.087053537369 -326.255410909653 2578.9999961853 12 12 10
456.446379423141 -326.487451791763 2581.00008964539 25 26 21
458.608001470566 -323.05121421814 2553.99990081787 26 27 21
458.252280950546 -317.971020936966 2513.99993896484 29 30 22
462.858080863953 -316.432505846024 2502.00009346008 21 22 14
477.533936500549 -321.723103523254 2543.99991035461 21 24 15
475.108116865158 -315.50544500351 2494.99988555908 22 25 16
478.595703840256 -313.334822654724 2477.9999256134 23 26 19
504.551410675049 -321.257680654526 2540.99988937378 17 20 13
512.852847576141 -322.120875120163 2548.00009727478 11 14 7
511.603593826294 -317.04244017601 2507.99989700317 12 15 8
515.717208385468 -315.377563238144 2494.99988555908 14 17 10
519.759297370911 -313.712775707245 2482.00011253357 15 18 11
527.123808860779 -314.07031416893 2484.99989509583 16 19 12
533.644318580627 -313.92228603363 2483.99996757507 16 19 12
537.547647953033 -312.257766723633 2470.99995613098 17 20 13
547.987282276154 -314.38422203064 2487.99991607666 18 21 14
551.160156726837 -312.340766191483 2471.99988365173 21 24 17
558.307468891144 -312.571674585342 2473.99997711182 22 25 18
566.149830818176 -313.181608915329 2479.00009155273 23 26 19
574.711501598358 -314.170390367508 2486.99998855591 21 24 17
584.48451757431 -315.79053401947 2500 19 22 15
592.907965183258 -316.652685403824 2506.99996948242 16 19 12
600.650787353516 -317.135781049728 2510.99991798401 16 19 12
620.993912220001 -324.185967445374 2566.99991226196 16 19 12
643.840730190277 -332.371681928635 2631.99996948242 15 18 11
655.166745185852 -334.495216608047 2648.9999294281 12 15 8
660.333096981049 -333.461910486221 2641.00003242493 12 15 8
663.433432579041 -331.418812274933 2625 10 13 6
675.386726856232 -333.794593811035 2644.00005340576 10 13 6
682.020902633667 -333.51919054985 2641.99995994568 11 14 7
678.209364414215 -328.194737434387 2599.99990463257 12 15 8
690.510392189026 -330.696702003479 2619.99988555908 10 11 6
701.054930686951 -332.314997911453 2632.99989700317 9 12 5
712.476074695587 -334.311813116074 2648.9999294281 9 12 5
716.104626655579 -332.648813724518 2635.99991798401 8 11 4
708.687424659729 -325.938701629639 2582.99994468689 8 11 4
733.677446842194 -334.118664264679 2648.00000190735 7 10 3
742.231845855713 -334.727466106415 2653.00011634827 8 11 4
742.903411388397 -331.80382847786 2630.00011444092 14 19 15
755.427539348602 -334.179192781448 2648.9999294281 9 13 12
447.673052549362 -332.240849733353 2571.00009918213 2 2 0
456.955760717392 -333.899557590485 2584.00011062622 21 22 17
462.716668844223 -332.973599433899 2576.99990272522 24 25 19
464.246273040771 -329.076021909714 2546.99993133545 29 30 22
472.08645939827 -329.70055937767 2552.00004577637 21 22 14
480.328053236008 -330.583244562149 2559.00001525879 22 25 16
478.895306587219 -324.877709150314 2515.00010490417 23 26 17
484.561592340469 -324.081152677536 2509.0000629425 23 26 19
493.719339370728 -325.609385967255 2520.99990844727 21 24 17
503.338277339935 -327.395677566528 2535.00008583069 18 21 14
507.195293903351 -325.436502695084 2519.99998092651 13 16 9
514.233529567719 -325.543612241745 2520.99990844727 13 16 9
514.248609542847 -321.260362863541 2487.99991607666 13 16 9
520.784556865692 -321.10932469368 2486.99998855591 14 17 10
527.950525283813 -321.345627307892 2489.00008201599 16 19 12
530.185163021088 -318.612486124039 2467.99993515015 17 20 13
535.785615444183 -317.945152521133 2463.00005912781 14 17 10
543.560326099396 -318.568617105484 2467.99993515015 13 16 9
553.590834140778 -320.482671260834 2483.00004005432 13 16 9
559.413909912109 -319.9442923069 2479.00009155273 14 17 10
564.072489738464 -318.760633468628 2470.00002861023 15 18 11
574.689447879791 -320.932298898697 2486.99998855591 13 16 9
583.05960893631 -321.813315153122 2493.99995803833 12 15 8
593.35869550705 -323.726385831833 2509.0000629425 12 15 8
605.173289775848 -326.413333415985 2529.99997138977 13 16 9
634.522259235382 -334.624171257019 2594.00010108948 11 14 7
649.949729442596 -338.986754417419 2628.00002098084 8 11 4
658.809781074524 -339.866250753403 2634.99999046326 8 11 4
666.190385818481 -339.971899986267 2635.99991798401 7 10 3
673.320174217224 -339.94859457016 2635.99991798401 8 11 4
678.64203453064 -339.022755622864 2628.99994850159 10 13 6
681.31697177887 -336.807578802109 2611.99998855591 11 14 7
687.852263450623 -336.526840925217 2609.99989509583 16 17 12
698.369801044464 -338.180243968964 2622.99990653992 16 19 12
706.267416477203 -338.544338941574 2625.99992752075 17 20 13
710.920751094818 -337.361603975296 2617.00010299683 17 20 13
709.488689899445 -333.343207836151 2585.99996566772 17 20 13
727.005779743195 -338.219225406647 2624.00007247925 18 21 14
735.775172710419 -338.970392942429 2630.00011444092 17 20 13
744.858920574188 -339.850544929504 2637.00008392334 18 23 19
758.827686309814 -342.9214656353 2661.00001335144 10 14 13
459.586650133133 -342.910259962082 2598.99997711182 13 14 9
459.104120731354 -337.347269058228 2556.99992179871 16 17 11
465.136140584946 -336.665958166122 2552.00004577637 19 20 12
478.616833686829 -336.358398199081 2549.99995231628 22 25 16
484.014630317688 -335.281193256378 2542.00005531311 23 26 17
486.471056938171 -332.225620746613 2519.00005340576 22 25 18
491.5432035923 -331.016659736633 2509.99999046326 20 23 16
499.940723180771 -332.049548625946 2517.99988746643 19 22 15
508.179426193237 -332.950353622437 2525.00009536743 17 20 13
507.072329521179 -327.785700559616 2486.00006103516 16 19 12
504.719138145447 -321.962416172028 2441.99991226196 12 15 8
517.41224527359 -325.763821601868 2470.99995613098 12 15 8
524.322509765625 -325.87343454361 2471.99988365173 15 18 11
530.592799186707 -325.587660074234 2470.00002861023 17 20 13
535.110950469971 -324.247270822525 2460.00003814697 15 18 11
540.234744548798 -323.302507400513 2453.00006866455 14 17 10
548.886597156525 -324.466407299042 2461.99989318848 12 15 8
556.458115577698 -324.971258640289 2466.00008010864 13 16 9
566.790640354156 -327.057272195816 2482.00011253357 13 16 9
573.280572891235 -326.902955770493 2480.99994659424 12 15 8
582.80336856842 -328.461498022079 2493.00003051758 11 14 7
600.667059421539 -334.630846977234 2539.99996185303 10 13 6
617.110013961792 -339.877247810364 2579.99992370605 11 14 7
626.99556350708 -341.434627771378 2592.00000762939 11 14 7
636.700391769409 -342.860102653503 2602.9999256134 9 12 5
643.743455410004 -342.836558818817 2602.9999256134 7 10 3
659.536242485046 -347.422629594803 2638.00001144409 7 10 3
670.968472957611 -349.637657403946 2654.99997138977 7 10 3
674.062967300415 -347.50697016716 2638.99993896484 7 10 3
675.00501871109 -344.323307275772 2615.00000953674 10 13 6
680.51141500473 -343.510061502457 2608.99996757507 10 13 6
690.464675426483 -344.935119152069 2619.99988555908 13 14 9
698.346853256226 -345.306992530823 2622.99990653992 13 16 9
704.899966716766 -345.020800828934 2621.00005149841 14 17 10
707.638382911682 -342.891901731491 2605.00001907349 15 18 11
719.068765640259 -344.975233078003 2621.00005149841 15 18 11
727.26047039032 -345.479071140289 2625 16 19 12
734.354138374329 -345.456659793854 2625 14 17 10
741.72967672348 -345.566004514694 2625.99992752075 13 18 14
757.950067520142 -349.754631519318 2657.99999237061 14 18 17
465.223103761673 -354.290902614594 2631.00004196167 17 18 13
463.391304016113 -347.535818815231 2581.00008964539 16 17 11
466.207802295685 -344.416856765747 2558.00008773804 18 19 11
472.412616014481 -343.8560962677 2553.99990081787 19 20 12
482.160687446594 -345.853209495544 2569.00000572205 19 22 11
481.517195701599 -340.445995330811 2529.00004386902 21 24 15
486.448913812637 -339.077591896057 2519.00005340576 20 23 14
494.066774845123 -339.5936191082 2523.00000190735 18 21 12
500.315487384796 -339.167356491089 2519.99998092651 18 21 14
504.131972789764 -337.126106023788 2505.00011444092 18 21 14
505.622327327728 -333.604633808136 2479.00009155273 16 19 12
507.797300815582 -330.621838569641 2457.00001716614 14 17 10
515.924274921417 -331.541448831558 2463.99998664856 13 16 9
523.451745510101 -332.0572078228 2467.99993515015 11 14 7
530.570387840271 -332.303822040558 2470.00002861023 11 14 7
537.046253681183 -332.14670419693 2469.00010108948 14 17 10
540.873050689697 -330.375343561172 2456.00008964539 15 18 11
546.411991119385 -329.680293798447 2450.99997520447 16 19 12
555.532991886139 -331.137239933014 2461.99989318848 16 19 12
564.712822437286 -332.594037055969 2473.00004959106 16 19 12
569.792091846466 -331.629931926727 2466.00008010864 15 18 11
586.520850658417 -337.389498949051 2509.0000629425 13 16 9
602.535784244537 -342.610508203506 2548.00009727478 11 14 7
619.717538356781 -348.368614912033 2591.00008010864 11 14 7
640.275716781616 -355.873703956604 2647.0000743866 11 14 7
640.345573425293 -351.950824260712 2618.00003051758 11 14 7
645.203649997711 -350.717037916183 2608.99996757507 10 13 6
654.512286186218 -351.902961730957 2618.00003051758 9 12 5
670.691907405853 -356.717854738235 2654.00004386902 8 11 4
672.251284122467 -353.736937046051 2631.99996948242 8 11 4
671.884119510651 -349.815845489502 2602.9999256134 9 12 5
677.09743976593 -348.85174036026 2595.99995613098 10 13 6
692.022681236267 -352.859646081924 2625.99992752075 11 12 7
701.518535614014 -354.045420885086 2634.99999046326 11 14 7
703.801095485687 -351.60368680954 2617.00010299683 12 15 8
707.615613937378 -349.968492984772 2605.00001907349 13 16 9
721.240699291229 -353.169679641724 2628.99994850159 13 16 9
729.177057743073 -353.549748659134 2631.99996948242 14 17 10
735.170841217041 -352.989703416824 2628.00002098084 13 16 9
739.447832107544 -351.624071598053 2618.00003051758 16 21 17
756.787061691284 -356.436610221863 2654.00004386902 19 23 22
457.597464323044 -355.541229248047 2588.00005912781 21 21 19
456.008225679398 -348.924905061722 2539.99996185303 18 19 14
465.092062950134 -350.551158189774 2552.00004577637 18 19 11
473.315060138702 -351.490139961243 2559.00001525879 10 11 3
479.135245084763 -350.643455982208 2552.99997329712 16 19 8
484.160274267197 -349.247366189957 2542.99998283386 20 23 14
487.198859453201 -346.478044986725 2523.00000190735 20 23 14
491.106867790222 -344.395518302917 2507.99989700317 17 20 11
498.704582452774 -344.922095537186 2512.00008392334 16 19 12
503.304302692413 -343.388974666595 2500.99992752075 17 20 13
504.376113414764 -339.522004127502 2473.00004959106 18 21 14
511.288225650787 -339.636623859406 2473.99997711182 18 21 14
517.367303371429 -339.202076196671 2470.99995613098 16 19 12
527.24677324295 -341.238260269165 2486.00006103516 11 14 7
533.55485200882 -340.940773487091 2483.99996757507 9 12 5
538.328528404236 -339.682549238205 2474.99990463257 11 14 7
544.15363073349 -339.110612869263 2470.99995613098 13 16 9
547.94979095459 -337.303698062897 2457.99994468689 16 19 12
559.571623802185 -340.299636125565 2480.00001907349 17 20 13
566.744983196259 -340.55095911026 2482.00011253357 17 20 13
576.238632202148 -342.174202203751 2493.99995803833 16 19 12
584.627568721771 -343.111306428909 2500.99992752075 14 17 10
595.654666423798 -345.557242631912 2519.00005340576 11 14 7
603.190779685974 -345.945358276367 2522.0000743866 12 15 8
623.077929019928 -353.328615427017 2575.99997520447 13 16 9
644.968628883362 -361.671030521393 2637.00008392334 13 16 9
646.416127681732 -358.492285013199 2614.00008201599 11 14 7
655.488252639771 -359.565198421478 2621.99997901917 10 13 6
665.613532066345 -361.186504364014 2634.0000629425 9 12 5
672.9936003685 -361.299455165863 2634.99999046326 8 11 4
672.892928123474 -357.436329126358 2607.00011253357 9 12 5
676.813125610352 -355.767369270325 2595.00002861023 10 13 6
693.316578865051 -360.679000616074 2631.00004196167 11 12 7
702.559769153595 -361.751854419708 2638.99993896484 10 13 6
705.122470855713 -359.397977590561 2621.99997901917 11 14 7
705.962777137756 -356.222152709961 2598.99997711182 11 14 7
717.102587223053 -358.254879713058 2614.00008201599 11 14 7
729.154050350189 -360.698580741882 2631.99996948242 13 16 9
729.833126068115 -357.523769140244 2608.99996757507 9 12 5
738.578021526337 -358.323246240616 2615.00000953674 14 19 15
759.330749511719 -364.877581596375 2663.00010681152 6 10 9
450.679481029511 -357.117086648941 2549.00002479553 17 17 15
462.44877576828 -360.877156257629 2575.99997520447 12 13 8
466.162979602814 -358.332902193069 2558.00008773804 13 14 8
472.552567720413 -357.889831066132 2555.0000667572 17 18 10
479.300111532211 -357.726871967316 2553.99990081787 14 17 6
