ply
format ascii 1.0
comment KinectMotionCapture
element vertex 800
property float x
property float y
property float z
property uchar red
property uchar green
property uchar blue
end_header
348.206222057343 38.5133698582649 2506.00004196167 106 92 83
353.191733360291 38.3111909031868 2493.00003051758 99 80 66
359.549164772034 38.2626689970493 2490.00000953674 95 76 61
366.036295890808 38.2294878363609 2487.99991607666 82 64 50
373.560220003128 38.303829729557 2493.00003051758 79 61 47
382.330715656281 38.501039147377 2506.00004196167 93 77 62
400.238394737244 38.9106497168541 2532.99999237061 176 166 154
402.469515800476 38.4625494480133 2503.99994850159 120 114 102
406.503021717072 38.1987914443016 2486.99998855591 88 84 72
412.270724773407 38.1039902567863 2480.99994659424 33 31 19
420.031279325485 38.1934605538845 2486.99998855591 23 21 9
428.337961435318 38.3289605379105 2496.00005149841 22 23 15
435.123443603516 38.3262149989605 2496.00005149841 21 24 15
444.20924782753 38.5230518877506 2509.0000629425 19 22 13
453.544199466705 38.7351848185062 2523.00000190735 12 15 6
465.691238641739 39.1775444149971 2552.00004577637 10 13 4
463.734358549118 38.4378246963024 2503.99994850159 12 15 6
468.656092882156 38.2814668118954 2493.99995803833 15 18 9
481.147438287735 38.7390442192554 2523.9999294281 14 17 8
486.453413963318 38.6133417487144 2516.00003242493 17 20 11
490.538328886032 38.395568728447 2502.00009346008 19 22 13
494.744747877121 38.1931588053703 2489.00008201599 15 18 9
501.700103282928 38.2055677473545 2490.00000953674 12 15 6
505.800902843475 38.0031615495682 2476.99999809265 11 14 7
507.140040397644 37.6013405621052 2450.99997520447 13 16 9
515.044987201691 37.6904532313347 2457.00001716614 17 20 13
521.282494068146 37.6568250358105 2454.99992370605 22 25 18
528.798341751099 37.7152226865292 2459.00011062622 23 26 17
535.898983478546 37.7429202198982 2460.99996566772 18 21 12
540.804743766785 37.6172550022602 2453.00006866455 19 22 13
547.897696495056 37.6449339091778 2454.99992370605 21 24 15
554.096817970276 37.6112833619118 2453.00006866455 22 25 16
558.91227722168 37.4856293201447 2444.9999332428 19 22 13
562.064290046692 37.2526869177818 2430.0000667572 17 20 9
567.941904067993 37.2037217020988 2427.00004577637 23 27 13
577.116310596466 37.3693481087685 2437.99996376038 24 28 14
585.631012916565 37.4889746308327 2446.00009918213 23 27 13
594.914197921753 37.6545488834381 2457.00001716614 21 25 11
600.828051567078 37.605557590723 2453.9999961853 18 22 8
606.47714138031 37.5412553548813 2450.00004768372 18 22 8
612.353920936584 37.492286413908 2447.00002670288 17 21 7
618.466258049011 37.4586433172226 2444.9999332428 17 21 7
628.401696681976 37.6548059284687 2457.99994468689 18 22 8
636.856138706207 37.7590246498585 2464.99991416931 20 24 10
642.214953899384 37.6794449985027 2460.00003814697 21 25 11
644.380509853363 37.416085600853 2443.00007820129 19 22 11
652.04906463623 37.4743826687336 2447.00002670288 21 24 13
662.160933017731 37.6705005764961 2460.00003814697 22 25 14
672.342240810394 37.8665924072266 2473.00004959106 16 19 10
678.748667240143 37.848312407732 2471.99988365173 18 21 12
684.594571590424 37.7994328737259 2469.00010108948 23 24 16
693.783164024353 37.9342772066593 2477.9999256134 22 23 15
708.390414714813 38.3599512279034 2506.00004196167 20 21 15
723.71906042099 38.8161912560463 2536.00001335144 20 21 15
740.937352180481 39.3642038106918 2572.00002670288 19 20 14
764.455676078796 40.2335301041603 2628.99994850159 17 18 12
765.096306800842 39.8938432335854 2607.00011253357 17 20 13
771.83723449707 39.8755557835102 2605.99994659424 3 6 0
772.594749927521 39.5512953400612 2585.00003814697 1 4 0
774.143040180206 39.2729975283146 2566.99991226196 41 44 37
344.649285078049 31.969390809536 2529.99997138977 135 125 116
349.597871303558 31.7905358970165 2516.00003242493 114 104 95
354.469001293182 31.6116698086262 2502.00009346008 100 84 71
360.850989818573 31.5717719495296 2499.00007247925 102 84 70
367.509722709656 31.5571092069149 2497.99990653992 90 74 61
374.91112947464 31.6055938601494 2502.00009346008 88 72 59
404.239982366562 31.7613109946251 2515.00010490417 130 123 113
407.976537942886 31.5191932022572 2496.00005149841 88 84 73
415.098041296005 31.5422527492046 2497.99990653992 42 40 28
423.749357461929 31.6789299249649 2509.0000629425 36 33 24
427.310824394226 31.4368046820164 2490.00000953674 24 25 17
436.694949865341 31.6239185631275 2505.00011444092 16 19 10
440.13974070549 31.3817895948887 2486.00006103516 11 14 5
453.367054462433 31.8339131772518 2522.0000743866 14 17 8
459.672003984451 31.7937135696411 2519.00005340576 13 16 7
465.588957071304 31.7282564938068 2513.99993896484 13 16 7
478.806108236313 32.1549661457539 2548.00009727478 14 17 8
480.959504842758 31.8370833992958 2523.00000190735 15 18 9
488.196194171906 31.8599157035351 2525.00009536743 16 19 10
490.933120250702 31.5925404429436 2503.99994850159 16 19 10
494.946122169495 31.4135029911995 2490.00000953674 15 18 9
499.486446380615 31.2723256647587 2479.00009155273 14 17 8
504.986822605133 31.1942286789417 2473.00004959106 14 17 10
511.074066162109 31.153965741396 2470.00002861023 15 18 11
512.9514336586 30.8614615350962 2447.00002670288 18 21 14
520.223557949066 30.8968797326088 2450.00004768372 21 24 17
526.650547981262 30.8818388730288 2448.99988174438 19 22 13
533.506393432617 30.892014503479 2450.00004768372 19 22 13
539.705097675323 30.8643523603678 2447.99995422363 19 22 13
546.338140964508 30.8619029819965 2447.99995422363 19 22 13
552.29240655899 30.8216288685799 2444.9999332428 20 23 12
558.229207992554 30.7813603430986 2441.99991226196 20 23 12
564.148664474487 30.741086229682 2438.99989128113 20 23 12
568.646728992462 30.625207349658 2430.0000667572 23 27 13
576.172173023224 30.673161149025 2434.00001525879 23 27 13
584.915399551392 30.7841133326292 2443.00007820129 21 25 11
592.495620250702 30.8320447802544 2447.00002670288 20 24 10
597.892761230469 30.7665765285492 2441.99991226196 18 22 8
606.975018978119 30.8900903910398 2451.99990272522 18 22 8
614.358484745026 30.9254061430693 2454.99992370605 16 20 6
621.504426002502 30.9481248259544 2457.00001716614 16 20 6
628.915667533875 30.9834368526936 2460.00003814697 19 23 9
638.925850391388 31.1446879059076 2473.00004959106 19 23 9
646.394789218903 31.1799850314856 2476.0000705719 18 22 8
648.603558540344 30.963446944952 2459.00011062622 13 19 7
655.515909194946 30.9735853224993 2460.00003814697 18 24 14
663.778722286224 31.0466773808002 2466.00008010864 16 22 12
675.60738325119 31.2834270298481 2484.99989509583 18 21 12
678.476870059967 31.1047416180372 2470.99995613098 19 22 13
682.933628559113 31.0016181319952 2463.00005912781 18 21 14
694.065809249878 31.2005877494812 2479.00009155273 17 20 13
714.329361915588 31.8022519350052 2526.99995040894 18 19 13
737.134516239166 32.5045175850391 2582.99994468689 17 18 12
751.02287530899 32.8040309250355 2607.00011253357 14 15 9
756.316661834717 32.7260456979275 2601.0000705719 13 14 8
765.392482280731 32.8116454184055 2608.00004005432 12 15 6
771.83997631073 32.7840335667133 2605.99994659424 9 12 3
773.494064807892 32.5551703572273 2588.00005912781 0 3 0
350.989103317261 25.0129215419292 2526.00002288818 138 131 123
355.320751667023 24.8331315815449 2507.99989700317 95 83 71
362.29681968689 24.8414650559425 2509.0000629425 107 95 83
369.571298360825 24.8695723712444 2512.00008392334 115 103 91
377.01079249382 24.9075572937727 2516.00003242493 109 96 87
409.939885139465 24.8199999332428 2507.99989700317 152 149 140
417.426466941834 24.8578581959009 2512.00008392334 15 15 7
426.96025967598 25.0144302845001 2528.00011634827 30 30 22
438.467562198639 25.2798013389111 2555.0000667572 21 22 14
435.302287340164 24.7041657567024 2496.99997901917 16 19 10
444.745004177094 24.8507726937532 2512.00008392334 13 16 7
452.829837799072 24.9182116240263 2519.00005340576 12 15 6
460.768967866898 24.9757282435894 2525.00009536743 13 16 7
472.443461418152 25.2310391515493 2551.00011825562 19 22 13
470.539957284927 24.7643291950226 2503.99994850159 19 22 13
485.155522823334 25.1679271459579 2545.00007629395 19 22 13
487.424969673157 24.9287039041519 2520.99990844727 17 20 11
494.85644698143 24.9564722180367 2523.9999294281 16 19 10
498.327434062958 24.7864853590727 2506.99996948242 14 17 8
499.891549348831 24.5275385677814 2480.99994659424 13 16 7
502.946972846985 24.3477094918489 2463.00005912781 14 16 11
509.420931339264 24.3359319865704 2461.99989318848 14 16 11
512.953579425812 24.1857767105103 2447.00002670288 17 20 13
519.376397132874 24.1740010678768 2446.00009918213 21 24 17
525.147378444672 24.1325683891773 2441.99991226196 18 21 12
531.33100271225 24.1109021008015 2440.00005722046 19 22 13
537.061750888824 24.0694731473923 2436.00010871887 20 23 14
545.447707176209 24.1465996950865 2444.00000572205 20 23 14
552.294611930847 24.154556915164 2444.9999332428 21 24 13
559.602975845337 24.182265624404 2447.99995422363 21 24 13
565.538704395294 24.1506993770599 2444.9999332428 21 24 13
571.223020553589 24.109261110425 2440.99998474121 22 26 12
578.06807756424 24.1172034293413 2441.99991226196 22 26 12
584.678173065186 24.1152718663216 2441.99991226196 21 25 11
590.802848339081 24.0935906767845 2440.00005722046 20 24 10
594.712018966675 23.9830445498228 2428.99990081787 19 23 9
606.977164745331 24.2081973701715 2451.99990272522 16 20 6
615.36180973053 24.2753643542528 2459.00011062622 16 20 6
622.012555599213 24.2734216153622 2459.00011062622 16 20 6
628.150999546051 24.25173856318 2457.00001716614 17 21 7
639.96148109436 24.4471970945597 2476.99999809265 17 21 7
650.312840938568 24.5834123343229 2490.9999370575 16 19 8
653.617203235626 24.4531724601984 2477.9999256134 14 20 10
654.452204704285 24.2341551929712 2456.00008964539 18 24 14
666.472673416138 24.4295727461576 2476.0000705719 15 21 11
681.318998336792 24.7236229479313 2506.00004196167 18 21 12
685.892641544342 24.6427617967129 2497.99990653992 20 23 14
691.531419754028 24.6013812720776 2493.99995803833 15 18 11
709.466755390167 24.9940063804388 2533.99991989136 14 17 10
725.073456764221 25.2978205680847 2565.00005722046 15 16 10
740.275979042053 25.5818720906973 2594.00010108948 15 16 10
749.58461523056 25.6588067859411 2601.99999809265 13 14 8
750.212371349335 25.439927354455 2579.99992370605 12 13 7
757.177352905273 25.4380106925964 2579.99992370605 4 7 0
761.772155761719 25.3572333604097 2572.00002670288 22 25 16
355.158984661102 18.3239318430424 2555.99999427795 161 157 148
356.455564498901 18.0360488593578 2516.00003242493 104 94 84
363.886505365372 18.0635787546635 2519.99998092651 101 88 79
371.779501438141 18.1125942617655 2526.99995040894 124 111 102
379.110008478165 18.1329175829887 2529.99997138977 110 100 91
384.777367115021 18.0743932723999 2522.0000743866 102 93 84
420.419067144394 18.1255508214235 2529.99997138977 12 13 5
429.495185613632 18.2174071669579 2542.99998283386 24 25 17
441.214919090271 18.4166878461838 2571.00009918213 18 19 11
441.231042146683 18.1288570165634 2530.99989891052 16 19 10
444.392502307892 17.9771427065134 2509.99999046326 14 17 8
452.651590108871 18.0331245064735 2517.99988746643 12 15 6
459.49313044548 18.0318001657724 2517.99988746643 14 17 8
465.777814388275 18.0089846253395 2515.00010490417 21 24 15
474.487781524658 18.0792436003685 2525.00009536743 19 22 13
480.391412973404 18.0420894175768 2519.99998092651 17 20 11
485.686510801315 17.983453348279 2512.00008392334 16 19 10
491.917222738266 17.9606098681688 2509.0000629425 15 18 9
499.322980642319 17.9807096719742 2512.00008392334 12 15 6
500.296175479889 17.7717618644238 2483.00004005432 11 14 5
504.377961158752 17.6773499697447 2470.00002861023 14 16 11
509.422540664673 17.6187250763178 2461.99989318848 14 16 11
513.374447822571 17.5243262201548 2448.99988174438 16 19 12
521.076679229736 17.5587274134159 2453.9999961853 20 23 16
526.009202003479 17.5001118332148 2446.00009918213 19 22 15
533.074676990509 17.5130367279053 2447.99995422363 20 23 14
539.48849439621 17.5044964998961 2447.00002670288 21 24 13
548.12753200531 17.5674855709076 2456.00008964539 22 25 14
554.3292760849 17.5517797470093 2453.9999961853 22 25 14
558.690309524536 17.4788627773523 2444.00000572205 23 26 15
565.771758556366 17.4917690455914 2446.00009918213 24 27 16
572.628676891327 17.4975171685219 2447.00002670288 20 23 12
579.726815223694 17.5104159861803 2448.99988174438 20 23 12
585.63756942749 17.4875650554895 2446.00009918213 20 23 12
590.562403202057 17.4361187964678 2438.99989128113 20 23 12
596.182703971863 17.4061246216297 2434.99994277954 21 24 13
607.226431369781 17.5333879888058 2453.00006866455 17 20 9
617.115199565887 17.6248978823423 2466.00008010864 19 22 11
622.773110866547 17.5948981195688 2461.99989318848 20 23 12
627.896964550018 17.550615593791 2456.00008964539 18 21 10
639.704823493958 17.6921226084232 2476.0000705719 15 18 7
651.880979537964 17.8407542407513 2496.99997901917 16 19 8
657.839179039001 17.8179051727057 2493.99995803833 14 20 10
661.382079124451 17.7307669073343 2482.00011253357 18 24 14
670.781075954437 17.8007986396551 2492.00010299683 17 23 13
682.408154010773 17.9279632866383 2509.99999046326 18 24 14
689.738392829895 17.9408397525549 2512.00008392334 20 23 16
710.388004779816 18.2965137064457 2562.00003623962 18 21 14
728.227138519287 18.5735858976841 2601.0000705719 10 13 6
731.859445571899 18.4864662587643 2588.99998664856 10 13 6
737.138450145721 18.4422060847282 2582.99994468689 10 13 6
742.672443389893 18.4051003307104 2578.00006866455 11 12 6
751.086413860321 18.4393953531981 2582.99994468689 11 12 7
752.189815044403 18.2952396571636 2562.99996376038 8 11 4
753.480732440948 18.1582532823086 2543.99991035461 0 2 0
358.723282814026 11.2306531518698 2532.00006484985 120 111 104
365.620285272598 11.2299425527453 2532.00006484985 95 86 79
377.223998308182 11.3711385056376 2563.99989128113 120 111 104
383.756250143051 11.3570969551802 2561.00010871887 118 111 103
387.982279062271 11.2765301018953 2542.99998283386 105 98 90
435.914218425751 11.4403339102864 2581.00008964539 23 26 19
432.635277509689 11.1735900864005 2520.99990844727 20 23 16
441.232144832611 11.2171079963446 2530.99989891052 16 19 10
450.236171483994 11.2694762647152 2542.99998283386 14 17 8
454.809904098511 11.2110497429967 2529.99997138977 14 17 8
466.704905033112 11.165089905262 2519.99998092651 22 25 16
473.737210035324 11.1686876043677 2520.99990844727 19 22 13
479.439347982407 11.1412694677711 2515.00010490417 17 20 11
482.594072818756 11.0562648624182 2496.00005149841 16 19 10
489.761620759964 11.064282618463 2497.99990653992 13 16 7
496.740013360977 11.0678654164076 2499.00007247925 12 15 6
504.730045795441 11.0935848206282 2505.00011444092 11 14 5
507.646322250366 11.008589528501 2486.00006103516 14 16 11
510.251343250275 10.9191769734025 2466.00008010864 14 16 11
514.004409313202 10.8563378453255 2451.99990272522 16 19 12
520.016074180603 10.8422059565783 2448.99988174438 20 23 16
527.085542678833 10.8502069488168 2450.99997520447 19 22 15
533.511340618134 10.844923555851 2450.00004768372 21 24 15
540.591955184937 10.8529161661863 2451.99990272522 21 24 13
551.476299762726 10.9361447393894 2470.99995613098 22 25 14
554.556250572205 10.8644664287567 2454.99992370605 23 27 13
559.834420681 10.8370492234826 2448.99988174438 23 27 13
565.541505813599 10.8184842392802 2444.9999332428 23 26 15
574.501931667328 10.8618605881929 2454.99992370605 19 22 13
580.911576747894 10.8565669506788 2453.9999961853 18 21 12
587.314665317535 10.8512733131647 2453.00006866455 18 21 12
592.016339302063 10.8150159940124 2444.9999332428 19 22 13
598.142564296722 10.8053013682365 2443.00007820129 20 23 14
607.722580432892 10.857505723834 2454.99992370605 18 21 12
614.864051342011 10.8654787763953 2457.00001716614 20 23 14
621.76239490509 10.8690308406949 2457.99994468689 20 23 14
626.108527183533 10.828367434442 2448.99988174438 17 20 11
635.055363178253 10.8672920614481 2457.99994468689 15 18 9
649.793565273285 11.0034728422761 2489.00008201599 15 18 9
658.367931842804 11.0335424542427 2496.00005149841 12 18 8
668.045043945313 11.0812876373529 2506.99996948242 18 24 14
674.012243747711 11.0671520233154 2503.99994850159 18 24 14
681.321799755096 11.0751204192638 2506.00004196167 18 23 16
686.169981956482 11.0433176159859 2499.00007247925 16 21 14
717.87565946579 11.4401420578361 2588.99998664856 12 17 10
730.748116970062 11.5320384502411 2609.99989509583 12 15 8
733.274042606354 11.4604569971561 2594.00010108948 10 13 6
737.995743751526 11.4242332056165 2585.99996566772 10 13 6
743.825912475586 11.4056905731559 2582.00001716614 9 11 6
751.669108867645 11.418073438108 2585.00003814697 10 12 7
758.647441864014 11.4172119647264 2585.00003814697 21 24 17
745.188772678375 11.1116264015436 2516.00003242493 10 13 4
363.682419061661 4.37010452151299 2566.99991226196 147 144 137
369.519531726837 4.3562101200223 2559.00001525879 89 80 75
431.69242143631 4.34846756979823 2555.99999427795 22 24 19
434.523642063141 4.30733151733875 2532.00006484985 18 21 14
440.361022949219 4.29681595414877 2526.00002288818 16 19 10
449.351459741592 4.3169166892767 2538.00010681152 14 17 8
454.990178346634 4.30469634011388 2530.99989891052 16 19 10
457.669943571091 4.26526460796595 2507.99989700317 21 24 15
465.594261884689 4.27515199407935 2513.99993896484 19 22 13
472.610324621201 4.27653407678008 2515.00010490417 18 21 12
476.580411195755 4.25070850178599 2500 17 20 11
478.727668523788 4.20958362519741 2476.0000705719 16 19 10
484.860718250275 4.20416332781315 2473.00004959106 15 18 9
496.740609407425 4.24803886562586 2499.00007247925 16 19 10
502.917230129242 4.24261251464486 2496.00005149841 16 19 12
508.667886257172 4.23378590494394 2490.9999370575 16 18 15
512.11416721344 4.20626485720277 2474.99990463257 15 17 12
515.68204164505 4.18044626712799 2460.00003814697 17 19 14
521.078407764435 4.16992325335741 2453.9999961853 21 23 18
527.086138725281 4.1644973680377 2450.99997520447 21 24 17
534.16520357132 4.16756654158235 2453.00006866455 21 24 15
538.828790187836 4.15194686502218 2444.00000572205 21 24 13
545.674204826355 4.15331590920687 2444.9999332428 20 23 12
553.879201412201 4.16487501934171 2451.99990272522 20 24 10
557.777643203735 4.14416147395968 2440.00005722046 20 24 10
563.460409641266 4.13703732192516 2436.00010871887 20 23 12
571.694433689117 4.14859317243099 2443.00007820129 17 20 13
580.675542354584 4.16524056345224 2453.00006866455 16 19 12
589.23065662384 4.17848955839872 2460.99996566772 15 18 11
593.711793422699 4.16287407279015 2451.99990272522 16 19 12
598.388016223907 4.14895918220282 2444.00000572205 17 20 13
606.733083724976 4.16050897911191 2450.99997520447 21 24 17
616.866707801819 4.18393779546022 2464.99991416931 19 22 15
622.521877288818 4.1768136434257 2460.99996566772 15 18 11
629.688382148743 4.1798735037446 2463.00005912781 15 18 11
637.898027896881 4.18972130864859 2469.00010108948 15 18 11
648.227751255035 4.21314220875502 2483.00004005432 14 17 10
658.368468284607 4.23486344516277 2496.00005149841 14 20 10
668.578565120697 4.25658235326409 2509.0000629425 14 20 10
677.781343460083 4.27151378244162 2517.99988746643 13 19 9
686.216175556183 4.28135460242629 2523.9999294281 14 19 12
700.174033641815 4.32511745020747 2549.99995231628 11 16 9
712.885320186615 4.36039594933391 2571.00009918213 8 13 6
727.388978004456 4.40584495663643 2598.00004959106 12 15 8
730.165064334869 4.38006781041622 2582.99994468689 11 14 7
737.14017868042 4.37973067164421 2582.99994468689 10 13 6
744.978725910187 4.38448181375861 2585.99996566772 10 12 7
754.286766052246 4.39771171659231 2594.00010108948 11 13 8
431.01692199707 -2.6284814812243 2552.00004577637 20 22 17
436.068177223206 -2.61696591041982 2540.99988937378 23 26 19
440.186768770218 -2.6003010571003 2525.00009536743 16 19 10
443.508863449097 -2.57951836101711 2505.00011444092 14 17 8
451.39491558075 -2.5855079293251 2510.99991798401 17 20 11
458.764910697937 -2.58840690366924 2513.99993896484 22 25 16
462.075561285019 -2.56865471601486 2494.99988555908 17 20 11
471.10703587532 -2.58081615902483 2506.99996948242 16 19 10
477.533638477325 -2.57856375537813 2505.00011444092 15 18 9
479.694455862045 -2.553666010499 2480.99994659424 14 17 8
488.193780183792 -2.56273453123868 2490.00000953674 15 18 9
497.535765171051 -2.57591716945171 2503.00002098084 15 18 9
504.932165145874 -2.57880589924753 2506.00004196167 16 19 10
507.034361362457 -2.55494029261172 2483.00004005432 17 19 14
509.424328804016 -2.53313477151096 2461.99989318848 16 18 13
516.1013007164 -2.5329370982945 2461.99989318848 17 19 14
521.07846736908 -2.52450862899423 2453.9999961853 22 25 18
528.161466121674 -2.52636731602252 2456.00008964539 22 25 16
531.769871711731 -2.51176790334284 2441.99991226196 21 24 15
535.742282867432 -2.49922717921436 2430.0000667572 20 23 12
539.871573448181 -2.48771603219211 2418.99991035461 20 23 12
552.523910999298 -2.51528271473944 2446.00009918213 19 23 9
558.463513851166 -2.51199724152684 2443.00007820129 18 22 8
562.766551971436 -2.5015149731189 2433.00008773804 17 20 11
568.418264389038 -2.49720201827586 2428.99990081787 16 19 10
577.598214149475 -2.50831013545394 2440.00005722046 15 18 11
587.554752826691 -2.52249953337014 2453.9999961853 14 17 10
592.259109020233 -2.51407432369888 2446.00009918213 15 18 9
599.612295627594 -2.51695583574474 2448.99988174438 16 19 12
606.485664844513 -2.51778145320714 2450.00004768372 24 27 20
615.11504650116 -2.52580014057457 2457.99994468689 20 23 16
621.257185935974 -2.52354261465371 2456.00008964539 15 18 11
631.222426891327 -2.53669754602015 2469.00010108948 16 19 12
641.515135765076 -2.55087739787996 2483.00004005432 17 20 13
647.705733776093 -2.54861963912845 2480.99994659424 16 19 12
656.258344650269 -2.5556068867445 2487.99991607666 18 21 12
668.845117092133 -2.57800030522048 2509.99999046326 13 19 9
680.203974246979 -2.59525584988296 2526.99995040894 10 16 6
697.906911373138 -2.63612810522318 2566.99991226196 10 15 8
708.960652351379 -2.65132426284254 2582.00001716614 10 15 8
717.876374721527 -2.65830452553928 2588.99998664856 7 12 5
727.109014987946 -2.66631110571325 2596.99988365173 9 12 5
729.599893093109 -2.64967908151448 2581.00008964539 9 11 6
734.857261180878 -2.64331605285406 2575.00004768372 9 11 6
738.929152488709 -2.63284938409925 2565.00005722046 12 14 9
746.145009994507 -2.63367546722293 2565.99998474121 13 15 10
426.963031291962 -9.5083462074399 2528.00011634827 23 26 19
437.097400426865 -9.5791295170784 2546.99993133545 20 23 16
438.791662454605 -9.46562271565199 2516.99995994568 14 17 6
443.862527608871 -9.42733511328697 2506.99996948242 14 17 6
452.652841806412 -9.46800876408815 2517.99988746643 21 24 13
454.567342996597 -9.36579704284668 2490.9999370575 21 24 13
462.075024843216 -9.38014127314091 2494.99988555908 19 22 11
469.039529561996 -9.38320253044367 2496.00005149841 18 21 10
476.96128487587 -9.40505228936672 2502.00009346008 17 20 9
482.207506895065 -9.37427114695311 2493.99995803833 15 18 7
488.585472106934 -9.3660419806838 2492.00010299683 17 20 9
500.914454460144 -9.470553137362 2519.99998092651 18 21 10
501.707911491394 -9.35708917677403 2490.00000953674 17 20 11
506.421327590942 -9.31878946721554 2480.00001907349 16 19 12
511.906862258911 -9.29552130401134 2473.99997711182 16 19 12
515.891253948212 -9.24595352262259 2460.99996566772 21 24 15
523.626029491425 -9.26401279866695 2466.00008010864 22 25 16
531.171679496765 -9.27831046283245 2470.00002861023 22 25 16
533.511579036713 -9.20245610177517 2450.00004768372 18 21 10
533.978044986725 -9.09656379371881 2421.99993133545 17 20 9
539.871156215668 -9.08457394689322 2418.99991035461 17 20 9
550.264596939087 -9.14768967777491 2436.00010871887 17 21 7
558.463037014008 -9.17324423789978 2443.00007820129 17 21 7
562.997400760651 -9.13871917873621 2434.00001525879 19 22 11
567.71582365036 -9.10795293748379 2426.00011825562 19 22 11
577.360928058624 -9.15602501481771 2438.99989128113 18 21 10
586.357116699219 -9.19282715767622 2448.99988174438 17 20 9
592.016518115997 -9.17707663029432 2444.9999332428 16 19 8
593.490839004517 -9.09752398729324 2424.00002479553 16 19 8
605.247378349304 -9.17560327798128 2444.9999332428 16 19 10
614.113509654999 -9.20864008367062 2453.9999961853 17 20 11
623.533308506012 -9.24917683005333 2464.99991416931 17 20 11
635.312378406525 -9.32347308844328 2484.99989509583 15 18 9
643.581569194794 -9.34523902833462 2490.9999370575 16 19 10
650.577008724213 -9.34824626892805 2492.00010299683 18 21 12
658.104300498962 -9.35875438153744 2494.99988555908 18 21 14
670.443415641785 -9.43677686154842 2516.00003242493 16 19 12
691.777944564819 -9.63855348527431 2569.9999332428 14 17 10
703.072011470795 -9.69779584556818 2585.99996566772 13 16 9
720.766961574554 -9.84327774494886 2625 10 13 6
725.362360477448 -9.80876293033361 2615.9999370575 9 12 5
729.348361492157 -9.76675841957331 2605.00001907349 8 11 4
728.185892105103 -9.65728331357241 2575.99997520447 5 10 3
732.573688030243 -9.62280202656984 2566.99991226196 11 16 9
737.200200557709 -9.592080488801 2559.00001525879 3 8 1
428.144365549088 -16.4583455771208 2535.00008583069 19 22 15
436.581671237946 -16.5156070142984 2543.99991035461 17 20 13
441.057026386261 -16.4235401898623 2529.99997138977 14 17 8
446.8714594841 -16.3834095001221 2523.9999294281 14 17 8
447.978049516678 -16.1745175719261 2492.00010299683 21 24 15
452.01164484024 -16.0759761929512 2476.99999809265 20 23 14
462.259322404861 -16.1980893462896 2496.00005149841 19 22 13
468.474805355072 -16.1774158477783 2493.00003051758 21 24 15
476.769655942917 -16.2281095981598 2500.99992752075 20 23 14
483.173280954361 -16.2139069288969 2499.00007247925 17 20 11
492.7017390728 -16.3035001605749 2513.00001144409 18 21 12
495.745331048965 -16.17899723351 2493.99995803833 18 21 12
500.095009803772 -16.099913045764 2482.00011253357 15 18 11
509.074926376343 -16.1700155586004 2493.00003051758 15 18 11
513.561189174652 -16.097417101264 2482.00011253357 16 19 12
518.824994564056 -16.0507634282112 2474.99990463257 21 24 15
524.262070655823 -16.0105992108583 2469.00010108948 22 25 16
533.10614824295 -16.0741824656725 2479.00009155273 22 25 16
536.341428756714 -15.9691739827394 2463.00005912781 19 22 11
536.402225494385 -15.7734155654907 2433.00008773804 18 21 10
538.084805011749 -15.6295467168093 2411.00001335144 18 21 10
551.618933677673 -15.8292464911938 2441.99991226196 18 22 8
558.919191360474 -15.8474277704954 2444.9999332428 18 22 8
564.38422203064 -15.8137567341328 2440.00005722046 18 22 8
567.012786865234 -15.7023221254349 2423.00009727478 18 21 10
575.939655303955 -15.7658625394106 2433.00008773804 17 20 9
584.680080413818 -15.8229116350412 2441.99991226196 16 19 8
591.046929359436 -15.8151648938656 2440.99998474121 16 19 8
595.938205718994 -15.7685466110706 2434.00001525879 16 19 8
601.533234119415 -15.7413706183434 2430.0000667572 16 19 10
617.365777492523 -15.9797724336386 2467.00000762939 17 20 11
628.085494041443 -16.0821229219437 2483.00004005432 18 21 12
637.356638908386 -16.1456000059843 2493.00003051758 17 20 11
642.805516719818 -16.1119308322668 2487.99991607666 18 21 12
652.664542198181 -16.1883533000946 2500 19 22 13
663.642466068268 -16.2906609475613 2516.00003242493 16 17 11
695.276200771332 -16.7218260467052 2582.99994468689 10 13 6
707.421064376831 -16.8435033410788 2601.99999809265 9 12 5
720.765948295593 -16.9910546392202 2625 10 13 6
727.302312850952 -16.9767811894417 2622.99990653992 10 13 6
724.027752876282 -16.7360063642263 2585.99996566772 2 5 0
728.184938430786 -16.669999808073 2575.99997520447 6 11 4
734.284937381744 -16.6493058204651 2572.99995422363 15 20 13
745.553553104401 -16.7450848966837 2588.00005912781 0 3 0
433.834463357925 -23.3157407492399 2528.00011634827 17 20 11
441.578596830368 -23.3601815998554 2532.99999237061 16 19 10
445.807665586472 -23.2201665639877 2517.99988746643 17 20 11
448.515862226486 -23.0063945055008 2494.99988555908 21 24 15
455.477386713028 -23.0139251798391 2496.00005149841 19 22 13
464.48028087616 -23.1228582561016 2507.99989700317 18 21 12
469.037115573883 -23.0105109512806 2496.00005149841 18 21 12
475.243180990219 -22.9811258614063 2493.00003051758 19 22 13
484.718561172485 -23.1084357947111 2506.99996948242 17 20 11
491.523921489716 -23.1066793203354 2506.99996948242 18 21 12
494.749963283539 -22.9390226304531 2489.00008201599 18 21 12
501.503944396973 -22.9372587054968 2489.00008201599 15 18 11
509.686052799225 -22.9999870061874 2496.00005149841 14 17 10
516.042590141296 -22.9797717183828 2493.99995803833 14 17 8
516.517639160156 -22.7015819400549 2463.99998664856 18 21 12
524.685263633728 -22.7642897516489 2470.99995613098 20 23 14
531.169176101685 -22.7532889693975 2470.00002861023 20 23 14
535.904347896576 -22.6685907691717 2460.99996566772 22 25 16
537.723541259766 -22.4641691893339 2438.99989128113 20 23 12
543.66272687912 -22.4347580224276 2436.00010871887 19 22 11
552.520990371704 -22.5250609219074 2446.00009918213 18 22 8
560.975074768066 -22.5969310849905 2453.9999961853 18 22 8
563.6887550354 -22.4385987967253 2437.00003623962 17 20 9
568.88335943222 -22.3815627396107 2430.99999427795 17 20 9
575.938165187836 -22.3981831222773 2433.00008773804 17 20 9
586.354553699493 -22.5436668843031 2448.99988174438 17 20 9
594.19310092926 -22.5878823548555 2453.9999961853 16 19 8
596.671164035797 -22.4296059459448 2437.00003623962 15 18 7
611.433506011963 -22.7315090596676 2470.00002861023 16 19 10
620.367228984833 -22.812508046627 2479.00009155273 17 20 11
632.636964321136 -23.0131149291992 2500.99992752075 18 21 12
641.956925392151 -23.1032837182283 2510.99991798401 18 21 12
645.129144191742 -22.9726377874613 2496.99997901917 19 22 13
653.446078300476 -23.0260044336319 2503.00002098084 19 22 13
665.750980377197 -23.2173446565866 2523.9999294281 15 16 10
689.893245697021 -23.8133687525988 2588.99998664856 14 15 9
697.966337203979 -23.8482747226954 2592.99993515015 8 11 4
704.700767993927 -23.8372031599283 2592.00000762939 7 10 3
719.116806983948 -24.0836162120104 2618.99995803833 9 12 5
720.646023750305 -23.8978341221809 2598.99997711182 9 12 5
724.866151809692 -23.8040369004011 2588.99998664856 12 15 8
729.031443595886 -23.7102620303631 2578.9999961853 11 16 9
734.568774700165 -23.6624702811241 2573.99988174438 18 23 16
739.790380001068 -23.6055105924606 2568.00007820129 15 20 13
731.602966785431 -23.1257602572441 2516.00003242493 0 2 0
438.122779130936 -30.5185150355101 2552.99997329712 25 28 21
444.017261266708 -30.444610863924 2546.99993133545 18 21 12
449.346780776978 -30.3348451852798 2538.00010681152 19 22 13
449.592560529709 -29.8904348164797 2500.99992752075 21 24 15
456.752806901932 -29.9121420830488 2503.00002098084 18 21 12
464.107930660248 -29.9457795917988 2506.00004196167 17 20 11
467.343866825104 -29.7165215015411 2486.99998855591 17 20 11
475.050568580627 -29.7740306705236 2492.00010299683 19 22 13
482.009708881378 -29.7837276011705 2493.00003051758 17 20 11
492.306083440781 -29.9964938312769 2510.99991798401 19 22 13
493.952840566635 -29.6836290508509 2484.99989509583 19 22 13
502.307832241058 -29.7769028693438 2493.00003051758 17 20 13
510.296583175659 -29.8462584614754 2499.00007247925 16 19 12
511.488437652588 -29.5214969664812 2471.99988365173 14 17 8
518.611788749695 -29.5430775731802 2473.99997711182 16 19 10
520.648777484894 -29.2780753225088 2451.99990272522 18 21 12
528.586506843567 -29.3474104255438 2457.99994468689 20 23 14
531.982719898224 -29.1660185903311 2443.00007820129 22 25 16
538.823843002319 -29.1756484657526 2444.00000572205 20 23 12
548.347353935242 -29.3285083025694 2457.00001716614 19 22 11
556.133031845093 -29.3858516961336 2461.99989318848 17 20 9
560.515761375427 -29.2641632258892 2451.99990272522 17 20 9
564.380645751953 -29.1186198592186 2440.00005722046 16 19 8
569.817304611206 -29.0566254407167 2434.99994277954 16 19 8
578.066527843475 -29.1378237307072 2441.99991226196 17 20 9
583.958208560944 -29.0996916592121 2438.99989128113 18 21 10
596.370279788971 -29.3836854398251 2463.00005912781 17 20 9
605.972945690155 -29.5244734734297 2474.99990463257 16 19 10
612.42151260376 -29.5101813971996 2473.99997711182 16 19 10
620.8655834198 -29.5913089066744 2480.99994659424 16 19 10
628.587663173676 -29.6366438269615 2484.99989509583 17 20 11
642.721772193909 -29.980106279254 2513.99993896484 18 21 12
651.58611536026 -30.0731137394905 2522.0000743866 17 20 11
662.320137023926 -30.2495658397675 2536.99994087219 14 17 10
680.783689022064 -30.7717509567738 2581.00008964539 13 14 8
695.753455162048 -31.1269573867321 2611.00006103516 12 13 7
699.579238891602 -30.9814531356096 2598.99997711182 8 11 4
704.698622226715 -30.8955796062946 2592.00000762939 8 11 4
714.996099472046 -31.0361832380295 2604.00009155273 9 12 5
719.257473945618 -30.9145804494619 2594.00010108948 9 12 5
725.14396905899 -30.8645088225603 2589.99991416931 8 11 4
732.138693332672 -30.8621246367693 2589.99991416931 4 9 2
735.137522220612 -30.6929461658001 2575.99997520447 5 10 3
425.774186849594 -37.0233207941055 2520.99990844727 13 16 9
438.8068318367 -37.5493578612804 2556.99992179871 26 29 22
444.88650560379 -37.4732501804829 2552.00004577637 20 23 14
446.334481239319 -37.0153747498989 2520.99990844727 21 24 15
452.46633887291 -36.9539558887482 2516.99995994568 21 24 15
455.655485391617 -36.6576351225376 2496.99997901917 17 20 11
463.364660739899 -36.7283225059509 2502.00009346008 15 18 9
469.408452510834 -36.6668738424778 2497.99990653992 21 24 15
475.048094987869 -36.5760624408722 2492.00010299683 23 26 17
483.360648155212 -36.6907119750977 2500 21 24 15
491.9114112854 -36.8199981749058 2509.0000629425 22 25 16
498.323291540146 -36.7878340184689 2506.99996948242 22 25 16
499.484479427338 -36.3741740584373 2479.00009155273 24 27 18
507.230997085571 -36.4447198808193 2483.99996757507 18 21 12
511.692881584167 -36.2805165350437 2473.00004959106 15 18 9
520.49595117569 -36.42438352108 2483.00004005432 15 18 9
525.742292404175 -36.3188534975052 2476.0000705719 18 21 12
523.852944374084 -35.7293114066124 2436.00010871887 21 24 15
528.713762760162 -35.6091633439064 2427.99997329712 20 23 14
539.482653141022 -35.8849838376045 2447.00002670288 19 22 13
546.113014221191 -35.8821377158165 2447.00002670288 18 21 12
557.034075260162 -36.1578725278378 2466.00008010864 18 21 12
562.341928482056 -36.0670238733292 2460.00003814697 18 21 12
568.078875541687 -36.0055044293404 2456.00008964539 18 21 12
572.622895240784 -35.8706973493099 2447.00002670288 16 19 8
579.484224319458 -35.8824841678143 2447.99995422363 18 21 10
588.504731655121 -36.0261760652065 2457.99994468689 19 22 13
592.251479625702 -35.8474254608154 2446.00009918213 18 21 12
602.297842502594 -36.0497124493122 2460.00003814697 16 19 10
612.171411514282 -36.2373180687428 2473.00004959106 16 19 10
619.111299514771 -36.2490639090538 2473.99997711182 15 18 9
627.573251724243 -36.3487228751183 2480.99994659424 15 18 11
646.298348903656 -37.0343551039696 2528.00011634827 16 19 12
662.176132202148 -37.544097751379 2562.99996376038 16 19 12
677.198171615601 -37.9951782524586 2594.00010108948 11 14 7
688.43013048172 -38.2265001535416 2609.99989509583 11 12 6
693.885445594788 -38.1356030702591 2604.00009155273 10 11 5
702.268242835999 -38.2058136165142 2608.99996757507 9 12 5
702.792763710022 -37.8513857722282 2585.00003814697 10 13 6
707.854449748993 -37.7459302544594 2578.00006866455 11 14 7
718.145668506622 -37.9186682403088 2589.99991416931 12 15 8
725.70127248764 -37.9450023174286 2592.00000762939 18 21 14
735.810935497284 -38.1030924618244 2602.9999256134 16 21 14
726.822197437286 -36.9263887405396 2523.00000190735 12 17 10
427.291303873062 -44.0651439130306 2529.99997138977 26 29 22
437.087833881378 -44.3580932915211 2546.99993133545 25 28 21
442.791610956192 -44.2330166697502 2539.99996185303 21 24 15
448.279082775116 -44.090524315834 2532.00006484985 20 23 14
453.541934490204 -43.9306050539017 2523.00000190735 17 20 11
458.937168121338 -43.7880977988243 2515.00010490417 17 20 11
463.546842336655 -43.5759499669075 2503.00002098084 18 21 12
467.902153730392 -43.3464050292969 2490.00000953674 19 22 13
474.473148584366 -43.3257445693016 2489.00008201599 20 23 14
481.81089758873 -43.3746986091137 2492.00010299683 21 24 15
494.065016508102 -43.8587218523026 2519.99998092651 22 25 16
496.133714914322 -43.4377007186413 2496.00005149841 22 25 16
497.06357717514 -42.929720133543 2467.00000762939 23 26 17
503.143966197968 -42.8742095828056 2463.99998664856 21 24 15
518.724679946899 -43.6190366744995 2506.99996948242 17 20 11
529.50656414032 -43.9461916685104 2526.00002288818 14 17 8
526.376187801361 -43.1251376867294 2479.00009155273 16 19 10
523.849904537201 -42.3737764358521 2436.00010871887 20 23 14
531.323730945587 -42.4400083720684 2440.00005722046 20 23 14
538.377225399017 -42.4714349210262 2441.99991226196 18 21 14
551.24294757843 -42.9550111293793 2470.00002861023 16 19 12
556.353211402893 -42.8298711776733 2463.00005912781 17 20 13
564.39620256424 -42.930793017149 2469.00010108948 18 21 14
569.463491439819 -42.8056605160236 2461.99989318848 18 21 12
574.491798877716 -42.6805466413498 2454.99992370605 18 21 12
583.031833171844 -42.8162030875683 2463.00005912781 17 20 11
590.41702747345 -42.8649261593819 2466.00008010864 16 19 10
597.332954406738 -42.878869920969 2467.00000762939 16 19 10
608.415424823761 -43.1882701814175 2484.99989509583 17 20 11
614.396095275879 -43.1326851248741 2482.00011253357 14 17 10
624.613583087921 -43.3725118637085 2496.00005149841 13 16 9
635.91742515564 -43.6817966401577 2513.99993896484 11 14 7
653.964698314667 -44.4427691400051 2558.00008773804 11 14 7
668.37340593338 -44.9430271983147 2586.99989318848 10 13 6
684.206604957581 -45.0574830174446 2594.00010108948 10 11 5
696.280300617218 -45.3839227557182 2612.99991607666 10 11 5
688.537240028381 -44.4251485168934 2558.00008773804 11 14 7
698.167741298676 -44.5953235030174 2568.00007820129 12 15 8
708.400309085846 -44.8001958429813 2579.99992370605 13 16 9
717.033386230469 -44.9008867144585 2585.99996566772 14 17 10
724.858105182648 -44.9494905769825 2588.99998664856 21 24 17
737.503826618195 -45.2932305634022 2608.99996757507 6 11 4
432.185769081116 -51.558930426836 2559.00001525879 25 28 21
439.650326967239 -50.8062280714512 2522.0000743866 18 21 14
445.619940757751 -50.7018491625786 2516.99995994568 18 21 14
449.58370923996 -50.3758862614632 2500.99992752075 18 21 12
455.649077892303 -50.2916388213634 2496.99997901917 18 21 12
464.098960161209 -50.4691787064075 2506.00004196167 17 20 11
470.529407262802 -50.42514950037 2503.99994850159 18 21 12
471.800833940506 -49.837414175272 2474.99990463257 19 22 13
485.867470502853 -50.5987890064716 2513.00001144409 20 23 14
489.160001277924 -50.2325482666492 2494.99988555908 22 25 16
496.13019824028 -50.2488538622856 2496.00005149841 22 25 16
500.283777713776 -49.9833002686501 2483.00004005432 24 27 18
507.224321365356 -49.999576061964 2483.99996757507 22 25 16
517.272710800171 -50.3177382051945 2500 18 21 12
528.245151042938 -50.716333091259 2519.99998092651 15 18 9
520.002543926239 -49.2835678160191 2448.99988174438 16 19 10
525.136530399323 -49.1388440132141 2441.99991226196 19 22 13
535.457491874695 -49.4770295917988 2459.00011062622 16 19 10
546.971678733826 -49.9157421290874 2480.99994659424 14 17 10
555.033206939697 -50.0324964523315 2486.99998855591 13 16 9
560.867190361023 -49.9480627477169 2483.00004005432 13 16 9
563.706755638123 -49.6021471917629 2466.00008010864 13 16 9
570.61630487442 -49.6183000504971 2467.00000762939 14 17 10
574.48810338974 -49.3730083107948 2454.99992370605 16 19 10
583.97501707077 -49.6103838086128 2467.00000762939 17 20 11
591.370940208435 -49.6667362749577 2470.00002861023 16 19 10
600.476980209351 -49.8638302087784 2480.00001907349 16 19 10
611.104965209961 -50.1815155148506 2496.00005149841 15 18 9
631.472587585449 -51.2831769883633 2551.00011825562 13 16 9
647.131741046906 -51.9826300442219 2585.99996566772 12 15 8
657.414317131042 -52.2397756576538 2598.99997711182 10 13 6
665.72093963623 -52.3361079394817 2604.00009155273 10 13 6
671.469986438751 -52.231453359127 2598.99997711182 10 13 6
671.969711780548 -51.7249256372452 2573.99988174438 7 10 3
674.179792404175 -51.3591431081295 2555.99999427795 10 11 5
681.887269020081 -51.4153614640236 2559.00001525879 10 13 6
691.763460636139 -51.6323074698448 2569.9999332428 11 14 7
701.426327228546 -51.8291406333447 2579.99992370605 12 15 8
709.220290184021 -51.8853515386581 2582.99994468689 13 16 9
732.973635196686 -52.5802336633205 2618.00003051758 8 11 4
742.022812366486 -52.7167618274689 2625 10 15 8
742.833137512207 -52.2709339857101 2602.9999256134 12 17 10
438.599556684494 -59.4168528914452 2596.99988365173 25 28 21
442.228645086288 -58.9551031589508 2576.99990272522 23 26 19
442.435681819916 -58.0587461590767 2538.00010681152 18 21 14
444.553762674332 -57.4369579553604 2510.99991798401 18 21 14
447.06317782402 -56.8838566541672 2486.99998855591 19 22 15
454.732775688171 -56.9940432906151 2492.00010299683 16 19 12
461.872607469559 -57.0355728268623 2493.99995803833 14 17 10
467.706769704819 -56.9170042872429 2489.00008201599 16 19 12
472.940593957901 -56.7298196256161 2480.99994659424 18 21 14
479.676514863968 -56.7255429923534 2480.99994659424 20 23 16
489.940166473389 -57.1327731013298 2499.00007247925 21 24 17
495.728522539139 -57.0141114294529 2493.99995803833 21 24 17
503.100395202637 -57.0783168077469 2496.99997901917 20 23 14
509.874761104584 -57.073924690485 2496.99997901917 19 22 13
517.889261245728 -57.2066344320774 2503.00002098084 17 20 11
523.000359535217 -57.0193529129028 2494.99988555908 15 18 9
523.395717144012 -56.3293546438217 2464.99991416931 15 18 9
527.28283405304 -56.027889251709 2451.99990272522 17 20 13
538.284063339233 -56.480448693037 2471.99988365173 11 14 7
549.612998962402 -56.9557622075081 2493.00003051758 12 15 8
557.93023109436 -57.1111664175987 2500 12 15 8
564.928829669952 -57.1294836699963 2500.99992752075 11 14 7
573.074638843536 -57.2619922459126 2506.99996948242 10 12 7
567.605197429657 -56.0469627380371 2453.9999961853 10 13 6
579.16396856308 -56.5220713615417 2474.99990463257 11 14 5
588.941752910614 -56.8144209682941 2487.99991607666 12 15 6
592.324376106262 -56.4902164041996 2473.99997711182 14 17 8
599.261999130249 -56.5085262060165 2474.99990463257 14 17 8
612.569689750671 -57.1204237639904 2502.00009346008 14 17 10
634.933710098267 -58.5540272295475 2565.00005722046 12 15 8
646.376550197601 -58.9602217078209 2582.99994468689 10 13 6
660.951137542725 -59.6402548253536 2612.99991607666 9 12 5
668.784320354462 -59.7039721906185 2615.9999370575 9 12 5
668.365180492401 -59.0374171733856 2586.99989318848 10 13 6
667.527377605438 -58.3481639623642 2556.99992179871 9 11 6
671.274065971375 -58.069746941328 2545.00007629395 11 12 6
682.415902614594 -58.4302060306072 2561.00010871887 11 14 7
700.372457504272 -59.3609623610973 2601.99999809265 11 14 7
708.762526512146 -59.4703704118729 2607.00011253357 12 15 8
713.059902191162 -59.2376179993153 2596.99988365173 13 16 9
727.561712265015 -59.8488412797451 2624.00007247925 14 17 10
737.728834152222 -60.0950755178928 2634.99999046326 16 19 12
743.431925773621 -59.9764324724674 2630.00011444092 18 23 16
449.088454246521 -67.0164227485657 2617.00010299683 23 26 19
445.569038391113 -65.4496550559998 2555.99999427795 19 22 15
442.070811986923 -63.934288918972 2496.99997901917 19 22 15
447.238504886627 -63.6992231011391 2487.99991607666 19 22 15
458.195358514786 -64.2833858728409 2510.99991798401 18 21 14
466.497987508774 -64.4834414124489 2519.00005340576 12 15 8
470.896691083908 -64.1458854079247 2506.00004196167 16 19 12
475.223630666733 -63.8083666563034 2493.00003051758 18 21 14
481.412053108215 -63.7267902493477 2490.00000953674 19 22 15
490.523755550385 -64.0290603041649 2502.00009346008 20 23 16
498.506635427475 -64.1777068376541 2507.99989700317 20 23 16
505.110561847687 -64.1472116112709 2506.99996948242 15 18 9
513.749718666077 -64.3725395202637 2516.00003242493 15 18 9
515.815496444702 -63.7791454792023 2493.00003051758 14 17 8
518.593788146973 -63.288152217865 2473.99997711182 14 17 8
525.726675987244 -63.3343756198883 2476.0000705719 15 18 9
531.363964080811 -63.2015317678452 2470.99995613098 16 19 12
538.93256187439 -63.2988587021828 2474.99990463257 12 15 8
546.080887317657 -63.3450150489807 2476.99999809265 13 15 10
555.247366428375 -63.6212974786758 2487.99991607666 13 15 10
563.11696767807 -63.7440979480743 2493.00003051758 12 14 9
572.1555352211 -63.9947131276131 2503.00002098084 11 13 8
580.784380435944 -64.1941502690315 2510.99991798401 10 13 6
596.007525920868 -65.1093050837517 2546.99993133545 9 12 3
593.277335166931 -63.3353441953659 2477.9999256134 10 13 6
601.678490638733 -63.5091811418533 2484.99989509583 13 16 9
607.423365116119 -63.4019002318382 2480.99994659424 17 20 13
621.561825275421 -64.1634315252304 2510.99991798401 12 15 8
647.122263908386 -66.0746246576309 2585.99996566772 11 14 7
658.163785934448 -66.4781481027603 2601.99999809265 9 12 5
663.921892642975 -66.3451179862022 2596.99988365173 10 12 7
665.001749992371 -65.7523199915886 2573.99988174438 11 13 8
667.783558368683 -65.3384253382683 2558.00008773804 11 13 8
675.225496292114 -65.3843358159065 2559.99994277954 12 13 7
688.539743423462 -65.9921243786812 2584.00011062622 11 14 7
700.636744499207 -66.472128033638 2602.9999256134 12 15 8
708.112776279449 -65.8489465713501 2578.9999961853 13 16 9
721.17954492569 -66.4055198431015 2601.0000705719 14 17 10
735.764145851135 -67.0896545052528 2628.00002098084 14 17 10
735.22961139679 -66.3952827453613 2601.0000705719 14 19 12
443.763762712479 -73.2838958501816 2585.99996566772 22 25 18
446.435749530792 -72.570264339447 2561.00010871887 22 25 18
440.826684236526 -70.5532878637314 2490.00000953674 20 23 16
449.390709400177 -70.8314999938011 2500 16 19 12
463.664561510086 -71.9878822565079 2540.99988937378 15 18 11
470.011532306671 -71.8975961208344 2538.00010681152 17 20 13
475.777238607407 -71.7223137617111 2532.00006484985 18 21 14
473.121732473373 -70.3007429838181 2482.00011253357 19 22 15
481.020271778107 -70.4653859138489 2487.99991607666 19 22 15
488.166004419327 -70.5167055130005 2490.00000953674 16 19 12
493.929922580719 -70.3697502613068 2484.99989509583 14 17 10
505.508363246918 -71.0439458489418 2509.0000629425 12 15 6
509.660720825195 -70.670410990715 2496.00005149841 12 15 6
512.913703918457 -70.183664560318 2479.00009155273 13 16 7
516.282796859741 -69.7252675890923 2463.00005912781 14 17 8
526.146054267883 -70.1444298028946 2477.9999256134 14 17 8
532.433927059174 -70.0823441147804 2476.0000705719 15 18 11
539.362847805023 -70.105142891407 2476.99999809265 14 17 10
544.312000274658 -69.8732286691666 2469.00010108948 12 14 9
552.564084529877 -70.0657963752747 2476.0000705719 11 13 8
559.045851230621 -70.0319558382034 2474.99990463257 11 13 8
573.06444644928 -70.9317922592163 2506.99996948242 11 13 10
588.180422782898 -71.9446465373039 2542.99998283386 12 14 9
597.406029701233 -72.2218081355095 2552.99997329712 9 12 3
595.559477806091 -71.169450879097 2516.00003242493 9 12 3
604.285061359406 -71.3900476694107 2523.9999294281 9 12 5
617.411077022552 -72.1196979284287 2549.99995231628 10 13 6
607.418060302734 -70.1626241207123 2480.99994659424 17 20 13
626.259624958038 -71.5426504611969 2529.99997138977 13 16 9
648.618221282959 -73.2900276780128 2592.00000762939 11 14 7
655.628740787506 -73.2842013239861 2592.00000762939 9 12 5
658.803462982178 -72.8543102741241 2576.99990272522 10 12 7
664.221227169037 -72.6789236068726 2571.00009918213 11 13 8
676.653921604156 -73.2667520642281 2592.00000762939 11 13 8
683.132886886597 -73.2044503092766 2589.99991416931 12 13 7
689.333617687225 -73.1138959527016 2586.99989318848 12 15 8
699.554562568665 -73.4472796320915 2598.99997711182 12 15 8
711.470782756805 -73.9501714706421 2617.00010299683 13 16 9
