ply
format ascii 1.0
comment KinectMotionCapture
element vertex 760
property float x
property float y
property float z
property uchar red
property uchar green
property uchar blue
end_header
29.4318404048681 870.723724365234 2947.00002670288 227 223 220
37.3281203210354 868.357419967651 2938.99989128113 217 213 210
45.2888086438179 868.058860301971 2937.99996376038 222 215 209
53.1714521348476 866.577863693237 2933.00008773804 213 199 188
61.1310638487339 866.573512554169 2933.00008773804 166 147 132
68.9727589488029 865.09120464325 2927.99997329712 164 143 124
77.0236030220985 866.267442703247 2931.99992179871 148 121 100
84.748201072216 863.897740840912 2924.00002479553 148 120 98
92.5559997558594 862.70934343338 2920.00007629395 146 116 92
100.307464599609 861.22465133667 2914.99996185303 139 108 80
108.402848243713 862.694084644318 2920.00007629395 131 99 74
116.325944662094 862.685561180115 2920.00007629395 121 89 64
124.121136963367 861.790180206299 2917.00005531311 119 89 63
131.809294223785 860.303342342377 2911.99994087219 118 90 66
139.75790143013 860.588669776917 2913.00010681152 125 101 77
147.863730788231 861.759662628174 2917.00005531311 132 111 90
155.937552452087 862.634599208832 2920.00007629395 132 114 94
163.746744394302 862.031877040863 2917.99998283386 132 115 97
171.662449836731 862.019538879395 2917.99998283386 190 178 166
179.639339447021 862.30194568634 2918.99991035461 201 193 182
187.685549259186 862.87933588028 2921.0000038147 190 185 179
195.943146944046 864.342331886292 2926.00011825562 194 191 186
204.018443822861 864.918410778046 2927.99997329712 193 192 190
211.959436535835 864.903330802917 2927.99997329712 184 184 182
219.299152493477 862.524688243866 2920.00007629395 180 180 180
227.217614650726 862.508654594421 2920.00007629395 174 173 171
234.652489423752 860.719799995422 2914.00003433228 180 179 177
241.971135139465 858.635187149048 2907.00006484985 174 173 169
249.337300658226 856.845498085022 2901.00002288818 164 163 159
256.847828626633 855.646312236786 2897.0000743866 140 139 134
264.884382486343 856.218576431274 2898.9999294281 153 152 147
272.366851568222 855.018436908722 2894.99998092651 152 151 146
280.407905578613 855.589926242828 2897.0000743866 134 134 126
288.061290979385 854.979693889618 2894.99998092651 133 133 125
295.805513858795 854.664325714111 2894.00005340576 125 125 115
303.019195795059 852.871954441071 2888.00001144409 127 127 117
310.415089130402 851.66996717453 2884.0000629425 135 132 125
318.009465932846 851.058125495911 2881.99996948242 129 126 119
325.366348028183 849.855422973633 2878.00002098084 130 127 120
332.816809415817 848.947763442993 2875 130 127 122
340.013533830643 847.449064254761 2869.99988555908 123 122 117
347.303777933121 846.245586872101 2865.9999370575 126 125 120
354.57181930542 845.041751861572 2861.99998855591 130 129 124
362.197428941727 844.723403453827 2861.00006103516 125 124 119
370.075643062592 844.995260238647 2861.99998855591 127 126 121
377.694755792618 844.676434993744 2861.00006103516 119 120 115
385.711967945099 845.242857933044 2862.99991607666 116 117 112
394.151836633682 846.694767475128 2868.00003051758 126 126 124
-58.9670166373253 868.927717208862 2967.99993515015 245 247 244
-50.7916957139969 866.882622241974 2960.99996566772 254 255 253
-42.7120178937912 866.007924079895 2957.99994468689 253 253 251
-34.6250869333744 864.547073841095 2953.00006866455 244 246 245
-26.6192872077227 864.842116832733 2953.9999961853 240 242 241
-18.5828153043985 863.965570926666 2950.99997520447 237 239 238
-10.5769177898765 864.259481430054 2951.99990272522 236 236 234
-2.56557203829288 864.552795886993 2953.00006866455 236 236 234
5.43460017070174 862.210512161255 2944.9999332428 231 230 228
13.4050128981471 860.745906829834 2940.00005722046 229 228 226
21.3773511350155 860.451757907867 2938.99989128113 229 225 222
29.3641854077578 860.742568969727 2940.00005722046 223 219 216
37.2801795601845 859.276175498962 2934.99994277954 226 222 219
45.1843664050102 858.101963996887 2930.99999427795 206 201 195
53.0667454004288 856.927156448364 2927.00004577637 220 210 201
61.0106773674488 856.922805309296 2927.00004577637 165 149 136
68.8837915658951 856.039464473724 2924.00002479553 160 141 126
76.871857047081 856.619417667389 2926.00011825562 158 133 113
84.6676975488663 855.149388313293 2921.0000038147 152 125 104
92.4996361136436 854.264438152313 2917.99998283386 144 116 94
100.349493324757 853.671491146088 2915.99988937378 141 109 84
108.411051332951 854.83455657959 2920.00007629395 134 102 79
116.334743797779 854.826033115387 2920.00007629395 125 93 70
124.173052608967 854.231357574463 2917.99998283386 125 93 70
131.819203495979 852.465271949768 2911.99994087219 122 94 72
139.672428369522 852.162301540375 2911.00001335144 122 97 75
147.722721099854 853.029727935791 2914.00003433228 118 100 80
155.735537409782 853.603720664978 2915.99988937378 136 119 101
163.59056532383 853.299081325531 2914.99996185303 129 113 98
171.498686075211 853.286683559418 2914.99996185303 189 181 170
179.406434297562 853.273630142212 2914.99996185303 183 176 166
187.313795089722 853.259921073914 2914.99996185303 184 181 176
195.220842957497 853.245913982391 2914.99996185303 192 191 187
203.336521983147 854.109346866608 2917.99998283386 187 187 185
211.250886321068 854.09414768219 2917.99998283386 178 178 176
218.789309263229 852.615058422089 2913.00010681152 175 175 175
226.611435413361 852.306187152863 2911.99994087219 180 179 177
234.347209334373 851.704180240631 2910.00008583069 180 179 177
241.655454039574 849.638283252716 2903.00011634827 169 168 164
249.097168445587 848.157346248627 2898.00000190735 163 162 158
256.599992513657 846.968770027161 2894.00005340576 140 139 134
264.811664819717 848.120927810669 2898.00000190735 149 148 143
272.574096918106 847.809374332428 2897.0000743866 148 147 142
280.52419424057 848.082542419434 2898.00000190735 131 131 123
288.379698991776 848.062694072723 2898.00000190735 134 134 126
296.132475137711 847.749888896942 2897.0000743866 126 126 116
303.564488887787 846.558690071106 2892.99988746643 126 126 116
310.866713523865 845.074713230133 2888.00001144409 136 133 126
318.582653999329 844.760656356812 2887.00008392334 130 127 120
325.953453779221 843.568563461304 2882.99989700317 132 129 122
333.302021026611 842.375993728638 2878.99994850159 132 129 124
340.509861707687 840.890645980835 2874.00007247925 123 122 117
347.811281681061 839.697599411011 2869.99988555908 128 127 122
354.966521263123 838.21165561676 2865.00000953674 130 129 124
362.853825092316 838.480889797211 2865.9999370575 126 125 120
371.004521846771 839.334964752197 2868.99995803833 127 126 121
378.774851560593 839.310944080353 2868.99995803833 118 119 114
387.083560228348 840.456902980804 2872.99990653992 116 117 112
-67.1176314353943 862.094044685364 2971.99988365173 245 247 244
-58.8523410260677 859.198093414307 2961.99989318848 240 242 239
-50.7269911468029 857.752084732056 2957.00001716614 238 240 237
-42.59979352355 855.725169181824 2950.00004768372 217 217 215
-34.5574058592319 854.857921600342 2947.00002670288 227 229 228
-26.5402365475893 854.280054569244 2944.9999332428 218 218 218
-18.5464657843113 854.281842708588 2944.9999332428 218 218 218
-10.5598205700517 854.863166809082 2947.00002670288 227 227 227
-2.5596886407584 854.573547840118 2946.00009918213 228 228 226
5.42763900011778 853.123009204865 2940.99998474121 223 222 220
13.3832506835461 851.381838321686 2934.99994277954 220 219 217
21.3644541800022 851.960599422455 2937.00003623962 223 222 220
29.336491599679 851.958692073822 2937.00003623962 218 214 211
37.2449494898319 850.505650043488 2931.99992179871 214 210 207
45.0799390673637 848.181962966919 2924.00002479553 208 204 201
52.9801808297634 847.598016262054 2921.99993133545 188 183 179
60.8486086130142 846.723318099976 2918.99991035461 191 182 173
68.8184201717377 847.298443317413 2921.0000038147 150 140 130
76.7989382147789 847.873091697693 2923.00009727478 142 124 110
84.7611650824547 848.156809806824 2924.00002479553 144 122 108
92.5701186060905 846.989810466766 2920.00007629395 143 117 100
100.391589105129 846.112132072449 2917.00005531311 135 107 86
108.382202684879 846.684277057648 2918.99991035461 133 102 82
116.224065423012 846.095621585846 2917.00005531311 132 101 81
124.054819345474 845.506250858307 2914.99996185303 134 103 83
131.874471902847 844.916462898254 2913.00010681152 135 108 91
139.826938509941 845.196127891541 2914.00003433228 124 105 90
147.683158516884 844.895303249359 2913.00010681152 115 101 88
155.480206012726 844.303727149963 2911.00001335144 142 130 118
163.322225213051 844.001710414886 2910.00008583069 168 158 148
171.27613723278 844.279170036316 2911.00001335144 170 165 159
179.235115647316 844.556093215942 2911.99994087219 166 163 158
187.006399035454 843.962430953979 2910.00008583069 169 170 165
194.967359304428 844.238221645355 2911.00001335144 166 166 164
203.003033995628 844.80345249176 2913.00010681152 175 177 176
210.904389619827 844.788253307343 2913.00010681152 180 182 181
218.579918146133 843.902409076691 2910.00008583069 159 161 160
226.238802075386 843.01620721817 2907.00006484985 189 188 184
234.122559428215 842.999517917633 2907.00006484985 171 170 166
241.672843694687 841.822266578674 2903.00011634827 155 154 150
249.286949634552 840.934574604034 2900.00009536743 159 158 154
256.706953048706 839.466512203217 2894.99998092651 146 145 140
264.556288719177 839.447975158691 2894.99998092651 143 142 137
272.499203681946 839.718878269196 2895.99990844727 141 140 135
280.350238084793 839.699327945709 2895.99990844727 127 127 119
288.499295711517 840.549170970917 2898.9999294281 136 136 128
296.357452869415 840.528786182404 2898.9999294281 125 125 117
304.005175828934 839.928150177002 2897.0000743866 124 124 116
311.533868312836 839.037239551544 2894.00005340576 136 133 126
319.15608048439 838.435649871826 2891.99995994568 130 127 120
326.540797948837 837.254106998444 2888.00001144409 133 130 125
333.787441253662 835.782110691071 2882.99989700317 130 129 124
340.769559144974 833.730340003967 2875.99992752075 123 122 117
348.197847604752 832.837641239166 2872.99990653992 130 129 124
355.609327554703 831.944823265076 2869.99988555908 129 128 123
363.510519266129 832.211136817932 2871.00005149841 124 125 120
371.933728456497 833.636522293091 2875.99992752075 125 126 121
380.647480487823 835.641145706177 2882.99989700317 115 116 111
389.802873134613 838.514983654022 2892.99988746643 115 116 111
-75.4175931215286 856.674134731293 2980.99994659424 250 252 249
-66.9421553611755 851.794242858887 2963.99998664856 238 240 237
-58.7178133428097 849.212646484375 2954.99992370605 221 223 220
-50.6108365952969 847.779989242554 2950.00004768372 219 221 218
-42.5164587795734 846.059381961823 2944.00000572205 199 199 197
-34.4897285103798 845.200300216675 2940.99998474121 218 218 218
-26.4701992273331 844.053030014038 2937.00003623962 205 205 205
-18.4849295765162 843.479990959167 2934.99994277954 218 218 218
-10.5140572413802 843.193769454956 2934.00001525879 224 224 224
-2.55293608643115 844.343841075897 2937.99996376038 224 222 223
5.41883334517479 843.769013881683 2936.00010871887 225 224 222
13.3751723915339 842.90611743927 2933.00008773804 224 223 221
21.3442929089069 843.192100524902 2934.00001525879 222 221 219
29.2988158762455 842.902719974518 2933.00008773804 216 215 213
37.1462143957615 840.313613414764 2924.00002479553 211 210 208
44.975508004427 838.298738002777 2917.00005531311 205 204 202
52.9298931360245 838.869690895081 2918.99991035461 199 195 192
60.8533285558224 838.865280151367 2918.99991035461 203 198 192
68.7766298651695 838.860213756561 2918.99991035461 192 183 174
76.6472294926643 838.279843330383 2917.00005531311 136 120 107
84.6227556467056 838.848292827606 2918.99991035461 147 128 114
92.4821496009827 838.266789913177 2917.00005531311 146 124 110
100.227214396 836.82245016098 2911.99994087219 139 112 95
108.204856514931 837.389171123505 2914.00003433228 136 107 89
116.033740341663 836.805820465088 2911.99994087219 130 101 83
123.936623334885 836.796581745148 2911.99994087219 137 108 90
131.748721003532 836.212038993835 2910.00008583069 134 108 93
139.69361782074 836.489021778107 2911.00001335144 129 111 97
147.542268037796 836.190760135651 2910.00008583069 140 130 120
155.38515150547 835.891842842102 2908.99991989136 175 166 157
163.222283124924 835.592448711395 2907.99999237061 175 168 160
171.171322464943 835.867166519165 2908.99991989136 159 156 149
179.002344608307 835.566639900208 2907.99999237061 163 162 157
186.763271689415 834.97816324234 2905.99989891052 163 163 161
194.513007998466 834.389388561249 2904.00004386902 167 167 165
202.530235052109 834.94907617569 2905.99989891052 175 177 174
210.195884108543 834.07187461853 2903.00011634827 169 171 168
217.919930815697 833.48137140274 2901.00002288818 176 176 174
225.554883480072 832.603216171265 2898.00000190735 186 185 181
233.656361699104 833.44829082489 2901.00002288818 165 164 159
241.44059419632 833.143651485443 2900.00009536743 161 160 155
249.218970537186 832.838475704193 2898.9999294281 158 157 152
256.725370883942 831.671059131622 2894.99998092651 145 144 139
264.301002025604 830.790519714355 2891.99995994568 142 141 136
272.048085927963 830.484092235565 2891.00003242493 143 142 137
280.370086431503 831.900775432587 2895.99990844727 136 135 130
288.818180561066 833.604216575623 2901.99995040894 129 128 123
296.991586685181 834.445238113403 2904.99997138977 128 128 120
304.236173629761 832.700788974762 2898.9999294281 127 127 119
311.985969543457 832.39221572876 2898.00000190735 129 128 123
319.288343191147 830.934226512909 2892.99988746643 125 124 119
326.676100492477 829.763233661652 2888.99993896484 130 129 124
333.694249391556 827.730238437653 2881.99996948242 130 129 124
340.910911560059 826.271414756775 2877.00009346008 127 126 122
348.584681749344 825.961112976074 2875.99992752075 133 132 128
356.004625558853 825.076103210449 2872.99990653992 131 132 127
364.294081926346 826.20096206665 2877.00009346008 124 125 120
373.380601406097 829.04851436615 2887.00008392334 128 129 124
383.048832416534 833.044111728668 2901.00002288818 119 120 115
-83.5714489221573 849.211394786835 2983.00004005432 225 227 224
-75.0692412257195 844.662666320801 2967.00000762939 215 217 214
-66.7892694473267 841.821432113647 2957.00001716614 221 223 220
-58.6031712591648 839.548707008362 2948.99988174438 191 193 190
-50.5118519067764 838.129639625549 2944.00000572205 196 196 194
-42.4620062112808 836.994469165802 2940.00005722046 179 179 177
-34.4572439789772 836.428105831146 2937.99996376038 219 217 218
-26.4722760766745 836.14581823349 2937.00003623962 199 197 200
-18.4863768517971 835.578143596649 2934.99994277954 219 217 220
-10.5148814618587 835.294604301453 2934.00001525879 226 224 225
-2.54966039210558 835.295021533966 2934.00001525879 222 220 221
5.41741168126464 835.579633712769 2934.99994277954 224 222 223
13.3670978248119 834.440171718597 2930.99999427795 223 221 222
21.3168635964394 834.154188632965 2930.0000667572 222 221 219
29.2411707341671 833.298087120056 2927.00004577637 215 214 212
37.0983071625233 831.302642822266 2920.00007629395 211 210 208
44.9327677488327 829.591274261475 2914.00003433228 206 205 203
52.8614930808544 829.872071743011 2914.99996185303 197 197 197
60.7329905033112 829.298317432404 2913.00010681152 182 181 177
68.6406120657921 829.293191432953 2913.00010681152 192 189 184
76.469250023365 828.433573246002 2910.00008583069 180 170 161
84.3684077262878 828.427255153656 2910.00008583069 147 133 122
92.1405404806137 827.281653881073 2905.99989891052 135 115 104
99.9596044421196 826.704800128937 2904.00004386902 137 115 102
108.027532696724 828.120052814484 2908.99991989136 135 113 100
115.963004529476 828.396141529083 2910.00008583069 132 110 97
123.861037194729 828.386843204498 2910.00008583069 142 114 100
131.62299990654 827.523052692413 2907.00006484985 131 109 96
139.416381716728 826.943278312683 2904.99997138977 122 108 97
147.198587656021 826.36296749115 2903.00011634827 166 157 148
155.076459050179 826.351344585419 2903.00011634827 172 165 157
162.95400261879 826.339244842529 2903.00011634827 158 153 147
170.831218361855 826.326608657837 2903.00011634827 163 162 157
178.70806157589 826.313376426697 2903.00011634827 161 160 156
186.648800969124 826.584160327911 2904.00004386902 165 165 163
194.460585713387 826.285183429718 2903.00011634827 171 173 170
202.266544103622 825.985610485077 2901.99995040894 175 177 174
209.777042269707 824.547171592712 2897.0000743866 170 172 169
217.485323548317 823.961973190308 2894.99998092651 178 179 174
225.26016831398 823.661029338837 2894.00005340576 179 178 173
233.27074944973 824.213206768036 2895.99990844727 159 158 153
241.291716694832 824.765086174011 2898.00000190735 159 158 153
249.151140451431 824.747204780579 2898.00000190735 157 156 151
256.743967533112 823.874950408936 2894.99998092651 147 146 141
264.320075511932 823.002398014069 2891.99995994568 145 144 139
272.161662578583 822.983086109161 2891.99995994568 142 141 136
280.583679676056 824.670672416687 2898.00000190735 136 135 130
288.938164710999 826.073229312897 2903.00011634827 128 127 122
297.012478113174 826.621472835541 2904.99997138977 127 127 119
304.257452487946 824.893116950989 2898.9999294281 127 127 119
311.900019645691 824.302494525909 2897.0000743866 129 128 123
319.310396909714 823.142290115356 2892.99988746643 126 125 120
326.585441827774 821.697354316711 2888.00001144409 130 129 124
333.948612213135 820.536732673645 2884.0000629425 129 128 123
341.289490461349 819.37563419342 2880.00011444092 127 126 122
349.092960357666 819.352209568024 2880.00011444092 132 131 127
356.771886348724 819.04399394989 2878.99994850159 123 124 119
365.457892417908 821.011364459991 2885.99991798401 127 128 123
374.957144260406 824.684977531433 2898.9999294281 121 122 117
-83.1857323646545 837.231397628784 2969.00010108948 221 223 220
-74.847400188446 834.135711193085 2957.99994468689 207 209 206
-66.5686130523682 831.039369106293 2947.00002670288 214 216 213
-58.4487803280354 829.352259635925 2940.99998474121 198 200 197
-50.4300184547901 828.792572021484 2938.99989128113 191 191 189
-42.4220152199268 828.232288360596 2937.00003623962 181 181 179
-34.4247668981552 827.671229839325 2934.99994277954 220 218 221
-26.4292862266302 826.827585697174 2931.99992179871 198 196 199
-18.4563379734755 826.265335083008 2930.0000667572 219 217 220
-10.4977888986468 825.984537601471 2928.99990081787 224 222 223
-2.5455157738179 825.985074043274 2928.99990081787 221 219 220
5.40860928595066 826.266944408417 2930.0000667572 223 221 222
13.3499084040523 825.420320034027 2927.00004577637 222 220 221
21.2748888880014 824.572920799255 2924.00002479553 217 216 214
29.1735343635082 823.442816734314 2920.00007629395 214 213 211
37.0249859988689 821.748197078705 2914.00003433228 210 209 207
44.890034943819 820.89900970459 2911.00001335144 205 205 203
52.7568310499191 820.331156253815 2908.99991989136 191 193 192
60.6752000749111 820.608794689178 2910.00008583069 194 193 191
68.5281604528427 820.039629936218 2907.99999237061 188 184 181
76.3701051473618 819.469928741455 2905.99989891052 195 186 179
84.1720327734947 818.617641925812 2903.00011634827 195 182 173
91.9574797153473 817.76487827301 2900.00009536743 135 118 108
99.8641327023506 818.039298057556 2901.00002288818 129 111 99
107.998795807362 820.005059242249 2907.99999237061 129 111 99
115.89228361845 819.996297359467 2907.99999237061 137 119 109
123.742945492268 819.705128669739 2907.00006484985 131 113 103
131.406754255295 818.285286426544 2901.99995040894 134 119 112
139.235123991966 817.992866039276 2901.00002288818 170 161 154
147.057771682739 817.69984960556 2900.00009536743 162 157 151
154.87465262413 817.406296730042 2898.9999294281 154 151 144
162.798047065735 817.67612695694 2900.00009536743 153 150 145
170.726537704468 817.94536113739 2901.00002288818 164 163 159
178.660050034523 818.213880062103 2901.99995040894 160 159 155
186.534345149994 818.200051784515 2901.99995040894 169 169 167
194.27427649498 817.621767520905 2900.00009536743 174 174 172
202.072635293007 817.324817180634 2898.9999294281 169 170 165
209.575489163399 815.899729728699 2894.00005340576 170 171 165
217.276126146317 815.319895744324 2891.99995994568 174 173 168
225.121185183525 815.303385257721 2891.99995994568 169 168 163
233.046308159828 815.568268299103 2892.99988746643 155 154 149
240.976393222809 815.832734107971 2894.00005340576 156 155 150
248.997375369072 816.378355026245 2895.99990844727 152 151 146
256.673991680145 815.796136856079 2894.00005340576 144 143 138
264.522016048431 815.777182579041 2894.00005340576 143 142 137
272.369503974915 815.757691860199 2894.00005340576 141 140 135
280.797481536865 817.42912530899 2900.00009536743 135 134 129
288.958787918091 818.254232406616 2903.00011634827 129 128 123
296.829015016556 818.233251571655 2903.00011634827 126 125 120
304.173916578293 816.802740097046 2898.00000190735 127 126 121
311.921864748001 816.49923324585 2897.0000743866 129 128 123
319.442987442017 815.631508827209 2894.00005340576 127 126 121
326.834172010422 814.481675624847 2890.00010490417 129 128 123
334.4347178936 813.895225524902 2888.00001144409 128 127 123
342.02378988266 813.308298587799 2885.99991798401 125 126 121
349.965155124664 813.566625118256 2887.00008392334 129 130 125
357.787311077118 813.542664051056 2887.00008392334 122 123 118
366.875320672989 816.336214542389 2897.0000743866 109 110 105
-91.4063826203346 830.625712871552 2973.99997711182 217 219 216
-82.9681009054184 827.001571655273 2960.99996566772 209 211 208
-74.6761485934258 824.214935302734 2950.99997520447 208 210 207
-66.4383172988892 821.427464485168 2940.99998474121 201 203 200
-58.3341382443905 819.756627082825 2934.99994277954 211 213 210
-50.3310486674309 819.202244281769 2933.00008773804 176 176 174
-42.3386953771114 818.64732503891 2930.99999427795 185 185 183
-34.345380961895 817.812383174896 2927.99997329712 211 209 212
-26.3863075524569 817.535579204559 2927.00004577637 201 199 202
-18.4326004236937 817.25800037384 2926.00011825562 218 216 219
-10.4878675192595 817.259132862091 2926.00011825562 222 220 223
-2.53876438364387 815.863192081451 2921.0000038147 221 219 220
5.39426878094673 816.14226102829 2921.99993133545 222 220 221
13.3053530007601 814.74506855011 2917.00005531311 221 219 220
21.2256349623203 814.74357843399 2917.00005531311 214 214 214
29.0859192609787 813.065826892853 2911.00001335144 211 211 209
36.9897969067097 813.063204288483 2911.00001335144 207 207 205
44.8627397418022 812.501311302185 2908.99991989136 203 203 201
52.7247227728367 811.938881874084 2907.00006484985 194 196 195
60.5965703725815 811.655044555664 2905.99989891052 188 187 185
68.3921501040459 810.532748699188 2901.99995040894 190 186 183
76.1658623814583 809.409856796265 2898.00000190735 186 179 173
83.9756578207016 808.844923973084 2895.99990844727 201 191 182
91.7744189500809 808.279454708099 2894.00005340576 166 152 143
99.7686609625816 809.389054775238 2898.00000190735 136 122 113
107.821546494961 810.777485370636 2903.00011634827 120 106 97
115.70205539465 810.768723487854 2903.00011634827 129 116 108
123.369418084621 809.362888336182 2898.00000190735 120 107 99
131.0093998909 807.956516742706 2892.99988746643 162 151 145
138.909906148911 808.225333690643 2894.00005340576 179 172 166
146.815568208694 808.493614196777 2894.99998092651 147 142 138
154.672876000404 808.481872081757 2894.99998092651 147 144 139
162.69825398922 809.307456016541 2898.00000190735 161 160 156
170.680746436119 809.853196144104 2900.00009536743 158 157 155
178.612112998962 810.119032859802 2901.00002288818 155 155 153
186.35568022728 809.546589851379 2898.9999294281 171 172 167
194.088026881218 808.973610401154 2897.0000743866 170 171 166
201.878756284714 808.679282665253 2895.99990844727 168 167 163
209.591254591942 808.10534954071 2894.00005340576 172 171 166
217.29239821434 807.530760765076 2891.99995994568 173 170 163
225.137963891029 807.514190673828 2891.99995994568 165 164 159
232.983067631721 807.497143745422 2891.99995994568 155 154 149
240.827664732933 807.479441165924 2891.99995994568 157 156 151
248.757779598236 807.74050951004 2892.99988746643 151 150 145
256.515383720398 807.442724704742 2891.99995994568 144 143 138
264.35849070549 807.423710823059 2891.99995994568 143 142 137
272.295117378235 807.683289051056 2892.99988746643 140 139 134
280.430346727371 808.500826358795 2895.99990844727 135 134 129
288.680851459503 809.596955776215 2900.00009536743 131 130 125
296.2366938591 808.738529682159 2897.0000743866 126 125 120
304.195493459702 808.996140956879 2898.00000190735 127 126 121
311.513096094131 807.578504085541 2892.99988746643 129 128 123
319.575756788254 808.11470746994 2894.99998092651 128 127 122
326.970040798187 806.975483894348 2891.00003242493 129 128 124
335.036873817444 807.510673999786 2892.99988746643 126 127 122
342.758417129517 807.208120822906 2891.99995994568 126 127 122
351.080030202866 808.300793170929 2895.99990844727 128 129 124
359.670579433441 809.95112657547 2901.99995040894 121 122 117
-91.1984294652939 820.679664611816 2967.00000762939 219 221 218
-82.8345566987991 817.643880844116 2956.00008964539 208 210 207
-74.6061354875565 815.437197685242 2947.99995422363 202 204 201
-66.4209872484207 813.229978084564 2940.00005722046 197 199 196
-58.3586432039738 812.12854385376 2936.00010871887 196 198 195
-50.3521971404552 811.579585075378 2934.00001525879 177 177 175
-42.3131659626961 810.200214385986 2928.99990081787 189 189 187
-34.2777259647846 808.266997337341 2921.99993133545 197 195 198
-26.3072624802589 807.162880897522 2917.99998283386 210 208 211
-18.3773655444384 806.888043880463 2917.00005531311 221 219 222
-10.4564400389791 806.889176368713 2917.00005531311 220 218 221
-2.53201276063919 805.783331394196 2913.00010681152 220 218 219
5.37254381924868 804.953396320343 2910.00008583069 219 217 218
13.2562322542071 803.846061229706 2905.99989891052 218 216 217
21.1472734808922 803.844690322876 2905.99989891052 209 209 209
29.0182828903198 803.289413452148 2904.00004386902 205 205 205
36.8783622980118 802.733659744263 2901.99995040894 201 201 201
44.7583384811878 802.7303814888 2901.99995040894 196 196 194
52.6382066309452 802.72650718689 2901.99995040894 185 186 188
60.5179592967033 802.722096443176 2901.99995040894 186 186 186
68.3504343032837 802.16372013092 2900.00009536743 178 177 175
76.1193111538887 801.051557064056 2895.99990844727 186 179 173
83.9532911777496 800.768554210663 2894.99998092651 177 168 161
91.813363134861 800.761640071869 2894.99998092651 180 171 164
99.7420847415924 801.307320594788 2897.0000743866 192 183 176
107.718579471111 802.128911018372 2900.00009536743 183 174 167
115.432105958462 801.013708114624 2895.99990844727 154 147 141
123.081058263779 799.621403217316 2891.00003242493 173 168 164
130.883753299713 799.334943294525 2890.00010490417 161 156 153
138.920724391937 800.430774688721 2894.00005340576 144 139 136
146.928399801254 801.249384880066 2897.0000743866 149 145 142
154.791712760925 801.237642765045 2897.0000743866 150 146 143
162.65469789505 801.225364208221 2897.0000743866 151 150 148
170.517310500145 801.212430000305 2897.0000743866 154 154 152
178.379535675049 801.199018955231 2897.0000743866 169 169 167
185.984194278717 800.078690052032 2892.99988746643 168 169 164
193.83479654789 800.064206123352 2892.99988746643 161 160 155
201.615244150162 799.772560596466 2891.99995994568 171 168 163
209.534659981728 800.033509731293 2892.99988746643 171 168 161
217.158496379852 799.187839031219 2890.00010490417 169 166 157
225.077018141747 799.447655677795 2891.00003242493 157 157 149
232.839331030846 799.153864383698 2890.00010490417 152 152 144
240.845590829849 799.689292907715 2891.99995994568 158 158 150
248.776167631149 799.947440624237 2892.99988746643 150 149 144
256.534278392792 799.652338027954 2891.99995994568 147 146 141
264.377862215042 799.633145332336 2891.99995994568 148 147 142
272.126764059067 799.337029457092 2891.00003242493 139 138 133
280.160188674927 799.869775772095 2892.99988746643 137 136 131
288.403064012527 800.95511674881 2897.0000743866 133 132 127
296.155661344528 800.657451152802 2895.99990844727 128 127 122
304.11222577095 800.912499427795 2897.0000743866 128 127 122
311.858266592026 800.614058971405 2895.99990844727 128 127 123
319.929480552673 801.144599914551 2898.00000190735 129 128 124
327.784687280655 801.121711730957 2898.00000190735 128 129 124
335.639268159866 801.098465919495 2898.00000190735 127 128 123
343.730330467224 801.627695560455 2900.00009536743 129 130 125
352.437794208527 803.538680076599 2907.00006484985 130 131 126
361.430376768112 806.001842021942 2915.99988937378 123 123 121
-99.3620604276657 813.50189447403 2970.00002861023 218 223 219
-90.8982455730438 809.948563575745 2957.00001716614 220 222 219
-82.616925239563 807.490229606628 2947.99995422363 205 207 204
-74.5614394545555 806.948661804199 2946.00009918213 190 192 189
-66.4714574813843 805.858612060547 2941.99991226196 193 195 192
-58.4428012371063 805.315792560577 2940.00005722046 177 179 176
-50.3905415534973 804.224491119385 2936.00010871887 180 180 178
-42.2876514494419 801.762998104095 2927.00004577637 190 190 188
-34.256998449564 799.84849691391 2920.00007629395 187 185 186
-26.2642838060856 797.933518886566 2913.00010681152 213 211 214
-18.3347295969725 797.113478183746 2910.00008583069 222 220 223
-10.4357674717903 797.388672828674 2911.00001335144 220 218 221
-2.5278686080128 796.567320823669 2907.99999237061 219 217 218
5.35635557025671 794.6497797966 2901.00002288818 219 217 218
13.2025480270386 792.731583118439 2894.00005340576 217 215 216
21.0616327822208 792.730212211609 2894.00005340576 208 208 208
28.950646519661 793.549954891205 2897.0000743866 203 203 203
36.8304699659348 793.821215629578 2898.00000190735 196 196 194
44.7002090513706 793.817937374115 2898.00000190735 194 194 192
52.5698438286781 793.814122676849 2898.00000190735 196 196 196
60.4393556714058 793.809533119202 2898.00000190735 188 188 188
68.2851523160934 793.530523777008 2897.0000743866 190 189 187
76.0465040802956 792.429149150848 2892.99988746643 178 173 169
83.9019492268562 792.422771453857 2892.99988746643 187 180 174
91.7889177799225 792.689740657806 2894.00005340576 166 159 153
99.6811091899872 792.956054210663 2894.99998092651 172 165 157
107.467040419579 792.400002479553 2892.99988746643 177 172 166
115.241885185242 791.843473911285 2891.00003242493 179 174 170
123.005568981171 791.28623008728 2888.99993896484 170 167 162
130.939319729805 791.824042797089 2891.00003242493 149 145 142
138.883590698242 792.361199855804 2892.99988746643 147 143 140
146.889135241508 793.171763420105 2895.99990844727 146 142 139
154.590025544167 792.338371276855 2892.99988746643 154 150 147
162.386536598206 792.052090167999 2891.99995994568 146 145 143
170.236170291901 792.039215564728 2891.99995994568 154 154 152
178.085386753082 792.025685310364 2891.99995994568 186 186 184
185.805648565292 791.463971138 2890.00010490417 162 163 158
193.581596016884 791.175425052643 2888.99993896484 158 157 152
201.351746916771 790.886521339417 2888.00001144409 170 167 162
209.18844640255 790.870845317841 2888.00001144409 167 164 157
216.949507594109 790.580868721008 2887.00008392334 167 164 157
224.938258528709 791.111707687378 2888.99993896484 158 155 148
232.776254415512 791.094481945038 2888.99993896484 153 153 145
240.863561630249 791.898131370544 2891.99995994568 158 158 150
248.708680272102 791.879773139954 2891.99995994568 149 148 143
256.641983985901 792.134881019592 2892.99988746643 146 145 140
264.488756656647 792.11550951004 2892.99988746643 146 145 140
272.617369890213 792.917251586914 2895.99990844727 139 138 133
280.471175909042 792.896926403046 2895.99990844727 138 137 132
288.722634315491 793.971300125122 2900.00009536743 135 134 129
296.586126089096 793.950080871582 2900.00009536743 129 128 123
304.658949375153 794.475972652435 2901.99995040894 128 127 122
312.203615903854 793.632507324219 2898.9999294281 128 127 123
320.062547922134 793.609976768494 2898.9999294281 129 128 124
328.147143125534 794.134497642517 2901.00002288818 128 129 124
335.89443564415 793.837368488312 2900.00009536743 128 129 124
344.346880912781 795.182228088379 2904.99997138977 130 131 126
353.432059288025 797.895193099976 2914.99996185303 131 132 127
-98.9684611558914 802.246153354645 2957.99994468689 224 226 223
-90.7825082540512 800.897717475891 2953.00006866455 191 193 190
-82.6235041022301 799.548447132111 2947.99995422363 194 196 193
-74.5673924684525 799.012362957001 2946.00009918213 189 191 188
-66.4993673563004 798.204362392426 2943.00007820129 189 189 187
-58.4474764764309 797.395765781403 2940.00005722046 162 162 160
-50.3774099051952 796.043872833252 2934.99994277954 181 181 179
-42.3199273645878 794.420182704926 2928.99990081787 189 189 187
-34.306675195694 793.067216873169 2924.00002479553 169 167 168
-26.3024587184191 791.171073913574 2917.00005531311 213 211 212
-18.3551050722599 790.087938308716 2913.00010681152 222 220 221
-10.4366037994623 789.546549320221 2911.00001335144 218 216 217
-2.52981041558087 789.276003837585 2910.00008583069 218 216 217
5.36047900095582 787.377297878265 2903.00011634827 208 206 207
13.2127311080694 785.477876663208 2895.99990844727 205 203 204
21.0560448467731 784.662783145905 2892.99988746643 200 198 199
28.9429724216461 785.474419593811 2895.99990844727 199 197 198
36.8079990148544 785.471796989441 2895.99990844727 194 192 193
44.6729399263859 785.468518733978 2895.99990844727 193 192 190
52.5196269154549 785.19344329834 2894.99998092651 192 191 189
60.4024641215801 785.46005487442 2895.99990844727 185 184 180
68.2906061410904 785.726249217987 2897.0000743866 184 183 179
76.1051401495934 785.178005695343 2894.99998092651 182 181 177
83.9376300573349 784.900367259979 2894.00005340576 176 175 171
91.7962118983269 784.893333911896 2894.00005340576 166 165 160
99.6545776724815 784.885764122009 2894.00005340576 161 160 155
107.326947152615 783.521473407745 2888.99993896484 153 152 147
115.171261131763 783.512711524963 2888.99993896484 149 148 143
123.015269637108 783.503174781799 2888.99993896484 151 150 145
131.040215492249 784.578025341034 2892.99988746643 145 144 139
139.038518071175 785.380959510803 2895.99990844727 144 143 139
146.900653839111 785.36981344223 2895.99990844727 145 144 140
154.602095484734 784.544408321381 2892.99988746643 151 150 146
162.174582481384 783.176004886627 2888.00001144409 154 153 149
169.955044984818 782.891988754272 2887.00008392334 178 177 173
177.852839231491 783.149600028992 2888.00001144409 178 177 173
185.691386461258 783.135592937469 2888.00001144409 156 155 151
193.730518221855 783.934354782104 2891.00003242493 158 157 153
201.50662958622 783.647954463959 2890.00010490417 169 168 164
209.131985902786 782.818853855133 2887.00008392334 162 161 157
216.815680265427 782.260179519653 2884.99999046326 158 157 152
224.877431988716 783.056795597076 2888.00001144409 156 153 148
232.954978942871 783.852994441986 2891.00003242493 162 159 152
241.048261523247 784.648478031158 2894.00005340576 150 147 140
248.813286423683 784.358859062195 2892.99988746643 149 146 139
256.838530302048 784.882247447968 2894.99998092651 145 142 135
264.874070882797 785.405099391937 2897.0000743866 148 145 138
273.108154535294 786.469519138336 2901.00002288818 142 139 132
280.975997447968 786.449134349823 2901.00002288818 141 138 131
289.042383432388 786.970496177673 2903.00011634827 137 134 127
297.016739845276 787.220180034637 2904.00004386902 135 132 125
304.890900850296 787.19836473465 2904.00004386902 134 131 124
312.549084424973 786.633968353271 2901.99995040894 130 129 125
320.306181907654 786.340177059174 2901.00002288818 127 127 125
328.509747982025 787.130355834961 2904.00004386902 125 125 123
336.497247219086 787.377774715424 2904.99997138977 138 138 136
345.437914133072 789.793193340302 2914.00003433228 130 130 128
-99.0098044276237 794.544994831085 2959.00011062622 217 219 216
-90.8819884061813 793.746888637543 2956.00008964539 185 187 184
-82.6861709356308 792.142689228058 2950.00004768372 191 193 190
-74.6239870786667 791.611969470978 2947.99995422363 190 192 189
-66.4594992995262 789.73799943924 2940.99998474121 186 186 184
-58.3726391196251 788.40035200119 2936.00010871887 166 166 164
-50.3299497067928 787.330567836761 2931.99992179871 182 182 180
-42.3233285546303 786.528766155243 2928.99990081787 182 182 180
-34.321166574955 785.457670688629 2924.99995231628 182 180 181
-26.2955538928509 783.043324947357 2915.99988937378 203 201 202
-18.3439794927835 781.702518463135 2911.00001335144 221 219 220
-10.4302717372775 781.166553497314 2908.99991989136 209 207 208
-2.52914451994002 781.167030334473 2908.99991989136 212 210 211
5.36091020330787 779.555797576904 2903.00011634827 200 198 199
13.2229207083583 778.212428092957 2898.00000190735 198 196 197
21.0722964257002 777.405440807343 2894.99998092651 195 193 194
28.9253126829863 777.134835720062 2894.00005340576 194 192 193
36.7601178586483 776.595056056976 2891.99995994568 190 188 189
44.6148179471493 776.591777801514 2891.99995994568 189 188 186
52.5056980550289 777.125000953674 2894.00005340576 191 190 188
60.3655986487865 777.120411396027 2894.00005340576 185 184 180
68.1781992316246 776.57824754715 2891.99995994568 184 183 179
75.953483581543 775.766849517822 2888.99993896484 182 181 177
83.7993025779724 775.760471820831 2888.99993896484 176 175 171
91.6132032871246 775.484919548035 2888.00001144409 170 169 164
99.4558855891228 775.477349758148 2888.00001144409 163 162 157
107.149735093117 774.395108222961 2884.0000629425 146 145 140
115.060791373253 774.923145771027 2885.99991798401 149 148 143
122.982434928417 775.450706481934 2888.00001144409 154 153 148
131.005257368088 776.514768600464 2891.99995994568 145 144 139
138.857424259186 776.504039764404 2891.99995994568 144 143 139
146.557092666626 775.687277317047 2888.99993896484 148 147 143
154.186651110649 774.601519107819 2884.99999046326 150 149 145
161.794155836105 773.515105247498 2881.00004196167 156 155 151
169.909417629242 774.844646453857 2885.99991798401 188 187 183
177.805095911026 775.099575519562 2887.00008392334 164 163 159
185.70576608181 775.353789329529 2888.00001144409 154 153 149
193.611428141594 775.607526302338 2888.99993896484 160 159 155
201.522141695023 775.860786437988 2890.00010490417 163 162 158
209.075570106506 774.771273136139 2885.99991798401 158 157 153
216.681942343712 773.949444293976 2882.99989700317 154 153 148
224.73880648613 774.737954139709 2885.99991798401 156 153 148
233.053222298622 776.3312458992 2891.99995994568 164 161 154
241.066455841064 776.85022354126 2894.00005340576 148 145 138
248.745977878571 776.294767856598 2891.99995994568 148 145 138
256.680309772491 776.544332504272 2892.99988746643 147 144 137
264.985203742981 777.866840362549 2898.00000190735 146 143 136
273.316711187363 779.188990592957 2903.00011634827 142 139 132
281.190454959869 779.168486595154 2903.00011634827 141 138 131
289.362281560898 779.952585697174 2905.99989891052 138 135 128
297.44753241539 780.467867851257 2907.99999237061 136 133 126
305.227994918823 780.177593231201 2907.00006484985 135 132 125
312.571585178375 778.813362121582 2901.99995040894 128 127 123
320.329159498215 778.522193431854 2901.00002288818 134 134 132
328.419983386993 779.035687446594 2903.00011634827 129 129 127
336.984395980835 780.622065067291 2908.99991989136 127 127 125
-107.487834990025 789.752960205078 2970.99995613098 212 214 211
-99.0177169442177 786.571383476257 2959.00011062622 195 197 194
-90.858519077301 785.515666007996 2954.99992370605 173 175 172
-82.7769041061401 784.991025924683 2953.00006866455 186 186 184
-74.655294418335 783.933997154236 2948.99988174438 188 188 186
-66.4874389767647 782.078802585602 2941.99991226196 180 180 178
-58.3574511110783 780.223071575165 2934.99994277954 165 165 163
-50.3168478608131 779.16407585144 2930.99999427795 177 177 175
-42.2978438436985 778.104543685913 2927.00004577637 172 172 170
-34.3122035264969 777.310132980347 2924.00002479553 186 185 183
-26.2886602431536 774.919927120209 2914.99996185303 203 202 200
-18.3391589671373 773.592591285706 2910.00008583069 199 198 196
-10.4131875559688 771.998763084412 2904.00004386902 197 196 194
-2.5250012986362 771.999180316925 2904.00004386902 189 188 186
5.35395555198193 770.669877529144 2898.9999294281 188 187 185
13.2376775145531 771.200895309448 2901.00002288818 188 187 185
21.088557317853 770.136177539825 2897.0000743866 187 186 184
28.9376433938742 769.602358341217 2894.99998092651 188 187 185
36.7503687739372 768.536388874054 2891.00003242493 186 185 183
44.6029864251614 768.533110618591 2891.00003242493 184 183 181
52.4917803704739 769.060730934143 2892.99988746643 186 185 181
60.3704527020454 769.322097301483 2894.00005340576 184 183 179
68.1836828589439 768.785297870636 2891.99995994568 183 182 178
75.9595856070518 767.981946468353 2888.99993896484 180 179 175
83.7480127811432 767.443954944611 2887.00008392334 175 174 170
91.5253609418869 766.905188560486 2884.99999046326 163 162 157
99.3260815739632 766.631782054901 2884.0000629425 156 155 150
107.1582660079 766.623497009277 2884.0000629425 149 148 143
115.109831094742 767.412126064301 2887.00008392334 153 152 147
123.034797608852 767.934262752533 2888.99993896484 159 158 153
130.879744887352 767.924189567566 2888.99993896484 146 145 140
138.820379972458 768.445014953613 2891.00003242493 145 144 140
146.365717053413 766.838908195496 2884.99999046326 152 151 147
154.145359992981 766.561388969421 2884.0000629425 151 150 146
161.694526672363 765.219926834106 2878.99994850159 168 167 163
169.804975390434 766.535818576813 2884.0000629425 185 184 180
177.510976791382 765.990674495697 2881.99996948242 156 155 151
185.462966561317 766.508102416992 2884.0000629425 153 152 148
193.425387144089 767.024874687195 2885.99991798401 163 162 158
201.537698507309 768.072724342346 2890.00010490417 157 156 152
209.091648459435 766.993761062622 2885.99991798401 155 154 150
216.548204421997 765.648603439331 2881.00004196167 152 151 146
224.444448947906 765.897393226624 2881.99996948242 157 154 149
232.990324497223 768.271684646606 2891.00003242493 160 157 150
241.001397371292 768.785178661346 2892.99988746643 146 143 136
248.850747942925 768.766582012177 2892.99988746643 148 145 138
256.522089242935 768.216133117676 2891.00003242493 150 147 140
264.913588762283 769.790887832642 2897.0000743866 145 142 135
273.242831230164 771.099388599396 2901.99995040894 142 139 132
281.211227178574 771.344542503357 2903.00011634827 141 138 131
289.284020662308 771.854877471924 2904.99997138977 139 136 129
297.264695167542 772.099018096924 2905.99989891052 138 135 128
304.935216903687 771.545588970184 2904.00004386902 137 134 127
312.378764152527 770.460426807404 2900.00009536743 131 130 126
320.241779088974 770.437598228455 2900.00009536743 128 128 126
328.896045684814 772.27395772934 2907.00006484985 123 123 121
337.93517947197 774.906635284424 2917.00005531311 131 131 129
-107.387892901897 780.956566333771 2967.99993515015 211 213 210
-98.9587232470512 778.070509433746 2957.00001716614 183 185 182
-90.8350721001625 777.288794517517 2953.9999961853 168 170 167
-82.755520939827 776.769459247589 2951.99990272522 184 184 182
-74.6866315603256 776.249527931213 2950.00004768372 184 184 182
-66.5380135178566 774.676442146301 2944.00000572205 179 179 177
-58.4218166768551 773.102641105652 2937.99996376038 161 161 159
-50.3552481532097 771.791398525238 2933.00008773804 173 173 171
-42.3012636601925 770.216286182404 2927.00004577637 175 175 173
-34.2915058135986 768.90367269516 2921.99993133545 180 179 177
-26.2547116726637 766.011536121368 2911.00001335144 195 194 192
-18.3154325932264 764.69761133194 2905.99989891052 199 198 196
-10.3996861726046 763.119995594025 2900.00009536743 198 197 195
-2.51998845487833 762.594103813171 2898.00000190735 180 179 177
5.34515455365181 761.541485786438 2894.00005340576 186 185 183
13.2113695144653 761.803805828094 2894.99998092651 186 185 183
21.0538636893034 761.013031005859 2891.99995994568 187 186 184
28.9099961519241 761.011004447937 2891.99995994568 188 187 185
36.7024876177311 759.69260931015 2887.00008392334 185 184 182
44.5140190422535 759.163022041321 2884.99999046326 184 183 181
52.3327067494392 758.895933628082 2884.0000629425 185 184 180
60.2084286510944 759.417712688446 2885.99991798401 183 182 178
68.0712834000587 759.675621986389 2887.00008392334 182 181 177
75.8868083357811 759.406685829163 2885.99991798401 177 176 172
83.696722984314 759.137213230133 2884.99999046326 172 171 167
91.4692506194115 758.603811264038 2882.99989700317 159 158 153
99.2995873093605 758.596122264862 2882.99989700317 150 149 144
107.166849076748 758.851051330566 2884.0000629425 154 153 148
115.079127252102 759.368300437927 2885.99991798401 161 160 155
123.002015054226 759.885132312775 2888.00001144409 158 157 152
130.799531936646 759.611904621124 2887.00008392334 143 142 137
138.639315962791 759.60111618042 2887.00008392334 147 146 142
146.326571702957 758.800625801086 2884.0000629425 157 156 152
154.157519340515 758.788645267487 2884.0000629425 156 155 151
161.931917071342 758.513033390045 2882.99989700317 183 182 178
169.877171516418 759.026229381561 2884.99999046326 153 152 148
177.58646607399 758.486330509186 2882.99989700317 154 153 149
185.348808765411 758.209109306335 2881.99996948242 157 156 152
193.306371569633 758.720517158508 2884.0000629425 163 162 158
201.413840055466 759.757459163666 2888.00001144409 152 151 147
209.252700209618 759.741544723511 2888.00001144409 153 152 148
216.715201735497 758.409678936005 2882.99989700317 154 153 149
224.617421627045 758.655965328217 2884.0000629425 165 162 157
232.927531003952 760.21671295166 2890.00010490417 151 148 141
241.103053092957 761.250793933868 2894.00005340576 148 145 138
249.041616916656 761.495232582092 2894.99998092651 154 151 144
256.718873977661 760.949969291687 2892.99988746643 152 149 142
264.842003583908 761.719465255737 2895.99990844727 147 144 137
273.074924945831 762.751460075378 2900.00009536743 143 140 133
281.038343906403 762.99375295639 2901.00002288818 142 139 132
289.106220006943 763.498663902283 2903.00011634827 140 137 130
297.286540269852 764.265954494476 2905.99989891052 139 136 129
305.167496204376 764.243900775909 2905.99989891052 139 136 129
312.940120697021 763.958394527435 2904.99997138977 136 137 132
320.92747092247 764.198243618011 2905.99989891052 142 142 140
329.824805259705 766.541540622711 2914.99996185303 147 147 145
-117.208458483219 784.666836261749 3013.00001144409 212 214 211
-107.432708144188 773.217082023621 2969.00010108948 210 212 209
-99.0001410245895 770.36052942276 2957.99994468689 167 169 166
-90.8423885703087 769.326448440552 2953.9999961853 165 165 163
-82.7621892094612 768.812596797943 2951.99990272522 187 187 185
-74.6420174837112 767.777144908905 2947.99995422363 180 180 178
-66.5207877755165 766.480803489685 2943.00007820129 175 175 173
-58.4663189947605 765.704452991486 2940.00005722046 147 146 144
-50.4451766610146 765.187919139862 2937.99996376038 154 153 151
-42.3769541084766 763.629019260406 2931.99992179871 170 169 167
-34.3060232698917 761.288166046143 2923.00009727478 196 195 193
-26.2478236109018 757.904767990112 2910.00008583069 187 186 184
-18.2980112731457 756.083428859711 2903.00011634827 193 192 190
-10.3933569043875 754.782319068909 2898.00000190735 186 185 183
-2.5193237233907 754.522502422333 2897.0000743866 184 183 181
5.34189399331808 753.22014093399 2891.99995994568 186 185 183
13.1987491622567 753.219246864319 2891.99995994568 185 184 182
21.0264511406422 752.17616558075 2888.00001144409 187 186 184
28.9023444056511 752.955436706543 2891.00003242493 188 187 185
