ply
format ascii 1.0
comment KinectMotionCapture
element vertex 789
property float x
property float y
property float z
property uchar red
property uchar green
property uchar blue
end_header
581.323206424713 933.276057243347 2410.00008583069 32 34 23
613.729894161224 974.335372447968 2516.00003242493 38 40 29
594.917356967926 934.071838855743 2411.99994087219 39 41 30
598.481833934784 929.436504840851 2400.00009536743 42 44 33
609.040200710297 935.645520687103 2415.99988937378 53 54 46
627.845048904419 944.193959236145 2437.99996376038 50 51 43
634.996294975281 944.984197616577 2440.00005722046 66 67 61
648.207426071167 954.683184623718 2464.99991416931 61 62 56
681.755304336548 945.509552955627 2440.99998474121 66 67 61
283.668488264084 983.749389648438 2558.00008773804 130 132 127
288.908362388611 977.973163127899 2542.99998283386 170 175 171
293.601393699646 970.658779144287 2523.9999294281 174 180 180
299.738734960556 968.34397315979 2517.99988746643 188 194 194
304.747551679611 962.56810426712 2503.00002098084 198 204 204
310.546100139618 959.484219551086 2494.99988555908 223 227 230
316.301196813583 956.400454044342 2486.99998855591 236 239 244
322.272509336472 954.085826873779 2480.99994659424 252 253 255
328.609019517899 952.925086021423 2477.9999256134 254 255 255
334.929168224335 951.764345169067 2474.99990463257 255 255 255
342.199265956879 953.295648097992 2479.00009155273 255 254 255
348.92800450325 953.288793563843 2479.00009155273 250 248 249
356.373935937881 955.204665660858 2483.99996757507 252 251 249
540.60173034668 958.966612815857 2493.99995803833 28 28 18
551.105856895447 965.506374835968 2510.99991798401 26 26 16
555.703520774841 961.664855480194 2500.99992752075 36 36 26
554.399609565735 947.826683521271 2464.99991416931 34 34 24
555.859684944153 938.987672328949 2441.99991226196 30 30 20
556.274056434631 928.611218929291 2414.99996185303 26 26 16
564.233064651489 930.924594402313 2421.0000038147 29 29 19
567.038118839264 924.779117107391 2404.99997138977 28 30 17
606.252074241638 945.194363594055 2457.99994468689 37 39 28
600.215792655945 925.593674182892 2407.00006484985 42 44 33
612.793207168579 924.848437309265 2404.99997138977 45 46 38
623.967707157135 931.783676147461 2423.00009727478 62 63 57
625.352025032043 924.106776714325 2403.00011634827 57 58 52
682.002007961273 948.442459106445 2466.00008010864 55 56 48
672.795414924622 926.540970802307 2408.99991989136 37 38 30
695.428550243378 948.487043380737 2466.00008010864 41 42 34
288.461655378342 969.566345214844 2539.00003433228 164 166 163
293.841779232025 964.594066143036 2526.00002288818 173 177 176
299.508303403854 960.767447948456 2516.00003242493 184 190 190
304.51163649559 955.03157377243 2500.99992752075 192 198 198
309.806913137436 950.441539287567 2489.00008201599 217 221 224
315.164029598236 946.233212947845 2477.9999256134 232 235 240
320.980995893478 943.552613258362 2470.99995613098 250 251 255
327.15767621994 942.017495632172 2467.00000762939 252 253 255
333.447873592377 940.864384174347 2463.99998664856 255 255 255
340.688019990921 942.38418340683 2467.99993515015 255 255 255
346.823751926422 940.849423408508 2463.99998664856 253 253 253
353.368103504181 940.46026468277 2463.00005912781 255 255 253
359.90697145462 940.071105957031 2461.99989318848 247 246 242
527.620315551758 941.118240356445 2464.99991416931 20 20 10
536.264359951019 944.555759429932 2473.99997711182 27 27 17
546.055138111115 949.902832508087 2487.99991607666 34 34 24
552.367269992828 949.141919612885 2486.00006103516 29 29 19
554.84539270401 941.890895366669 2467.00000762939 28 28 18
549.936890602112 922.42306470871 2415.99988937378 27 27 17
553.735077381134 917.845904827118 2404.00004386902 25 25 15
563.760936260223 923.577964305878 2418.99991035461 24 24 14
579.291641712189 938.092350959778 2457.00001716614 26 28 17
585.012793540955 936.571717262268 2453.00006866455 24 26 15
594.896733760834 920.941531658173 2411.99994087219 35 37 26
603.218495845795 913.70677947998 2392.99988746643 38 39 31
612.526297569275 917.918086051941 2404.00004386902 47 48 40
617.25926399231 915.257275104523 2397.0000743866 63 64 56
668.290257453918 941.297829151154 2464.99991416931 63 64 56
676.092326641083 942.843556404114 2469.00010108948 50 51 43
667.188823223114 912.332117557526 2388.99993896484 33 34 26
677.640020847321 917.69951581955 2403.00011634827 46 47 39
696.710050106049 934.525430202484 2447.00002670288 41 42 34
288.697093725204 963.45728635788 2540.99988937378 152 154 151
293.500959873199 956.62385225296 2523.00000190735 172 176 175
298.564106225967 950.927972793579 2507.99989700317 182 186 187
303.545713424683 945.232272148132 2493.00003051758 188 192 193
309.068143367767 941.432535648346 2483.00004005432 210 214 217
314.6633207798 938.011765480042 2473.99997711182 228 229 233
320.209532976151 934.591114521027 2464.99991416931 246 247 251
326.502472162247 933.445572853088 2461.99989318848 248 249 253
332.643747329712 931.920826435089 2457.99994468689 254 255 255
339.453399181366 932.291865348816 2459.00011062622 255 255 255
345.423877239227 930.388271808624 2453.9999961853 249 249 249
351.797461509705 929.622054100037 2451.99990272522 252 252 250
358.160227537155 928.856074810028 2450.00004768372 255 254 250
533.612906932831 945.038855075836 2493.00003051758 33 33 23
559.239625930786 978.018820285797 2579.99992370605 28 28 18
540.34698009491 933.288753032684 2461.99989318848 40 40 30
543.921589851379 927.983224391937 2447.99995422363 27 27 17
550.569236278534 927.985429763794 2447.99995422363 23 23 13
546.746671199799 910.5504155159 2401.99995040894 23 23 13
555.573582649231 914.344608783722 2411.99994087219 23 23 13
570.74761390686 928.374707698822 2448.99988174438 25 25 15
564.196705818176 907.150745391846 2392.99988746643 25 27 16
581.29870891571 913.606643676758 2410.00008583069 31 33 22
585.163354873657 909.443438053131 2398.9999294281 33 35 24
598.094403743744 919.307589530945 2424.99995231628 33 34 26
590.471088886261 897.707402706146 2368.00003051758 34 35 27
603.460490703583 907.573103904724 2394.00005340576 40 41 33
614.043951034546 913.648664951324 2410.00008583069 46 47 39
624.284327030182 909.501016139984 2398.9999294281 45 46 38
679.360151290894 940.663456916809 2480.99994659424 32 33 25
664.539933204651 911.107540130615 2403.00011634827 27 28 20
679.029166698456 913.041472434998 2407.99999237061 27 28 20
684.729874134064 911.924540996552 2404.99997138977 32 33 25
724.907457828522 956.311345100403 2522.0000743866 41 42 34
288.705796003342 956.585705280304 2540.99988937378 127 129 124
293.160647153854 948.671042919159 2519.99998092651 155 159 158
297.501385211945 940.756678581238 2499.00007247925 174 178 179
302.336722612381 934.724628925323 2483.00004005432 177 181 182
308.205395936966 932.080626487732 2476.0000705719 196 200 203
313.781589269638 928.683876991272 2467.00000762939 206 207 211
319.178819656372 924.910664558411 2457.00001716614 240 241 245
325.58262348175 924.149036407471 2454.99992370605 247 248 252
331.569463014603 922.258138656616 2450.00004768372 254 255 255
338.357359170914 922.62589931488 2450.99997520447 253 254 255
344.165235757828 920.358896255493 2444.9999332428 254 255 255
350.514352321625 919.597566127777 2443.00007820129 255 255 253
356.852531433105 918.836295604706 2440.99998474121 254 253 249
363.626480102539 919.204473495483 2441.99991226196 251 247 244
527.26799249649 939.02462720871 2494.99988555908 14 14 4
545.813739299774 959.72353219986 2549.99995231628 24 24 14
550.141572952271 931.8727850914 2476.0000705719 24 24 14
540.896356105804 905.152142047882 2404.99997138977 23 23 13
559.263288974762 924.724817276001 2457.00001716614 21 21 11
559.486091136932 914.188981056213 2428.99990081787 21 21 11
566.315829753876 914.568364620209 2430.0000667572 32 32 22
556.883454322815 888.979077339172 2361.99998855591 22 24 13
596.488475799561 930.765390396118 2473.00004959106 29 31 20
567.838609218597 876.197099685669 2328.00006866455 27 29 18
574.903428554535 877.33256816864 2331.00008964539 30 31 23
592.956483364105 895.029425621033 2378.00002098084 34 35 27
599.166333675385 894.661009311676 2377.00009346008 40 41 33
610.97663640976 902.573883533478 2398.00000190735 44 45 37
599.031209945679 866.460204124451 2302.00004577637 42 43 35
663.735687732697 912.447214126587 2424.00002479553 28 29 21
677.519917488098 922.250628471375 2450.00004768372 28 29 21
677.204370498657 912.857294082642 2424.99995231628 23 24 16
677.31773853302 904.217422008514 2401.99995040894 19 20 12
680.154085159302 899.342715740204 2388.99993896484 23 24 16
686.369836330414 898.986637592316 2388.00001144409 40 41 33
292.355418205261 939.240634441376 2513.00001144409 151 153 150
296.915233135223 932.130098342896 2493.99995803833 175 179 180
301.858752965927 926.514625549316 2479.00009155273 175 179 180
307.467579841614 923.141539096832 2470.00002861023 191 195 198
313.281804323196 920.516014099121 2463.00005912781 203 204 208
318.668186664581 916.769444942474 2453.00006866455 240 241 245
324.928492307663 915.639042854309 2450.00004768372 247 248 252
330.901682376862 913.761138916016 2444.9999332428 253 254 255
337.537914514542 913.75195980072 2444.9999332428 252 253 255
343.470245599747 911.874353885651 2440.00005722046 253 255 254
350.236058235168 912.239015102386 2440.99998474121 253 255 254
356.56875371933 911.482572555542 2438.99989128113 255 255 251
363.337218761444 911.847472190857 2440.00005722046 252 248 245
370.262533426285 912.586092948914 2441.99991226196 255 254 251
533.609747886658 943.463444709778 2525.00009536743 27 27 19
551.539599895477 938.975095748901 2513.00001144409 28 28 20
568.558633327484 944.579601287842 2528.00011634827 24 24 16
564.090609550476 915.063560009003 2448.99988174438 26 26 18
567.349195480347 888.916015625 2378.99994850159 29 30 22
596.939027309418 894.540905952454 2394.00005340576 29 30 22
602.939486503601 893.800377845764 2391.99995994568 33 34 26
602.30541229248 883.345484733582 2364.00008201599 34 36 25
609.690189361572 875.515878200531 2342.99993515015 33 35 24
620.003044605255 881.131112575531 2358.00004005432 34 36 25
637.836396694183 897.210240364075 2401.00002288818 31 33 22
642.754077911377 894.980132579803 2394.99998092651 27 29 18
643.302619457245 886.771857738495 2372.99990653992 24 26 15
666.184902191162 909.20752286911 2433.00008773804 23 25 14
673.908650875092 910.71742773056 2437.00003623962 23 25 14
673.277616500854 901.017069816589 2411.00001335144 25 27 16
677.581667900085 898.044288158417 2403.00011634827 19 21 10
680.419743061066 893.203854560852 2390.00010490417 23 25 14
688.648998737335 895.465195178986 2395.99990844727 33 35 24
732.599258422852 943.698048591614 2525.00009536743 33 35 24
293.877482414246 937.270224094391 2526.00002288818 123 125 122
298.47252368927 930.210471153259 2506.99996948242 173 175 174
302.8424680233 922.779679298401 2486.99998855591 174 176 175
307.228177785873 915.720164775848 2467.99993515015 180 181 183
312.528163194656 911.629021167755 2457.00001716614 190 191 195
318.157970905304 908.650875091553 2448.99988174438 225 226 231
324.274808168411 907.157182693481 2444.9999332428 234 235 240
330.369740724564 905.663371086121 2440.99998474121 246 247 251
336.857080459595 905.28267621994 2440.00005722046 248 249 251
343.05727481842 904.160022735596 2437.00003623962 253 254 255
349.527925252914 903.77938747406 2436.00010871887 254 255 255
355.846971273422 903.027832508087 2434.00001525879 252 252 250
362.899571657181 904.131472110748 2437.00003623962 255 255 253
369.665056467056 904.493153095245 2437.99996376038 254 253 251
527.384877204895 937.729179859161 2528.00011634827 14 14 6
539.318561553955 946.628272533417 2552.00004577637 34 34 26
536.185383796692 929.191291332245 2505.00011444092 35 35 27
546.453177928925 935.12362241745 2520.99990844727 31 31 23
516.830682754517 852.401793003082 2298.00009727478 25 25 17
553.954720497131 892.091572284698 2404.99997138977 28 28 20
602.169275283813 895.821750164032 2414.99996185303 28 29 21
594.362676143646 874.683916568756 2358.00004005432 28 30 19
612.998604774475 892.49575138092 2405.99989891052 29 31 20
607.079088687897 865.431904792786 2332.99994468689 30 32 21
631.184160709381 881.401658058167 2375.99992752075 25 27 16
642.205536365509 887.718737125397 2392.99988746643 22 24 13
651.151418685913 891.069173812866 2401.99995040894 21 23 12
661.789894104004 896.646440029144 2417.00005531311 21 23 12
671.957969665527 901.482999324799 2430.0000667572 21 23 12
673.541069030762 894.819974899292 2411.99994087219 24 26 15
678.410649299622 892.609655857086 2405.99989891052 17 19 8
681.825459003448 888.545453548431 2394.99998092651 19 21 10
693.516194820404 895.241260528564 2413.00010681152 22 24 13
729.386687278748 932.732760906219 2513.99993896484 31 33 22
299.077928066254 925.274789333344 2512.00008392334 167 169 168
303.7049472332 918.634355068207 2493.99995803833 175 177 176
306.989222764969 908.31071138382 2466.00008010864 179 180 182
312.283754348755 904.248654842377 2454.99992370605 188 189 193
318.038105964661 901.660144329071 2447.99995422363 220 221 226
324.284762144089 900.544941425323 2444.9999332428 229 230 235
330.379724502563 899.061501026154 2440.99998474121 243 244 248
336.86700463295 898.682951927185 2440.00005722046 244 248 251
343.207865953445 897.936165332794 2437.99996376038 250 254 255
349.394261837006 896.821141242981 2434.99994277954 251 255 255
355.710536241531 896.07447385788 2433.00008773804 254 255 255
362.760365009308 897.169470787048 2436.00010871887 255 255 255
369.674652814865 897.89605140686 2437.99996376038 255 255 255
377.680152654648 901.200771331787 2447.00002670288 250 249 247
522.175312042236 933.823585510254 2536.00001335144 19 20 12
526.137351989746 928.663551807404 2522.0000743866 30 30 22
525.796890258789 916.139543056488 2487.99991607666 32 32 24
548.887133598328 877.460837364197 2382.99989700317 27 27 19
567.009508609772 895.871758460999 2433.00008773804 26 26 18
596.877753734589 871.955931186676 2368.00003051758 26 28 17
607.641875743866 878.221094608307 2384.99999046326 22 24 13
609.744250774384 871.967434883118 2368.00003051758 24 26 15
613.056004047394 867.555677890778 2355.99994659424 25 27 16
631.971418857574 876.041531562805 2378.99994850159 25 27 16
640.316307544708 878.628790378571 2385.99991798401 20 22 11
653.850674629211 888.213694095612 2411.99994087219 20 22 11
667.253434658051 897.431612014771 2437.00003623962 19 21 10
660.883545875549 880.136132240295 2390.00010490417 19 21 10
677.156567573547 893.038630485535 2424.99995231628 21 23 12
673.601806163788 879.795372486115 2388.99993896484 18 20 9
683.801651000977 884.59837436676 2401.99995040894 16 18 7
697.234630584717 893.453657627106 2426.00011825562 16 18 7
719.502866268158 913.358926773071 2480.00001907349 30 32 21
299.802869558334 920.678675174713 2517.99988746643 145 147 146
304.080843925476 912.989497184753 2496.99997901917 166 168 167
307.373195886612 902.741074562073 2469.00010108948 177 178 180
312.67586350441 898.708343505859 2457.99994468689 184 185 189
318.178504705429 895.407021045685 2448.99988174438 207 208 213
324.295252561569 893.933773040771 2444.9999332428 217 218 223
330.119490623474 891.729354858398 2438.99989128113 232 235 240
336.187094449997 890.256226062775 2434.99994277954 236 240 243
342.23285317421 888.78321647644 2430.99999427795 243 247 250
348.543673753738 888.041317462921 2428.99990081787 244 248 251
355.135977268219 888.030767440796 2428.99990081787 252 255 255
362.174898386002 889.116942882538 2431.99992179871 252 252 252
369.078308343887 889.837682247162 2434.00001525879 255 255 255
376.764208078384 892.386376857758 2440.99998474121 252 250 251
383.388549089432 892.376005649567 2440.99998474121 254 252 253
524.533450603485 907.199382781982 2482.00011253357 31 31 23
523.135662078857 893.305242061615 2444.00000572205 35 35 27
527.384340763092 889.280438423157 2433.00008773804 24 24 16
513.009965419769 833.714306354523 2280.99989891052 28 28 20
558.101356029511 885.612368583679 2423.00009727478 26 26 18
553.725838661194 868.432819843292 2375.99992752075 24 24 16
553.339302539825 857.832968235016 2346.99988365173 25 26 20
575.131714344025 852.355241775513 2332.00001716614 31 32 24
595.677614212036 873.191952705383 2388.99993896484 32 33 25
601.662278175354 872.464597225189 2387.00008392334 25 27 16
613.241612911224 879.77921962738 2407.00006484985 21 23 12
617.977976799011 877.225875854492 2400.00009536743 22 24 13
628.141283988953 882.349014282227 2414.00003433228 24 26 15
634.174644947052 881.62487745285 2411.99994087219 23 25 12
633.025467395782 871.032476425171 2382.99989700317 19 21 10
641.11191034317 873.23397397995 2388.99993896484 16 18 7
650.045156478882 876.533091068268 2398.00000190735 17 19 8
655.468642711639 875.081300735474 2394.00005340576 17 19 8
662.530303001404 875.823438167572 2395.99990844727 16 18 7
669.045388698578 875.835716724396 2395.99990844727 18 20 9
678.944766521454 880.235314369202 2407.99999237061 20 22 11
686.633169651031 881.711781024933 2411.99994087219 21 23 12
697.505533695221 887.210428714752 2427.00004577637 18 20 9
704.689085483551 887.957870960236 2428.99990081787 29 31 20
701.635360717773 875.911474227905 2395.99990844727 33 35 24
303.36120724678 904.062986373901 2490.9999370575 159 161 160
308.131098747253 898.244798183441 2474.99990463257 174 175 177
313.450068235397 894.241452217102 2463.99998664856 181 182 186
318.449318408966 889.512300491333 2450.99997520447 197 198 202
324.040949344635 886.597752571106 2443.00007820129 207 208 213
329.589009284973 883.683204650879 2434.99994277954 226 229 234
335.783809423447 882.583320140839 2431.99992179871 231 235 238
341.962188482285 881.483435630798 2428.99990081787 241 245 248
348.411053419113 881.109416484833 2427.99997329712 243 247 250
354.854375123978 880.735516548157 2427.00004577637 252 255 255
361.441045999527 880.724370479584 2427.00004577637 253 254 255
368.179202079773 881.076276302338 2427.99997329712 251 251 253
375.231355428696 882.153987884521 2430.99999427795 254 254 255
382.142603397369 882.868826389313 2433.00008773804 255 255 255
388.105839490891 881.406486034393 2428.99990081787 239 239 237
524.327397346497 900.106847286224 2480.99994659424 30 29 24
526.565253734589 892.482578754425 2460.00003814697 16 15 10
527.171909809113 882.319211959839 2431.99992179871 27 26 21
544.150054454803 888.478100299835 2448.99988174438 28 27 22
536.04781627655 854.369401931763 2355.00001907349 26 25 20
538.063883781433 847.474038600922 2335.99996566772 24 23 18
561.184525489807 873.592972755432 2407.99999237061 22 23 17
561.827301979065 864.521920681 2382.99989700317 20 19 14
570.204675197601 867.423593997955 2391.00003242493 22 21 16
584.655582904816 879.395484924316 2424.00002479553 21 22 16
582.528412342072 856.90450668335 2361.99998855591 27 28 20
594.42812204361 864.887773990631 2384.0000629425 29 30 22
614.513635635376 884.481132030487 2437.99996376038 23 25 14
618.587613105774 880.85663318634 2427.99997329712 20 22 11
628.529906272888 885.577142238617 2440.99998474121 21 23 10
645.308971405029 899.731159210205 2480.00001907349 22 24 11
639.163434505463 881.959915161133 2430.99999427795 22 24 11
638.862013816834 872.533798217773 2404.99997138977 17 19 8
642.445504665375 868.550419807434 2394.00005340576 15 17 6
647.325217723846 866.381764411926 2388.00001144409 16 18 7
657.648801803589 871.470093727112 2401.99995040894 16 18 7
669.432103633881 878.373682498932 2421.0000038147 15 17 6
679.364860057831 882.738530635834 2433.00008773804 18 20 9
684.006810188293 880.210876464844 2426.00011825562 21 23 12
695.443749427795 886.392056941986 2443.00007820129 21 23 12
698.35239648819 881.689429283142 2430.0000667572 17 19 8
698.290407657623 873.359143733978 2407.00006484985 29 31 20
303.494423627853 897.691309452057 2492.00010299683 154 156 155
309.512108564377 895.518183708191 2486.00006103516 173 175 174
314.73371386528 891.183793544769 2473.99997711182 174 175 177
318.850576877594 883.967757225037 2453.9999961853 189 190 192
323.919773101807 879.633545875549 2441.99991226196 200 201 205
329.058974981308 875.65952539444 2430.99999427795 220 221 225
335.381031036377 874.927461147308 2428.99990081787 227 228 233
341.69203042984 874.195456504822 2427.00004577637 239 240 245
348.565936088562 874.904215335846 2428.99990081787 240 241 245
354.719549417496 873.812019824982 2426.00011825562 245 246 250
361.005574464798 873.08007478714 2424.00002479553 251 252 255
367.280542850494 872.348129749298 2421.99993133545 253 254 255
374.007701873779 872.696936130524 2423.00009727478 252 253 255
381.211310625076 874.126195907593 2427.00004577637 252 254 253
387.47775554657 873.39448928833 2424.99995231628 254 254 252
394.870728254318 875.183999538422 2430.0000667572 184 184 182
506.133198738098 885.11323928833 2457.99994468689 30 25 21
520.522058010101 898.429393768311 2494.99988555908 36 31 27
527.292311191559 898.422479629517 2494.99988555908 27 24 19
529.567718505859 890.854358673096 2473.99997711182 25 22 15
530.42858839035 881.126046180725 2447.00002670288 28 28 20
543.603658676147 870.308935642242 2417.00005531311 24 25 17
539.010047912598 852.661371231079 2368.00003051758 26 27 19
563.633739948273 881.103992462158 2447.00002670288 22 25 16
575.635731220245 889.382898807526 2470.00002861023 19 20 14
574.324369430542 877.138257026672 2436.00010871887 23 22 18
570.44392824173 861.293315887451 2391.99995994568 20 17 12
570.907711982727 852.290570735931 2367.00010299683 17 16 11
581.047594547272 848.329603672028 2355.99994659424 22 22 12
597.917139530182 863.45362663269 2398.00000190735 23 23 11
613.250851631165 876.057863235474 2433.00008773804 18 20 7
620.877206325531 877.500534057617 2437.00003623962 17 20 9
635.735511779785 889.0261054039 2469.00010108948 16 19 8
642.181575298309 888.669908046722 2467.99993515015 14 20 10
646.519601345062 885.434150695801 2459.00011062622 14 20 10
638.324379920959 865.275144577026 2403.00011634827 16 17 9
642.169833183289 861.680448055267 2392.99988746643 18 18 10
651.3831615448 865.288555622101 2403.00011634827 18 18 10
659.830093383789 867.817103862762 2410.00008583069 17 17 9
670.527994632721 873.227477073669 2424.99995231628 18 18 10
676.003158092499 871.79696559906 2421.0000038147 19 19 11
685.686588287354 875.768959522247 2431.99992179871 26 26 18
693.438053131104 877.221286296844 2436.00010871887 26 26 18
692.016065120697 867.151021957397 2407.99999237061 17 17 9
697.405219078064 865.724325180054 2404.00004386902 29 29 21
303.262710571289 890.242338180542 2490.00000953674 171 173 170
310.146570205688 890.587747097015 2490.9999370575 165 167 166
315.25456905365 885.927855968475 2477.9999256134 169 171 170
318.732559680939 876.977801322937 2453.00006866455 181 182 184
323.799014091492 872.675597667694 2440.99998474121 190 191 193
328.935533761978 868.730843067169 2430.0000667572 210 211 215
335.669070482254 869.076251983643 2430.99999427795 216 217 221
341.844707727432 867.99156665802 2427.99997329712 230 231 236
348.577797412872 868.336856365204 2428.99990081787 233 234 239
354.146480560303 865.822374820709 2421.99993133545 235 236 240
360.123783349991 864.380419254303 2417.99998283386 240 241 245
366.382420063019 863.653302192688 2415.99988937378 251 252 254
372.938841581345 863.641381263733 2415.99988937378 254 255 255
380.123436450958 865.059435367584 2420.00007629395 254 255 255
387.009918689728 865.76235294342 2421.99993133545 254 254 252
393.744677305222 866.108119487762 2423.00009727478 250 250 248
511.700630187988 888.102054595947 2484.99989509583 29 24 18
517.608761787415 886.664569377899 2480.99994659424 32 27 21
528.356194496155 893.447160720825 2500 25 22 15
528.932154178619 883.075952529907 2470.99995613098 23 20 13
533.469438552856 879.495441913605 2460.99996566772 24 24 14
532.685160636902 867.33865737915 2427.00004577637 22 22 12
540.159940719604 868.762314319611 2430.99999427795 25 26 18
536.186158657074 851.960837841034 2384.0000629425 19 22 13
559.04495716095 877.686440944672 2456.00008964539 24 25 17
566.862046718597 879.46891784668 2460.99996566772 23 24 16
572.376072406769 877.678394317627 2456.00008964539 20 21 15
575.505554676056 872.314751148224 2440.99998474121 21 20 16
580.938875675201 870.525479316711 2436.00010871887 21 17 14
580.797851085663 860.51744222641 2407.99999237061 17 14 7
580.749094486237 850.867509841919 2381.00004196167 21 18 9
595.351755619049 862.659633159637 2414.00003433228 20 20 8
598.664283752441 858.013927936554 2401.00002288818 21 21 9
600.898623466492 851.939618587494 2384.0000629425 18 20 7
629.552781581879 873.741865158081 2444.9999332428 16 19 10
636.193096637726 873.74472618103 2444.9999332428 14 20 10
638.364434242249 867.673218250275 2427.99997329712 13 18 11
639.912784099579 860.887706279755 2408.99991989136 16 17 9
643.237173557281 856.604695320129 2397.0000743866 18 18 10
652.731478214264 860.541641712189 2407.99999237061 18 18 10
666.940629482269 870.554983615875 2436.00010871887 17 17 9
668.307185173035 863.772690296173 2417.00005531311 17 17 9
675.993382930756 865.211009979248 2421.0000038147 18 18 10
680.037021636963 862.004220485687 2411.99994087219 24 24 16
679.477989673615 853.080093860626 2387.00008392334 21 21 13
678.496718406677 843.799471855164 2361.00006103516 21 21 13
688.398540019989 848.100423812866 2372.99990653992 29 29 21
310.781568288803 885.630965232849 2496.00005149841 168 170 169
315.521478652954 879.941284656525 2480.00001907349 168 170 169
318.74492764473 870.348751544952 2453.00006866455 181 182 184
323.546022176743 865.368783473969 2438.99989128113 189 190 192
328.947871923447 862.163066864014 2430.0000667572 205 206 210
335.681468248367 862.505316734314 2430.99999427795 211 212 216
341.716289520264 861.07349395752 2427.00004577637 224 225 230
348.303228616714 861.060798168182 2427.00004577637 228 229 234
353.720158338547 858.20996761322 2418.99991035461 230 231 235
359.987139701843 857.487857341766 2417.00005531311 235 236 240
366.091400384903 856.410980224609 2414.00003433228 250 251 253
372.642368078232 856.398522853851 2414.00003433228 254 255 255
379.507273435593 857.09547996521 2415.99988937378 253 255 254
386.702477931976 858.502268791199 2420.00007629395 253 253 251
393.431693315506 858.844578266144 2421.0000038147 255 255 253
399.670541286469 858.122885227203 2418.99991035461 161 161 159
521.38751745224 898.03946018219 2532.00006484985 27 24 17
527.631402015686 896.966457366943 2529.00004386902 29 26 19
526.250600814819 883.125722408295 2490.00000953674 24 21 14
528.297305107117 875.315070152283 2467.99993515015 20 20 12
528.490602970123 864.667594432831 2437.99996376038 22 22 12
538.178622722626 869.625806808472 2451.99990272522 21 21 11
541.054606437683 863.589882850647 2434.99994277954 23 23 13
543.388724327087 856.845438480377 2415.99988937378 23 20 11
547.896206378937 853.648006916046 2407.00006484985 25 22 13
558.574199676514 860.026597976685 2424.99995231628 22 19 10
569.11712884903 866.051018238068 2441.99991226196 24 20 11
582.346141338348 875.977158546448 2470.00002861023 22 19 14
581.895530223846 865.334272384644 2440.00005722046 18 17 12
586.347460746765 862.139642238617 2430.99999427795 17 17 9
583.677470684052 848.6607670784 2392.99988746643 19 19 9
597.078859806061 858.589231967926 2421.0000038147 20 20 8
597.417771816254 849.72220659256 2395.99990844727 20 20 8
602.410435676575 847.594141960144 2390.00010490417 18 18 6
611.192464828491 850.786149501801 2398.9999294281 17 19 8
626.718521118164 863.199830055237 2434.00001525879 15 16 8
628.904759883881 857.172667980194 2417.00005531311 14 17 8
631.262242794037 851.501047611237 2401.00002288818 14 15 9
639.642953872681 853.986859321594 2407.99999237061 15 15 7
644.305408000946 851.508498191834 2401.00002288818 17 17 9
657.333612442017 860.024988651276 2424.99995231628 17 17 9
663.100838661194 858.966886997223 2421.99993133545 16 16 8
670.511424541473 860.037565231323 2424.99995231628 16 16 8
672.354876995087 854.016065597534 2407.99999237061 17 17 9
680.591344833374 856.152474880219 2414.00003433228 24 24 16
676.905691623688 843.393981456757 2378.00002098084 16 16 8
681.359171867371 840.921580791473 2371.00005149841 30 30 22
688.966512680054 842.351496219635 2375 26 26 18
315.279811620712 872.536063194275 2477.9999256134 167 169 168
318.757712841034 863.720297813416 2453.00006866455 178 179 181
323.691546916962 859.130024909973 2440.00005722046 181 182 184
329.231381416321 856.300055980682 2431.99992179871 193 194 196
335.694283246994 855.934917926788 2430.99999427795 196 197 201
341.588377952576 854.161500930786 2426.00011825562 207 208 212
347.885519266129 853.444159030914 2424.00002479553 214 215 219
353.440582752228 850.96663236618 2417.00005531311 214 215 219
359.702080488205 850.249350070953 2414.99996185303 218 219 223
365.800857543945 849.180102348328 2411.99994087219 239 240 242
372.346341609955 849.167168140411 2411.99994087219 248 249 251
379.205822944641 849.858283996582 2414.00003433228 254 255 255
385.916084051132 850.197374820709 2414.99996185303 254 254 254
392.794251441956 850.888729095459 2417.00005531311 248 248 248
399.352610111237 850.875914096832 2417.00005531311 254 254 252
406.414568424225 851.919293403625 2420.00007629395 252 252 250
529.016196727753 904.203534126282 2569.00000572205 26 26 16
529.726982116699 893.634796142578 2539.00003433228 25 25 15
529.852211475372 882.362544536591 2506.99996948242 21 21 11
526.807129383087 866.163730621338 2460.99996566772 20 20 10
533.050656318665 865.451574325562 2459.00011062622 21 21 11
542.575597763062 870.018839836121 2471.99988365173 20 20 10
552.838027477264 875.642478466034 2487.99991607666 26 24 12
546.093940734863 854.518890380859 2427.99997329712 24 20 9
557.462334632874 861.903131008148 2448.99988174438 23 16 6
563.186347484589 860.489368438721 2444.9999332428 21 14 4
570.986390113831 862.243592739105 2450.00004768372 28 19 10
582.350432872772 869.27741765976 2470.00002861023 21 18 11
589.53058719635 869.976818561554 2471.99988365173 18 18 10
588.521242141724 858.711183071136 2440.00005722046 17 17 9
594.411969184875 857.652187347412 2437.00003623962 18 18 8
595.60090303421 849.907100200653 2414.99996185303 19 19 7
599.912226200104 846.737861633301 2405.99989891052 19 19 7
603.419065475464 842.513561248779 2394.00005340576 18 18 6
604.568243026733 835.122406482697 2372.99990653992 17 17 7
614.615738391876 840.049564838409 2387.00008392334 16 16 8
629.163205623627 850.960075855255 2417.99998283386 14 15 7
633.626043796539 848.146259784698 2410.00008583069 14 13 8
637.78030872345 844.98119354248 2401.00002288818 15 15 7
649.131655693054 851.319074630737 2418.99991035461 16 16 8
652.720630168915 847.451746463776 2407.99999237061 18 18 10
664.190232753754 853.791356086731 2426.00011825562 17 17 9
668.016314506531 850.277483463287 2415.99988937378 16 16 8
670.113742351532 844.653129577637 2400.00009536743 17 17 9
688.282549381256 851.003706455231 2417.99998283386 18 18 10
686.809062957764 841.158390045166 2390.00010490417 27 27 19
698.2381939888 847.151696681976 2407.00006484985 21 21 13
315.547585487366 866.53995513916 2480.00001907349 167 169 166
318.640977144241 856.743037700653 2451.99990272522 174 176 175
323.837399482727 852.886199951172 2440.99998474121 175 177 176
329.786241054535 851.125836372375 2436.00010871887 186 187 189
335.983783006668 850.064098834991 2433.00008773804 189 190 192
341.88324213028 848.303556442261 2427.99997329712 201 202 204
347.755312919617 846.543192863464 2423.00009727478 209 210 212
353.746324777603 845.132112503052 2418.99991035461 211 212 216
360.162198543549 844.769179821014 2417.99998283386 212 213 215
366.117477416992 843.358278274536 2414.00003433228 227 228 230
372.359544038773 842.645943164825 2411.99994087219 239 240 242
378.904789686203 842.632472515106 2411.99994087219 254 255 255
385.60962677002 842.968463897705 2413.00010681152 255 255 255
392.482250928879 843.653678894043 2414.99996185303 250 250 250
399.035096168518 843.640446662903 2414.99996185303 255 255 255
406.595438718796 845.723211765289 2421.0000038147 255 255 253
413.164228200912 845.710039138794 2421.0000038147 174 174 172
527.997016906738 895.499348640442 2563.99989128113 28 28 16
529.528260231018 886.408090591431 2538.00010681152 25 25 13
529.016315937042 874.174118041992 2503.00002098084 22 22 10
532.809853553772 869.275033473969 2489.00008201599 22 22 10
532.625555992126 858.090043067932 2457.00001716614 23 21 9
539.949893951416 859.129011631012 2460.00003814697 22 20 8
547.068476676941 859.819233417511 2461.99989318848 21 15 3
555.097758769989 861.906826496124 2467.99993515015 23 13 3
559.517621994019 858.407080173492 2457.99994468689 68 51 41
564.34428691864 855.606496334076 2450.00004768372 70 52 42
568.661451339722 852.107882499695 2440.00005722046 29 12 2
572.453081607819 847.911357879639 2427.99997329712 22 15 5
580.711185932159 850.350677967072 2434.99994277954 19 16 7
593.107998371124 858.727335929871 2459.00011062622 19 16 7
597.342193126678 855.230927467346 2448.99988174438 19 19 9
600.042939186096 849.640130996704 2433.00008773804 18 18 8
599.914312362671 840.208411216736 2405.99989891052 17 17 7
602.664291858673 834.968090057373 2391.00003242493 17 17 7
608.390510082245 833.918929100037 2388.00001144409 17 17 7
615.388214588165 834.616482257843 2390.00010490417 19 16 9
629.943192005157 845.441937446594 2421.0000038147 18 15 8
644.667029380798 856.268048286438 2451.99990272522 18 15 8
647.075176239014 850.682020187378 2436.00010871887 15 15 7
643.225073814392 837.064802646637 2397.0000743866 19 19 11
643.229722976685 828.686475753784 2372.99990653992 19 19 11
661.447644233704 843.706429004669 2415.99988937378 18 18 10
671.881794929504 848.600089550018 2430.0000667572 17 17 9
677.646100521088 847.557842731476 2427.00004577637 17 17 9
683.958828449249 847.214937210083 2426.00011825562 20 20 12
692.543983459473 849.666714668274 2433.00008773804 17 17 9
315.688490867615 860.186994075775 2480.99994659424 167 169 166
318.654596805573 850.118577480316 2451.99990272522 163 165 162
324.514448642731 848.024547100067 2446.00009918213 160 162 159
330.20606637001 845.58367729187 2438.99989128113 172 174 173
336.411863565445 844.529688358307 2436.00010871887 179 180 182
342.037826776505 842.088937759399 2428.99990081787 188 189 191
347.912639379501 840.341508388519 2424.00002479553 195 196 198
353.906363248825 838.940858840942 2420.00007629395 211 212 214
360.175997018814 838.233530521393 2417.99998283386 210 211 213
365.97952246666 836.486220359802 2413.00010681152 212 213 215
372.064560651779 835.432291030884 2410.00008583069 224 225 227
378.761440515518 835.764944553375 2411.00001335144 242 243 245
385.303676128387 835.751056671143 2411.00001335144 251 251 253
392.008304595947 836.083769798279 2411.99994087219 255 255 255
398.387730121613 835.723280906677 2411.00001335144 245 245 245
405.769169330597 837.442636489868 2415.99988937378 255 255 253
412.324279546738 837.428987026215 2415.99988937378 241 241 239
419.05266046524 837.762117385864 2417.00005531311 97 97 95
523.683667182922 881.278455257416 2542.99998283386 29 30 16
523.905575275421 870.177626609802 2510.99991798401 25 26 12
529.872000217438 868.780732154846 2506.99996948242 22 22 10
536.886930465698 869.1166639328 2507.99989700317 23 23 11
539.355039596558 862.17600107193 2487.99991607666 23 21 9
540.397703647614 853.156626224518 2461.99989318848 24 20 8
552.409946918488 861.464262008667 2486.00006103516 25 15 3
555.555641651154 855.911195278168 2470.00002861023 34 22 10
559.525191783905 851.744771003723 2457.99994468689 111 91 80
565.042316913605 850.004553794861 2453.00006866455 114 90 78
569.367110729218 846.532166004181 2443.00007820129 38 18 7
574.109494686127 843.753397464752 2434.99994277954 25 15 5
584.055423736572 848.598480224609 2448.99988174438 20 17 8
590.700805187225 848.592877388 2448.99988174438 21 18 9
597.590446472168 848.934471607208 2450.00004768372 22 19 10
598.073482513428 840.267479419708 2424.99995231628 19 19 9
600.914716720581 835.066258907318 2410.00008583069 18 18 8
604.683041572571 831.251621246338 2398.9999294281 17 17 7
611.958920955658 832.288682460785 2401.99995040894 17 17 7
618.994057178497 832.97997713089 2404.00004386902 19 16 9
635.147452354431 845.799267292023 2440.99998474121 19 16 9
646.507024765015 852.035820484161 2459.00011062622 20 15 9
652.386486530304 850.996613502502 2456.00008964539 18 15 8
645.906567573547 834.019303321838 2407.00006484985 19 19 11
643.769085407257 822.933256626129 2375 20 20 12
661.444067955017 837.14234828949 2415.99988937378 19 19 11
672.430336475372 842.689871788025 2431.99992179871 17 17 9
682.945728302002 847.545266151428 2446.00009918213 17 17 9
689.873039722443 847.897052764893 2447.00002670288 16 16 8
692.536890506744 843.05214881897 2433.00008773804 16 16 8
696.849703788757 840.287148952484 2424.99995231628 17 17 9
694.157958030701 829.206645488739 2392.99988746643 29 29 21
318.798661231995 843.838691711426 2453.00006866455 167 169 166
325.324594974518 843.480348587036 2451.99990272522 156 158 155
330.897152423859 840.714037418365 2444.00000572205 166 168 167
336.840331554413 838.979661464691 2438.99989128113 177 178 180
342.192888259888 835.869431495667 2430.0000667572 179 180 182
347.783327102661 833.447217941284 2423.00009727478 184 185 187
353.774279356003 832.056760787964 2418.99991035461 208 209 211
359.743356704712 830.666422843933 2414.99996185303 210 211 213
365.538746118546 828.932344913483 2410.00008583069 207 208 210
371.769964694977 828.229963779449 2407.99999237061 216 217 219
378.304302692413 828.215539455414 2407.99999237061 238 239 241
385.158032178879 828.889071941376 2410.00008583069 250 250 252
391.534805297852 828.530669212341 2408.99991989136 253 253 255
398.236513137817 828.860342502594 2410.00008583069 252 252 252
405.111312866211 829.533755779266 2411.99994087219 254 254 254
411.484837532043 829.17582988739 2411.00001335144 254 254 254
419.066429138184 831.225097179413 2417.00005531311 247 247 245
429.850101470947 839.464664459229 2440.99998474121 255 255 251
534.766674041748 881.257653236389 2562.99996376038 41 38 23
536.012411117554 871.962368488312 2536.00001335144 41 38 23
538.824260234833 865.418255329132 2516.99995994568 44 40 28
540.449142456055 857.155621051788 2493.00003051758 21 15 3
546.992421150208 856.801509857178 2492.00010299683 32 24 11
550.641596317291 851.978063583374 2477.9999256134 33 17 4
555.339515209198 848.87433052063 2469.00010108948 38 19 5
559.533536434174 845.083475112915 2457.99994468689 68 38 27
565.280497074127 843.699753284454 2453.9999961853 140 106 94
571.005880832672 842.316627502441 2450.00004768372 44 15 1
579.067587852478 844.371974468231 2456.00008964539 33 17 4
591.216444969177 852.272272109985 2479.00009155273 25 19 7
589.259326457977 839.889109134674 2443.00007820129 22 18 7
586.863219738007 827.16292142868 2405.99989891052 21 19 7
594.378530979156 828.532993793488 2410.00008583069 18 18 8
602.165222167969 830.247282981873 2414.99996185303 16 16 6
608.719170093536 830.243349075317 2414.99996185303 18 18 8
613.235294818878 827.489614486694 2407.00006484985 18 18 10
621.313273906708 829.549789428711 2413.00010681152 20 17 10
626.562058925629 827.828705310822 2407.99999237061 20 15 9
637.04252243042 832.984149456024 2423.00009727478 19 14 8
649.198710918427 840.202927589417 2444.00000572205 17 14 7
649.662375450134 832.296013832092 2421.0000038147 16 16 8
649.459540843964 823.702275753021 2395.99990844727 18 18 10
655.14463186264 822.672605514526 2392.99988746643 18 18 10
686.25146150589 853.271961212158 2482.00011253357 17 17 9
691.277325153351 842.96590089798 2451.99990272522 22 22 14
691.676914691925 835.407733917236 2430.0000667572 17 17 9
687.359869480133 822.349548339844 2391.99995994568 21 21 13
326.665967702866 840.269267559052 2461.99989318848 159 161 158
331.994920969009 836.841583251953 2451.99990272522 157 159 156
337.131232023239 833.072662353516 2440.99998474121 169 171 170
342.489153146744 829.986155033112 2431.99992179871 177 179 178
348.085105419159 827.582478523254 2424.99995231628 182 184 183
353.935271501541 825.861215591431 2420.00007629395 201 202 204
359.758019447327 824.139893054962 2414.99996185303 209 210 212
365.553379058838 822.418808937073 2410.00008583069 202 203 205
371.630221605301 821.380198001862 2407.00006484985 206 207 209
378.1618475914 821.365296840668 2407.00006484985 230 231 233
384.533375501633 821.00909948349 2405.99989891052 243 243 245
390.899270772934 820.653080940247 2404.99997138977 250 250 252
397.590070962906 820.979475975037 2405.99989891052 252 252 254
404.453992843628 821.6472864151 2407.99999237061 252 252 254
411.499232053757 822.656154632568 2411.00001335144 255 255 255
418.733954429626 824.006319046021 2414.99996185303 255 255 255
427.22299695015 827.745020389557 2426.00011825562 246 245 241
528.728067874908 864.425241947174 2533.99991989136 73 66 50
534.967422485352 863.389551639557 2530.99989891052 27 21 5
538.835644721985 858.601808547974 2516.99995994568 39 33 19
543.495118618011 855.179071426392 2506.99996948242 22 14 1
541.954338550568 842.205762863159 2469.00010108948 29 19 7
548.651695251465 842.195093631744 2469.00010108948 35 17 5
556.473731994629 843.890428543091 2473.99997711182 45 21 9
560.908436775208 840.469598770142 2463.99998664856 82 49 34
566.440880298615 838.755011558533 2459.00011062622 148 111 95
571.946263313293 837.040603160858 2453.9999961853 40 4 0
580.489873886108 839.760959148407 2461.99989318848 30 12 0
586.692214012146 839.071035385132 2460.00003814697 24 14 2
587.095022201538 830.195665359497 2434.00001525879 23 17 5
593.942761421204 830.530047416687 2434.99994277954 21 17 6
589.69783782959 815.516531467438 2391.00003242493 19 19 9
602.419316768646 824.037969112396 2415.99988937378 18 18 8
609.983623027802 825.397431850433 2420.00007629395 17 18 10
617.315173149109 826.416373252869 2423.00009727478 17 17 9
621.058583259583 822.660982608795 2411.99994087219 18 15 8
626.82431936264 821.634769439697 2408.99991989136 18 15 8
634.414911270142 822.996914386749 2413.00010681152 20 16 7
649.199545383453 833.568453788757 2444.00000572205 23 20 13
649.930715560913 826.063990592957 2421.99993133545 19 19 11
651.356279850006 819.583714008331 2403.00011634827 16 16 8
656.238317489624 817.53796339035 2397.0000743866 15 15 7
664.682745933533 819.926917552948 2404.00004386902 17 17 9
698.294520378113 853.01285982132 2500.99992752075 18 18 10
327.875137329102 836.666107177734 2470.99995613098 133 135 130
332.687020301819 831.910669803619 2457.00001716614 151 153 150
337.28438615799 826.816499233246 2441.99991226196 159 161 158
342.645108699799 823.754191398621 2433.00008773804 177 179 178
348.100155591965 821.030139923096 2424.99995231628 175 177 176
353.950381278992 819.322049617767 2420.00007629395 184 185 187
359.624207019806 817.275404930115 2414.00003433228 196 197 199
365.871906280518 816.582858562469 2411.99994087219 204 205 207
371.95411324501 815.55187702179 2408.99991989136 203 204 206
378.176957368851 814.859509468079 2407.00006484985 211 212 214
384.388655424118 814.167082309723 2404.99997138977 224 224 226
390.75180888176 813.813328742981 2404.00004386902 243 242 247
397.439807653427 814.136505126953 2404.99997138977 249 248 253
403.965055942535 814.121305942535 2404.99997138977 252 251 255
410.831451416016 814.783036708832 2407.00006484985 253 252 255
417.708456516266 815.444946289063 2408.99991989136 252 252 254
424.948453903198 816.783964633942 2413.00010681152 250 250 248
432.92510509491 819.476902484894 2421.0000038147 255 255 253
442.39729642868 824.877679347992 2437.00003623962 255 254 250
524.150550365448 850.119888782501 2512.00008392334 91 78 61
531.809449195862 851.460516452789 2516.00003242493 99 87 71
537.563323974609 849.755764007568 2510.99991798401 86 74 60
543.72364282608 848.728239536285 2507.99989700317 29 15 2
545.477569103241 840.933084487915 2484.99989509583 42 26 13
550.662398338318 838.552832603455 2477.9999256134 62 38 26
557.383835315704 838.541984558105 2477.9999256134 66 36 25
562.284231185913 835.824251174927 2470.00002861023 150 108 94
567.14129447937 833.107054233551 2461.99989318848 163 117 102
573.120534420013 832.082390785217 2459.00011062622 87 44 28
580.498397350311 833.088397979736 2461.99989318848 64 38 25
587.177157402039 833.079755306244 2461.99989318848 30 18 6
592.650175094604 831.37983083725 2457.00001716614 24 16 5
598.340213298798 830.018818378448 2453.00006866455 23 16 6
601.295828819275 824.936389923096 2437.99996376038 21 18 9
599.432826042175 813.425660133362 2404.00004386902 20 20 10
607.215881347656 815.111696720123 2408.99991989136 16 17 9
613.497972488403 814.768254756927 2407.99999237061 16 16 8
626.984536647797 823.899447917938 2434.99994277954 17 14 7
629.689693450928 818.820238113403 2420.00007629395 18 15 8
636.257588863373 818.817019462585 2420.00007629395 19 16 7
645.482361316681 822.198092937469 2430.0000667572 19 19 11
653.420150279999 823.888003826141 2434.99994277954 18 18 10
656.235575675964 819.15009021759 2421.0000038147 15 15 7
666.093587875366 823.210060596466 2433.00008773804 15 15 7
668.552219867706 818.135261535645 2417.99998283386 17 17 9
677.631020545959 821.181774139404 2427.00004577637 18 18 10
332.973301410675 825.945377349854 2459.00011062622 151 153 150
337.161749601364 819.883763790131 2440.99998474121 150 152 149
342.801451683044 817.516922950745 2434.00001525879 173 175 174
348.689913749695 815.821826457977 2428.99990081787 178 180 179
354.551017284393 814.1268491745 2424.00002479553 178 179 181
360.384672880173 812.431693077087 2418.99991035461 187 188 190
366.342544555664 811.072468757629 2414.99996185303 202 203 205
372.278541326523 809.713304042816 2411.00001335144 203 204 206
378.506749868393 809.025764465332 2408.99991989136 205 206 208
384.404212236404 807.666718959808 2404.99997138977 219 219 221
391.092419624329 807.986736297607 2405.99989891052 234 233 238
397.124826908112 806.963562965393 2403.00011634827 241 240 245
403.644561767578 806.947827339172 2403.00011634827 247 246 251
410.164088010788 806.932210922241 2403.00011634827 255 254 255
416.510015726089 806.58084154129 2401.99995040894 255 254 255
423.202514648438 806.901037693024 2403.00011634827 243 243 243
430.07904291153 807.557284832001 2404.99997138977 255 254 255
438.237071037292 810.563862323761 2414.00003433228 255 255 253
447.549194097519 815.585196018219 2428.99990081787 255 255 251
534.1477394104 848.341941833496 2526.99995040894 122 109 93
537.790238857269 843.292951583862 2512.00008392334 91 75 62
544.820070266724 843.615710735321 2513.00001144409 36 20 7
547.465205192566 837.224781513214 2493.99995803833 44 26 14
553.3407330513 835.869908332825 2490.00000953674 99 71 59
558.744609355927 833.844065666199 2483.99996757507 105 73 60
563.660800457001 831.147253513336 2476.0000705719 165 121 108
567.842543125153 827.443897724152 2464.99991416931 166 119 103
573.5964179039 826.090931892395 2460.99996566772 95 49 34
580.743372440338 826.752364635468 2463.00005912781 74 46 34
587.90135383606 827.414214611053 2464.99991416931 53 35 23
596.035361289978 829.419314861298 2470.99995613098 30 18 6
601.274967193604 827.397048473358 2464.99991416931 25 17 6
601.302862167358 818.326473236084 2437.99996376038 19 16 7
602.431356906891 810.934901237488 2415.99988937378 19 19 9
604.953229427338 805.558085441589 2400.00009536743 16 17 9
615.796148777008 811.25807762146 2417.00005531311 15 16 8
628.791570663452 819.64385509491 2441.99991226196 17 17 7
634.637475013733 818.632066249847 2438.99989128113 17 17 7
638.890087604523 815.607309341431 2430.0000667572 20 17 8
650.266349315643 821.645438671112 2447.99995422363 13 13 5
655.032098293304 819.293200969696 2440.99998474121 13 13 5
664.368450641632 822.647511959076 2450.99997520447 15 15 7
673.212051391602 825.331449508667 2459.00011062622 16 16 8
672.975718975067 816.940128803253 2434.00001525879 17 17 9
673.162579536438 809.220731258392 2411.00001335144 18 18 10
678.581774234772 807.879388332367 2407.00006484985 13 13 5
