ply
format ascii 1.0
comment KinectMotionCapture
element vertex 761
property float x
property float y
property float z
property uchar red
property uchar green
property uchar blue
end_header
243.906080722809 491.850018501282 2920.00007629395 163 165 162
252.968728542328 494.022876024246 2933.00008773804 172 174 171
-196.906730532646 492.813020944595 2973.00004959106 193 193 191
-188.497811555862 491.997420787811 2967.99993515015 184 184 182
-180.297836661339 491.67862534523 2966.00008010864 168 169 164
-171.933948993683 490.861982107162 2960.99996566772 156 157 152
-163.707390427589 490.376234054565 2957.99994468689 144 145 140
-155.707135796547 490.553200244904 2959.00011062622 145 146 141
-147.900462150574 491.392642259598 2963.99998664856 147 146 141
-140.301942825317 493.060529232025 2973.99997711182 140 139 134
-132.781863212585 495.225429534912 2986.99998855591 137 136 131
-125.232264399529 497.555553913116 3000.99992752075 123 122 117
-117.605976760387 499.88529086113 3015.00010490417 122 123 118
-74.9484449625015 489.473313093185 2951.99990272522 204 209 205
-66.6128844022751 487.322777509689 2938.99989128113 142 144 141
-58.3279877901077 485.005855560303 2924.99995231628 167 168 163
-50.2052344381809 483.517378568649 2915.99988937378 151 150 145
-42.1168468892574 481.862425804138 2905.99989891052 149 148 143
-34.0827964246273 480.206996202469 2895.99990844727 181 182 177
-26.121199131012 478.88258099556 2888.00001144409 164 165 160
-18.1904584169388 477.225989103317 2878.00002098084 171 172 167
-10.3141367435455 475.568830966949 2868.00003051758 173 174 169
-2.49662436544895 474.74017739296 2862.99991607666 174 175 170
5.28994994238019 473.579317331314 2855.99994659424 173 174 169
13.0383651703596 472.417920827866 2848.99997711182 174 175 170
20.7485966384411 471.255987882614 2842.00000762939 160 161 156
28.4406654536724 470.42515873909 2836.99989318848 163 164 159
36.1053980886936 469.593822956085 2832.00001716614 153 154 149
43.8201203942299 469.590991735458 2832.00001716614 149 148 143
51.5346974134445 469.587594270706 2832.00001716614 148 147 142
59.2700093984604 469.749450683594 2832.99994468689 147 146 141
66.9396370649338 469.413459300995 2831.00008964539 146 145 140
74.6772363781929 469.574242830276 2832.00001716614 145 144 139
82.3327451944351 469.237059354782 2829.99992370605 141 140 135
89.9452567100525 468.73351931572 2826.99990272522 141 140 135
97.6447388529778 468.726933002472 2826.99990272522 146 145 140
105.30661046505 468.554019927979 2825.99997520447 147 146 141
113.08266222477 468.877971172333 2828.00006866455 148 147 142
120.783783495426 468.869775533676 2828.00006866455 152 151 146
128.484487533569 468.861013650894 2828.00006866455 155 154 149
136.329233646393 469.349205493927 2831.00008964539 158 159 154
144.037202000618 469.339430332184 2831.00008964539 160 161 156
152.119889855385 470.489591360092 2838.00005912781 167 168 163
160.127505660057 471.30760550499 2842.99993515015 169 170 165
168.516144156456 473.119825124741 2854.00009155273 172 172 170
176.346376538277 473.273634910584 2855.00001907349 165 167 164
184.439420700073 474.09000992775 2859.99989509583 167 169 166
192.693516612053 475.237429141998 2867.00010299683 171 173 170
201.334714889526 477.212965488434 2878.99994850159 170 172 169
209.749981760979 478.52498292923 2887.00008392334 169 171 170
218.1326597929 479.670584201813 2894.00005340576 169 171 170
226.708933711052 481.147170066834 2903.00011634827 170 170 168
235.171839594841 482.291698455811 2910.00008583069 161 163 160
244.089677929878 484.264254570007 2921.99993133545 165 167 164
253.330826759338 486.733436584473 2937.00003623962 168 170 167
-196.721494197845 484.260529279709 2970.00002861023 193 193 191
-188.510730862617 483.947545289993 2967.99993515015 183 183 181
-180.067047476768 482.98180103302 2961.99989318848 167 168 163
-171.829655766487 482.504695653915 2959.00011062622 157 158 153
-163.663357496262 482.190072536469 2957.00001716614 146 147 142
-155.71790933609 482.527226209641 2959.00011062622 146 147 142
-148.06042611599 483.842253684998 2967.00000762939 148 147 142
-140.358880162239 485.156804323196 2974.99990463257 140 139 134
-132.924482226372 487.61248588562 2990.00000953674 137 136 131
-125.240981578827 489.415287971497 3000.99992752075 119 118 113
-117.49716848135 491.217732429504 3012.00008392334 120 121 116
-75.0044956803322 481.791764497757 2953.9999961853 206 211 207
-66.6855797171593 479.839533567429 2941.99991226196 139 141 138
-58.4517493844032 478.049874305725 2930.99999427795 181 182 177
-50.2604246139526 476.096421480179 2918.99991035461 149 148 143
-42.163297533989 474.468618631363 2908.99991989136 148 147 142
-34.1205112636089 472.840249538422 2898.9999294281 179 180 175
-26.1320862919092 471.211314201355 2888.99993896484 152 153 148
-18.1854218244553 469.25562620163 2877.00009346008 185 186 181
-10.3076715022326 467.462450265884 2865.9999370575 167 168 163
-2.49505625106394 466.647356748581 2861.00006103516 176 177 172
5.28476573526859 465.342372655869 2852.9999256134 173 174 169
13.0255548283458 464.200049638748 2845.99995613098 171 172 167
20.7500606775284 463.546395301819 2842.00000762939 160 161 156
28.4426715224981 462.729156017303 2836.99989318848 161 162 157
36.1461900174618 462.400734424591 2835.00003814697 159 160 155
43.8232123851776 461.908578872681 2832.00001716614 150 149 144
51.5383258461952 461.905241012573 2832.00001716614 149 148 143
59.2741779983044 462.064415216446 2832.99994468689 147 146 141
67.0152828097343 462.223142385483 2834.00011062622 146 145 140
74.7088491916656 462.055087089539 2832.99994468689 144 143 138
82.3385268449783 461.560308933258 2829.99992370605 140 139 134
90.0151953101158 461.391180753708 2828.9999961853 141 140 135
97.7206602692604 461.384654045105 2828.9999961853 145 144 139
105.388514697552 461.214512586594 2828.00006866455 145 144 139
113.130539655685 461.36999130249 2828.9999961853 146 145 140
120.834901928902 461.361885070801 2828.9999961853 149 148 143
128.538846969604 461.353212594986 2828.9999961853 151 150 145
136.386841535568 461.833328008652 2832.00001716614 155 156 151
144.250705838203 462.31284737587 2835.00003814697 159 160 155
152.130410075188 462.79188990593 2838.00005912781 166 167 162
159.969583153725 463.107258081436 2839.99991416931 168 169 164
168.114379048347 464.237481355667 2846.99988365173 169 169 167
176.173180341721 465.041041374207 2851.99999809265 171 173 170
184.387549757957 466.170072555542 2858.99996757507 170 172 169
192.773908376694 467.624694108963 2868.00003051758 168 170 167
201.348438858986 469.404846429825 2878.99994850159 168 170 167
209.764242172241 470.695286989212 2887.00008392334 169 171 170
218.147456645966 471.822053194046 2894.00005340576 168 170 169
226.802363991737 473.437398672104 2904.00004386902 170 170 168
235.268503427505 474.56306219101 2911.00001335144 164 166 163
244.273155927658 476.666301488876 2924.00002479553 156 158 155
253.951638936996 479.909986257553 2944.00000572205 168 170 167
-196.668580174446 476.043611764908 2969.00010108948 193 193 191
-188.205942511559 475.094527006149 2963.00005912781 183 183 181
-179.896950721741 474.465638399124 2959.00011062622 167 168 163
-171.783298254013 474.317163228989 2957.99994468689 159 160 155
-163.674548268318 474.168211221695 2957.00001716614 147 148 143
-155.781209468842 474.660158157349 2960.00003814697 147 148 143
-148.120492696762 475.95340013504 2967.99993515015 148 147 142
-140.557274222374 477.727264165878 2979.00009155273 138 137 132
-133.06699693203 479.98172044754 2993.00003051758 134 133 128
-125.333100557327 481.594324111938 3003.00002098084 114 113 108
-75.1366764307022 474.579095840454 2959.00011062622 208 213 209
-66.7128935456276 472.017794847488 2943.00007820129 144 146 143
-58.4757588803768 470.257788896561 2931.99992179871 173 174 169
-50.2294898033142 467.855840921402 2917.00005531311 146 145 140
-42.1662367880344 466.575801372528 2908.99991989136 161 160 155
-34.0875759720802 464.49339389801 2895.99990844727 156 157 152
-26.1339116841555 463.372796773911 2888.99993896484 142 143 138
-18.2056557387114 461.93078160286 2880.00011444092 185 186 181
-10.3335687890649 460.808992385864 2872.99990653992 165 166 161
-2.50046350993216 459.847122430801 2867.00010299683 175 176 171
5.28884027153254 457.922279834747 2855.00001907349 179 180 175
13.0218891426921 456.317752599716 2845.00002861023 161 162 157
20.7442082464695 455.675005912781 2841.00008010864 160 161 156
28.4346323460341 454.871326684952 2835.99996566772 156 157 152
36.1614599823952 454.86906170845 2835.99996566772 160 161 156
43.8262671232224 454.224735498428 2832.00001716614 150 149 144
51.5601150691509 454.381823539734 2832.99994468689 149 148 143
59.2783093452454 454.377979040146 2832.99994468689 147 146 141
67.0435950160027 454.694390296936 2835.00003814697 145 144 139
74.7140422463417 454.368710517883 2832.99994468689 144 143 138
82.4897289276123 454.68407869339 2835.00003814697 140 139 134
90.1487171649933 454.357296228409 2832.99994468689 140 139 134
97.865603864193 454.350799322128 2832.99994468689 144 143 138
105.433076620102 453.702360391617 2828.9999961853 144 143 138
113.258339464664 454.175978899002 2832.00001716614 145 144 139
120.971389114857 454.16796207428 2832.00001716614 147 146 141
128.638580441475 453.998982906342 2831.00008964539 149 148 143
136.444360017776 454.31062579155 2832.99994468689 154 155 150
144.413262605667 455.102860927582 2838.00005912781 158 159 154
152.248024940491 455.413430929184 2839.99991416931 166 167 162
160.093173384666 455.723524093628 2842.00000762939 168 169 164
168.066784739494 456.353843212128 2845.99995613098 168 168 166
176.185145974159 457.304239273071 2851.99999809265 172 174 171
184.335589408875 458.254188299179 2858.00004005432 170 172 169
192.786946892738 459.8448574543 2868.00003051758 167 169 166
201.222151517868 461.274594068527 2877.00009346008 168 170 167
209.633022546768 462.543487548828 2884.99999046326 171 173 172
218.086689710617 463.811784982681 2892.99988746643 171 173 172
226.895660161972 465.720802545547 2904.99997138977 171 171 169
235.445857048035 466.98796749115 2913.00010681152 167 169 166
244.456514716148 469.056099653244 2926.00011825562 152 154 151
253.968447446823 471.92507982254 2944.00000572205 168 170 167
-196.68173789978 467.988312244415 2969.00010108948 192 192 190
-188.34562599659 467.370569705963 2964.99991416931 183 183 181
-179.848238825798 466.279536485672 2957.99994468689 167 168 163
-171.852976083755 466.448903083801 2959.00011062622 160 161 156
-163.685634732246 466.144949197769 2957.00001716614 149 150 145
-155.897006392479 466.943860054016 2961.99989318848 149 150 145
-148.230373859406 468.215346336365 2970.00002861023 149 148 143
-140.755578875542 470.274567604065 2983.00004005432 138 137 132
-133.253931999207 472.490906715393 2996.99997901917 133 132 127
-125.592097640038 474.391609430313 3009.0000629425 115 114 109
-75.1164481043816 466.391652822495 2957.99994468689 209 214 210
-66.7628198862076 464.346796274185 2944.9999332428 153 155 152
-58.519683778286 462.616711854935 2934.00001525879 167 168 163
-50.2501726150513 460.097551345825 2917.99998283386 153 152 147
-42.1546511352062 458.523958921433 2907.99999237061 175 174 169
-34.0899303555489 456.634432077408 2895.99990844727 145 146 141
-26.1357165873051 455.532819032669 2888.99993896484 147 148 143
-18.2195566594601 454.43058013916 2881.99996948242 157 158 153
-10.3558655828238 453.958481550217 2878.99994850159 170 171 166
-2.50150845386088 452.224493026733 2868.00003051758 175 176 171
5.28920581564307 450.174540281296 2855.00001907349 179 180 175
13.0136320367455 448.281735181808 2842.99993515015 148 149 144
20.7310374826193 447.649896144867 2838.99998664856 161 162 157
28.426568955183 447.0174908638 2835.00003814697 152 153 148
36.1512042582035 447.015255689621 2835.00003814697 152 153 148
43.8292883336544 446.539521217346 2832.00001716614 149 148 143
51.5454672276974 446.536242961884 2832.00001716614 148 147 142
59.2823922634125 446.690142154694 2832.99994468689 146 145 140
67.0009031891823 446.685791015625 2832.99994468689 145 144 139
74.719175696373 446.680933237076 2832.99994468689 144 143 138
82.5244933366776 447.148591279984 2835.99996566772 140 139 134
90.2821943163872 447.300314903259 2836.99989318848 139 138 133
97.9759469628334 447.136253118515 2835.99996566772 141 140 135
105.589367449284 446.656316518784 2832.99994468689 143 142 137
113.306067883968 446.648895740509 2832.99994468689 146 145 140
120.936922729015 446.32562994957 2831.00008964539 146 145 140
128.647357225418 446.317195892334 2831.00008964539 146 145 140
136.357322335243 446.308255195618 2831.00008964539 152 153 148
144.372165203094 447.244644165039 2836.99989318848 155 156 151
152.043893933296 447.077006101608 2835.99996566772 163 164 159
160.104006528854 448.012351989746 2842.00000762939 166 167 162
167.96001791954 448.316633701324 2844.00010108948 169 169 167
176.258772611618 449.723780155182 2852.9999256134 170 172 169
184.541463851929 450.972765684128 2861.00006103516 170 172 169
192.799851298332 452.063590288162 2868.00003051758 168 170 167
201.235607266426 453.469097614288 2877.00009346008 168 170 167
209.501624107361 454.401135444641 2882.99989700317 174 176 175
218.176558613777 456.120759248734 2894.00005340576 177 179 178
226.910650730133 457.839727401733 2904.99997138977 172 172 170
235.784694552422 459.715813398361 2917.00005531311 174 176 173
244.556128978729 461.276024580002 2927.00004577637 150 152 149
253.985077142715 463.938742876053 2944.00000572205 168 170 167
-196.231007575989 458.847135305405 2961.99989318848 192 192 190
-188.358157873154 459.324598312378 2964.99991416931 182 182 180
-180.042639374733 458.71713757515 2960.99996566772 166 167 162
-172.038674354553 458.883702754974 2961.99989318848 160 161 156
-163.807287812233 458.430111408234 2959.00011062622 148 149 144
-155.907467007637 458.90548825264 2961.99989318848 148 149 144
-148.240312933922 460.155099630356 2970.00002861023 148 147 142
-140.85941016674 462.488800287247 2984.99989509583 138 137 132
-133.396312594414 464.822083711624 3000 133 132 127
-125.934511423111 467.464804649353 3016.99995994568 116 115 110
-75.1723498106003 458.67320895195 2960.00003814697 207 212 208
-66.7673647403717 456.353604793549 2944.9999332428 159 161 158
-58.5037209093571 454.498320817947 2933.00008773804 166 167 162
-50.2363741397858 452.022612094879 2917.00005531311 161 160 155
-42.1575307846069 450.631111860275 2907.99999237061 183 182 177
-34.1040305793285 448.929071426392 2897.0000743866 141 142 137
-26.1555928736925 448.001354932785 2891.00003242493 161 162 157
-18.2271227240562 446.763128042221 2882.99989700317 151 152 147
-10.3529756888747 445.989310741425 2878.00002098084 169 170 165
-2.50167935155332 444.440096616745 2868.00003051758 182 183 178
5.29141910374165 442.580372095108 2855.99994659424 164 165 160
13.0328321829438 441.185086965561 2846.99988365173 153 154 149
20.7689665257931 440.719068050385 2844.00010108948 162 163 158
28.4786466509104 440.097540616989 2839.99991416931 154 155 150
36.2046845257282 439.940392971039 2838.99998664856 149 150 145
43.8787117600441 439.317792654037 2835.00003814697 148 147 142
51.603589206934 439.31457400322 2835.00003814697 147 146 141
59.2864230275154 439.000874757767 2832.99994468689 146 145 140
67.0291185379028 439.151555299759 2834.00011062622 145 144 139
74.7770145535469 439.301788806915 2835.00003814697 144 143 138
82.6756060123444 440.226137638092 2841.00008010864 140 139 134
90.4156267642975 440.220296382904 2841.00008010864 138 137 132
98.1207937002182 440.058976411819 2839.99991416931 141 140 135
105.745613574982 439.587265253067 2836.99989318848 143 142 137
113.433711230755 439.424991607666 2835.99996566772 146 145 140
121.030509471893 438.952267169952 2832.99994468689 147 146 141
128.746896982193 438.943892717361 2832.99994468689 147 146 141
136.318311095238 438.470214605331 2829.99992370605 150 151 146
144.22918856144 439.080655574799 2834.00011062622 152 153 148
152.000471949577 439.22570347786 2835.00003814697 160 161 156
160.227373242378 440.609663724899 2844.00010108948 163 164 159
168.266519904137 441.373407840729 2848.99997711182 168 168 166
176.517635583878 442.601293325424 2857.00011253357 168 170 167
184.618204832077 443.363964557648 2861.99998855591 170 172 169
192.879810929298 444.435894489288 2868.99995803833 169 171 168
201.178908348083 445.507287979126 2875.99992752075 166 168 165
209.588095545769 446.733117103577 2884.0000629425 172 174 173
218.190878629684 448.268055915833 2894.00005340576 177 179 178
227.081760764122 450.267195701599 2907.00006484985 173 173 171
235.880896449089 451.955884695053 2917.99998283386 177 179 176
244.739130139351 453.644037246704 2928.99990081787 152 154 151
-196.773916482925 452.02562212944 2970.00002861023 193 195 192
-188.434049487114 451.429396867752 2966.00008010864 178 180 177
-180.054485797882 450.680375099182 2960.99996566772 165 167 164
-172.108128666878 450.996339321136 2963.00005912781 160 160 158
-163.984194397926 450.855165719986 2961.99989318848 147 148 143
-156.233638525009 451.77897810936 2967.99993515015 143 144 139
-148.449808359146 452.702313661575 2973.99997711182 144 145 140
-141.057550907135 454.995214939117 2989.00008201599 139 140 135
-133.583068847656 457.287669181824 3003.99994850159 132 133 128
-126.27686560154 460.493057966232 3025.00009536743 114 116 111
-75.2028003334999 450.790077447891 2960.99996566772 177 180 173
-66.8172016739845 448.663383722305 2947.00002670288 159 162 155
-58.5076622664928 446.536183357239 2933.00008773804 158 161 154
-50.2569861710072 444.256126880646 2917.99998283386 162 163 157
-42.1748645603657 442.888975143433 2908.99991989136 182 183 177
-34.1534242033958 441.673547029495 2901.00002288818 147 146 142
-26.1754561215639 440.457612276077 2892.99988746643 182 181 177
-18.2283520698547 438.936591148376 2882.99989700317 164 163 159
-10.3392833843827 437.567263841629 2874.00007247925 164 163 159
-2.50184815376997 436.654210090637 2868.00003051758 164 163 159
5.29733579605818 435.283869504929 2858.99996757507 133 132 128
13.0566023290157 434.217482805252 2851.99999809265 158 157 153
20.806884393096 433.75962972641 2848.99997711182 157 156 152
28.54073792696 433.301210403442 2845.99995613098 150 149 145
36.2453870475292 432.69008398056 2842.00000762939 148 147 143
43.9281053841114 432.078391313553 2838.00005912781 144 143 139
51.6252629458904 431.770652532578 2835.99996566772 145 144 140
59.3532063066959 431.766927242279 2835.99996566772 144 143 139
67.1045854687691 431.914985179901 2836.99989318848 143 142 138
74.8611688613892 432.062476873398 2838.00005912781 144 143 139
82.6811492443085 432.513952255249 2841.00008010864 140 139 135
90.4216915369034 432.508200407028 2841.00008010864 141 140 136
98.0928093194962 432.197421789169 2838.99998664856 142 141 137
105.715401470661 431.733936071396 2835.99996566772 146 145 141
113.361291587353 431.422173976898 2834.00011062622 144 143 139
121.124036610126 431.566685438156 2835.00003814697 144 143 139
128.891825675964 431.710600852966 2835.99996566772 147 146 142
136.616408824921 431.701809167862 2835.99996566772 146 148 145
144.34053003788 431.692510843277 2835.99996566772 148 150 147
152.17137336731 431.987255811691 2838.00005912781 153 155 152
160.294309258461 433.042496442795 2845.00002861023 155 157 154
168.39574277401 433.944970369339 2851.0000705719 161 163 160
176.714599132538 435.30347943306 2859.99989509583 167 169 166
185.01740694046 436.509341001511 2868.00003051758 160 162 159
193.228647112846 437.410205602646 2874.00007247925 161 163 160
201.541811227798 438.46270442009 2881.00004196167 163 165 162
209.674417972565 439.058184623718 2884.99999046326 165 167 164
218.3558344841 440.718352794647 2895.99990844727 177 179 176
227.252677083015 442.682325839996 2908.99991989136 166 168 165
236.057832837105 444.341421127319 2920.00007629395 182 184 181
244.922012090683 445.999890565872 2930.99999427795 145 147 144
-197.316691279411 445.159196853638 2977.9999256134 193 195 192
-188.509792089462 443.527281284332 2967.00000762939 178 180 177
-180.066168308258 442.642211914063 2960.99996566772 165 167 164
-172.061249613762 442.803144454956 2961.99989318848 160 160 158
-164.105623960495 443.112969398499 2963.99998664856 148 149 144
-156.138569116592 443.422436714172 2966.00008010864 144 145 140
-148.409619927406 444.478839635849 2973.00004959106 143 144 139
-141.066819429398 446.880370378494 2989.00008201599 123 124 119
-133.769735693932 449.730038642883 3007.99989700317 102 104 99
-126.201689243317 451.981246471405 3023.00000190735 106 111 105
-83.9793384075165 446.48352265358 2986.00006103516 210 213 206
-75.2839893102646 443.199157714844 2963.99998664856 175 178 171
-66.8443143367767 440.811395645142 2947.99995422363 148 151 144
-58.4915988147259 438.423007726669 2931.99992179871 145 148 141
-50.2603314816952 436.333209276199 2917.99998283386 176 177 171
-42.2211736440659 435.439050197601 2911.99994087219 178 179 173
-34.1910198330879 434.245377779007 2904.00004386902 156 155 151
-26.1862501502037 432.752013206482 2894.00005340576 176 175 171
-18.2422157377005 431.407690048218 2884.99999046326 157 156 152
-10.3579619899392 430.511385202408 2878.99994850159 174 173 169
-2.50724935904145 429.764151573181 2874.00007247925 146 145 141
5.31065976247191 428.567826747894 2865.9999370575 145 144 140
13.0757866427302 427.071839570999 2855.99994659424 156 155 151
20.8447892218828 426.771640777588 2854.00009155273 160 159 155
28.5827536135912 426.171839237213 2849.99990463257 148 147 143
36.3115705549717 425.721108913422 2846.99988365173 148 147 143
43.9929440617561 424.970775842667 2842.00000762939 144 143 139
51.6833178699017 424.519032239914 2838.99998664856 145 144 140
59.3990124762058 424.365848302841 2838.00005912781 144 143 139
67.2273188829422 424.959748983383 2842.00000762939 143 142 138
74.9716535210609 424.955040216446 2842.00000762939 144 143 139
82.8030407428741 425.398409366608 2845.00002861023 139 138 134
90.4276818037033 424.794644117355 2841.00008010864 141 140 136
98.1338545680046 424.63892698288 2839.99991416931 142 141 137
105.72238266468 424.034148454666 2835.99996566772 146 145 141
113.408774137497 423.877447843552 2835.00003814697 143 142 138
121.260195970535 424.318313598633 2838.00005912781 143 142 138
129.082083702087 424.60909485817 2839.99991416931 144 145 140
136.818081140518 424.600452184677 2839.99991416931 145 147 144
144.553571939468 424.591273069382 2839.99991416931 146 148 145
152.395814657211 424.880653619766 2842.00000762939 151 153 150
160.417437553406 425.617963075638 2846.99988365173 153 155 152
168.524831533432 426.50431394577 2852.9999256134 160 162 159
176.849663257599 427.838534116745 2861.99998855591 160 162 159
185.158386826515 429.022759199142 2869.99988555908 158 160 157
193.577289581299 430.355966091156 2878.99994850159 167 169 166
201.694712042809 430.941164493561 2882.99989700317 163 165 162
209.905937314034 431.675434112549 2888.00001144409 161 163 160
218.520656228065 433.156430721283 2898.00000190735 175 177 174
227.423444390297 435.085266828537 2911.00001335144 173 175 172
236.234545707703 436.714679002762 2921.99993133545 168 170 167
245.104715228081 438.343435525894 2933.00008773804 167 169 166
-197.39556312561 437.220573425293 2979.00009155273 193 195 192
-188.648954033852 435.765147209167 2969.00010108948 178 180 177
-180.381819605827 435.336530208588 2966.00008010864 166 168 165
-172.246590256691 435.201048851013 2964.99991416931 160 160 158
-164.282336831093 435.505419969559 2967.00000762939 149 150 145
-156.306594610214 435.809254646301 2969.00010108948 141 142 137
-148.618936538696 436.993330717087 2976.99999809265 137 138 133
-141.264766454697 439.351350069046 2993.00003051758 132 133 128
-134.089753031731 442.589700222015 3015.00010490417 103 105 100
-126.376897096634 444.359600543976 3026.99995040894 84 89 83
-83.6754515767097 436.759799718857 2974.99990463257 200 203 196
-75.0603154301643 433.828771114349 2954.99992370605 126 129 122
-66.7579993605614 432.218492031097 2944.00000572205 144 147 140
-58.4954433143139 430.460751056671 2931.99992179871 143 146 139
-50.2980872988701 428.702563047409 2920.00007629395 169 170 164
-42.2384515404701 427.677899599075 2913.00010681152 156 157 151
-34.1932699084282 426.358997821808 2904.00004386902 177 176 172
-26.2060686945915 425.186425447464 2895.99990844727 149 148 144
-18.2560626417398 423.866540193558 2887.00008392334 163 162 158
-10.3730354458094 423.280149698257 2882.99989700317 181 180 176
-2.51090433448553 422.546476125717 2878.00002098084 133 132 128
5.32027520239353 421.518683433533 2871.00005149841 138 137 133
13.0995409563184 420.049875974655 2861.00006103516 164 163 159
20.8680760115385 419.461488723755 2857.00011253357 148 147 143
28.6247562617064 419.019371271133 2854.00009155273 147 146 142
36.377739161253 418.72364282608 2851.99999809265 147 146 142
44.0732389688492 417.986929416656 2846.99988365173 140 139 135
51.7959482967854 417.69015789032 2845.00002861023 142 141 137
59.5494322478771 417.686551809311 2845.00002861023 143 142 138
67.3736706376076 418.122857809067 2848.00004959106 143 142 138
75.0821009278297 417.824536561966 2845.99995613098 143 142 138
82.8957930207253 418.113052845001 2848.00004959106 137 136 132
90.4972478747368 417.373359203339 2842.99993515015 139 138 134
98.2093811035156 417.220443487167 2842.00000762939 143 142 138
105.803854763508 416.626632213593 2838.00005912781 144 143 139
113.536179065704 416.619509458542 2838.00005912781 139 138 134
121.396273374557 417.052328586578 2841.00008010864 138 137 133
129.272297024727 417.484641075134 2844.00010108948 137 138 133
137.212365865707 418.063193559647 2848.00004959106 140 142 139
144.919246435165 417.907327413559 2846.99988365173 138 140 137
152.727425098419 418.044596910477 2848.00004959106 145 147 144
160.653188824654 418.47488284111 2851.0000705719 150 152 149
168.771952390671 419.345021247864 2857.00011253357 158 160 157
177.046418190002 420.508205890656 2865.00000953674 152 154 151
185.299277305603 421.524047851563 2871.99997901917 153 155 152
193.656921386719 422.686189413071 2880.00011444092 174 176 173
201.707571744919 423.113912343979 2882.99989700317 162 164 161
210.06466448307 424.128293991089 2890.00010490417 157 159 156
218.534469604492 425.288766622543 2898.00000190735 172 174 171
227.359667420387 427.035808563232 2910.00008583069 158 160 157
235.926017165184 428.195238113403 2917.99998283386 174 176 173
244.95293200016 430.087864398956 2930.99999427795 154 156 153
-197.010412812233 428.266733884811 2973.00004959106 193 195 192
-188.597336411476 427.558571100235 2967.99993515015 179 181 178
-180.393263697624 427.282065153122 2966.00008010864 166 168 165
-172.315627336502 427.29315161705 2966.00008010864 160 160 158
-164.348155260086 427.591919898987 2967.99993515015 149 150 145
-156.316563487053 427.746146917343 2969.00010108948 138 139 134
-148.628428578377 428.908407688141 2976.99999809265 127 128 123
-141.132205724716 430.790603160858 2990.00000953674 131 132 127
-134.053871035576 434.257209300995 3013.99993896484 104 106 101
-83.6246088147163 428.391337394714 2973.00004959106 1 4 0
-75.0143751502037 425.514578819275 2953.00006866455 100 103 96
-66.7396485805511 424.07813668251 2943.00007820129 161 164 157
-58.4792830049992 422.352969646454 2930.99999427795 133 136 129
-50.3185763955116 420.915514230728 2921.0000038147 178 179 173
-42.2411933541298 419.765681028366 2913.00010681152 138 139 133
-34.2308171093464 418.903559446335 2907.00006484985 179 178 174
-26.2258723378181 417.608559131622 2898.00000190735 142 141 137
-18.2888675481081 416.745364665985 2891.99995994568 182 181 177
-10.3881042450666 416.025817394257 2887.00008392334 166 165 161
-2.51368503086269 415.161579847336 2881.00004196167 139 138 134
5.32618071883917 414.152771234512 2874.00007247925 145 144 140
13.118707574904 412.855237722397 2865.00000953674 154 153 149
20.9132581949234 412.565946578979 2862.99991607666 143 142 138
28.6667365580797 411.843836307526 2858.00004005432 148 147 143
36.4311188459396 411.553531885147 2855.99994659424 136 135 131
44.1225431859493 410.68634390831 2849.99990463257 138 137 133
51.8539324402809 410.395056009293 2848.00004959106 140 139 135
59.5951452851295 410.247325897217 2846.99988365173 140 139 135
67.4253478646278 410.675555467606 2849.99990463257 140 139 135
75.2188786864281 410.815089941025 2851.0000705719 141 140 136
83.0466896295547 411.098182201386 2852.9999256134 136 135 131
90.7577648758888 410.80442070961 2851.0000705719 137 136 132
98.4576269984245 410.510182380676 2848.99997711182 143 142 138
106.071650981903 409.927308559418 2845.00002861023 142 141 137
113.863542675972 410.064339637756 2845.99995613098 136 135 131
121.660463511944 410.200923681259 2846.99988365173 136 135 131
129.598781466484 410.76922416687 2851.0000705719 135 136 131
137.365698814392 410.76073050499 2851.0000705719 137 139 136
145.18304169178 410.895854234695 2851.99999809265 134 136 133
152.951657772064 410.886377096176 2851.99999809265 143 145 142
161.001518368721 411.596804857254 2857.00011253357 143 145 142
169.078066945076 412.306725978851 2861.99998855591 151 153 150
177.304819226265 413.30423951149 2868.99995803833 147 149 146
185.375511646271 413.869053125381 2872.99990653992 140 142 139
193.736344575882 415.009617805481 2881.00004196167 174 176 173
201.860189437866 415.573418140411 2884.99999046326 157 159 156
210.223197937012 416.56893491745 2891.99995994568 155 157 154
218.548133969307 417.419821023941 2898.00000190735 164 166 163
227.295696735382 418.99037361145 2908.99991989136 161 163 158
235.778942704201 419.984251260757 2915.99988937378 173 175 172
244.884520769119 421.98583483696 2930.0000667572 152 154 151
-196.956381201744 420.050770044327 2971.99988365173 193 195 192
-188.609078526497 419.49737071991 2967.99993515015 179 181 178
-180.222049355507 418.802082538605 2963.00005912781 167 169 166
-172.384530305862 419.37842965126 2967.00000762939 154 154 152
-164.469227194786 419.812947511673 2970.00002861023 150 151 146
-156.589657068253 420.388430356979 2973.99997711182 147 148 143
-148.787587881088 421.246141195297 2980.00001907349 128 129 124
-141.235530376434 422.951549291611 2992.00010299683 126 127 122
-134.062349796295 426.070123910904 3013.99993896484 102 104 99
-83.7705880403519 421.021938323975 2977.9999256134 181 184 177
-75.0191509723663 417.492508888245 2953.00006866455 36 39 32
-66.7439103126526 416.083216667175 2943.00007820129 63 66 59
-58.5029721260071 414.531946182251 2931.99992179871 143 146 139
-50.3390207886696 413.121610879898 2921.99993133545 149 150 144
-42.2293990850449 411.710739135742 2911.99994087219 139 140 134
-34.2212319374084 410.864859819412 2905.99989891052 155 156 151
-26.236604899168 409.877091646194 2898.9999294281 140 141 136
-18.3090139180422 409.312933683395 2894.99998092651 168 169 164
-10.3887692093849 408.182770013809 2887.00008392334 128 129 124
-2.51471879892051 407.476246356964 2881.99996948242 148 149 144
5.32837538048625 406.486481428146 2875 161 162 157
13.1424451246858 405.778914690018 2869.99988555908 148 149 144
20.9511239081621 405.495047569275 2868.00003051758 156 157 152
28.7387911230326 405.069351196289 2865.00000953674 143 142 138
36.5099981427193 404.6431183815 2861.99998855591 125 124 120
44.2027822136879 403.650879859924 2855.00001907349 136 135 131
51.9665032625198 403.506428003311 2854.00009155273 137 136 132
59.7245693206787 403.36149930954 2852.9999256134 137 136 132
67.5006285309792 403.357475996017 2852.9999256134 136 135 131
75.2236768603325 403.0701816082 2851.0000705719 138 137 133
82.9937681555748 403.065174818039 2851.0000705719 134 133 129
90.7953754067421 403.201043605804 2851.99999809265 136 135 131
98.6021161079407 403.336375951767 2852.9999256134 143 142 138
106.264814734459 402.905851602554 2849.99990463257 139 138 134
114.070825278759 403.040260076523 2851.0000705719 134 133 129
121.839113533497 403.032839298248 2851.0000705719 135 134 130
129.743352532387 403.449028730392 2854.00009155273 134 135 130
137.470737099648 403.299301862717 2852.9999256134 134 136 133
145.446717739105 403.855860233307 2857.00011253357 131 133 130
153.336718678474 404.129236936569 2858.99996757507 142 144 141
161.462485790253 404.967546463013 2865.00000953674 140 142 139
169.443115592003 405.381262302399 2868.00003051758 147 149 146
177.501305937767 405.935883522034 2871.99997901917 149 151 148
185.645177960396 406.631350517273 2877.00009346008 135 137 134
194.084629416466 407.891631126404 2885.99991798401 171 173 170
202.362507581711 408.7273478508 2891.99995994568 155 157 154
210.672363638878 409.562647342682 2898.00000190735 154 156 153
218.637019395828 409.690797328949 2898.9999294281 159 161 158
227.231547236443 410.94908118248 2907.99999237061 174 176 171
235.712558031082 411.924183368683 2914.99996185303 163 165 162
244.815871119499 413.887858390808 2928.99990081787 176 178 175
-197.432413697243 412.947952747345 2979.00009155273 193 195 192
-188.747808337212 411.71208024025 2970.00002861023 179 181 178
-180.233180522919 410.753011703491 2963.00005912781 167 169 166
-172.395184636116 411.318361759186 2967.00000762939 161 161 159
-164.534792304039 411.8832051754 2970.99995613098 150 151 146
-156.652018427849 412.447601556778 2974.99990463257 149 150 145
-148.746892809868 413.011580705643 2979.00009155273 128 129 124
-141.291528940201 414.961576461792 2993.00003051758 121 122 117
-83.7477222084999 412.792026996613 2976.99999809265 182 185 178
-75.4303783178329 411.687701940537 2969.00010108948 20 23 16
-66.9975951313972 409.612208604813 2953.9999961853 29 32 25
-58.54656919837 406.842827796936 2934.00001525879 25 28 21
-50.290510058403 404.766261577606 2918.99991035461 170 171 165
-42.1740487217903 403.243869543076 2907.99999237061 142 143 137
-34.1998413205147 402.691572904587 2904.00004386902 144 145 140
-26.2473132461309 402.13879942894 2900.00009536743 136 137 132
-18.3291453868151 401.862859725952 2898.00000190735 145 146 141
-10.4074198752642 401.031732559204 2891.99995994568 119 120 115
-2.51836818642914 400.200098752975 2885.99991798401 158 159 154
5.33241918310523 398.952007293701 2877.00009346008 145 146 141
13.1478551775217 398.119419813156 2871.00005149841 164 165 160
20.9670588374138 397.97967672348 2869.99988555908 161 162 157
28.7606716156006 397.562146186829 2867.00010299683 118 119 114
36.5505740046501 397.282719612122 2865.00000953674 133 134 129
44.2829951643944 396.586835384369 2859.99989509583 132 133 128
52.0061925053597 396.02917432785 2855.99994659424 132 133 128
59.7492642700672 395.748317241669 2854.00009155273 130 131 126
67.5048828125 395.605683326721 2852.9999256134 129 130 125
75.2811804413795 395.601212978363 2852.9999256134 133 134 129
83.057202398777 395.596295595169 2852.9999256134 131 132 127
90.8965989947319 395.868211984634 2855.00001907349 134 135 130
98.677434027195 395.862251520157 2855.00001907349 140 141 136
106.346040964127 395.439952611923 2851.99999809265 135 136 131
114.117957651615 395.433068275452 2851.99999809265 131 132 127
121.889464557171 395.425766706467 2851.99999809265 133 134 129
129.751443862915 395.695298910141 2854.00009155273 134 135 130
137.479290366173 395.54837346077 2852.9999256134 131 133 128
145.608484745026 396.510094404221 2859.99989509583 129 131 126
153.614401817322 397.055447101593 2864.00008201599 142 144 139
161.697909235954 397.738933563232 2868.99995803833 138 140 135
169.630840420723 398.006021976471 2871.00005149841 143 145 140
177.69767343998 398.549914360046 2875 150 152 147
185.91471016407 399.370551109314 2881.00004196167 131 133 128
194.43279504776 400.745123624802 2891.00003242493 173 175 170
202.724784612656 401.56477689743 2897.0000743866 152 154 149
211.048722267151 402.383923530579 2903.00011634827 148 150 145
219.027429819107 402.509480714798 2904.00004386902 149 151 146
227.479755878448 403.466314077377 2911.00001335144 152 154 149
235.888540744781 404.283970594406 2917.00005531311 165 167 162
244.663491845131 405.65550327301 2927.00004577637 164 166 161
-197.70947098732 405.397951602936 2983.00004005432 189 191 188
-189.013466238976 404.186457395554 2973.99997711182 177 179 176
-180.365771055222 402.974396944046 2964.99991416931 167 169 166
-172.638103365898 403.800487518311 2970.99995613098 158 158 156
-164.655610918999 404.082596302032 2973.00004959106 145 146 141
-156.819581985474 404.771894216537 2977.9999256134 142 143 138
-148.75602722168 404.917120933533 2979.00009155273 133 134 129
-141.347408294678 406.964838504791 2993.99995803833 111 112 107
-75.7653564214706 405.38677573204 2982.00011253357 26 29 22
-67.2739371657372 403.216034173965 2966.00008010864 24 27 20
-58.669950813055 399.685353040695 2940.00005722046 27 30 23
-50.1730293035507 395.882099866867 2911.99994087219 138 139 133
-42.0896522700787 394.525468349457 2901.99995040894 145 146 140
-34.1313034296036 393.983989953995 2898.00000190735 132 133 128
-26.2308437377214 393.985897302628 2898.00000190735 152 153 148
-18.317636102438 393.71532201767 2895.99990844727 129 130 125
-10.3972712531686 392.764568328857 2888.99993896484 124 125 120
-2.51590716652572 391.94929599762 2882.99989700317 155 156 151
5.33275166526437 391.133517026901 2877.00009346008 139 140 135
13.1669947877526 390.861034393311 2875 167 168 163
20.9902841597795 390.588045120239 2872.99990653992 121 122 117
28.7825260311365 390.042722225189 2868.99995803833 129 130 125
36.5783683955669 389.768779277802 2867.00010299683 135 136 131
44.3786531686783 389.630287885666 2865.9999370575 128 129 124
52.1186850965023 389.083564281464 2861.99998855591 130 131 126
59.8995350301266 388.944119215012 2861.00006103516 130 131 126
67.6747038960457 388.804227113724 2859.99989509583 130 131 126
75.4441767930985 388.663917779922 2858.99996757507 128 129 124
83.237037062645 388.659060001373 2858.99996757507 130 131 126
91.0295769572258 388.653695583344 2858.99996757507 138 139 134
98.8563597202301 388.783782720566 2859.99989509583 136 137 132
106.539063155651 388.369739055634 2857.00011253357 127 128 123
114.285051822662 388.226985931396 2855.99994659424 132 133 128
122.025184333324 388.083845376968 2855.00001907349 128 129 124
129.85035777092 388.212114572525 2855.99994659424 130 131 126
137.680485844612 388.339847326279 2857.00011253357 130 132 127
145.871996879578 389.418661594391 2865.00000953674 130 132 127
153.891995549202 389.953255653381 2868.99995803833 137 139 134
161.933213472366 390.487283468246 2872.99990653992 135 137 132
169.818431138992 390.613228082657 2874.00007247925 142 144 139
177.955701947212 391.282290220261 2878.99994850159 149 151 146
186.248645186424 392.222672700882 2885.99991798401 132 134 129
194.579064846039 393.162548542023 2892.99988746643 158 160 155
202.876955270767 393.966019153595 2898.9999294281 159 161 156
210.915982723236 394.225478172302 2901.00002288818 149 151 146
218.889698386192 394.348561763763 2901.99995040894 133 135 130
227.180749177933 395.014762878418 2907.00006484985 155 157 152
235.821694135666 396.223962306976 2915.99988937378 166 168 163
244.17644739151 396.889179944992 2921.0000038147 159 161 156
252.989172935486 398.233264684677 2930.99999427795 24 26 21
-197.721242904663 397.292137145996 2983.00004005432 191 193 190
-189.02476131916 396.104961633682 2973.99997711182 183 185 182
-180.498242378235 395.183533430099 2967.00000762939 169 171 168
-172.706574201584 395.8600461483 2971.99988365173 151 151 149
-164.776265621185 396.269649267197 2974.99990463257 145 146 141
-156.93436563015 396.945297718048 2980.00001907349 143 144 139
-148.764982819557 396.821260452271 2979.00009155273 134 135 130
-141.30873978138 398.694813251495 2993.00003051758 112 113 108
-75.8462101221085 397.681444883347 2984.99989509583 27 30 23
-67.4368366599083 396.08708024025 2973.00004959106 29 32 25
-58.2344904541969 388.763308525085 2917.99998283386 24 27 20
-49.8659498989582 385.569095611572 2894.00005340576 21 22 16
-41.976198554039 385.571897029877 2894.00005340576 58 59 54
-34.0980626642704 385.707408189774 2894.99998092651 171 172 167
-26.2143481522799 385.842442512512 2895.99990844727 168 169 164
-18.2997845113277 385.444134473801 2892.99988746643 140 141 136
-10.3907119482756 384.645640850067 2887.00008392334 144 145 140
-2.51518911682069 383.979856967926 2881.99996948242 147 148 143
5.3367861546576 383.580058813095 2878.99994850159 177 178 173
13.1815429776907 383.446246385574 2878.00002098084 112 113 108
21.0061836987734 383.045494556427 2875 119 120 115
28.8143884390593 382.644295692444 2871.99997901917 134 135 130
36.618884652853 382.375806570053 2869.99988555908 131 132 127
44.4588027894497 382.50657916069 2871.00005149841 128 129 124
52.2493682801723 382.237195968628 2868.99995803833 128 129 124
60.0288361310959 381.967335939407 2867.00010299683 130 131 126
67.844495177269 381.963461637497 2867.00010299683 131 132 127
75.659915804863 381.959140300751 2867.00010299683 129 130 125
83.4750458598137 381.954312324524 2867.00010299683 132 133 128
91.2898629903793 381.949007511139 2867.00010299683 146 147 142
99.1043597459793 381.943255662918 2867.00010299683 126 127 122
106.918476521969 381.937056779861 2867.00010299683 126 127 122
114.572130143642 381.39745593071 2862.99991607666 130 131 126
122.289054095745 381.123930215836 2861.00006103516 134 135 130
130.085542798042 381.116330623627 2861.00006103516 132 133 128
137.977957725525 381.374686956406 2862.99991607666 127 129 124
146.08445763588 382.165431976318 2868.99995803833 128 130 125
153.95487844944 382.28964805603 2869.99988555908 134 136 131
161.942943930626 382.67982006073 2872.99990653992 132 134 129
169.946774840355 383.069545030594 2875.99992752075 138 140 135
178.028181195259 383.592009544373 2880.00011444092 134 136 131
186.324298381805 384.5134973526 2887.00008392334 125 127 122
194.45613026619 385.035008192062 2891.00003242493 144 146 141
202.539086341858 385.422855615616 2894.00005340576 147 149 144
210.419505834579 385.410696268082 2894.00005340576 134 136 131
218.525499105453 385.797619819641 2897.0000743866 139 141 136
227.194130420685 387.116312980652 2907.00006484985 95 98 91
236.159056425095 388.833910226822 2920.00007629395 37 39 34
246.364280581474 392.415165901184 2947.00002670288 20 22 17
255.248248577118 393.732160329819 2957.00001716614 15 17 12
-197.997987270355 389.706879854202 2986.99998855591 192 194 191
-189.226552844048 388.413518667221 2976.99999809265 184 186 183
-180.569738149643 387.250006198883 2967.99993515015 160 162 159
-172.60055243969 387.521326541901 2970.00002861023 156 156 154
-164.619848132133 387.792140245438 2971.99988365173 149 150 145
-156.733021140099 388.323545455933 2976.0000705719 147 148 143
-148.723900318146 388.593554496765 2977.9999256134 131 132 127
-141.222715377808 390.298396348953 2990.9999370575 117 118 113
-84.6634432673454 392.694383859634 3009.0000629425 14 17 10
-67.1006292104721 386.04748249054 2957.99994468689 33 36 29
-58.0184571444988 379.395216703415 2907.00006484985 32 35 28
-49.6966391801834 376.396685838699 2884.0000629425 15 16 10
-41.9352129101753 377.312988042831 2891.00003242493 24 25 20
-34.0530090034008 377.315312623978 2891.00003242493 58 59 54
-26.1616185307503 377.186566591263 2890.00010490417 129 130 125
-18.2502828538418 376.535326242447 2884.99999046326 139 140 135
-10.3697441518307 376.014143228531 2881.00004196167 137 138 133
-2.51359539106488 375.884026288986 2880.00011444092 183 184 179
5.34081598743796 376.014441251755 2881.00004196167 145 146 141
13.2006602361798 376.144379377365 2881.99996948242 110 111 106
21.0293754935265 375.621289014816 2878.00002098084 129 130 125
28.8462303578854 375.22828578949 2875 129 130 125
36.6338603198528 374.704271554947 2871.00005149841 130 131 126
44.5079430937767 375.093370676041 2874.00007247925 130 131 126
52.3435808718205 375.090479850769 2874.00007247925 128 129 124
60.1790249347687 375.087112188339 2874.00007247925 129 130 125
67.9432451725006 374.691754579544 2871.00005149841 129 130 125
75.7172405719757 374.426424503326 2868.99995803833 128 129 124
83.5091769695282 374.291151762009 2868.00003051758 135 136 131
91.3908556103706 374.54691529274 2869.99988555908 147 148 143
99.2485731840134 374.671816825867 2871.00005149841 125 126 121
107.185937464237 375.057190656662 2874.00007247925 129 130 125
114.819101989269 374.398082494736 2868.99995803833 126 127 122
122.595563530922 374.260544776917 2868.00003051758 134 135 130
130.366131663322 374.122589826584 2867.00010299683 130 131 126
138.371750712395 374.636650085449 2871.00005149841 126 128 123
146.398663520813 375.150203704834 2875 128 130 125
154.178619384766 375.010848045349 2874.00007247925 132 134 129
162.00889647007 375.001549720764 2874.00007247925 131 133 128
169.897720217705 375.122249126434 2875 136 138 133
177.915006875992 375.503569841385 2878.00002098084 148 150 145
186.141610145569 376.275777816772 2884.0000629425 118 120 115
194.198459386826 376.656115055084 2887.00008392334 130 132 127
202.410936355591 377.296894788742 2891.99995994568 151 153 148
210.213631391525 377.154499292374 2891.00003242493 122 124 119
218.387320637703 377.663910388947 2894.99998092651 134 136 131
226.972818374634 378.825187683105 2904.00004386902 17 20 13
236.819759011269 381.942570209503 2927.99997329712 11 13 8
248.468577861786 387.668192386627 2971.99988365173 27 29 24
255.9534907341 386.7407143116 2964.99991416931 21 23 18
-198.473453521729 382.481813430786 2993.99995803833 196 198 195
-189.428210258484 380.704432725906 2980.00001907349 183 185 182
-180.70188164711 379.437536001205 2970.00002861023 169 171 168
-172.552466392517 379.319906234741 2969.00010108948 158 158 156
-164.574056863785 379.585206508636 2970.99995613098 146 147 142
-156.689465045929 380.105525255203 2974.99990463257 144 145 140
-148.882418870926 380.881011486053 2980.99994659424 142 143 138
-84.9498361349106 385.79124212265 3019.00005340576 8 11 4
-76.0839730501175 382.601261138916 2993.99995803833 20 23 16
-49.9063767492771 370.088785886765 2895.99990844727 35 36 30
-42.1843118965626 371.625036001205 2907.99999237061 11 13 8
-34.07858684659 369.710355997086 2892.99988746643 30 32 27
-26.1360146105289 368.945360183716 2887.00008392334 27 29 24
-18.2197373360395 368.052124977112 2880.00011444092 105 107 102
-10.3667601943016 368.052959442139 2880.00011444092 174 176 171
-2.51374486833811 368.05334687233 2880.00011444092 104 106 101
5.34113403409719 368.181049823761 2881.00004196167 100 102 97
13.1968650966883 368.180483579636 2881.00004196167 130 132 127
21.0306234657764 367.796063423157 2878.00002098084 131 133 128
28.8680139929056 367.666870355606 2877.00009346008 135 137 132
36.6870798170567 367.409318685532 2875 136 138 133
44.54156011343 367.534726858139 2875.99992752075 127 129 124
52.3831099271774 367.531836032867 2875.99992752075 128 130 125
60.2244660258293 367.528527975082 2875.99992752075 127 129 124
68.0182725191116 367.269217967987 2874.00007247925 124 126 121
75.8009031414986 367.009371519089 2871.99997901917 125 127 122
83.6014747619629 366.876929998398 2871.00005149841 139 141 136
91.396264731884 366.743981838226 2869.99988555908 121 123 118
99.2198586463928 366.738438606262 2869.99988555908 122 124 119
107.117652893066 366.987973451614 2871.99997901917 127 129 124
114.82585221529 366.598129272461 2868.99995803833 127 129 124
122.60277569294 366.463452577591 2868.00003051758 128 130 125
130.373775959015 366.328328847885 2867.00010299683 126 128 123
138.331636786461 366.703808307648 2869.99988555908 124 127 120
146.20353281498 366.823345422745 2871.00005149841 125 128 121
153.972998261452 366.686850786209 2869.99988555908 124 127 120
161.849230527878 366.805523633957 2871.00005149841 124 127 120
169.848501682281 367.179274559021 2874.00007247925 130 133 126
177.801683545113 367.424756288528 2875.99992752075 131 134 127
185.829639434814 367.797553539276 2878.99994850159 93 96 89
193.873301148415 368.16993355751 2881.99996948242 114 117 110
