ply
format ascii 1.0
comment KinectMotionCapture
element vertex 751
property float x
property float y
property float z
property uchar red
property uchar green
property uchar blue
end_header
-577.524244785309 521.841466426849 2479.00009155273 228 226 229
-571.940183639526 522.921144962311 2483.99996757507 231 229 232
-566.10095500946 523.790597915649 2487.99991607666 230 228 229
-560.464024543762 524.870634078979 2493.00003051758 231 230 228
-554.799318313599 525.950789451599 2497.99990653992 230 229 227
-549.10671710968 527.031183242798 2503.00002098084 216 216 214
-879.001975059509 551.424562931061 2657.99999237061 246 248 247
-866.53733253479 548.121213912964 2641.99995994568 199 200 202
-853.834986686707 544.610917568207 2625 215 216 218
-841.547966003418 541.308462619781 2608.99996757507 216 217 221
-830.947458744049 539.043784141541 2598.00004959106 218 219 223
-821.358501911163 537.402033805847 2589.99991416931 203 204 208
-812.127888202667 535.96830368042 2582.99994468689 194 195 199
-802.312135696411 534.119963645935 2573.99988174438 207 208 212
-791.618585586548 531.649470329285 2562.00003623962 253 254 255
-782.828092575073 530.424475669861 2555.99999427795 223 224 228
-772.856056690216 528.369665145874 2546.0000038147 174 175 179
-762.637615203857 526.107728481293 2535.00008583069 209 210 214
-751.286506652832 523.015797138214 2519.99998092651 220 221 225
-740.607619285584 520.33919095993 2506.99996948242 217 218 222
-731.755554676056 518.908143043518 2500 207 209 208
-723.811447620392 518.100082874298 2496.00005149841 204 206 205
-716.463565826416 517.707586288452 2493.99995803833 202 204 203
-708.841919898987 517.107725143433 2490.9999370575 200 202 201
-700.672686100006 516.093015670776 2486.00006103516 197 198 200
-693.646907806396 515.90895652771 2484.99989509583 195 196 198
-685.520887374878 514.894843101501 2480.00001907349 201 202 204
-678.242743015289 514.503657817841 2477.9999256134 204 205 207
-670.433282852173 513.697564601898 2473.99997711182 208 209 213
-663.450121879578 513.514578342438 2473.00004959106 211 212 216
-655.940890312195 512.916564941406 2470.00002861023 213 214 218
-649.236142635345 512.941658496857 2470.00002861023 215 214 219
-642.010807991028 512.551665306091 2467.99993515015 218 217 222
-635.310709476471 512.5772356987 2467.99993515015 236 235 241
-628.35556268692 512.395322322845 2467.00000762939 250 251 255
-621.909320354462 512.628972530365 2467.99993515015 207 208 212
-614.709436893463 512.239754199982 2466.00008010864 217 218 222
-607.766389846802 512.058317661285 2464.99991416931 233 234 238
-600.828289985657 511.877000331879 2463.99998664856 220 219 224
-594.377398490906 512.111306190491 2464.99991416931 221 220 225
-587.920486927032 512.345790863037 2466.00008010864 221 220 225
-581.928908824921 512.995958328247 2469.00010108948 222 221 226
-576.153516769409 513.854026794434 2473.00004959106 226 225 230
-570.816159248352 515.127897262573 2479.00009155273 227 226 231
-565.218031406403 516.194045543671 2483.99996757507 228 228 230
-559.816956520081 517.468333244324 2490.00000953674 227 227 229
-554.382622241974 518.742799758911 2496.00005149841 226 226 228
-549.792528152466 520.84869146347 2506.00004196167 224 224 226
-544.063985347748 521.915555000305 2510.99991798401 218 219 221
-879.017889499664 544.192135334015 2657.99999237061 193 194 196
-866.553783416748 540.932655334473 2641.99995994568 207 208 210
-853.526651859283 537.264049053192 2624.00007247925 209 210 212
-841.242969036102 534.005403518677 2608.00004005432 200 201 205
-830.965459346771 531.975626945496 2598.00004959106 195 196 200
-821.377038955688 530.355870723724 2589.99991416931 190 191 195
-811.203718185425 528.32704782486 2579.99992370605 210 211 215
-801.396548748016 526.503384113312 2571.00009918213 252 253 255
-791.638553142548 524.680137634277 2562.00003623962 203 204 208
-782.848417758942 523.471593856812 2555.99999427795 168 169 173
-772.573232650757 521.239399909973 2545.00007629395 205 206 210
-762.057065963745 518.802642822266 2532.99999237061 231 232 236
-751.904189586639 516.57098531723 2522.0000743866 210 211 215
-741.515636444092 514.134705066681 2509.99999046326 210 211 213
-732.070326805115 512.31324672699 2500.99992752075 205 207 206
-724.123954772949 511.516213417053 2496.99997901917 202 204 203
-716.773688793182 511.129200458527 2494.99988555908 200 202 201
-709.149658679962 510.53774356842 2492.00010299683 198 200 199
-700.977921485901 509.536683559418 2486.99998855591 195 196 198
-693.391561508179 508.94570350647 2483.99996757507 193 194 196
-684.992015361786 507.740318775177 2477.9999256134 198 199 201
-677.71965265274 507.35467672348 2476.0000705719 201 202 204
-670.186936855316 506.764471530914 2473.00004959106 206 207 211
-663.743138313293 506.994068622589 2473.99997711182 210 211 215
-656.23152256012 506.404280662537 2470.99995613098 212 213 217
-649.26141500473 506.224513053894 2470.00002861023 219 218 223
-641.776144504547 505.635023117065 2467.00000762939 222 221 226
-634.821534156799 505.455732345581 2466.00008010864 240 239 244
-627.871990203857 505.276501178741 2464.99991416931 248 247 252
-621.431469917297 505.507469177246 2466.00008010864 204 203 208
-614.735722541809 505.533695220947 2466.00008010864 238 237 242
-607.792735099792 505.354940891266 2464.99991416931 229 228 233
-600.854814052582 505.176365375519 2463.99998664856 222 221 226
-594.403982162476 505.407929420471 2464.99991416931 222 221 226
-587.947189807892 505.639731884003 2466.00008010864 221 220 225
-581.720054149628 506.076633930206 2467.99993515015 225 224 229
-575.714528560638 506.718814373016 2470.99995613098 225 224 229
-569.922208786011 507.566154003143 2474.99990463257 226 225 230
-564.107596874237 508.413672447205 2479.00009155273 226 225 230
-558.945119380951 509.876668453217 2486.00006103516 226 225 230
-553.743779659271 511.339783668518 2493.00003051758 225 224 229
-549.600780010223 513.828694820404 2505.00011444092 223 224 228
-543.441653251648 514.471709728241 2507.99989700317 216 217 221
-876.057624816895 535.141408443451 2648.9999294281 185 186 188
-864.602565765381 532.531678676605 2635.99991798401 189 190 192
-854.194462299347 530.528604984283 2625.99992752075 193 194 196
-842.550933361053 527.717769145966 2611.99998855591 191 192 194
-832.902848720551 526.119589805603 2604.00009155273 184 185 187
-822.347223758698 523.915648460388 2592.99993515015 207 208 210
-812.794983386993 522.318422794342 2585.00003814697 230 231 233
-802.974760532379 520.519435405731 2575.99997520447 157 158 160
-792.894661426544 518.518805503845 2565.99998474121 153 154 156
-782.869040966034 516.518473625183 2555.99999427795 196 197 199
-771.379828453064 513.507962226868 2540.99988937378 233 234 236
-760.874927043915 511.104047298431 2529.00004386902 205 206 208
-751.031398773193 509.104490280151 2519.00005340576 210 211 213
-741.537511348724 507.307350635529 2509.99999046326 206 207 209
-732.385396957397 505.712568759918 2502.00009346008 200 202 201
-723.856568336487 504.522323608398 2496.00005149841 197 199 198
-716.509342193604 504.140853881836 2493.99995803833 194 196 195
-708.603739738464 503.355383872986 2490.00000953674 193 195 194
-700.719654560089 502.57021188736 2486.00006103516 190 191 193
-692.857205867767 501.785337924957 2482.00011253357 190 191 193
-684.463202953339 500.596225261688 2476.0000705719 192 193 195
-676.922917366028 500.013947486877 2473.00004959106 195 196 198
-669.669389724731 499.634057283401 2470.99995613098 203 204 206
-662.963151931763 499.658823013306 2470.99995613098 209 210 214
-655.725479125977 499.27943944931 2469.00010108948 213 214 218
-649.023950099945 499.304682016373 2469.00010108948 219 219 221
-641.801655292511 498.925626277924 2467.00000762939 231 231 233
-634.589791297913 498.546719551086 2464.99991416931 231 231 233
-627.643227577209 498.370319604874 2463.99998664856 197 197 199
-621.205508708954 498.598545789719 2464.99991416931 248 248 250
-614.014029502869 498.220175504684 2463.00005912781 240 240 242
-607.079386711121 498.044162988663 2461.99989318848 223 223 225
-600.39359331131 498.070567846298 2461.99989318848 225 225 227
-594.43062543869 498.704075813293 2464.99991416931 222 222 224
-587.735533714294 498.730778694153 2464.99991416931 221 221 223
-581.275582313538 498.959958553314 2466.00008010864 224 224 226
-574.809491634369 499.18919801712 2467.00000762939 224 224 226
-568.56769323349 499.620884656906 2469.00010108948 224 224 226
-562.996983528137 500.659704208374 2473.99997711182 223 223 225
-558.297872543335 502.508342266083 2483.00004005432 223 223 225
-553.326904773712 504.154801368713 2490.9999370575 223 223 225
-548.750698566437 506.206214427948 2500.99992752075 222 223 225
-542.819261550903 507.043421268463 2505.00011444092 214 215 217
-862.323522567749 523.964047431946 2628.99994850159 197 198 200
-853.236019611359 522.785484790802 2622.99990653992 202 203 205
-842.568933963776 520.610988140106 2611.99998855591 186 187 189
-831.961810588837 518.436789512634 2601.0000705719 202 203 205
-821.414768695831 516.262948513031 2589.99991416931 216 217 219
-811.556756496429 514.488339424133 2581.00008964539 149 150 152
-801.747798919678 512.71390914917 2572.00002670288 153 154 156
-790.751874446869 510.142505168915 2559.00001525879 202 203 205
-780.43931722641 507.970154285431 2548.00009727478 232 233 235
-769.579529762268 505.399346351624 2535.00008583069 198 199 201
-759.692847728729 503.426849842072 2525.00009536743 193 194 196
-750.158667564392 501.654028892517 2516.00003242493 205 206 208
-740.968763828278 500.080764293671 2507.99989700317 197 198 200
-732.407748699188 498.906672000885 2502.00009346008 198 200 199
-724.169254302979 497.932255268097 2496.99997901917 196 198 197
-716.245114803314 497.157484292984 2493.00003051758 193 195 194
-709.196329116821 496.981292963028 2492.00010299683 191 193 192
-701.588928699493 496.406525373459 2489.00008201599 188 190 189
-693.160176277161 495.233654975891 2483.00004005432 189 190 192
-685.040354728699 494.260489940643 2477.9999256134 192 193 195
-676.673531532288 493.088006973267 2471.99988365173 193 194 196
-669.694066047668 492.913037538528 2470.99995613098 202 203 205
-662.451505661011 492.538899183273 2469.00010108948 208 209 211
-655.219376087189 492.164939641953 2467.00000762939 212 213 215
-648.260653018951 491.990715265274 2466.00008010864 220 220 222
-640.526354312897 491.218000650406 2461.99989318848 236 236 238
-633.843243122101 491.243630647659 2461.99989318848 216 216 218
-627.159595489502 491.269379854202 2461.99989318848 193 193 195
-620.727598667145 491.494983434677 2463.00005912781 248 248 250
-613.292336463928 490.922421216965 2460.00003814697 232 232 234
-606.61256313324 490.948617458344 2460.00003814697 228 228 230
-599.932312965393 490.975022315979 2460.00003814697 227 227 229
-594.216108322144 491.799920797348 2463.99998664856 216 216 218
-587.523818016052 491.826564073563 2463.99998664856 222 222 224
-581.302404403687 492.252588272095 2466.00008010864 221 221 223
-574.836432933807 492.479056119919 2467.00000762939 222 222 224
-569.055259227753 493.304550647736 2470.99995613098 220 220 222
-562.796592712402 493.730932474136 2473.00004959106 217 217 219
-557.650566101074 495.155692100525 2480.00001907349 218 218 220
-552.465796470642 496.580630540848 2486.99998855591 219 219 221
-547.461628913879 498.205333948135 2494.99988555908 221 222 224
-541.763246059418 499.231278896332 2500 214 215 217
-862.996637821198 517.203569412231 2631.00004196167 191 192 194
-853.904485702515 516.04163646698 2625 171 172 174
-842.909634113312 513.700544834137 2612.99991607666 225 226 228
-831.660568714142 511.163353919983 2599.99990463257 164 165 167
-821.433901786804 509.216248989105 2589.99991416931 138 139 141
-813.148558139801 508.449256420136 2585.99996566772 142 143 145
-802.703082561493 506.306350231171 2575.00004768372 208 209 211
-790.772318840027 503.180623054504 2559.00001525879 233 234 236
-779.234886169434 500.251710414886 2543.99991035461 225 226 228
-769.600570201874 498.502969741821 2535.00008583069 183 184 186
-759.714305400848 496.557772159576 2525.00009536743 197 198 200
-749.882340431213 494.612872600555 2515.00010490417 195 196 198
-740.104556083679 492.668151855469 2505.00011444092 204 205 207
-731.844782829285 491.70708656311 2500 196 198 197
-723.901987075806 490.942984819412 2496.00005149841 194 196 195
-716.268181800842 490.375876426697 2493.00003051758 191 193 192
-708.650469779968 489.809066057205 2490.00000953674 190 192 191
-701.048851013184 489.242494106293 2486.99998855591 187 189 188
-693.18425655365 488.479495048523 2483.00004005432 188 189 191
-685.341000556946 487.716674804688 2479.00009155273 190 191 193
-676.971793174744 486.560583114624 2473.00004959106 192 193 195
-669.176816940308 485.79815030098 2469.00010108948 199 200 202
-661.939740180969 485.429376363754 2467.00000762939 204 205 207
-654.713273048401 485.06087064743 2464.99991416931 208 209 211
-647.760152816772 484.889298677444 2463.99998664856 222 222 224
-640.031576156616 484.127551317215 2460.00003814697 236 236 238
-633.096575737 483.956307172775 2459.00011062622 206 206 208
-626.166522502899 483.78524184227 2457.99994468689 215 215 217
-619.493424892426 483.811140060425 2457.99994468689 220 220 222
-612.570524215698 483.640402555466 2457.00001716614 233 233 235
-605.899155139923 483.666598796844 2457.00001716614 228 228 230
-599.714875221252 484.086632728577 2459.00011062622 218 218 220
-593.760371208191 484.703719615936 2461.99989318848 211 211 213
-587.073624134064 484.730333089828 2461.99989318848 225 225 227
-580.857753753662 485.150873661041 2463.99998664856 225 225 227
-574.630320072174 485.571503639221 2466.00008010864 221 221 223
-568.852007389069 486.386060714722 2470.00002861023 219 219 221
-563.051164150238 487.200736999512 2473.99997711182 216 216 218
-557.677745819092 488.409429788589 2480.00001907349 216 216 218
-552.270948886871 489.618360996246 2486.00006103516 216 216 218
-546.611368656158 490.630447864532 2490.9999370575 219 220 222
-542.007446289063 492.62747168541 2500.99992752075 216 217 219
-535.850405693054 493.245780467987 2503.99994850159 216 217 219
-863.998115062714 510.625958442688 2634.0000629425 179 180 182
-853.597044944763 508.705019950867 2624.00007247925 216 217 219
-842.282891273499 506.202876567841 2611.00006103516 157 158 160
-831.039667129517 503.701210021973 2598.00004959106 143 144 146
-821.136057376862 501.975417137146 2588.99998664856 152 153 155
-811.910510063171 500.637710094452 2582.00001716614 211 212 214
-801.476240158081 498.524874448776 2571.00009918213 234 235 237
-790.483891963959 496.024459600449 2558.00008773804 198 199 201
-780.787408351898 494.300037622452 2549.00002479553 185 186 188
-770.836234092712 492.381930351257 2539.00003433228 189 190 192
-760.036766529083 489.882320165634 2526.00002288818 187 188 190
-749.60595369339 487.576752901077 2513.99993896484 204 205 207
-739.831268787384 485.65936088562 2503.99994850159 192 194 193
-731.281757354736 484.518021345139 2497.99990653992 193 195 192
-723.924875259399 484.152793884277 2496.00005149841 191 193 190
-716.004133224487 483.399987220764 2492.00010299683 188 190 189
-708.674013614655 483.035355806351 2490.00000953674 187 189 188
-700.790822505951 482.282966375351 2486.00006103516 183 185 184
-692.929029464722 481.530845165253 2482.00011253357 184 186 185
-685.365259647369 480.972945690155 2479.00009155273 186 187 189
-677.817404270172 480.415284633636 2476.0000705719 188 189 191
-669.743478298187 479.46971654892 2470.99995613098 192 193 195
-662.232995033264 478.91241312027 2467.99993515015 195 196 198
-654.738426208496 478.355258703232 2464.99991416931 198 199 201
-647.259712219238 477.798253297806 2461.99989318848 204 204 206
-639.536619186401 477.047383785248 2457.99994468689 219 219 221
-632.349789142609 476.684749126434 2456.00008964539 199 199 201
-625.173330307007 476.322263479233 2453.9999961853 240 240 242
-618.259251117706 476.154029369354 2453.00006866455 205 205 207
-612.097978591919 476.568222045898 2454.99992370605 228 228 230
-606.17196559906 477.176815271378 2457.99994468689 200 200 202
-599.741280078888 477.397263050079 2459.00011062622 197 197 199
-593.304634094238 477.617889642715 2460.00003814697 214 214 216
-586.384952068329 477.450221776962 2459.00011062622 219 219 221
-580.177187919617 477.865159511566 2460.99996566772 222 222 224
-574.657142162323 478.862792253494 2466.00008010864 220 220 222
-569.109201431274 479.860633611679 2470.99995613098 219 219 221
-563.533425331116 480.858653783798 2476.0000705719 216 216 218
-557.704925537109 481.662541627884 2480.00001907349 215 215 217
-552.298188209534 482.855051755905 2486.00006103516 214 214 216
-546.638667583466 483.853399753571 2490.9999370575 213 214 216
-541.601419448853 485.434681177139 2499.00007247925 217 218 220
-536.305844783783 486.821830272675 2506.00004196167 203 204 206
-865.327715873718 504.222929477692 2638.00001144409 200 201 203
-853.940367698669 501.755952835083 2625 205 206 208
-842.301487922668 499.098300933838 2611.00006103516 162 164 163
-831.698358058929 497.014343738556 2599.99990463257 166 168 167
-821.472644805908 495.122015476227 2589.99991416931 208 210 209
-812.559306621552 493.994742631912 2584.00011062622 223 225 224
-802.119970321655 491.911947727203 2572.99995422363 210 212 211
-792.667746543884 490.403026342392 2565.00005722046 173 175 174
-781.421005725861 487.747192382813 2551.00011825562 179 181 180
-770.857572555542 485.473990440369 2539.00003433228 192 194 193
-759.456634521484 482.627421617508 2523.9999294281 195 197 196
-749.628007411957 480.737030506134 2513.99993896484 195 197 196
-739.558041095734 478.655695915222 2503.00002098084 195 197 196
-730.718910694122 477.339506149292 2496.00005149841 189 191 188
-723.367750644684 476.97976231575 2493.99995803833 187 189 186
-716.314613819122 476.811587810516 2493.00003051758 186 188 185
-708.982050418854 476.452380418777 2490.9999370575 184 186 183
-699.968874454498 474.945873022079 2483.00004005432 184 186 185
-692.673861980438 474.587172269821 2480.99994659424 183 185 184
-685.389578342438 474.228769540787 2479.00009155273 186 188 187
-678.115725517273 473.870605230331 2476.99999809265 184 186 185
-670.039296150208 472.938597202301 2471.99988365173 189 190 192
-662.526309490204 472.38951921463 2469.00010108948 189 190 192
-655.029237270355 471.840560436249 2466.00008010864 186 187 189
-647.284924983978 471.100300550461 2461.99989318848 206 206 206
-640.082478523254 470.743000507355 2460.00003814697 205 205 205
-632.890403270721 470.385819673538 2457.99994468689 204 204 204
-625.963389873505 470.220148563385 2457.00001716614 196 196 196
-618.537187576294 469.671815633774 2453.9999961853 223 223 223
-612.622797489166 470.271974802017 2457.00001716614 222 222 222
-606.444835662842 470.680952072144 2459.00011062622 191 191 191
-599.767625331879 470.70723772049 2459.00011062622 204 204 204
-593.089878559113 470.73358297348 2459.00011062622 221 221 221
-586.411476135254 470.760077238083 2459.00011062622 221 221 221
-580.203831195831 471.169531345367 2460.99996566772 221 221 221
-573.984861373901 471.579134464264 2463.00005912781 221 221 221
-567.754089832306 471.988767385483 2464.99991416931 219 219 219
-562.194764614105 472.973018884659 2470.00002861023 215 215 215
-556.832373142242 474.148899316788 2476.0000705719 214 214 214
-552.325308322906 476.090967655182 2486.00006103516 213 213 213
-546.885371208191 477.267235517502 2492.00010299683 210 212 211
-542.27888584137 479.209691286087 2502.00009346008 209 211 210
-536.975264549255 480.577737092972 2509.0000629425 201 203 202
-530.576229095459 480.988144874573 2510.99991798401 213 215 214
-863.049268722534 495.725303888321 2631.00004196167 175 176 178
-852.33199596405 493.670642375946 2619.99988555908 177 178 180
-841.029763221741 491.239666938782 2607.00011253357 188 190 189
-831.717491149902 489.939540624619 2599.99990463257 195 197 196
-822.126567363739 488.451421260834 2592.00000762939 197 199 198
-811.950445175171 486.586809158325 2582.00001716614 177 179 178
-802.452147006989 485.099375247955 2573.99988174438 166 168 167
-792.997479438782 483.612298965454 2565.99998474121 179 181 180
-783.280074596405 481.937110424042 2556.99992179871 182 184 183
-772.396981716156 479.5081615448 2543.99991035461 190 192 191
-760.08015871048 476.137012243271 2526.00002288818 191 193 192
-749.351739883423 473.70845079422 2513.00001144409 189 191 190
-739.284932613373 471.657067537308 2502.00009346008 188 190 189
-730.155885219574 470.171391963959 2493.99995803833 182 184 181
-723.100602626801 470.005661249161 2493.00003051758 181 183 180
-715.76315164566 469.65166926384 2490.9999370575 183 185 182
-708.721041679382 469.48653459549 2490.00000953674 182 184 181
-700.274527072906 468.378841876984 2483.99996757507 181 183 180
-692.697942256927 467.837065458298 2480.99994659424 182 184 183
-685.137331485748 467.295527458191 2477.9999256134 180 182 181
-677.866518497467 466.942727565765 2476.0000705719 177 179 178
-670.335054397583 466.40157699585 2473.00004959106 176 178 177
-662.819564342499 465.860635042191 2470.00002861023 176 178 177
-655.054271221161 465.131163597107 2466.00008010864 175 177 176
-647.047340869904 464.213222265244 2460.99996566772 191 191 191
-640.368163585663 464.238554239273 2460.99996566772 186 186 186
-633.17346572876 463.886797428131 2459.00011062622 177 177 177
-625.989079475403 463.535130023956 2457.00001716614 170 170 170
-618.563055992126 462.994933128357 2453.9999961853 222 222 222
-611.900746822357 463.020861148834 2453.9999961853 187 187 187
-605.731070041656 463.424235582352 2456.00008964539 196 196 196
-599.306106567383 463.639110326767 2457.00001716614 207 207 207
-592.875063419342 463.854134082794 2457.99994468689 216 216 216
-586.437940597534 464.069247245789 2459.00011062622 219 219 219
-580.230474472046 464.473187923431 2460.99996566772 219 219 219
-574.011504650116 464.877277612686 2463.00005912781 218 218 218
-567.320227622986 464.903920888901 2463.00005912781 218 218 218
-561.538755893707 465.685665607452 2467.00000762939 216 216 216
-556.184589862823 466.845095157623 2473.00004959106 215 215 215
-552.130162715912 469.137370586395 2484.99989509583 213 213 213
-546.912431716919 470.485985279083 2492.00010299683 208 210 209
-542.089402675629 472.212314605713 2500.99992752075 209 211 210
-536.360442638397 473.18360209465 2506.00004196167 206 208 207
-529.96951341629 473.588407039642 2507.99989700317 191 193 192
-865.363299846649 489.865332841873 2638.00001144409 182 183 185
-854.952991008759 488.026559352875 2628.00002098084 192 193 195
-841.371119022369 484.331130981445 2608.00004005432 185 187 186
-830.777049064636 482.307314872742 2596.99988365173 187 189 188
-821.194767951965 480.841070413589 2588.99998664856 175 177 176
-812.59948015213 479.932397603989 2584.00011062622 161 163 162
-802.784502506256 478.281110525131 2575.00004768372 164 166 165
-793.636500835419 477.001637220383 2568.00007820129 182 184 183
-782.382309436798 474.422156810761 2553.99990081787 184 186 185
-772.418618202209 472.58597612381 2543.99991035461 188 190 189
-761.305570602417 470.006972551346 2529.99997138977 188 190 189
-751.163065433502 467.985391616821 2519.00005340576 185 187 186
-739.898204803467 465.220838785172 2503.99994850159 184 186 185
-730.471312999725 463.571190834045 2494.99988555908 180 182 179
-722.54341840744 462.85080909729 2490.9999370575 179 181 178
-715.786397457123 462.873846292496 2490.9999370575 182 184 181
-708.744525909424 462.711423635483 2490.00000953674 180 182 179
-700.862228870392 461.991786956787 2486.00006103516 178 180 177
-692.442774772644 460.900664329529 2480.00001907349 179 181 180
-685.438096523285 460.738956928253 2479.00009155273 177 179 178
-677.617251873016 460.019886493683 2474.99990463257 173 175 174
-670.35973072052 459.672719240189 2473.00004959106 170 172 171
-662.576138973236 458.954006433487 2469.00010108948 170 172 171
-655.345022678375 458.607196807861 2467.00000762939 170 172 171
-647.861361503601 458.074599504471 2463.99998664856 186 186 186
-640.914022922516 457.914024591446 2463.00005912781 193 193 193
-633.714020252228 457.567632198334 2460.99996566772 176 176 176
-626.269578933716 457.035452127457 2457.99994468689 169 169 169
-618.840873241425 456.503301858902 2454.99992370605 205 205 205
-612.176060676575 456.529200077057 2454.99992370605 184 184 184
-605.510532855988 456.555187702179 2454.99992370605 198 198 198
-599.088370800018 456.767231225967 2456.00008964539 205 205 205
-592.660129070282 456.979423761368 2457.00001716614 210 210 210
-586.702823638916 457.563757896423 2460.00003814697 214 214 214
-580.728530883789 458.148181438446 2463.00005912781 214 214 214
-574.038088321686 458.174735307693 2463.00005912781 215 215 215
-566.886186599731 457.829207181931 2460.99996566772 216 216 216
-560.654938220978 458.227872848511 2463.00005912781 216 216 216
-555.98646402359 459.928929805756 2471.99988365173 215 215 215
-551.490545272827 461.816430091858 2482.00011253357 213 213 213
-546.500444412231 463.33184838295 2490.00000953674 209 211 210
-541.682958602905 465.033620595932 2499.00007247925 206 208 207
-536.387622356415 466.363310813904 2506.00004196167 203 205 204
-530.842006206512 467.507004737854 2512.00008392334 188 190 189
-866.037607192993 483.052223920822 2640.00010490417 173 174 176
-855.947554111481 481.423795223236 2631.00004196167 180 181 183
-842.680513858795 477.965861558914 2611.99998855591 181 183 182
-831.116318702698 475.423127412796 2598.00004959106 172 174 173
-820.897281169891 473.612725734711 2588.00005912781 158 160 159
-812.619686126709 472.900778055191 2584.00011062622 168 170 169
-803.428530693054 471.640050411224 2576.99990272522 178 180 179
-794.584631919861 470.562726259232 2571.00009918213 184 186 185
-783.629059791565 468.204587697983 2558.00008773804 182 184 183
-773.958504199982 466.578722000122 2549.00002479553 180 182 181
-762.83210515976 464.037865400314 2535.00008583069 180 182 181
-752.378106117249 461.863219738007 2523.00000190735 177 179 178
-740.807056427002 458.956450223923 2506.99996948242 175 177 174
-731.372237205505 457.331329584122 2497.99990653992 172 174 169
-722.856462001801 456.255674362183 2492.00010299683 173 175 172
-715.80970287323 456.095665693283 2490.9999370575 177 179 176
-708.483457565308 455.75287938118 2489.00008201599 174 176 173
-701.1678814888 455.410271883011 2486.99998855591 171 173 170
-693.025290966034 454.518616199493 2482.00011253357 170 172 169
-685.738921165466 454.176425933838 2480.00001907349 169 171 170
-677.641689777374 453.285068273544 2474.99990463257 167 169 168
-670.655488967896 453.126460313797 2473.99997711182 158 160 159
-662.869334220886 452.418625354767 2470.00002861023 157 159 158
-655.6356549263 452.077180147171 2467.99993515015 160 162 161
-648.412525653839 451.735973358154 2466.00008010864 173 173 173
-640.939295291901 451.211631298065 2463.00005912781 177 177 177
-633.739531040192 450.870633125305 2460.99996566772 146 146 146
-625.785648822784 449.980109930038 2456.00008964539 182 182 182
-618.866682052612 449.822545051575 2454.99992370605 184 184 184
-611.952543258667 449.665039777756 2453.9999961853 190 190 190
-605.536460876465 449.87416267395 2454.99992370605 189 189 189
-599.358439445496 450.266689062119 2457.00001716614 196 196 196
-592.686355113983 450.292825698853 2457.00001716614 204 204 204
-586.729168891907 450.868904590607 2460.00003814697 206 206 206
-580.519080162048 451.261729001999 2461.99989318848 207 207 207
-574.064552783966 451.471477746964 2463.00005912781 208 208 208
-567.373335361481 451.497912406921 2463.00005912781 209 209 209
-561.136722564697 451.890975236893 2464.99991416931 211 211 211
-556.013107299805 453.200876712799 2471.99988365173 211 211 211
-551.072895526886 454.694241285324 2480.00001907349 211 211 211
-545.649409294128 455.82115650177 2486.00006103516 211 213 212
-541.059613227844 457.681596279144 2496.00005149841 204 206 205
-536.414623260498 459.542214870453 2506.00004196167 198 200 199
-531.925678253174 461.586385965347 2516.99995994568 199 201 200
-867.36786365509 476.588428020477 2644.00005340576 173 174 176
-856.291532516479 474.443852901459 2631.99996948242 185 186 188
-843.022167682648 471.037745475769 2612.99991607666 175 177 176
-830.815851688385 468.172669410706 2596.99988365173 163 165 164
-820.599913597107 466.38959646225 2586.99989318848 160 162 161
-811.067521572113 464.967370033264 2578.9999961853 176 178 177
-801.89037322998 463.725745677948 2572.00002670288 186 188 187
-792.751312255859 462.484449148178 2565.00005722046 181 183 182
-782.118499279022 460.341900587082 2552.99997329712 179 181 180
-772.158205509186 458.560198545456 2542.99998283386 175 177 176
-761.650323867798 456.418067216873 2530.99989891052 175 177 176
-751.803815364838 454.636752605438 2520.99990844727 173 175 174
-740.534007549286 451.953947544098 2506.00004196167 171 173 170
-731.102168560028 450.353264808655 2496.99997901917 164 166 161
-723.169386386871 449.654668569565 2493.00003051758 166 168 163
-716.694951057434 449.858099222183 2493.99995803833 172 174 171
-709.076285362244 449.340313673019 2490.9999370575 170 172 169
-701.755523681641 449.003219604492 2489.00008201599 167 169 166
-693.328440189362 447.944700717926 2483.00004005432 165 167 164
-686.039626598358 447.60799407959 2480.99994659424 164 166 165
-677.93995141983 446.730226278305 2476.0000705719 164 166 165
-670.951187610626 446.574240922928 2474.99990463257 151 153 152
-663.430869579315 446.057677268982 2471.99988365173 149 151 150
-656.723260879517 446.082532405853 2471.99988365173 152 154 153
-649.7523188591 445.927172899246 2470.99995613098 176 176 176
-642.265796661377 445.410996675491 2467.99993515015 178 178 178
-634.795069694519 444.894939661026 2464.99991416931 144 144 144
-626.320779323578 443.657010793686 2457.99994468689 207 207 207
-619.648635387421 443.682581186295 2457.99994468689 184 184 184
-612.22767829895 443.166732788086 2454.99992370605 186 186 186
-605.809092521667 443.373084068298 2456.00008964539 185 185 185
-599.384486675262 443.5795545578 2457.00001716614 197 197 197
-592.471301555634 443.42502951622 2456.00008964539 204 204 204
-586.278319358826 443.812161684036 2457.99994468689 200 200 200
-580.073893070221 444.199502468109 2460.00003814697 202 202 202
-574.090957641602 444.767534732819 2463.00005912781 205 205 205
-567.399799823761 444.793820381165 2463.00005912781 206 206 206
-560.93555688858 445.000767707825 2463.99998664856 208 208 208
-555.589854717255 446.110874414444 2470.00002861023 209 209 209
-550.210654735565 447.221040725708 2476.0000705719 209 209 209
-544.578611850739 448.150753974915 2480.99994659424 208 210 209
-540.002465248108 449.983775615692 2490.9999370575 207 209 208
-536.013305187225 452.358931303024 2503.99994850159 202 204 203
-532.375335693359 455.095678567886 2519.00005340576 200 202 201
-526.151418685913 455.664664506912 2522.0000743866 185 187 186
-864.433705806732 467.79477596283 2634.99999046326 178 182 183
-853.707492351532 465.860396623611 2624.00007247925 175 179 180
-841.428101062775 463.038682937622 2608.00004005432 166 168 165
-830.835282802582 461.104929447174 2596.99988365173 166 168 165
-820.302546024323 459.171503782272 2585.99996566772 186 188 185
-810.458719730377 457.593530416489 2576.99990272522 181 183 180
-800.663948059082 456.015884876251 2568.00007820129 176 178 175
-791.227042675018 454.616069793701 2559.99994277954 172 172 170
-781.52722120285 453.038990497589 2551.00011825562 172 172 170
-771.572530269623 451.284408569336 2540.99988937378 172 172 170
-762.575030326843 450.062990188599 2533.99991989136 172 172 170
-752.12424993515 447.953701019287 2522.0000743866 167 167 165
-741.738438606262 445.844560861588 2509.99999046326 164 164 162
-731.710493564606 443.913191556931 2499.00007247925 156 156 154
-723.772466182709 443.225353956223 2494.99988555908 155 155 153
-716.430842876434 442.893177270889 2493.00003051758 163 163 161
-708.815097808838 442.383497953415 2490.00000953674 163 163 161
-701.215326786041 441.874116659164 2486.99998855591 159 159 157
-693.631649017334 441.364884376526 2483.99996757507 165 165 163
-686.34033203125 441.033601760864 2482.00011253357 148 148 146
-678.511798381805 440.347015857697 2477.9999256134 163 163 161
-671.246945858002 440.016120672226 2476.0000705719 146 146 144
-664.529204368591 440.040767192841 2476.0000705719 153 153 151
-658.076643943787 440.24333357811 2476.99999809265 148 148 146
-651.092350482941 440.09068608284 2476.0000705719 160 160 158
-643.071830272675 439.227133989334 2470.99995613098 177 177 177
-635.335564613342 438.541442155838 2467.00000762939 140 140 140
-626.601040363312 437.144666910172 2459.00011062622 175 175 175
-619.926393032074 437.170177698135 2459.00011062622 182 182 182
-612.253367900848 436.484545469284 2454.99992370605 181 181 181
-605.834901332855 436.688095331192 2456.00008964539 183 183 183
-599.166452884674 436.713874340057 2456.00008964539 199 199 199
-592.738509178162 436.917573213577 2457.00001716614 204 204 204
-586.304426193237 437.121391296387 2457.99994468689 193 193 193
-579.628348350525 437.147408723831 2457.99994468689 196 196 196
-573.184728622437 437.351405620575 2459.00011062622 203 203 203
-566.734969615936 437.555432319641 2460.00003814697 203 203 203
-560.27889251709 437.75948882103 2460.99996566772 206 206 206
-554.716527462006 438.675194978714 2466.00008010864 207 207 207
-549.125969409943 439.590930938721 2470.99995613098 209 209 209
-543.727099895477 440.684765577316 2476.99999809265 206 208 207
-539.161920547485 442.490369081497 2486.99998855591 210 212 211
-535.611927509308 445.185869932175 2502.00009346008 207 209 208
-531.979501247406 447.881549596787 2516.99995994568 199 201 200
-526.386916637421 448.976010084152 2523.00000190735 184 186 185
-864.124059677124 460.448265075684 2634.0000629425 179 183 184
-852.750241756439 458.194315433502 2621.00005149841 176 180 179
-841.124594211578 455.765783786774 2607.00011253357 171 173 170
-830.215096473694 453.687220811844 2595.00002861023 173 175 172
-820.005416870117 451.958656311035 2585.00003814697 182 184 181
-809.535562992096 450.055450201035 2573.99988174438 175 177 174
-800.372660160065 448.852002620697 2566.99991226196 169 171 168
-789.702653884888 446.774512529373 2555.0000667572 171 171 169
-780.323028564453 445.396721363068 2546.99993133545 170 170 168
-770.986914634705 444.019138813019 2539.00003433228 169 169 167
-762.295961380005 442.991644144058 2532.99999237061 168 168 166
-751.550018787384 440.74010848999 2519.99998092651 163 163 161
-741.760909557343 439.013361930847 2509.99999046326 161 161 159
-732.025861740112 437.286764383316 2500 149 149 147
-724.085569381714 436.609864234924 2496.00005149841 147 147 145
-716.16667509079 435.933172702789 2492.00010299683 159 159 157
-708.838582038879 435.606628656387 2490.00000953674 160 160 158
-701.520979404449 435.280203819275 2487.99991607666 154 154 152
-693.934738636017 434.779137372971 2484.99989509583 150 150 148
-687.194049358368 434.80309844017 2484.99989509583 144 144 142
-679.357647895813 434.127449989319 2480.99994659424 153 153 151
-672.084808349609 433.801919221878 2479.00009155273 171 171 169
-664.822340011597 433.476507663727 2476.99999809265 135 135 133
-658.63299369812 433.851301670074 2479.00009155273 144 144 142
-652.169227600098 434.051275253296 2480.00001907349 152 152 150
-644.398272037506 433.376342058182 2476.0000705719 161 161 161
-636.391043663025 432.526439428329 2470.99995613098 129 129 129
-627.13611125946 430.801242589951 2460.99996566772 155 155 155
-620.203971862793 430.651605129242 2460.00003814697 178 178 178
-612.278938293457 429.801732301712 2454.99992370605 172 172 172
-605.860590934753 430.002421140671 2456.00008964539 201 201 203
-598.704278469086 429.677903652191 2453.9999961853 198 198 200
-592.281758785248 429.878711700439 2454.99992370605 185 185 187
-585.853278636932 430.079698562622 2456.00008964539 194 194 196
-579.41859960556 430.280685424805 2457.00001716614 196 196 198
-573.210835456848 430.656909942627 2459.00011062622 198 196 199
-566.761076450348 430.858075618744 2460.00003814697 201 199 202
-560.305058956146 431.059271097183 2460.99996566772 201 201 203
-554.292738437653 431.610822677612 2463.99998664856 202 202 204
-548.930048942566 432.688027620316 2470.00002861023 206 206 208
-543.53392124176 433.765321969986 2476.0000705719 208 208 210
-538.75470161438 435.368329286575 2484.99989509583 205 205 207
-534.782111644745 437.67237663269 2497.99990653992 202 202 204
-531.372010707855 440.502226352692 2513.99993896484 204 205 207
-525.996208190918 441.755354404449 2520.99990844727 187 188 190
-866.110861301422 454.311609268188 2640.00010490417 181 185 186
-855.046451091766 452.26514339447 2628.00002098084 178 182 181
-841.46648645401 448.842257261276 2608.00004005432 174 176 173
-829.594671726227 446.280032396317 2592.99993515015 175 177 174
-819.073677062988 444.406628608704 2582.00001716614 170 172 169
-810.813903808594 443.738251924515 2578.00006866455 165 167 164
-801.952362060547 442.725986242294 2572.00002670288 162 164 161
-790.959894657135 440.509051084518 2559.00001525879 169 169 167
-781.87620639801 439.325243234634 2552.00004577637 167 167 165
-771.91948890686 437.625199556351 2542.00005531311 163 163 161
-762.618899345398 436.269611120224 2533.99991989136 162 162 160
-751.870393753052 434.053421020508 2520.99990844727 158 158 156
-741.487741470337 432.00957775116 2509.0000629425 156 156 154
-732.926964759827 430.998921394348 2503.00002098084 147 147 145
-725.26878118515 430.505037307739 2500 143 143 141
-717.626750469208 430.011451244354 2496.99997901917 154 154 152
-709.715962409973 429.345816373825 2493.00003051758 155 155 153
-702.10862159729 428.852677345276 2490.00000953674 147 147 145
-695.075690746307 428.704172372818 2489.00008201599 151 151 149
-688.047766685486 428.555846214294 2487.99991607666 146 146 144
-680.751144886017 428.235560655594 2486.00006103516 139 139 137
-673.1938123703 427.743136882782 2483.00004005432 157 157 155
-665.920555591583 427.423089742661 2480.99994659424 140 140 138
-659.454882144928 427.620083093643 2482.00011253357 137 137 135
-652.720272541046 427.645027637482 2482.00011253357 144 144 142
-645.204305648804 427.153140306473 2479.00009155273 156 156 154
-636.931419372559 426.144450902939 2473.00004959106 123 123 123
-627.925872802734 424.618661403656 2463.99998664856 160 160 160
-620.229303836823 423.954665660858 2460.00003814697 171 171 171
-612.553894519806 423.29066991806 2456.00008964539 175 175 175
-606.379568576813 423.660814762115 2457.99994468689 198 198 200
-598.97381067276 423.16922545433 2454.99992370605 182 182 184
-592.307507991791 423.194855451584 2454.99992370605 177 177 179
-585.640549659729 423.22051525116 2454.99992370605 192 192 194
-579.444468021393 423.591077327728 2457.00001716614 194 194 196
-573.003649711609 423.789292573929 2457.99994468689 197 195 198
-566.556632518768 423.987537622452 2459.00011062622 199 197 200
-560.558676719666 424.530684947968 2461.99989318848 199 199 201
-554.768741130829 425.246447324753 2466.00008010864 201 201 203
-549.622893333435 426.479607820511 2473.00004959106 204 204 206
-543.999075889587 427.367955446243 2477.9999256134 207 207 209
-539.214611053467 428.946316242218 2486.99998855591 205 205 207
-535.022556781769 431.042313575745 2499.00007247925 202 202 204
-531.609892845154 433.828473091125 2515.00010490417 203 204 206
-525.81399679184 434.717297554016 2519.99998092651 189 190 192
-869.082093238831 448.65009188652 2648.9999294281 183 187 188
-857.668340206146 446.466982364655 2635.99991798401 180 184 183
-843.421638011932 442.759901285172 2614.00008201599 175 177 174
-830.574154853821 439.73046541214 2595.99995613098 169 171 168
-820.996940135956 438.395112752914 2588.00005912781 162 164 161
-812.406837940216 437.56827712059 2582.99994468689 168 170 167
-802.284836769104 435.894787311554 2572.99995422363 170 172 169
-790.05366563797 433.035582304001 2555.99999427795 165 165 163
-780.978441238403 431.870728731155 2549.00002479553 162 162 160
-771.333813667297 430.367261171341 2539.99996185303 155 155 153
-762.038886547089 429.033488035202 2532.00006484985 154 154 152
-751.295924186707 426.852583885193 2519.00005340576 151 151 149
-742.101073265076 425.519108772278 2510.99991798401 149 149 147
-734.413623809814 425.033122301102 2507.99989700317 142 142 140
-727.032363414764 424.716949462891 2506.00004196167 140 140 138
-719.086945056915 424.062043428421 2502.00009346008 144 144 142
-711.162805557251 423.407256603241 2497.99990653992 148 148 146
-703.260064125061 422.752678394318 2493.99995803833 160 160 158
-696.216583251953 422.606915235519 2493.00003051758 144 144 142
-689.178049564362 422.461241483688 2492.00010299683 137 137 135
-682.418406009674 422.4853515625 2492.00010299683 136 136 134
-674.844980239868 422.001093626022 2489.00008201599 126 126 124
-667.018830776215 421.347320079803 2484.99989509583 170 170 168
-659.745335578918 421.032816171646 2483.00004005432 139 139 137
-653.27113866806 421.227157115936 2483.99996757507 128 128 126
-645.749866962433 420.743376016617 2480.99994659424 144 144 142
-638.244330883026 420.259654521942 2477.9999256134 111 111 109
-628.970503807068 418.588817119598 2467.99993515015 162 162 160
-621.011018753052 417.765945196152 2463.00005912781 169 169 169
-613.826215267181 417.45188832283 2460.99996566772 190 190 190
-607.145071029663 417.477250099182 2460.99996566772 160 160 160
-600.219309329987 417.33306646347 2460.00003814697 160 160 160
-592.815697193146 416.849613189697 2457.00001716614 183 183 185
-585.904777050018 416.70548915863 2456.00008964539 186 186 188
-578.998446464539 416.561335325241 2454.99992370605 185 185 187
-573.029398918152 417.096078395844 2457.99994468689 196 194 197
-567.04318523407 417.630791664124 2460.99996566772 199 197 200
-561.267614364624 418.335378170013 2464.99991416931 199 199 201
-555.469572544098 419.040083885193 2469.00010108948 200 200 202
-550.093352794647 420.084267854691 2474.99990463257 202 202 204
-544.244647026062 420.789152383804 2479.00009155273 207 207 209
-539.457499980927 422.342866659164 2487.99991607666 206 206 208
-534.834563732147 424.06639456749 2497.99990653992 201 201 203
-531.213402748108 426.639050245285 2513.00001144409 200 201 203
-525.84034204483 427.85370349884 2519.99998092651 194 195 197
-877.958953380585 445.9388256073 2676.00011825562 187 191 192
-858.338117599487 439.625173807144 2638.00001144409 181 185 184
-843.763589859009 435.811281204224 2615.00000953674 176 178 175
-829.953908920288 432.330846786499 2594.00010108948 172 174 171
-821.0169672966 431.350588798523 2588.00005912781 171 173 170
-812.112748622894 430.370718240738 2582.00001716614 175 177 174
-802.305638790131 428.891092538834 2572.99995422363 172 174 171
-790.692865848541 426.411509513855 2558.00008773804 160 160 158
-782.225251197815 425.599098205566 2552.99997329712 157 157 155
-772.570073604584 424.120128154755 2543.99991035461 152 152 150
-762.662708759308 422.47462272644 2533.99991989136 150 150 148
-752.809286117554 420.829266309738 2523.9999294281 148 148 146
-744.487881660461 420.017808675766 2519.00005340576 146 146 144
-736.193239688873 419.206529855728 2513.99993896484 142 142 140
-728.505849838257 418.728977441788 2510.99991798401 139 139 137
-720.547020435333 418.084859848022 2506.99996948242 135 135 133
-712.609648704529 417.440980672836 2503.00002098084 136 136 134
-704.129576683044 416.463673114777 2496.99997901917 150 150 148
-696.798741817474 416.1536693573 2494.99988555908 157 157 155
-689.755141735077 416.010707616806 2493.99995803833 134 134 132
-683.53796005249 416.368335485458 2496.00005149841 132 132 130
-675.682723522186 415.725320577621 2492.00010299683 134 134 132
-668.653905391693 415.582895278931 2490.9999370575 143 143 141
-661.098539829254 415.106892585754 2487.99991607666 156 156 154
-654.347956180573 415.131568908691 2487.99991607666 127 127 125
-646.815955638886 414.655864238739 2484.99989509583 135 135 133
-638.269364833832 413.512706756592 2477.9999256134 110 110 108
-628.995537757874 411.868900060654 2467.99993515015 160 160 158
-620.783925056458 410.892605781555 2461.99989318848 177 177 177
-614.350318908691 411.084592342377 2463.00005912781 175 175 175
-607.417106628418 410.942912101746 2461.99989318848 158 158 158
-600.488662719727 410.801291465759 2460.99996566772 170 170 170
-593.082368373871 410.325795412064 2457.99994468689 186 186 188
-586.168766021729 410.184264183044 2457.00001716614 182 182 184
-579.259872436523 410.042762756348 2456.00008964539 186 186 188
-572.821795940399 410.235106945038 2457.00001716614 196 194 197
-566.838443279266 410.761594772339 2460.00003814697 200 198 201
-561.521112918854 411.789089441299 2466.00008010864 200 200 202
-555.495321750641 412.315636873245 2469.00010108948 200 200 202
-549.6746301651 413.009345531464 2473.00004959106 201 201 203
-544.270515441895 414.037138223648 2479.00009155273 206 206 208
-539.266526699066 415.399014949799 2486.99998855591 205 205 207
-534.432351589203 416.928231716156 2496.00005149841 200 200 202
-530.393898487091 419.125616550446 2509.0000629425 198 199 201
-525.657713413239 420.822143554688 2519.00005340576 197 198 200
-520.248413085938 422.017574310303 2526.00002288818 196 197 199
-859.007954597473 432.772070169449 2640.00010490417 183 187 186
-844.428241252899 429.020822048187 2617.00010299683 172 174 171
-832.213163375854 426.417261362076 2601.0000705719 164 166 163
-821.988701820374 424.797624349594 2591.00008010864 155 157 154
-811.818599700928 423.178225755692 2581.00008964539 150 152 149
-801.390767097473 421.395063400269 2569.9999332428 147 149 146
-791.950225830078 420.104116201401 2562.00003623962 148 148 146
-783.778548240662 419.469267129898 2558.00008773804 147 147 145
-774.717450141907 418.342769145966 2551.00011825562 145 145 143
-764.18936252594 416.396468877792 2539.00003433228 144 144 142
-754.620969295502 414.94232416153 2529.99997138977 142 142 140
-746.579051017761 414.308458566666 2526.00002288818 140 140 138
-737.679958343506 413.18267583847 2519.00005340576 138 138 136
-729.979336261749 412.713289260864 2516.00003242493 136 136 134
-721.719682216644 411.915957927704 2510.99991798401 137 137 135
-713.77170085907 411.282867193222 2506.99996948242 134 134 132
-705.845057964325 410.650014877319 2503.00002098084 134 134 132
-698.218941688538 410.181313753128 2500 122 122 120
-690.608739852905 409.712791442871 2496.99997901917 159 159 157
-683.835923671722 409.736722707748 2496.99997901917 149 149 147
-676.249206066132 409.268528223038 2493.99995803833 134 134 132
-669.483542442322 409.292846918106 2493.99995803833 124 124 122
-662.186026573181 408.989042043686 2492.00010299683 122 122 120
-655.424773693085 409.013658761978 2492.00010299683 125 125 123
-647.881984710693 408.54600071907 2489.00008201599 122 122 120
-639.58215713501 407.585889101028 2483.00004005432 117 117 115
-630.294859409332 405.969262123108 2473.00004959106 147 147 145
-621.817588806152 404.844999313354 2466.00008010864 151 151 149
-614.375412464142 404.377430677414 2463.00005912781 158 158 158
-607.689023017883 404.402434825897 2463.00005912781 154 154 154
-600.757896900177 404.263377189636 2461.99989318848 168 168 168
-594.072759151459 404.288500547409 2461.99989318848 169 169 169
-586.909830570221 403.985351324081 2460.00003814697 183 183 183
-579.285204410553 403.353691101074 2456.00008964539 183 183 183
-572.847187519073 403.543174266815 2457.00001716614 194 192 195
-566.863894462585 404.061317443848 2460.00003814697 199 197 200
-561.318874359131 404.907941818237 2464.99991416931 201 201 203
-554.845869541168 405.097633600235 2466.00008010864 199 199 201
-548.811137676239 405.615925788879 2469.00010108948 198 198 200
-543.417870998383 406.627088785172 2474.99990463257 202 202 204
-537.991166114807 407.638400793076 2480.99994659424 202 202 204
