ply
format ascii 1.0
comment KinectMotionCapture
element vertex 798
property float x
property float y
property float z
property uchar red
property uchar green
property uchar blue
end_header
361.758232116699 330.89217543602 2971.99988365173 106 92 83
371.079862117767 331.988096237183 2982.00011253357 65 57 54
-140.481933951378 323.363751173019 2973.99997711182 192 197 190
-131.706207990646 321.739763021469 2959.00011062622 178 171 161
-123.262479901314 320.767641067505 2950.00004768372 101 91 81
-114.906392991543 319.90385055542 2941.99991226196 81 71 59
-106.702521443367 319.365859031677 2937.00003623962 112 100 86
-98.5590815544128 318.936139345169 2933.00008773804 120 107 91
-90.560607612133 318.941026926041 2933.00008773804 115 104 86
-82.6462209224701 319.271683692932 2936.00010871887 129 118 100
-74.9439522624016 320.580661296844 2947.99995422363 76 69 53
-66.8582171201706 320.366829633713 2946.00009918213 25 19 5
-58.7032586336136 319.717586040497 2940.00005722046 21 19 6
-49.2878369987011 310.911744832993 2858.99996757507 20 20 8
-42.6505133509636 319.6140229702 2938.99989128113 19 21 8
-34.3981832265854 317.441046237946 2918.99991035461 21 24 13
-26.2457653880119 315.158843994141 2898.00000190735 22 25 16
-18.2584449648857 313.746243715286 2884.99999046326 23 26 17
-10.3347701951861 312.115728855133 2869.99988555908 22 25 16
-2.51821242272854 313.6385679245 2884.0000629425 16 19 10
5.35247847437859 313.85600566864 2885.99991798401 13 14 6
13.1057510152459 311.027973890305 2859.99989509583 25 26 20
20.8560228347778 310.265839099884 2852.9999256134 34 35 29
28.4977592527866 308.742105960846 2838.99998664856 13 14 8
36.0374748706818 307.000398635864 2822.99995422363 10 11 5
43.9235828816891 308.303326368332 2835.00003814697 11 14 7
52.2758401930332 311.998307704926 2868.99995803833 11 14 7
60.3525042533875 313.300371170044 2881.00004196167 13 16 9
67.9261684417725 311.992108821869 2868.99995803833 18 21 14
75.2757042646408 310.031056404114 2851.0000705719 17 20 13
83.4589302539825 311.549335718155 2865.00000953674 20 23 16
91.6544869542122 312.849760055542 2877.00009346008 22 25 18
99.1542860865593 311.757475137711 2867.00010299683 15 18 11
106.30064457655 309.794872999191 2848.99997711182 21 24 17
113.508611917496 308.266937732697 2835.00003814697 22 25 18
121.623389422894 309.239566326141 2844.00010108948 21 24 17
130.059719085693 310.864120721817 2858.99996757507 16 19 12
138.529136776924 312.379509210587 2872.99990653992 13 15 10
145.800769329071 311.176270246506 2861.99998855591 11 13 8
152.582511305809 309.102922677994 2842.99993515015 11 14 7
160.6135815382 309.63858962059 2848.00004959106 12 15 8
169.203415513039 311.152338981628 2861.99998855591 15 18 11
177.374139428139 311.795890331268 2868.00003051758 11 12 6
186.739161610603 314.395874738693 2891.99995994568 19 20 14
195.561364293098 315.908193588257 2905.99989891052 19 20 12
203.338816761971 315.680801868439 2904.00004386902 24 25 17
210.086196660995 313.931226730347 2888.00001144409 22 23 15
218.934178352356 315.333634614944 2901.00002288818 19 20 12
228.008583188057 316.95294380188 2915.99988937378 22 23 15
236.192896962166 317.267507314682 2918.99991035461 23 26 17
241.047129034996 313.234269618988 2881.99996948242 12 17 10
248.289838433266 312.461405992508 2875 25 30 23
268.809288740158 318.196028470993 2927.99997329712 27 32 26
328.566879034042 322.00688123703 2963.99998664856 101 85 70
336.400091648102 321.773827075958 2961.99989318848 129 110 95
344.570189714432 321.866363286972 2963.00005912781 131 105 92
353.10161113739 322.284400463104 2967.00000762939 128 101 90
362.627476453781 323.571115732193 2979.00009155273 120 102 92
372.963964939117 325.50898194313 2996.99997901917 118 107 103
-141.055881977081 316.540837287903 2986.00006103516 107 110 103
-132.291525602341 315.063506364822 2971.99988365173 51 51 41
-123.644791543484 313.691794872284 2959.00011062622 99 83 70
-115.185625851154 312.637597322464 2948.99988174438 115 99 84
-106.816925108433 311.689049005508 2940.00005722046 127 108 93
-98.4968841075897 310.740053653717 2930.99999427795 127 108 91
-90.3490632772446 310.214698314667 2926.00011825562 129 111 91
-82.4252143502235 310.431033372879 2927.99997329712 130 111 94
-74.6172592043877 311.177134513855 2934.99994277954 121 108 91
-66.7254477739334 311.710834503174 2940.00005722046 57 45 29
-58.6463436484337 311.395913362503 2937.00003623962 19 13 0
-50.4627041518688 310.33843755722 2927.00004577637 23 19 7
-41.4046049118042 302.494764328003 2852.9999256134 24 26 15
-34.647423774004 311.721086502075 2940.00005722046 20 23 12
-26.1655952781439 306.315213441849 2888.99993896484 16 19 10
-18.2467177510262 305.680125951767 2882.99989700317 18 21 12
-10.3713106364012 305.36276102066 2880.00011444092 20 23 14
-2.53755156882107 308.119833469391 2905.99989891052 20 23 14
5.35275181755424 305.99918961525 2885.99991798401 13 14 6
13.1018375977874 303.135931491852 2858.99996757507 32 33 27
20.7328107208014 300.696462392807 2835.99996566772 32 33 27
28.6096390336752 302.179604768753 2849.99990463257 14 15 9
36.128681153059 300.057381391525 2829.99992370605 10 11 5
43.6314381659031 298.571020364761 2815.99998474121 8 11 4
52.0416162908077 302.809625864029 2855.99994659424 10 13 6
60.8164705336094 307.790011167526 2903.00011634827 12 15 8
75.7020115852356 303.966253995895 2867.00010299683 11 14 7
83.5214406251907 303.962230682373 2867.00010299683 14 17 10
91.4679914712906 304.381936788559 2871.00005149841 15 18 11
98.9518016576767 303.316980600357 2861.00006103516 15 18 11
106.156788766384 301.615566015244 2845.00002861023 15 18 11
113.834671676159 301.397979259491 2842.99993515015 18 21 14
121.886126697063 302.134186029434 2849.99990463257 22 25 18
130.020797252655 302.976012229919 2858.00004005432 22 24 19
138.102144002914 303.605377674103 2864.00008201599 17 19 14
146.877959370613 305.61238527298 2882.99989700317 12 14 9
153.556272387505 303.272843360901 2861.00006103516 18 21 14
162.313580513 305.06706237793 2878.00002098084 20 23 16
165.841817855835 297.321051359177 2805.0000667572 10 13 6
173.795729875565 297.842621803284 2809.99994277954 12 13 7
187.265068292618 307.373076677322 2900.00009536743 14 15 9
195.167288184166 307.363659143448 2900.00009536743 21 22 14
203.979089856148 308.731704950333 2913.00010681152 25 26 18
210.533037781715 306.707888841629 2894.00005340576 22 23 15
219.020426273346 307.545214891434 2901.99995040894 20 21 13
226.925060153008 307.534396648407 2901.99995040894 18 19 11
236.285388469696 309.430658817291 2920.00007629395 19 22 13
243.819087743759 308.889180421829 2914.99996185303 15 20 13
250.115603208542 306.863963603973 2895.99990844727 17 22 15
260.13857126236 309.394747018814 2920.00007629395 23 28 22
270.658522844315 312.348753213882 2947.99995422363 35 37 32
327.584624290466 312.991470098495 2954.99992370605 133 116 100
335.847973823547 313.187897205353 2957.00001716614 141 120 101
344.237387180328 313.489884138107 2960.00003814697 142 115 98
352.761000394821 313.897460699081 2963.99998664856 149 121 109
362.279027700424 315.151870250702 2976.0000705719 124 104 97
-133.010283112526 308.625251054764 2987.99991607666 213 209 198
-123.985193669796 306.462436914444 2967.00000762939 126 103 87
-115.230396389961 304.712355136871 2950.00004768372 133 107 92
-106.822229921818 303.684860467911 2940.00005722046 141 112 94
-98.4681695699692 302.656978368759 2930.0000667572 145 117 96
-90.2609154582024 301.938503980637 2923.00009727478 145 117 96
-82.2885632514954 301.942735910416 2923.00009727478 138 111 90
-74.4938626885414 302.669733762741 2930.0000667572 125 104 87
-66.5698945522308 302.983105182648 2933.00008773804 127 110 94
-58.5294552147388 302.77955532074 2930.99999427795 24 12 0
-50.3617748618126 301.749229431152 2921.0000038147 26 18 7
-42.5822623074055 303.094446659088 2934.00001525879 17 13 1
-34.236665815115 300.100535154343 2904.99997138977 18 21 10
-26.2303072959185 299.172282218933 2895.99990844727 18 21 12
-18.2602908462286 298.036992549896 2884.99999046326 16 19 10
-10.3610260412097 297.2112596035 2877.00009346008 13 16 7
-2.5149742141366 297.521501779556 2880.00011444092 11 14 5
5.37156779319048 299.174308776855 2895.99990844727 18 19 11
13.0383353680372 293.905317783356 2845.00002861023 25 26 20
20.8800658583641 295.040816068649 2855.99994659424 24 25 19
28.751615434885 295.866042375565 2864.00008201599 16 17 11
36.3730601966381 294.314831495285 2848.99997711182 13 14 8
44.3773716688156 295.862406492233 2864.00008201599 7 10 3
51.916666328907 294.310480356216 2848.99997711182 7 10 3
60.4633465409279 298.129886388779 2885.99991798401 9 12 5
68.8327997922897 300.296068191528 2907.00006484985 12 15 8
76.1810839176178 298.019856214523 2884.99999046326 12 15 8
85.6232047080994 303.594022989273 2938.99989128113 10 13 6
91.0264775156975 295.119285583496 2857.00011253357 11 14 7
98.0574190616608 292.842149734497 2835.00003814697 15 18 11
105.863519012928 293.043702840805 2836.99989318848 18 21 14
113.760240375996 293.451517820358 2841.00008010864 19 22 15
122.020453214645 294.685184955597 2852.9999256134 17 20 13
130.436673760414 296.125084161758 2867.00010299683 16 19 12
138.735815882683 297.151386737823 2877.00009346008 11 13 8
146.783292293549 297.557592391968 2881.00004196167 14 16 11
156.837955117226 301.784723997116 2921.99993133545 11 14 7
161.193490028381 295.167177915573 2858.00004005432 9 12 5
165.909051895142 289.788901805878 2805.99999427795 10 13 6
173.494949936867 289.677441120148 2805.0000667572 15 16 10
183.72243642807 293.799668550491 2845.00002861023 21 22 14
193.090379238129 296.268999576569 2868.99995803833 23 24 16
202.658444643021 298.841118812561 2894.00005340576 23 24 16
212.725758552551 301.928997039795 2924.00002479553 22 23 15
219.634786248207 300.473123788834 2910.00008583069 22 23 15
225.762948393822 298.087686300278 2887.00008392334 18 19 11
234.030842781067 298.592984676361 2891.99995994568 20 23 14
242.910623550415 299.8206615448 2904.00004386902 16 21 14
251.509428024292 300.634950399399 2911.99994087219 17 22 15
258.012682199478 298.971146345139 2895.99990844727 23 28 22
266.447812318802 299.578279256821 2901.99995040894 30 32 27
319.129526615143 304.554760456085 2950.99997520447 103 91 77
327.156275510788 304.540008306503 2950.99997520447 143 122 103
335.749804973602 305.040925741196 2956.00008964539 149 124 104
344.020485877991 305.231899023056 2957.99994468689 145 116 98
352.53894329071 305.628925561905 2961.99989318848 152 124 110
362.295418977737 307.057440280914 2976.0000705719 134 114 107
-132.927671074867 300.288558006287 2986.00006103516 204 197 187
-123.782247304916 297.881066799164 2961.99989318848 131 105 88
-115.040652453899 296.177089214325 2944.9999332428 137 110 93
-106.645710766315 295.176714658737 2934.99994277954 154 123 103
-98.3385071158409 294.276475906372 2926.00011825562 158 127 106
-90.1726558804512 293.677568435669 2920.00007629395 151 123 101
-82.1518003940582 293.480575084686 2917.99998283386 145 117 95
-74.3449255824089 294.087767601013 2924.00002479553 121 98 80
-66.4142519235611 294.292330741882 2926.00011825562 122 103 88
-58.3525784313679 293.89300942421 2921.99993133545 22 10 0
-50.1056015491486 292.286366224289 2905.99989891052 34 26 15
-42.236004024744 292.690932750702 2910.00008583069 15 17 6
-34.2147685587406 291.988700628281 2903.00011634827 17 20 9
-26.2134745717049 291.084915399551 2894.00005340576 18 21 12
-18.2358659803867 289.778411388397 2881.00004196167 16 19 10
-10.3399232029915 288.773268461227 2871.00005149841 15 18 9
-2.50898394733667 288.974732160568 2872.99990653992 17 20 11
5.3495722822845 290.081113576889 2884.0000629425 20 21 13
13.2085457444191 289.879471063614 2881.99996948242 19 20 14
20.998066291213 288.872808218002 2871.99997901917 19 20 14
28.7931766360998 288.469284772873 2868.00003051758 16 17 11
36.6557240486145 288.769453763962 2871.00005149841 14 15 9
44.5189960300922 288.968652486801 2872.99990653992 8 11 4
52.3018874228001 288.664579391479 2869.99988555908 8 11 4
60.4453347623348 290.170550346375 2884.99999046326 8 11 4
68.5993582010269 291.374415159225 2897.0000743866 12 15 8
76.8185630440712 292.577803134918 2908.99991989136 12 15 8
86.0935300588608 297.200411558151 2954.99992370605 7 10 3
94.249002635479 297.497779130936 2957.99994468689 10 13 6
97.8892222046852 284.619808197021 2829.99992370605 14 17 10
105.308905243874 283.810377120972 2822.00002670288 16 19 12
113.645620644093 285.414278507233 2838.00005912781 19 22 15
121.726952493191 286.213159561157 2845.99995613098 17 20 13
130.442962050438 288.319021463394 2867.00010299683 16 19 12
138.501390814781 288.815438747406 2871.99997901917 15 17 12
155.342534184456 291.013807058334 2894.00005340576 8 11 4
166.390016674995 282.954186201096 2813.99989128113 10 13 6
173.688799142838 282.342851161957 2808.00008773804 15 16 10
183.214485645294 285.250306129456 2836.99989318848 15 16 8
192.359194159508 287.352949380875 2858.00004005432 14 15 7
203.57845723629 292.270243167877 2907.00006484985 13 14 6
212.153747677803 293.165355920792 2915.99988937378 13 14 6
218.43746304512 290.943533182144 2894.00005340576 13 14 6
224.991515278816 289.224207401276 2877.00009346008 19 22 13
232.989728450775 289.414614439011 2878.99994850159 23 26 19
241.165310144424 289.805799722672 2882.99989700317 21 26 19
248.75719845295 289.492934942245 2880.00011444092 22 27 20
256.509989500046 289.380788803101 2878.99994850159 28 33 27
262.42008805275 287.258148193359 2858.00004005432 29 32 25
311.010360717773 296.439200639725 2950.00004768372 78 70 57
318.495035171509 295.922666788101 2944.9999332428 120 101 86
326.949238777161 296.310186386108 2948.99988174438 148 121 100
335.310488939285 296.596884727478 2951.99990272522 151 123 102
343.570649623871 296.782851219177 2953.9999961853 148 119 101
352.078557014465 297.169357538223 2957.99994468689 150 124 107
-132.755875587463 291.765928268433 2982.00011253357 182 174 163
-123.537346720695 289.227992296219 2956.00008964539 147 125 104
-114.811711013317 287.570148706436 2938.99989128113 147 122 100
-106.469094753265 286.694705486298 2930.0000667572 156 128 104
-98.3095541596413 286.210238933563 2924.99995231628 160 133 106
-90.2386978268623 285.92112660408 2921.99993133545 150 123 96
-82.1838527917862 285.631597042084 2918.99991035461 134 108 83
-74.2976143956184 285.928845405579 2921.99993133545 117 96 75
-66.3493201136589 286.029994487762 2923.00009727478 115 100 81
-58.3753325045109 286.032944917679 2923.00009727478 19 11 0
-50.3666326403618 285.839766263962 2921.0000038147 23 19 7
-42.2960743308067 285.156935453415 2914.00003433228 22 24 13
-34.4049856066704 285.648077726364 2918.99991035461 21 24 13
-26.3687148690224 284.866631031036 2911.00001335144 21 24 15
-18.3190256357193 283.204078674316 2894.00005340576 18 21 12
-10.33681537956 280.856102705002 2869.99988555908 18 21 12
-2.50997743569314 281.24788403511 2874.00007247925 20 23 14
5.33498730510473 281.443506479263 2875.99992752075 16 17 9
13.2366782054305 282.617390155792 2888.00001144409 13 14 8
21.0502501577139 281.735837459564 2878.99994850159 13 14 8
28.7644322961569 280.364692211151 2865.00000953674 15 16 10
36.5808643400669 280.363142490387 2865.00000953674 14 15 9
44.3196706473827 279.871910810471 2859.99989509583 12 15 8
52.3955002427101 281.337469816208 2875 12 15 8
60.4063086211681 282.117664813995 2882.99989700317 9 12 5
68.5552507638931 283.288925886154 2894.99998092651 12 15 8
76.6637697815895 284.06834602356 2903.00011634827 11 14 7
84.4951197504997 283.771008253098 2900.00009536743 6 9 2
92.3097804188728 283.473312854767 2897.0000743866 10 13 6
106.47077858448 279.158622026443 2852.9999256134 13 16 9
113.490797579288 277.294397354126 2834.00011062622 18 21 14
121.689938008785 278.365224599838 2845.00002861023 18 21 14
129.994109272957 279.533445835114 2857.00011253357 16 18 13
159.347370266914 276.375830173492 2825.00004768372 7 10 3
165.924727916718 274.509519338608 2805.99999427795 10 13 6
174.501031637192 275.969088077545 2821.00009918213 18 19 13
183.868870139122 278.504312038422 2846.99988365173 11 12 4
192.973881959915 280.452132225037 2867.00010299683 11 12 4
201.766982674599 281.81254863739 2881.00004196167 13 14 6
208.96215736866 280.922830104828 2871.99997901917 12 13 5
218.372017145157 282.967180013657 2892.99988746643 10 11 3
225.001856684685 281.392186880112 2877.00009346008 17 20 11
233.324125409126 281.968623399735 2882.99989700317 20 23 16
241.929203271866 282.838135957718 2891.99995994568 21 26 19
249.97778236866 283.022671937943 2894.00005340576 22 27 20
255.719721317291 280.66423535347 2869.99988555908 29 31 26
268.125027418137 285.542100667953 2920.00007629395 35 38 31
280.707001686096 290.321379899979 2969.00010108948 24 27 20
310.496985912323 287.922531366348 2944.9999332428 82 72 60
318.292856216431 287.713289260864 2943.00007820129 129 108 91
326.520144939423 287.894725799561 2944.9999332428 145 117 96
335.211604833603 288.466900587082 2950.99997520447 150 122 100
343.004077672958 288.256764411926 2948.99988174438 154 127 106
351.617723703384 288.730531930923 2953.9999961853 150 129 110
-132.806494832039 283.739566802979 2983.00004005432 148 140 129
-123.459450900555 280.986934900284 2953.9999961853 144 122 101
-114.817008376122 279.565513134003 2938.99989128113 142 120 97
-106.51034116745 278.809577226639 2930.99999427795 151 125 100
-98.3813405036926 278.43376994133 2927.00004577637 152 126 99
-90.2737677097321 278.05757522583 2923.00009727478 138 112 85
-82.2721347212791 277.966380119324 2921.99993133545 120 96 70
-74.3773505091667 278.255373239517 2924.99995231628 112 94 72
-66.465899348259 278.54397892952 2927.99997329712 112 99 80
-58.5577897727489 278.927356004715 2931.99992179871 15 9 0
-50.7138520479202 279.786080121994 2940.99998474121 16 14 1
-42.7480228245258 280.168771743774 2944.9999332428 20 20 8
-34.548033028841 278.838694095612 2930.99999427795 20 23 12
-26.2974742799997 276.176333427429 2903.00011634827 19 22 13
-18.1742832064629 273.133009672165 2871.00005149841 18 21 12
-10.3012779727578 272.087156772614 2859.99989509583 16 19 10
-2.49874009750783 272.182583808899 2861.00006103516 14 17 8
5.33709116280079 273.704707622528 2877.00009346008 14 15 7
13.2556278258562 275.131285190582 2891.99995994568 13 14 8
21.1828500032425 275.60618519783 2897.0000743866 14 15 9
28.856135904789 273.416936397552 2874.00007247925 16 17 11
44.5231907069683 273.318409919739 2872.99990653992 12 15 8
52.1974675357342 272.460013628006 2864.00008201599 12 15 8
60.3881701827049 274.16980266571 2881.99996948242 12 15 8
68.6294883489609 275.688946247101 2898.00000190735 11 14 7
76.7201408743858 276.351541280746 2904.99997138977 11 14 7
84.4699069857597 275.777071714401 2898.9999294281 13 16 9
92.0909941196442 274.916857481003 2890.00010490417 12 15 8
99.4550734758377 273.485600948334 2875 9 12 5
106.438361108303 271.293014287949 2851.99999809265 10 13 6
115.09795486927 273.380696773529 2874.00007247925 15 18 11
129.86359000206 271.46714925766 2854.00009155273 11 13 8
136.92270219326 270.034343004227 2838.99998664856 10 12 7
153.263300657272 271.542996168137 2855.00001907349 8 11 4
161.103308200836 271.63103222847 2855.99994659424 9 12 5
167.233243584633 268.960624933243 2828.00006866455 11 14 7
175.560593605042 269.903987646103 2838.00005912781 18 19 13
184.329316020012 271.417558193207 2854.00009155273 14 15 7
194.732710719109 275.11790394783 2892.99988746643 15 16 8
198.974609375 270.164132118225 2841.00008010864 20 21 13
207.370832562447 271.010935306549 2849.99990463257 19 20 12
216.570153832436 272.808223962784 2868.99995803833 17 18 10
223.369464278221 271.562337875366 2855.99994659424 16 19 10
232.201471924782 272.788375616074 2868.99995803833 17 20 13
242.776557803154 275.915533304214 2901.99995040894 17 22 15
250.334411859512 275.524437427521 2898.00000190735 18 23 16
257.067620754242 274.27738904953 2884.99999046326 23 26 19
263.637274503708 272.935092449188 2871.00005149841 22 23 17
280.341118574142 281.859278678894 2964.99991416931 33 34 28
289.676755666733 283.082723617554 2977.9999256134 8 8 0
305.372983217239 282.581806182861 2973.00004959106 231 227 216
310.299575328827 279.717236757278 2943.00007820129 96 84 70
317.873924970627 279.323637485504 2938.99989128113 138 110 96
326.201528310776 279.595047235489 2941.99991226196 138 105 86
334.657967090607 279.961228370667 2946.00009918213 140 109 88
342.553436756134 279.851913452148 2944.9999332428 155 130 108
351.275533437729 280.4074883461 2950.99997520447 153 136 116
-133.83649289608 277.739405632019 3006.00004196167 200 191 186
-124.091938138008 274.326503276825 2969.00010108948 143 121 100
-115.291006863117 272.66862988472 2950.99997520447 147 122 100
-106.733180582523 271.379947662354 2937.00003623962 147 119 97
-98.5202267765999 270.830154418945 2930.99999427795 139 109 85
-90.432271361351 270.557135343552 2927.99997329712 121 90 69
-82.501120865345 270.745813846588 2930.0000667572 103 75 53
-74.5587199926376 270.934104919434 2931.99992179871 101 80 61
-66.537007689476 270.844846963882 2930.99999427795 110 93 77
-58.5804246366024 271.032482385635 2933.00008773804 15 9 0
-50.8196204900742 272.328644990921 2947.00002670288 20 18 5
-42.9531894624233 273.439645767212 2959.00011062622 8 8 0
-34.561388194561 270.946323871613 2931.99992179871 17 20 9
-26.3801999390125 269.099473953247 2911.99994087219 16 19 10
-18.1497875601053 264.942020177841 2867.00010299683 19 22 13
-10.3161558508873 264.665424823761 2864.00008201599 13 16 7
-2.5320437271148 267.900079488754 2898.9999294281 10 13 4
5.37814758718014 267.90001988411 2898.9999294281 13 14 6
13.3387399837375 268.916130065918 2910.00008583069 14 15 9
21.2934967130423 269.100159406662 2911.99994087219 16 17 11
28.998015448451 266.881167888641 2888.00001144409 17 18 12
36.7502309381962 265.955626964569 2878.00002098084 16 17 11
42.8514517843723 255.511522293091 2765.00010490417 11 14 7
59.5527216792107 262.62241601944 2842.00000762939 12 15 8
68.9167827367783 268.903225660324 2910.00008583069 11 14 7
76.4330998063087 267.42148399353 2894.00005340576 11 14 7
83.9783549308777 266.309022903442 2881.99996948242 17 20 13
91.4896950125694 265.288710594177 2871.00005149841 13 16 9
99.9092906713486 266.855269670486 2888.00001144409 10 13 6
105.734042823315 261.768668889999 2832.99994468689 11 14 7
114.302128553391 263.704150915146 2854.00009155273 14 17 10
123.155437409878 266.008824110031 2878.99994850159 12 15 8
130.278944969177 264.524877071381 2862.99991607666 10 12 7
137.700527906418 263.779789209366 2855.00001907349 12 14 9
144.364535808563 261.740952730179 2832.99994468689 13 15 10
160.941243171692 263.575285673141 2852.9999256134 8 11 4
169.133067131042 264.214694499969 2859.99989509583 9 12 5
177.300542593002 264.761418104172 2865.9999370575 13 14 8
195.077896118164 267.701268196106 2898.00000190735 14 15 7
203.115731477737 267.877340316772 2900.00009536743 16 17 9
207.307159900665 263.157546520233 2848.99997711182 18 19 11
212.427720427513 259.9156498909 2813.99989128113 19 22 13
219.546750187874 259.259790182114 2806.99992179871 19 22 13
230.511888861656 263.036876916885 2848.00004959106 19 22 15
242.787092924118 268.013954162598 2901.99995040894 19 22 15
249.826937913895 267.079919576645 2891.99995994568 20 23 16
254.85098361969 264.113932847977 2859.99989509583 23 26 19
266.770869493485 268.258422613144 2904.99997138977 19 22 15
279.313027858734 272.771596908569 2953.9999961853 16 17 9
290.856450796127 276.083737611771 2990.00000953674 1 1 0
298.994839191437 276.071310043335 2990.00000953674 43 41 29
306.002259254456 275.04301071167 2979.00009155273 221 217 206
311.577945947647 272.814333438873 2954.99992370605 94 82 68
318.860739469528 272.154957056046 2947.99995422363 130 104 89
326.547861099243 271.864622831345 2944.9999332428 129 96 77
335.012704133987 272.220224142075 2948.99988174438 129 98 78
343.26559305191 272.390931844711 2950.99997520447 146 121 99
352.004289627075 272.930502891541 2957.00001716614 149 132 114
-134.376630187035 270.626544952393 3017.99988746643 128 119 114
-124.640725553036 267.403960227966 2982.00011253357 137 115 94
-115.608617663383 265.346676111221 2959.00011062622 139 114 94
-106.883242726326 263.737320899963 2940.99998474121 141 113 92
-98.6254066228867 263.114035129547 2934.00001525879 135 104 83
-90.5906930565834 263.02844285965 2933.00008773804 115 84 63
-82.7300176024437 263.480633497238 2937.99996376038 100 72 51
-74.7145935893059 263.48403096199 2937.99996376038 102 79 61
-66.6307583451271 263.21804523468 2934.99994277954 111 94 78
-58.5830137133598 263.041436672211 2933.00008773804 19 10 0
-50.6666600704193 263.492226600647 2937.99996376038 19 13 1
-42.9405681788921 265.287935733795 2957.99994468689 21 19 7
-34.5982797443867 263.226866722107 2934.99994277954 15 18 9
-26.1458214372396 258.83361697197 2885.99991798401 16 19 10
-18.4228178113699 260.987043380737 2910.00008583069 15 18 9
-10.3886546567082 258.655816316605 2884.0000629425 14 17 8
-2.56185373291373 263.050764799118 2933.00008773804 16 19 10
5.39693841710687 260.8982026577 2908.99991989136 16 19 10
13.2430652156472 259.104043245316 2888.99993896484 16 19 10
21.0677459836006 258.385837078094 2881.00004196167 16 19 10
29.0695913136005 259.640365839005 2894.99998092651 16 19 10
36.0111966729164 252.912491559982 2819.9999332428 16 19 10
44.0157279372215 254.70444560051 2839.99991416931 11 14 5
51.2543357908726 252.191245555878 2812.00003623962 12 15 6
59.8696880042553 256.224572658539 2857.00011253357 13 16 7
68.8487812876701 260.705918073654 2907.00006484985 13 16 7
77.3608833551407 262.675702571869 2928.99990081787 13 16 7
82.9912945628166 255.408108234406 2848.00004959106 16 19 10
90.6651392579079 255.135327577591 2845.00002861023 15 18 9
98.564438521862 255.48991560936 2848.99997711182 11 14 5
108.052760362625 259.610563516617 2894.99998092651 11 14 5
114.387236535549 256.108403205872 2855.99994659424 13 16 7
122.904144227505 257.627725601196 2872.99990653992 12 15 6
131.513312458992 259.146690368652 2890.00010490417 10 13 4
137.417137622833 255.464434623718 2848.99997711182 11 14 7
144.77850496769 254.741042852402 2841.00008010864 10 13 6
152.900993824005 255.362331867218 2848.00004959106 10 13 6
161.794438958168 257.148832082748 2868.00003051758 11 14 7
169.968366622925 257.67970085144 2874.00007247925 16 19 12
179.102331399918 259.555041790009 2894.99998092651 13 16 9
188.156336545944 261.161029338837 2913.00010681152 12 15 8
196.769207715988 262.049376964569 2923.00009727478 12 15 8
202.424004673958 259.082496166229 2890.00010490417 15 18 11
209.717378020287 258.356630802155 2881.99996948242 20 23 16
211.681842803955 251.355558633804 2803.99990081787 18 21 12
232.140496373177 257.073819637299 2868.00003051758 21 22 14
241.458728909492 258.677303791046 2885.99991798401 26 23 16
249.578297138214 258.935987949371 2888.99993896484 26 23 16
256.911277770996 258.387684822083 2882.99989700317 22 23 17
268.251419067383 261.782497167587 2921.0000038147 19 22 13
280.364841222763 265.714406967163 2964.99991416931 10 16 6
289.214760065079 266.419649124146 2973.00004959106 0 2 0
297.907203435898 266.945272684097 2979.00009155273 2 2 0
304.679453372955 265.768080949783 2966.00008010864 194 188 176
311.801642179489 264.949113130569 2957.00001716614 78 66 54
319.198340177536 264.398783445358 2950.99997520447 112 90 77
326.782941818237 264.02735710144 2947.00002670288 121 92 76
335.026323795319 264.19323682785 2948.99988174438 105 76 60
343.279480934143 264.358848333359 2950.99997520447 121 94 77
351.899445056915 264.792919158936 2956.00008964539 137 115 101
-134.560465812683 262.751668691635 3022.0000743866 133 126 120
-125.022232532501 260.061740875244 2990.9999370575 138 117 96
-115.887053310871 257.893085479736 2966.00008010864 135 113 92
-107.214897871017 256.506592035294 2950.00004768372 138 110 89
-98.8313108682632 255.641400814056 2940.00005722046 133 105 84
-90.8416658639908 255.732327699661 2940.99998474121 116 85 65
-82.8743651509285 255.90991973877 2943.00007820129 95 66 48
-74.7940912842751 255.739361047745 2940.99998474121 103 82 63
-66.5655061602592 254.95970249176 2931.99992179871 110 93 77
-58.5056245326996 254.701465368271 2928.99990081787 26 19 3
-50.6170988082886 255.225569009781 2934.99994277954 14 8 0
-42.9133884608746 257.053732872009 2956.00008964539 23 21 9
-34.6351340413094 255.490064620972 2937.99996376038 15 18 9
-26.2919031083584 252.360761165619 2901.99995040894 16 19 10
-18.2590018957853 250.796437263489 2884.0000629425 14 17 8
-10.6124468147755 256.188660860062 2946.00009918213 13 16 7
-2.54274695180357 253.14524769783 2911.00001335144 12 15 6
5.34151075407863 250.362426042557 2878.99994850159 14 17 8
13.110694475472 248.709753155708 2859.99989509583 14 17 8
20.8273269236088 247.665524482727 2848.00004959106 15 18 9
28.6490879952908 248.099267482758 2852.9999256134 16 19 10
36.2553857266903 246.880441904068 2838.99998664856 17 20 11
43.8781343400478 246.183052659035 2831.00008964539 12 15 6
51.7486855387688 246.876701712608 2838.99998664856 12 15 6
59.6207790076733 247.396096587181 2845.00002861023 13 16 7
67.8569674491882 249.132558703423 2865.00000953674 12 15 6
75.7001712918282 249.216467142105 2865.9999370575 13 16 7
82.7908515930176 247.03922867775 2841.00008010864 15 18 9
90.5415415763855 247.035592794418 2841.00008010864 15 18 9
98.9492237567902 248.68369102478 2859.99989509583 11 14 5
106.82562738657 248.853236436844 2861.99998855591 12 15 6
114.312015473843 248.153001070023 2854.00009155273 14 17 8
123.422741889954 250.843405723572 2884.99999046326 12 15 6
131.564393639565 251.359730958939 2891.00003242493 10 13 4
139.448866248131 251.354068517685 2891.00003242493 11 14 7
144.886568188667 247.174873948097 2842.99993515015 11 14 7
154.357075691223 249.950736761093 2875 13 16 9
162.534669041634 250.465780496597 2881.00004196167 14 17 10
170.448645949364 250.545769929886 2881.99996948242 15 18 11
180.347234010696 253.407299518585 2914.99996185303 13 16 9
185.838803648949 250.096350908279 2877.00009346008 11 14 7
192.401617765427 248.436912894249 2858.00004005432 12 15 8
201.87209546566 250.515013933182 2881.99996948242 15 18 11
211.399838328362 252.505719661713 2904.99997138977 19 22 15
229.577407240868 255.095213651657 2934.99994277954 19 22 11
235.387846827507 252.739071846008 2907.99999237061 21 22 14
241.886988282204 251.25190615654 2891.00003242493 25 22 15
247.428700327873 248.895525932312 2864.00008201599 25 22 15
271.384865045547 256.782621145248 2954.99992370605 27 30 21
281.038135290146 258.248776197433 2971.99988365173 10 13 4
289.129167795181 258.237361907959 2971.99988365173 11 14 3
295.819073915482 257.009267807007 2957.99994468689 1 1 0
307.157188653946 259.7776055336 2990.00000953674 224 220 209
312.02507019043 257.0720911026 2959.00011062622 82 68 57
319.535553455353 256.625264883041 2953.9999961853 114 92 79
327.239513397217 256.351947784424 2950.99997520447 106 77 61
335.721254348755 256.686478853226 2954.99992370605 93 64 46
343.874663114548 256.760120391846 2956.00008964539 111 84 67
352.508455514908 257.180899381638 2960.99996566772 130 107 91
-134.744137525558 254.853993654251 3026.00002288818 89 82 72
-125.069230794907 251.995772123337 2992.00010299683 114 97 77
-116.126284003258 250.316143035889 2971.99988365173 116 95 76
-107.328400015831 248.720481991768 2953.00006866455 109 84 64
-98.9362820982933 247.882425785065 2943.00007820129 111 84 65
-90.938113629818 247.970521450043 2944.00000572205 113 84 66
-83.0467790365219 248.395249247551 2948.99988174438 88 61 44
-74.9752372503281 248.314276337624 2947.99995422363 103 82 65
-66.7726248502731 247.727572917938 2940.99998474121 96 79 63
-58.6279220879078 247.224733233452 2934.99994277954 48 40 27
-50.8951582014561 248.574733734131 2950.99997520447 16 10 0
-42.610302567482 247.228920459747 2934.99994277954 15 17 6
-34.6248000860214 247.398972511292 2937.00003623962 15 18 9
-26.3292472809553 244.788929820061 2905.99989891052 16 19 10
-10.4651898145676 244.706213474274 2904.99997138977 16 19 10
-2.5157742202282 242.600575089455 2880.00011444092 15 18 9
5.27122896164656 239.315316081047 2841.00008010864 14 17 8
13.0058052018285 238.977983593941 2836.99989318848 14 17 8
20.9305826574564 241.083160042763 2861.99998855591 14 17 8
28.780834749341 241.419076919556 2865.9999370575 13 16 7
44.3759597837925 241.163358092308 2862.99991607666 14 17 8
52.1518774330616 240.992918610573 2861.00006103516 15 18 9
59.8118863999844 240.400984883308 2854.00009155273 15 18 9
67.8597986698151 241.324901580811 2865.00000953674 14 17 8
75.4127725958824 240.479663014412 2855.00001907349 14 17 8
83.1731632351875 240.392163395882 2854.00009155273 17 20 11
90.7046496868134 239.714756608009 2845.99995613098 17 20 11
98.9533364772797 240.890070796013 2859.99989509583 16 19 10
107.128672301769 241.728112101555 2869.99988555908 17 20 11
115.878880023956 243.660718202591 2892.99988746643 18 21 12
123.042814433575 242.22406744957 2875.99992752075 15 18 9
131.524324417114 243.397980928421 2890.00010490417 12 15 6
140.419349074364 245.161056518555 2911.00001335144 12 15 8
147.491723299026 243.723496794701 2894.00005340576 12 15 8
162.089988589287 241.942450404167 2872.99990653992 16 19 12
171.520248055458 244.209438562393 2900.00009536743 12 15 8
187.267512083054 244.110763072968 2898.9999294281 13 16 9
190.255090594292 237.956300377846 2825.99997520447 13 16 9
200.339198112488 240.811333060265 2859.99989509583 14 17 10
210.535109043121 243.58169734478 2892.99988746643 16 19 12
220.532551407814 245.930582284927 2921.0000038147 17 20 11
228.49152982235 245.921671390533 2921.0000038147 17 23 11
236.69245839119 246.16502225399 2924.00002479553 20 23 14
242.566034197807 244.050890207291 2898.9999294281 24 21 16
249.166503548622 242.778494954109 2884.0000629425 24 21 16
259.872943162918 245.462238788605 2915.99988937378 21 20 15
280.48187494278 249.649852514267 2966.00008010864 24 25 17
287.000238895416 248.29213321209 2950.00004768372 11 11 1
306.758254766464 251.299053430557 2986.00006103516 239 235 224
311.193585395813 248.34169447422 2950.99997520447 75 61 50
319.007039070129 248.161286115646 2948.99988174438 117 95 82
327.141255140305 248.233124613762 2950.00004768372 86 57 41
335.734158754349 248.641282320023 2954.99992370605 77 48 30
343.538790941238 248.460158705711 2953.00006866455 112 85 66
352.402865886688 249.036014080048 2960.00003814697 130 107 91
-125.325053930283 244.330793619156 2997.99990653992 99 84 65
-116.404503583908 242.787107825279 2979.00009155273 103 84 67
-107.623495161533 241.324543952942 2960.99996566772 98 75 57
-99.0747511386871 240.187659859657 2947.00002670288 105 80 60
-91.0653546452522 240.27293920517 2947.99995422363 116 89 70
-83.2191109657288 240.846917033195 2954.99992370605 94 68 51
-75.080007314682 240.605562925339 2951.99990272522 95 73 59
-66.8434500694275 239.956364035606 2944.00000572205 89 73 58
-58.770127594471 239.795818924904 2941.99991226196 53 45 34
-50.5005307495594 238.656908273697 2927.99997329712 20 13 3
-42.8733676671982 240.696489810944 2953.00006866455 20 18 6
-34.2843048274517 237.030118703842 2907.99999237061 13 16 7
-26.4571662992239 238.009467720985 2920.00007629395 13 16 7
-18.35548132658 236.298605799675 2898.9999294281 15 18 9
-10.2926893159747 232.875779271126 2857.00011253357 16 19 10
-2.50189914368093 233.44661295414 2864.00008201599 16 19 10
13.0888558924198 232.712581753731 2855.00001907349 15 18 9
20.9021791815758 232.956409454346 2858.00004005432 14 17 8
28.9125572890043 234.667107462883 2878.99994850159 13 16 7
37.0118953287601 236.214488744736 2898.00000190735 12 15 6
44.8892749845982 236.049845814705 2895.99990844727 15 18 9
52.48212069273 234.662264585495 2878.99994850159 15 18 9
60.3801794350147 234.823018312454 2881.00004196167 16 19 10
67.9336041212082 233.760848641396 2868.00003051758 15 18 9
75.75923204422 233.758017420769 2868.00003051758 16 19 10
82.9142183065414 231.880202889442 2845.00002861023 18 21 12
90.4852151870728 231.387749314308 2838.99998664856 18 21 12
106.871694326401 233.335942029953 2862.99991607666 19 22 13
114.521630108356 233.005568385124 2858.99996757507 20 23 14
123.004965484142 234.304830431938 2875 16 19 10
131.893694400787 236.174196004868 2898.00000190735 13 16 7
138.881325721741 234.620481729507 2878.99994850159 13 16 9
146.427318453789 234.125867486 2872.99990653992 13 16 9
153.94002199173 233.631029725075 2867.00010299683 14 17 10
164.014741778374 236.884340643883 2907.00006484985 14 17 10
172.65085875988 237.855568528175 2918.99991035461 12 15 8
181.042373180389 238.41904103756 2926.00011825562 12 15 8
187.533348798752 236.537799239159 2903.00011634827 12 15 8
194.57146525383 235.471099615097 2890.00010490417 12 15 8
201.117664575577 233.915358781815 2871.00005149841 15 18 11
211.926132440567 237.247794866562 2911.99994087219 17 20 13
218.955650925636 236.261814832687 2900.00009536743 18 23 16
226.388335227966 235.764428973198 2894.00005340576 16 22 10
234.920769929886 236.407294869423 2901.99995040894 19 22 13
242.240771651268 235.827922821045 2894.99998092651 22 21 16
251.249760389328 236.87744140625 2907.99999237061 23 20 15
259.259104728699 236.949160695076 2908.99991989136 20 19 14
273.610413074493 242.640733718872 2979.00009155273 21 22 16
279.452383518219 240.67547917366 2954.99992370605 16 17 11
287.594944238663 240.746259689331 2956.00008964539 26 23 16
305.023401975632 241.782739758492 2969.00010108948 71 56 49
311.627149581909 240.631133317947 2954.99992370605 93 74 67
319.668143987656 240.619421005249 2954.99992370605 101 79 66
328.373402357101 241.095975041389 2960.99996566772 85 58 41
337.110102176666 241.572245955467 2967.00000762939 67 38 20
344.482272863388 241.071239113808 2960.99996566772 107 80 61
353.249311447144 241.546973586082 2967.00000762939 124 101 83
364.605158567429 243.731960654259 2993.99995803833 96 82 71
-125.329926609993 236.159548163414 2997.99990653992 100 88 72
-116.487197577953 234.82508957386 2980.99994659424 99 86 70
-107.664056122303 233.332678675652 2961.99989318848 98 79 64
-98.9777594804764 231.918677687645 2944.00000572205 108 87 70
-90.9144654870033 231.843575835228 2943.00007820129 115 92 76
-82.9970762133598 232.162028551102 2947.00002670288 115 92 76
-75.1592516899109 232.795298099518 2954.99992370605 71 53 39
-66.9368952512741 232.246607542038 2947.99995422363 86 72 59
-58.8723346590996 232.170268893242 2947.00002670288 48 42 30
-50.9682148694992 232.802629470825 2954.99992370605 19 15 4
-42.1926528215408 228.944078087807 2905.99989891052 18 19 11
-34.4860851764679 230.442449450493 2924.99995231628 14 17 8
-25.9598512202501 225.716575980186 2865.00000953674 12 15 6
-18.0332791060209 224.378123879433 2848.00004959106 14 17 8
-10.2138351649046 223.35447371006 2835.00003814697 17 20 11
5.35515090450644 227.372676134109 2885.99991798401 18 21 12
13.1764812394977 226.426899433136 2874.00007247925 18 21 12
20.8883751183748 225.008115172386 2855.99994659424 17 20 11
28.9237406104803 226.897984743118 2880.00011444092 16 19 10
36.8856340646744 227.526962757111 2888.00001144409 16 19 10
44.8290407657623 227.840512990952 2891.99995994568 13 16 7
52.7940951287746 228.153735399246 2895.99990844727 14 17 8
60.696929693222 228.151544928551 2895.99990844727 15 18 9
68.4337168931961 227.597579360008 2888.99993896484 15 18 9
75.5244493484497 225.231379270554 2858.99996757507 16 19 10
82.3054313659668 222.471073269844 2823.99988174438 19 22 13
89.5644202828407 221.364855766296 2809.99994277954 17 20 11
98.5805839300156 224.433556199074 2848.99997711182 18 21 12
105.793304741383 223.247960209846 2834.00011062622 20 23 14
113.564714789391 223.322540521622 2835.00003814697 20 23 14
122.453540563583 225.444853305817 2861.99998855591 16 19 10
130.396887660027 225.676342844963 2865.00000953674 14 17 10
140.044510364532 228.664398193359 2903.00011634827 15 18 11
146.789789199829 226.847276091576 2880.00011444092 15 18 11
154.321849346161 226.368933916092 2874.00007247925 12 15 8
161.256372928619 225.102722644806 2858.00004005432 11 14 7
168.753653764725 224.702626466751 2852.9999256134 12 15 8
179.564297199249 228.555217385292 2901.99995040894 11 14 7
186.700716614723 227.603226900101 2890.00010490417 13 16 9
191.145166754723 223.579600453377 2838.99998664856 13 16 9
200.284704566002 225.147292017937 2858.99996757507 14 17 10
213.462606072426 230.966955423355 2933.00008773804 17 20 13
221.682175993919 231.195047497749 2936.00010871887 17 22 15
227.492108941078 228.98180782795 2907.99999237061 15 21 11
234.039157629013 227.634623646736 2891.00003242493 18 21 12
243.337720632553 228.964313864708 2907.99999237061 22 21 16
251.172780990601 228.876411914825 2907.00006484985 22 21 16
264.081627130508 233.275845646858 2963.00005912781 21 20 15
274.906516075134 235.627770423889 2993.00003051758 19 20 14
282.110780477524 234.830304980278 2983.00004005432 19 20 14
287.994801998138 233.009323477745 2960.00003814697 10 5 0
304.212689399719 233.066499233246 2960.99996566772 90 73 66
311.638563871384 232.583075761795 2954.99992370605 80 61 54
319.788008928299 232.650458812714 2956.00008964539 92 70 57
329.605281352997 233.898028731346 2971.99988365173 93 66 49
337.349623441696 233.650043606758 2969.00010108948 68 41 22
344.611048698425 233.087003231049 2961.99989318848 111 84 65
353.381097316742 233.546808362007 2967.99993515015 122 99 81
-126.212611794472 229.58442568779 3019.00005340576 95 88 72
-116.530694067478 226.775199174881 2982.00011253357 102 93 78
-107.958935201168 225.866764783859 2970.00002861023 92 74 60
-99.2504730820656 224.501699209213 2951.99990272522 101 82 67
-91.0723730921745 224.201053380966 2947.99995422363 108 86 72
-83.0283835530281 224.204316735268 2947.99995422363 107 85 71
-75.1875564455986 224.815711379051 2956.00008964539 25 9 0
-67.0756846666336 224.666267633438 2953.9999961853 86 74 60
-58.9744597673416 224.516496062279 2951.99990272522 32 26 14
-50.6941787898541 223.529815673828 2938.99989128113 30 26 15
-42.3685014247894 221.934393048286 2917.99998283386 20 21 13
-34.0983159840107 219.95835006237 2891.99995994568 16 19 10
-26.4864042401314 222.317278385162 2923.00009727478 12 15 6
-18.0972889065742 217.374339699745 2858.00004005432 13 16 7
-10.4556186124682 220.721408724785 2901.99995040894 16 19 10
-2.47064256109297 215.093359351158 2828.00006866455 17 20 11
5.32009918242693 218.059599399567 2867.00010299683 20 23 14
13.3374547585845 221.253663301468 2908.99991989136 19 22 13
21.0500862449408 218.895241618156 2878.00002098084 19 22 13
28.7139341235161 217.449203133583 2858.99996757507 18 21 12
36.6188175976276 218.056410551071 2867.00010299683 17 20 11
44.9237637221813 220.41267156601 2898.00000190735 17 20 11
52.7961067855358 220.258712768555 2895.99990844727 17 20 11
61.0346011817455 221.473470330238 2911.99994087219 16 19 10
68.1757554411888 218.885198235512 2878.00002098084 13 16 7
75.6065770983696 217.665627598763 2861.99998855591 14 17 8
83.0663591623306 216.750025749207 2849.99990463257 18 21 12
89.2172083258629 212.86815404892 2799.00002479553 17 20 11
97.8230461478233 214.994072914124 2826.99990272522 17 20 11
106.842592358589 217.652007937431 2861.99998855591 18 21 12
114.049717783928 216.507166624069 2846.99988365173 19 22 13
121.302902698517 215.590238571167 2835.00003814697 18 21 12
131.767258048058 220.148250460625 2894.99998092651 17 20 11
139.953300356865 220.599502325058 2901.00002288818 14 17 10
147.661790251732 220.290005207062 2897.0000743866 11 14 7
153.46847474575 217.318892478943 2858.00004005432 11 14 7
161.262407898903 217.313095927238 2858.00004005432 12 15 8
166.748777031898 214.341655373573 2819.00000572205 14 17 10
176.291435956955 216.61639213562 2848.99997711182 12 15 8
184.575691819191 217.218026518822 2857.00011253357 13 16 9
192.431554198265 217.287167906761 2858.00004005432 13 16 9
202.884197235107 220.168963074684 2895.99990844727 13 16 9
214.707762002945 224.266678094864 2950.00004768372 16 19 12
222.445413470268 223.954677581787 2946.00009918213 15 20 13
229.065135121346 222.578167915344 2927.99997329712 14 22 11
234.533473849297 220.213338732719 2897.0000743866 14 19 12
242.928192019463 220.660805702209 2903.00011634827 20 19 14
253.169268369675 222.704187035561 2930.0000667572 21 20 15
264.180362224579 225.279167294502 2963.99998664856 20 19 15
275.100141763687 227.625668048859 2994.99988555908 15 16 10
282.783001661301 227.23576426506 2990.00000953674 11 12 6
285.961836576462 223.34985435009 2938.99989128113 20 17 10
299.664288759232 227.671146392822 2996.00005149841 16 9 1
304.223507642746 225.000888109207 2960.99996566772 69 54 47
311.860591173172 224.686190485954 2957.00001716614 87 68 61
320.44842839241 225.055068731308 2961.99989318848 93 71 60
331.391394138336 227.019190788269 2987.99991607666 81 55 40
337.929576635361 225.943982601166 2973.99997711182 60 35 15
345.204859972 225.400432944298 2967.00000762939 123 98 78
354.22682762146 225.996136665344 2974.99990463257 124 101 83
-117.121145129204 219.745442271233 2996.99997901917 97 91 79
-108.217343688011 218.283027410507 2976.99999809265 88 74 61
-99.62397813797 217.260241508484 2963.00005912781 86 70 55
-91.3228839635849 216.750428080559 2956.00008964539 96 78 64
-83.2849368453026 216.826900839806 2957.00001716614 104 85 71
-75.3683820366859 217.269733548164 2963.00005912781 37 21 8
-67.3733502626419 217.565596103668 2967.00000762939 10 0 0
-58.7768517434597 215.73469042778 2941.99991226196 20 16 5
-41.5278896689415 209.725260734558 2859.99989509583 19 20 12
-25.8893091231585 209.507718682289 2857.00011253357 12 15 6
-18.5792203992605 215.155050158501 2934.00001525879 13 16 7
-10.1749673485756 207.089051604271 2823.99988174438 15 18 9
-2.47947056777775 208.115950226784 2838.00005912781 15 18 9
5.37039991468191 212.222501635551 2894.00005340576 17 20 11
13.3012663573027 212.735459208488 2901.00002288818 16 19 10
21.10206335783 211.561545729637 2884.99999046326 16 19 10
28.8656540215015 210.754007101059 2874.00007247925 13 16 7
36.7351286113262 210.899457335472 2875.99992752075 15 18 9
44.7703935205936 211.777940392494 2888.00001144409 16 19 10
52.9256723821163 212.876111268997 2903.00011634827 16 19 10
60.7643648982048 212.580725550652 2898.9999294281 15 18 9
68.462535738945 211.918473243713 2890.00010490417 13 16 7
75.6886154413223 210.082665085793 2865.00000953674 14 17 8
83.5066139698029 210.079774260521 2865.00000953674 18 21 12
90.5911400914192 208.390146493912 2842.00000762939 18 21 12
99.0031808614731 209.779888391495 2861.00006103516 17 20 11
106.846503913403 209.849491715431 2861.99998855591 18 21 12
114.174067974091 208.965644240379 2849.99990463257 19 22 13
122.077539563179 209.181383252144 2852.9999256134 18 21 12
129.496201872826 208.590313792229 2845.00002861023 15 18 11
137.594386935234 209.098756313324 2851.99999809265 13 16 9
148.02397787571 212.906077504158 2904.00004386902 11 14 7
155.299827456474 212.020888924599 2891.99995994568 11 14 7
160.196125507355 208.129733800888 2838.99998664856 13 16 9
169.180110096931 209.66337621212 2859.99989509583 14 17 10
178.154200315475 211.050048470497 2878.99994850159 11 14 7
186.068296432495 211.116939783096 2880.00011444092 13 16 9
195.333778858185 212.649554014206 2901.00002288818 13 16 9
205.413594841957 214.914843440056 2931.99992179871 13 16 9
212.750226259232 214.247792959213 2923.00009727478 15 18 11
222.226798534393 215.706124901772 2943.00007820129 15 20 13
226.726204156876 212.400063872337 2898.00000190735 13 21 10
235.351368784904 213.051617145538 2907.00006484985 14 19 12
243.522569537163 213.263168931007 2910.00008583069 20 19 14
254.647105932236 215.966060757637 2947.00002670288 21 20 15
281.752496957779 218.283295631409 2979.00009155273 15 16 10
295.799344778061 222.743034362793 3039.99996185303 16 15 10
304.747760295868 217.300802469254 2966.00008010864 78 63 58
312.398612499237 216.997310519218 2961.99989318848 89 72 64
321.108520030975 217.426165938377 2967.99993515015 87 67 56
330.071777105331 218.001276254654 2976.0000705719 51 28 12
337.486535310745 217.55063533783 2970.00002861023 68 42 25
