ply
format ascii 1.0
comment KinectMotionCapture
element vertex 766
property float x
property float y
property float z
property uchar red
property uchar green
property uchar blue
end_header
-123.538456857204 474.69836473465 2960.00003814697 162 161 156
-115.632690489292 475.348085165024 2963.99998664856 155 154 149
-107.813604176044 476.478397846222 2970.99995613098 149 150 145
-100.090257823467 478.249728679657 2982.00011253357 147 148 143
-92.337466776371 480.180859565735 2993.99995803833 139 140 135
-84.5471099019051 482.271939516068 3006.99996948242 121 122 117
-76.6348317265511 484.041780233383 3017.99988746643 124 125 120
-68.7757059931755 486.612945795059 3033.99991989136 182 182 180
-51.3143241405487 477.960348129272 2980.00001907349 200 202 199
-42.9489724338055 475.236922502518 2963.00005912781 136 138 135
-34.7231887280941 473.154574632645 2950.00004768372 161 162 157
-26.5500266104937 470.75080871582 2934.99994277954 147 148 143
-18.5027606785297 469.469219446182 2927.00004577637 189 190 185
-10.5062145739794 468.5078561306 2921.0000038147 180 181 176
-2.54232669249177 467.545986175537 2914.99996185303 157 158 153
5.38331642746925 466.102302074432 2905.99989891052 185 186 181
13.2507439702749 464.337378740311 2894.99998092651 175 176 171
21.0873894393444 463.213443756104 2888.00001144409 176 177 172
28.9058685302734 462.409734725952 2882.99989700317 187 188 183
36.6587452590466 461.124300956726 2875 167 168 163
44.3679057061672 459.838420152664 2867.00010299683 157 158 153
52.1061085164547 459.193497896194 2862.99991607666 163 162 158
59.843260794878 458.708435297012 2859.99989509583 160 159 155
67.6111578941345 458.543628454208 2858.99996757507 153 152 148
75.3469914197922 458.217948675156 2857.00011253357 150 149 145
83.1298604607582 458.212494850159 2857.00011253357 148 147 143
90.8805951476097 458.046048879623 2855.99994659424 145 144 140
98.6255928874016 457.87912607193 2855.00001907349 143 142 138
106.402061879635 457.872122526169 2855.00001907349 141 140 136
114.178165793419 457.864552736282 2855.00001907349 141 140 136
121.996566653252 458.016812801361 2855.99994659424 144 143 139
129.592806100845 457.366675138474 2851.99999809265 145 144 140
137.263119220734 457.036793231964 2849.99990463257 148 149 144
144.871219992638 456.546068191528 2846.99988365173 149 150 145
152.730494737625 456.856667995453 2848.99997711182 152 153 148
160.318493843079 456.364929676056 2845.99995613098 156 157 152
168.362066149712 457.155585289001 2851.0000705719 164 164 162
176.185145974159 457.304239273071 2851.99999809265 169 169 167
184.335589408875 458.254188299179 2858.00004005432 172 172 170
192.383632063866 458.882838487625 2861.99998855591 177 177 175
200.662598013878 459.991931915283 2868.99995803833 176 176 174
209.124371409416 461.421191692352 2878.00002098084 176 176 176
217.70977973938 463.010191917419 2888.00001144409 177 177 177
226.505145430565 464.919239282608 2900.00009536743 178 178 176
234.960898756981 466.026067733765 2907.00006484985 179 181 178
243.453949689865 467.132389545441 2914.00003433228 176 178 175
251.811772584915 467.917561531067 2918.99991035461 156 158 155
260.996878147125 470.144838094711 2933.00008773804 174 176 173
269.982188940048 471.890687942505 2944.00000572205 173 175 172
279.309660196304 474.116712808609 2957.99994468689 164 166 163
-156.949669122696 470.096796751022 2982.00011253357 193 195 192
-148.330181837082 468.530625104904 2971.99988365173 187 189 186
-139.906227588654 467.436820268631 2964.99991416931 179 179 177
-131.786674261093 467.288315296173 2963.99998664856 171 172 167
-123.713850975037 467.29701757431 2963.99998664856 166 165 160
-115.796655416489 467.935830354691 2967.99993515015 160 159 154
-107.857264578342 468.574017286301 2971.99988365173 148 149 144
-100.029975175858 469.842463731766 2980.00001907349 145 146 141
-92.2821313142776 471.741020679474 2992.00010299683 135 136 131
-84.5810398459435 474.26974773407 3007.99989700317 120 121 116
-76.6401067376137 475.85192322731 3017.99988746643 120 121 116
-68.8484534621239 478.852719068527 3036.99994087219 197 197 195
-51.1800907552242 468.612015247345 2971.99988365173 176 178 175
-42.8794547915459 466.407805681229 2957.99994468689 129 131 128
-34.7138121724129 464.991331100464 2948.99988174438 153 154 149
-26.5518613159657 462.786048650742 2934.99994277954 153 154 149
-18.5040403157473 461.526155471802 2927.00004577637 188 189 184
-10.4997465386987 460.265666246414 2918.99991035461 152 153 148
-2.53988592885435 459.162384271622 2911.99994087219 187 188 183
5.37257315590978 457.270115613937 2900.00009536743 163 164 159
13.2516585290432 456.481069326401 2894.99998092651 178 179 174
21.0961475968361 455.53383231163 2888.99993896484 176 177 172
28.89783680439 454.428344964981 2881.99996948242 192 193 188
36.6230197250843 452.849298715591 2871.99997901917 146 147 142
44.3400107324123 451.742827892303 2865.00000953674 164 165 160
52.1096996963024 451.424151659012 2862.99991607666 161 160 156
59.8473846912384 450.947314500809 2859.99989509583 157 156 152
67.615807056427 450.785279273987 2858.99996757507 151 150 146
75.3785446286201 450.622707605362 2858.00004005432 150 149 145
83.222858607769 450.932621955872 2859.99989509583 147 146 142
90.9186601638794 450.453698635101 2857.00011253357 146 145 141
98.6668914556503 450.289517641068 2855.99994659424 143 142 138
106.372065842152 449.967235326767 2854.00009155273 142 141 137
114.265955984592 450.432747602463 2857.00011253357 142 141 137
122.047610580921 450.424700975418 2857.00011253357 145 144 140
129.692524671555 449.943214654922 2854.00009155273 146 145 141
137.36879825592 449.618875980377 2851.99999809265 146 147 142
144.98282968998 449.136435985565 2848.99997711182 147 148 143
152.848079800606 449.44167137146 2851.0000705719 148 149 144
160.498350858688 449.115842580795 2848.99997711182 151 152 147
168.373420834541 449.420094490051 2851.0000705719 159 159 157
176.19700729847 449.566155672073 2851.99999809265 165 165 163
184.412449598312 450.657516717911 2858.99996757507 168 168 166
192.463725805283 451.27546787262 2862.99991607666 174 174 172
200.885862112045 452.681005001068 2871.99997901917 174 174 172
209.283635020256 453.92832159996 2880.00011444092 177 177 177
217.875003814697 455.490320920944 2890.00010490417 179 179 179
226.363882422447 456.736505031586 2898.00000190735 178 178 176
234.814718365669 457.824617624283 2904.99997138977 179 181 178
243.469953536987 459.227293729782 2914.00003433228 176 178 175
252.087086439133 460.471779108047 2921.99993133545 158 160 157
261.013925075531 462.188601493835 2933.00008773804 176 178 175
269.908040761948 463.747173547745 2943.00007820129 172 174 171
279.233396053314 465.935438871384 2957.00001716614 171 173 170
-156.854912638664 461.694270372391 2980.00001907349 194 196 193
-148.340120911598 460.464954376221 2971.99988365173 187 189 186
-139.962822198868 459.545016288757 2966.00008010864 178 178 176
-131.70662522316 458.934307098389 2961.99989318848 170 171 166
-123.805694282055 459.562689065933 2966.00008010864 167 166 161
-115.882523357868 460.190504789352 2970.00002861023 163 162 157
-107.97344148159 460.972756147385 2974.99990463257 148 149 144
-100.036755204201 461.754530668259 2980.00001907349 144 145 140
-92.2575443983078 463.465481996536 2990.9999370575 134 135 130
-84.6149101853371 466.260641813278 3009.0000629425 114 115 110
-76.7215043306351 468.125581741333 3020.99990844727 116 117 112
-69.1478624939919 472.624272108078 3049.99995231628 211 211 209
-51.1835776269436 460.54545044899 2971.99988365173 148 150 147
-42.8968816995621 458.534210920334 2959.00011062622 124 126 123
-34.7161814570427 456.987142562866 2948.99988174438 147 148 143
-26.5808124095201 455.284655094147 2937.99996376038 159 160 155
-18.5179468244314 453.891515731812 2928.99990081787 175 176 171
-10.50765812397 452.652812004089 2921.0000038147 145 146 141
-2.5374423712492 450.793653726578 2908.99991989136 181 182 177
5.37479249760509 449.553817510605 2901.00002288818 160 161 156
13.25714122504 448.778361082077 2895.99990844727 177 178 173
21.1194977164268 448.157340288162 2891.99995994568 188 189 184
28.9098359644413 446.760982275009 2882.99989700317 168 169 164
36.6127677261829 444.899201393127 2871.00005149841 155 156 151
44.3430356681347 443.966656923294 2865.00000953674 166 167 162
52.1496571600437 443.963408470154 2865.00000953674 158 157 153
59.9142350256443 443.649679422379 2862.99991607666 153 152 148
67.6677152514458 443.335443735123 2861.00006103516 149 148 144
75.4628032445908 443.330645561218 2861.00006103516 149 148 144
83.3158195018768 443.635135889053 2862.99991607666 148 147 143
91.0203009843826 443.164378404617 2859.99989509583 146 145 141
98.8117828965187 443.158000707626 2859.99989509583 143 142 138
106.491096317768 442.686259746552 2857.00011253357 142 141 137
114.353656768799 442.988723516464 2858.99996757507 142 141 137
122.013106942177 442.515939474106 2855.99994659424 145 144 140
129.655808210373 442.042678594589 2852.9999256134 146 145 141
137.426197528839 442.033767700195 2852.9999256134 146 147 142
145.247042179108 442.179322242737 2854.00009155273 146 147 142
153.18001806736 442.634165287018 2857.00011253357 147 148 143
160.847082734108 442.313820123672 2855.00001907349 149 150 145
168.798074126244 442.767709493637 2858.00004005432 157 157 155
176.641196012497 442.911118268967 2858.99996757507 161 161 159
184.682697057724 443.518877029419 2862.99991607666 164 164 162
192.67812371254 443.971157073975 2865.9999370575 171 171 169
201.039016246796 445.197522640228 2874.00007247925 171 171 169
209.588095545769 446.733117103577 2884.0000629425 176 176 176
218.115478754044 448.113143444061 2892.99988746643 178 178 178
226.456835865974 449.028044939041 2898.9999294281 175 175 173
234.830021858215 449.942380189896 2904.99997138977 177 179 176
243.569329380989 451.475709676743 2914.99996185303 175 177 174
252.276033163071 452.85364985466 2924.00002479553 157 159 156
261.119782924652 454.385846853256 2934.00001525879 175 177 174
270.017147064209 455.917507410049 2944.00000572205 170 172 169
279.345721006393 458.067983388901 2957.99994468689 175 177 174
-156.865313649178 453.605592250824 2980.00001907349 192 194 191
-148.25014770031 452.093422412872 2970.00002861023 189 191 188
-139.924928545952 451.341807842255 2964.99991416931 173 175 172
-131.715387105942 450.894147157669 2961.99989318848 168 168 166
-123.730443418026 451.207041740417 2963.99998664856 151 150 146
-115.812212228775 451.82392001152 2967.99993515015 157 156 152
-107.799209654331 452.13583111763 2970.00002861023 147 146 142
-99.9427437782288 453.208386898041 2976.99999809265 144 143 139
-92.232882976532 455.193847417831 2990.00000953674 129 130 125
-84.7049579024315 458.549082279205 3012.00008392334 108 109 104
-76.8536552786827 460.685849189758 3026.00002288818 92 93 88
-51.2903705239296 453.390926122665 2977.9999256134 131 133 128
-43.0012568831444 451.567113399506 2966.00008010864 132 134 129
-34.7891636192799 449.894964694977 2954.99992370605 145 146 141
-26.6097541898489 447.765588760376 2940.99998474121 179 180 175
-18.5318421572447 446.244597434998 2930.99999427795 140 141 136
-10.5047700926661 444.570779800415 2920.00007629395 166 167 162
-2.53761373460293 442.896485328674 2908.99991989136 154 155 150
5.37515617907047 441.678404808044 2901.00002288818 161 161 159
13.2671920582652 441.220998764038 2898.00000190735 178 178 176
21.1355295032263 440.610885620117 2894.00005340576 164 164 162
28.9318431168795 439.238935709 2884.99999046326 131 131 129
36.6535000503063 437.562048435211 2874.00007247925 164 164 162
44.3924628198147 436.645805835724 2868.00003051758 157 157 155
52.2077791392803 436.642557382584 2868.00003051758 153 154 149
60.0019916892052 436.486572027206 2867.00010299683 149 150 145
67.7905306220055 436.330050230026 2865.9999370575 147 148 143
75.5997523665428 436.325222253799 2865.9999370575 145 146 141
83.4378227591515 436.472207307816 2867.00010299683 146 147 142
91.1855474114418 436.161905527115 2865.00000953674 148 149 144
98.9220514893532 435.851067304611 2862.99991607666 142 143 138
106.610029935837 435.387521982193 2859.99989509583 140 141 136
114.401295781136 435.380160808563 2859.99989509583 139 140 135
122.106701135635 435.067921876907 2858.00004005432 142 143 138
129.800781607628 434.755116701126 2855.99994659424 145 146 141
137.579843401909 434.746265411377 2855.99994659424 145 147 144
145.409345626831 434.889137744904 2857.00011253357 143 145 144
153.297364711761 435.183763504028 2858.99996757507 141 143 142
161.083102226257 435.173451900482 2858.99996757507 143 145 144
168.986395001411 435.467064380646 2861.00006103516 150 152 151
176.96176469326 435.91234087944 2864.00008201599 152 154 153
184.952899813652 436.357140541077 2867.00010299683 156 158 157
193.026944994926 436.953634023666 2871.00005149841 163 165 164
201.401889324188 438.158303499222 2878.99994850159 158 160 159
209.965124726295 439.666926860809 2888.99993896484 166 168 167
218.3558344841 440.718352794647 2895.99990844727 173 175 174
226.627722382545 441.464930772781 2901.00002288818 166 166 164
235.006883740425 442.363202571869 2907.00006484985 179 181 178
243.501454591751 443.41304898262 2914.00003433228 172 174 171
252.292156219482 444.918811321259 2924.00002479553 159 161 158
260.869443416595 445.967614650726 2930.99999427795 181 183 180
269.850850105286 447.624504566193 2941.99991226196 168 170 167
279.363423585892 450.041502714157 2957.99994468689 168 170 167
-157.033503055573 445.963978767395 2983.00004005432 192 194 191
-148.409619927406 444.478839635849 2973.00004959106 188 190 187
-139.886930584908 443.142622709274 2963.99998664856 175 177 174
-131.590649485588 442.40403175354 2959.00011062622 169 171 168
-123.488120734692 442.262828350067 2957.99994468689 152 151 147
-115.663766860962 443.167716264725 2963.99998664856 155 154 150
-107.770025730133 443.92266869545 2969.00010108948 142 141 137
-100.050076842308 445.574194192886 2980.00001907349 139 138 134
-92.2698378562927 447.225272655487 2990.9999370575 132 133 128
-84.7105756402016 450.371205806732 3012.00008392334 112 113 108
-76.8587589263916 452.469885349274 3026.00002288818 87 88 83
-59.888057410717 448.890179395676 3002.00009346008 210 211 206
-51.345456391573 445.753693580627 2980.99994659424 115 117 112
-43.0911146104336 444.411009550095 2971.99988365173 141 143 138
-34.8268002271652 442.320168018341 2957.99994468689 157 158 153
-26.6296248883009 440.079182386398 2943.00007820129 168 169 164
-18.5267552733421 438.136786222458 2930.0000667572 141 142 137
-10.5126658454537 436.941385269165 2921.99993133545 167 168 163
-2.54301726818085 435.895085334778 2914.99996185303 150 151 146
5.39404433220625 435.296922922134 2911.00001335144 162 162 160
13.3001254871488 434.399038553238 2904.99997138977 177 177 175
21.1734548211098 433.500647544861 2898.9999294281 145 145 143
28.953829780221 431.704640388489 2887.00008392334 138 138 136
36.6942025721073 430.207163095474 2877.00009346008 167 167 165
44.4263704121113 429.157644510269 2869.99988555908 160 160 158
52.2294603288174 429.004967212677 2868.99995803833 149 150 145
60.0269101560116 428.851723670959 2868.00003051758 146 147 142
67.8659975528717 428.997009992599 2868.99995803833 143 144 139
75.657531619072 428.842753171921 2868.00003051758 144 145 140
83.5015550255775 428.986996412277 2868.99995803833 145 146 141
91.223418712616 428.532719612122 2865.9999370575 145 146 141
99.0322679281235 428.52646112442 2865.9999370575 143 144 139
106.803469359875 428.370177745819 2865.00000953674 141 142 137
114.64886367321 428.512424230576 2865.9999370575 140 141 136
122.242920100689 427.757114171982 2861.00006103516 143 144 139
129.991114139557 427.599310874939 2859.99989509583 146 147 142
137.781590223312 427.590608596802 2859.99989509583 142 144 143
145.77516913414 428.179413080215 2864.00008201599 140 142 141
153.629139065742 428.319156169891 2865.00000953674 140 142 141
161.431670188904 428.30890417099 2865.00000953674 142 144 143
169.351816177368 428.597241640091 2867.00010299683 147 149 148
177.282214164734 428.884953260422 2868.99995803833 149 151 150
185.351938009262 429.471224546433 2872.99990653992 153 155 154
193.375572562218 429.907500743866 2875.99992752075 161 163 162
201.764687895775 431.090652942657 2884.0000629425 157 159 158
210.269346833229 432.422786951065 2892.99988746643 163 165 164
218.520656228065 433.156430721283 2898.00000190735 172 174 173
226.564064621925 433.441191911697 2900.00009536743 158 158 156
234.940990805626 434.323340654373 2905.99989891052 170 172 169
243.600472807884 435.653269290924 2914.99996185303 168 170 167
252.308130264282 436.982721090317 2924.00002479553 159 161 158
260.885894298553 438.012719154358 2930.99999427795 178 180 177
269.867837429047 439.639955759048 2941.99991226196 177 179 176
279.475420713425 442.163199186325 2959.00011062622 171 173 170
-157.306864857674 438.598185777664 2987.99991607666 195 197 194
-148.469164967537 436.552971601486 2973.99997711182 187 189 186
-139.848813414574 434.947550296783 2963.00005912781 177 179 176
-131.599187850952 434.369117021561 2959.00011062622 167 169 166
-123.412661254406 433.936923742294 2956.00008964539 156 155 151
-115.632280707359 434.972286224365 2963.00005912781 147 146 142
-107.7044531703 435.56672334671 2967.00000762939 150 149 145
-100.090198218822 437.628775835037 2980.99994659424 143 142 138
-92.245027422905 438.95623087883 2990.00000953674 107 108 103
-84.5754891633987 441.457748413086 3006.99996948242 113 114 109
-76.7621919512749 443.66517663002 3022.0000743866 82 83 78
-59.8321408033371 440.297365188599 2999.00007247925 142 144 139
-51.2971542775631 437.217861413956 2977.9999256134 40 42 37
-43.0359467864037 435.752809047699 2967.99993515015 140 142 137
-34.8173193633556 434.14032459259 2957.00001716614 164 165 159
-26.6404245048761 432.233721017838 2944.00000572205 165 166 161
-18.5406226664782 430.473357439041 2931.99992179871 155 156 151
-10.5133578181267 429.006099700928 2921.99993133545 181 182 177
-2.54580238834023 428.419262170792 2917.99998283386 153 154 149
5.39625203236938 427.538245916367 2911.99994087219 175 176 171
13.3147370070219 426.950365304947 2907.99999237061 141 141 139
21.1894605308771 425.921529531479 2901.00002288818 129 129 127
29.0159117430449 424.745261669159 2892.99988746643 144 144 142
36.7859043180943 423.421829938889 2884.0000629425 149 149 147
44.5376634597778 422.391444444656 2877.00009346008 141 141 139
52.3239225149155 421.947836875916 2874.00007247925 151 152 147
60.114573687315 421.650528907776 2871.99997901917 143 144 139
67.9177716374397 421.49955034256 2871.00005149841 141 142 137
75.6888762116432 421.201199293137 2868.99995803833 139 140 135
83.5070312023163 421.196043491364 2868.99995803833 138 139 134
91.2612080574036 420.896738767624 2867.00010299683 136 137 132
99.0387350320816 420.743763446808 2865.9999370575 138 139 134
106.84772580862 420.737117528915 2865.9999370575 136 137 132
114.656329154968 420.729905366898 2865.9999370575 136 137 132
122.379064559937 420.428663492203 2864.00008201599 143 144 139
130.226835608482 420.56730389595 2865.00000953674 145 146 141
138.031393289566 420.558631420136 2865.00000953674 136 138 137
145.93730866909 420.843124389648 2867.00010299683 134 136 135
153.799951076508 420.980304479599 2868.00003051758 138 140 139
161.723837256432 421.263724565506 2869.99988555908 141 143 142
169.658049941063 421.546667814255 2871.99997901917 142 144 143
177.417203783989 421.388864517212 2871.00005149841 144 146 145
185.557350516319 422.111123800278 2875.99992752075 149 151 150
193.724155426025 422.83296585083 2881.00004196167 157 159 158
202.197343111038 424.14128780365 2890.00010490417 156 158 157
210.573464632034 425.155580043793 2897.0000743866 157 159 158
218.685299158096 425.58228969574 2900.00009536743 169 171 170
226.73462331295 425.861805677414 2901.99995040894 154 154 152
234.95577275753 426.434308290482 2905.99989891052 166 168 165
243.532195687294 427.593350410461 2914.00003433228 167 169 166
252.065032720566 428.605049848557 2921.0000038147 160 162 159
260.724127292633 429.762959480286 2928.99990081787 175 177 174
269.701153039932 431.3605427742 2940.00005722046 170 172 169
-157.632797956467 431.347906589508 2993.99995803833 200 202 199
-148.578509688377 428.764343261719 2976.0000705719 188 190 187
-139.810562133789 426.756411790848 2961.99989318848 176 178 175
-131.607636809349 426.332831382751 2959.00011062622 161 163 160
-123.504087328911 426.196813583374 2957.99994468689 165 164 160
-115.678749978542 427.069008350372 2963.99998664856 152 151 147
-107.85660892725 428.08473110199 2970.99995613098 143 144 139
-100.16380995512 429.820507764816 2983.00004005432 137 138 133
-92.2818407416344 430.979371070862 2990.9999370575 107 108 103
-84.4965800642967 432.858258485794 3003.99994850159 81 82 77
-51.1971227824688 428.264588117599 2971.99988365173 12 14 9
-42.9227352142334 426.538407802582 2960.00003814697 52 54 49
-34.7489304840565 425.244003534317 2950.99997520447 166 167 161
-26.66025608778 424.525499343872 2946.00009918213 173 174 168
-18.5671225190163 423.085927963257 2936.00010871887 150 151 146
-10.5248363688588 421.501725912094 2924.99995231628 179 180 175
-2.54858518019319 420.925706624985 2921.0000038147 147 148 143
5.40216267108917 420.060992240906 2914.99996185303 181 182 177
13.3247608318925 419.339895248413 2910.00008583069 126 127 122
21.1908370256424 418.041884899139 2901.00002288818 139 140 135
29.0278308093548 417.031526565552 2894.00005340576 155 155 153
36.8520691990852 416.308879852295 2888.99993896484 146 146 144
44.6489192545414 415.585786104202 2884.0000629425 158 158 156
52.4365603923798 415.006250143051 2880.00011444092 143 144 139
60.2021925151348 414.426177740097 2875.99992752075 133 134 129
68.0167973041534 414.277970790863 2875 141 142 137
75.8256986737251 414.129257202148 2874.00007247925 134 135 130
83.599753677845 413.835972547531 2871.99997901917 138 139 134
91.3307666778564 413.398057222366 2868.99995803833 136 137 132
99.1142392158508 413.247883319855 2868.00003051758 136 137 132
106.929175555706 413.241297006607 2868.00003051758 133 134 129
114.74372446537 413.234204053879 2868.00003051758 135 136 131
122.515127062798 413.08256983757 2867.00010299683 144 145 140
130.507931113243 413.650810718536 2871.00005149841 145 146 141
138.329327106476 413.642257452011 2871.00005149841 134 136 133
146.15024626255 413.633227348328 2871.00005149841 133 135 132
153.970628976822 413.623690605164 2871.00005149841 138 140 137
161.903157830238 413.901835680008 2872.99990653992 140 142 139
169.905126094818 414.323568344116 2875.99992752075 136 138 135
177.799224853516 414.456725120544 2877.00009346008 139 141 138
185.827180743217 414.877444505692 2880.00011444092 144 146 143
194.005325436592 415.585815906525 2884.99999046326 148 150 147
202.349975705147 416.581749916077 2891.99995994568 151 153 150
210.659340023994 417.433202266693 2898.00000190735 140 142 139
218.849793076515 417.99595952034 2901.99995040894 161 163 160
227.061301469803 418.558269739151 2905.99989891052 151 151 149
235.293820500374 419.120132923126 2910.00008583069 162 164 161
243.79800260067 420.113533735275 2917.00005531311 160 162 159
252.080589532852 420.674383640289 2921.0000038147 153 155 152
260.829240083694 421.954840421677 2930.0000667572 171 173 170
269.534200429916 423.090726137161 2937.99996376038 176 178 175
-148.238375782967 419.691205024719 2969.00010108948 183 185 182
-139.677777886391 418.286621570587 2959.00011062622 178 180 177
-131.749406456947 418.719202280045 2961.99989318848 158 160 157
-123.678937554359 418.727248907089 2961.99989318848 144 145 140
-115.725122392178 419.158846139908 2964.99991416931 158 159 154
-107.790850102901 419.731378555298 2969.00010108948 149 150 145
-100.002273917198 421.010285615921 2977.9999256134 139 140 135
-92.2568663954735 422.712922096252 2990.00000953674 99 100 95
-84.4457074999809 424.415022134781 3002.00009346008 78 80 75
-59.2013411223888 419.480323791504 2967.00000762939 138 140 135
-51.1142648756504 419.483870267868 2967.00000762939 4 6 1
-42.8384765982628 417.648881673813 2953.9999961853 33 35 30
-34.7276031970978 416.944414377213 2948.99988174438 57 58 52
-26.661965996027 416.522264480591 2946.00009918213 138 139 133
-18.5683146119118 415.109813213348 2936.00010871887 161 162 156
-10.5327079072595 413.838237524033 2927.00004577637 169 170 164
-2.54787621088326 412.848979234695 2920.00007629395 183 184 179
5.40065625682473 412.000566720963 2914.00003433228 151 152 147
13.321035541594 411.292999982834 2908.99991989136 141 142 137
21.1775824427605 409.878015518188 2898.9999294281 156 157 152
29.01965752244 409.028142690659 2892.99988746643 143 143 141
36.8799492716789 408.743262290955 2891.00003242493 155 155 153
44.7601564228535 408.740699291229 2891.00003242493 178 178 176
52.5673776865005 408.172070980072 2887.00008392334 128 129 124
60.352586209774 407.602936029434 2882.99989700317 123 124 119
68.1630969047546 407.316118478775 2881.00004196167 137 138 133
76.0152265429497 407.311528921127 2881.00004196167 132 133 128
83.8088542222977 407.023698091507 2878.99994850159 139 140 135
91.5912762284279 406.735420227051 2877.00009346008 137 138 133
99.3278995156288 406.305223703384 2874.00007247925 135 136 131
107.010535895824 405.73325753212 2869.99988555908 133 134 129
114.831022918224 405.726224184036 2869.99988555908 136 137 132
122.736550867558 406.001508235931 2871.99997901917 145 146 141
130.834400653839 406.841725111008 2878.00002098084 142 143 138
138.723537325859 406.974673271179 2878.99994850159 133 135 132
146.41398191452 406.541615724564 2875.99992752075 133 135 132
154.194846749306 406.390905380249 2875 137 139 136
162.082403898239 406.522393226624 2875.99992752075 138 140 137
170.033931732178 406.794726848602 2878.00002098084 134 136 133
177.99574136734 407.066643238068 2880.00011444092 138 140 137
186.096876859665 407.620698213577 2884.0000629425 143 145 142
194.420889019966 408.598303794861 2891.00003242493 144 146 143
202.642410993576 409.292668104172 2895.99990844727 149 151 148
210.963144898415 410.127937793732 2901.99995040894 134 136 133
219.089537858963 410.538733005524 2904.99997138977 159 161 158
227.465972304344 411.373049020767 2911.00001335144 148 148 146
235.631704330444 411.782890558243 2914.00003433228 160 162 159
243.980050086975 412.474811077118 2918.99991035461 154 156 153
252.268552780151 413.02502155304 2923.00009727478 155 157 154
260.84503531456 413.998603820801 2930.0000667572 173 175 172
269.642204046249 415.254265069962 2938.99989128113 173 175 172
-148.347437381744 411.902457475662 2970.99995613098 183 185 182
-139.828100800514 410.663574934006 2961.99989318848 180 182 179
-131.846576929092 410.949289798737 2963.99998664856 160 162 159
-123.77018481493 410.957187414169 2963.99998664856 150 151 146
-115.771405398846 411.241978406906 2966.00008010864 151 152 147
-107.761293649673 411.526203155518 2967.99993515015 135 136 131
-99.9078080058098 412.503242492676 2974.99990463257 130 131 126
-92.1392291784287 414.034456014633 2986.00006103516 81 82 77
-59.8037056624889 415.578693151474 2996.99997901917 98 100 95
-51.1519461870193 411.699593067169 2969.00010108948 12 14 9
-42.8411774337292 409.622550010681 2953.9999961853 17 19 14
-34.7297973930836 408.931612968445 2948.99988174438 33 34 28
-26.600293815136 407.546848058701 2938.99989128113 30 31 25
-18.5125637799501 405.884265899658 2927.00004577637 176 177 171
-10.5153806507587 405.19180893898 2921.99993133545 135 136 130
-2.54716444760561 404.776185750961 2918.99991035461 173 174 169
5.4047042503953 404.360085725784 2915.99988937378 129 130 125
13.3264577016234 403.527528047562 2910.00008583069 149 150 145
21.1935341358185 402.278423309326 2901.00002288818 160 161 156
29.0415566414595 401.444852352142 2894.99998092651 173 174 169
36.9205474853516 401.304066181183 2894.00005340576 168 168 166
44.7939522564411 401.162832975388 2892.99988746643 116 116 114
52.6253171265125 400.743812322617 2890.00010490417 128 129 124
60.4401305317879 400.324255228043 2887.00008392334 139 140 135
68.3093592524529 400.320261716843 2887.00008392334 130 131 126
76.1519372463226 400.177031755447 2885.99991798401 132 133 128
83.930566906929 399.756073951721 2882.99989700317 129 130 125
91.6925445199013 399.334669113159 2880.00011444092 132 133 128
99.5069444179535 399.189978837967 2878.99994850159 131 132 127
107.240960001945 398.767620325089 2875.99992752075 132 133 128
115.1182949543 398.899376392365 2877.00009346008 139 140 135
123.086139559746 399.307936429977 2880.00011444092 139 140 135
131.115332245827 399.85466003418 2884.0000629425 127 128 123
138.924911618233 399.707645177841 2882.99989700317 130 132 129
146.524906158447 399.005621671677 2878.00002098084 133 135 132
154.258027672768 398.719072341919 2875.99992752075 134 136 133
162.148803472519 398.847997188568 2877.00009346008 133 135 132
170.162603259087 399.253696203232 2880.00011444092 132 134 131
178.192123770714 399.658888578415 2882.99989700317 136 138 135
186.17282807827 399.925023317337 2884.99999046326 140 142 139
194.43279504776 400.745123624802 2891.00003242493 139 141 138
202.514842152596 401.148915290833 2894.00005340576 147 149 146
210.976004600525 402.245283126831 2901.99995040894 131 133 130
219.102844595909 402.648091316223 2904.99997138977 162 164 161
227.401629090309 403.327733278275 2910.00008583069 143 144 139
235.403344035149 403.452396392822 2911.00001335144 153 155 150
243.744000792503 404.130965471268 2915.99988937378 143 145 140
252.024799585342 404.670506715775 2920.00007629395 157 159 154
260.682582855225 405.763924121857 2927.99997329712 168 170 165
269.291311502457 406.718224287033 2934.99994277954 47 49 44
279.165327548981 409.473478794098 2954.99992370605 26 28 23
-148.456409573555 404.101550579071 2973.00004959106 183 185 182
-139.931097626686 402.887016534805 2963.99998664856 179 181 178
-131.943672895432 403.167188167572 2966.00008010864 162 164 161
-123.7777993083 402.903109788895 2963.99998664856 157 158 153
-115.700453519821 402.910441160202 2963.99998664856 153 154 149
-107.513785362244 402.509480714798 2960.99996566772 140 141 136
-99.5781347155571 403.059512376785 2964.99991416931 134 135 130
-91.80548787117 404.424846172333 2974.99990463257 93 95 90
-60.5058819055557 412.192493677139 3032.00006484985 26 31 25
-51.1034354567528 403.22333574295 2966.00008010864 6 11 5
-43.1774295866489 404.721677303314 2976.99999809265 31 36 30
-34.4021879136562 397.110849618912 2921.0000038147 26 29 20
-26.4933351427317 397.928476333618 2927.00004577637 30 33 26
-18.4631142765284 396.842211484909 2918.99991035461 149 152 145
-10.4908430948853 396.299332380295 2914.99996185303 126 129 122
-2.54295999184251 396.163821220398 2914.00003433228 139 142 135
5.39948092773557 396.027773618698 2913.00010681152 120 123 116
13.3364479988813 395.89124917984 2911.99994087219 154 156 151
21.2313830852509 395.074456930161 2905.99989891052 151 153 148
29.1035585105419 394.393146038055 2901.00002288818 170 172 167
36.9356013834476 393.575370311737 2894.99998092651 123 125 120
44.7967350482941 393.300920724869 2892.99988746643 105 107 102
52.6285842061043 392.890125513077 2890.00010490417 132 134 129
60.4857578873634 392.75062084198 2888.99993896484 133 135 130
68.3609172701836 392.746657133102 2888.99993896484 129 131 126
76.2094408273697 392.606288194656 2888.00001144409 128 130 125
84.0522348880768 392.465472221375 2887.00008392334 132 134 129
91.8255746364594 392.052203416824 2884.0000629425 134 136 131
99.6513590216637 391.910374164581 2882.99989700317 128 130 125
107.396744191647 391.496270895004 2880.00011444092 133 135 130
115.285448729992 391.625344753265 2881.00004196167 139 141 136
123.307406902313 392.161786556244 2884.99999046326 136 138 133
131.305262446404 392.561852931976 2888.00001144409 121 123 118
139.17438685894 392.55353808403 2888.00001144409 129 131 128
146.686643362045 391.593426465988 2881.00004196167 133 135 132
154.482036828995 391.448378562927 2880.00011444092 131 133 130
162.271395325661 391.302794218063 2878.99994850159 130 132 129
170.291125774384 391.70053601265 2881.99996948242 133 135 132
178.326576948166 392.097741365433 2884.99999046326 145 147 144
186.377719044685 392.49449968338 2888.00001144409 130 132 129
194.511815905571 393.026649951935 2891.99995994568 140 142 139
202.59702205658 393.422454595566 2894.99998092651 144 146 143
210.98867058754 394.361346960068 2901.99995040894 128 130 127
218.965142965317 394.484460353851 2903.00011634827 154 156 153
226.946294307709 394.607096910477 2904.00004386902 145 146 141
234.851256012917 394.593417644501 2904.00004386902 149 151 146
243.25692653656 395.394563674927 2910.00008583069 135 137 132
251.780778169632 396.33110165596 2917.00005531311 147 149 144
260.51989197731 397.538840770721 2926.00011825562 95 97 92
269.490659236908 399.017840623856 2937.00003623962 29 31 26
278.047978878021 399.817079305649 2943.00007820129 22 24 19
-149.064600467682 397.620469331741 2984.99989509583 189 191 188
-140.364482998848 396.030634641647 2973.00004959106 185 187 184
-131.996139883995 395.239561796188 2967.00000762939 174 176 173
-123.785309493542 394.847601652145 2963.99998664856 150 151 146
-115.707501769066 394.854843616486 2963.99998664856 151 152 147
-107.556633651257 394.595116376877 2961.99989318848 154 156 151
-99.6513739228249 395.267456769943 2967.00000762939 152 154 149
-91.7802229523659 396.205812692642 2973.99997711182 84 86 81
-60.8288981020451 406.083136796951 3048.00009727478 12 17 11
-51.6579523682594 399.425059556961 2997.99990653992 20 25 19
-34.8283126950264 393.967807292938 2957.00001716614 38 41 32
-26.2143481522799 385.842442512512 2895.99990844727 29 32 23
-18.4452719986439 388.508498668671 2915.99988937378 18 21 14
-10.4770911857486 387.843251228333 2911.00001335144 22 25 18
-2.54137068986893 387.976855039597 2911.99994087219 116 119 112
5.39239682257175 387.577056884766 2908.99991989136 150 153 146
13.3235258981586 387.576460838318 2908.99991989136 156 159 152
21.2253779172897 387.042492628098 2904.99997138977 180 183 176
29.1153751313686 386.641293764114 2901.99995040894 146 148 143
36.9761437177658 386.106342077255 2898.00000190735 113 115 110
44.8459349572659 385.837346315384 2895.99990844727 129 131 126
52.7228713035584 385.701209306717 2894.99998092651 130 132 127
60.5522803962231 385.298043489456 2891.99995994568 128 130 125
68.4124305844307 385.16092300415 2891.00003242493 131 133 128
76.2404948472977 384.890109300613 2888.99993896484 133 135 130
84.0573683381081 384.618818759918 2887.00008392334 130 132 127
91.7993262410164 384.080559015274 2882.99989700317 126 128 123
99.6228605508804 383.941531181335 2881.99996948242 127 129 124
107.440568506718 383.802115917206 2881.00004196167 142 144 139
115.452527999878 384.328216314316 2884.99999046326 146 148 143
123.443119227886 384.720683097839 2888.00001144409 114 116 111
131.404131650925 384.979456663132 2890.00010490417 135 137 132
139.134615659714 384.571701288223 2887.00008392334 130 132 127
146.746397018433 383.897095918655 2881.99996948242 134 136 131
154.544964432716 383.754879236221 2881.00004196167 126 128 123
162.45025396347 383.878618478775 2881.99996948242 127 129 124
170.537695288658 384.401470422745 2885.99991798401 130 132 127
178.399056196213 384.391129016876 2885.99991798401 136 138 133
186.259746551514 384.380280971527 2885.99991798401 125 127 122
194.254338741302 384.635448455811 2888.00001144409 144 146 141
202.399104833603 385.156482458115 2891.99995994568 133 135 130
210.710346698761 385.943382978439 2898.00000190735 130 132 127
218.67635846138 386.06396317482 2898.9999294281 137 139 134
226.803347468376 386.450439691544 2901.99995040894 140 141 136
234.379768371582 385.904312133789 2898.00000190735 121 123 118
242.518752813339 386.289924383163 2901.00002288818 29 31 26
250.241667032242 386.009305715561 2898.9999294281 21 23 18
279.008835554123 393.153488636017 2953.00006866455 25 27 22
-149.023547768593 389.376491308212 2983.99996757507 190 192 189
-140.42004942894 388.080060482025 2973.99997711182 181 183 180
-132.004007697105 387.174725532532 2967.00000762939 173 175 172
-123.750947415829 386.660307645798 2963.00005912781 164 165 160
-115.597292780876 386.406362056732 2960.99996566772 152 153 148
-107.454128563404 386.151999235153 2959.00011062622 143 145 140
-99.6237695217133 387.071669101715 2966.00008010864 143 145 140
-59.7348585724831 390.619158744812 2993.00003051758 118 123 117
-52.3848049342632 396.756559610367 3039.99996185303 24 29 23
-43.6613596975803 392.844021320343 3009.99999046326 25 30 23
-18.5855552554131 383.452624082565 2937.99996376038 34 37 30
-10.4921218007803 380.451649427414 2914.99996185303 11 14 7
-2.53977859392762 379.799455404282 2910.00008583069 64 67 60
5.38901519030333 379.407823085785 2907.00006484985 113 116 109
13.3060086518526 379.146218299866 2904.99997138977 171 174 167
21.197434514761 378.623127937317 2901.00002288818 144 147 140
29.0870331227779 378.360629081726 2898.9999294281 118 120 115
36.9783788919449 378.22812795639 2898.00000190735 125 127 122
44.910591095686 378.486722707748 2900.00009536743 136 138 133
52.8171136975288 378.483772277832 2900.00009536743 129 131 126
60.6606230139732 378.088861703873 2897.0000743866 129 131 126
68.4402137994766 377.432435750961 2891.99995994568 132 134 129
76.2450695037842 377.036601305008 2888.99993896484 132 134 129
84.1497629880905 377.162307500839 2890.00010490417 128 130 125
91.9322073459625 376.765519380569 2887.00008392334 125 127 122
99.697969853878 376.368343830109 2884.0000629425 131 133 128
107.521586120129 376.231670379639 2882.99989700317 145 147 142
115.459427237511 376.48606300354 2884.99999046326 136 138 133
123.535975813866 377.131462097168 2890.00010490417 119 121 116
131.366491317749 376.993417739868 2888.99993896484 137 139 134
139.191091060638 376.854956150055 2888.00001144409 127 129 124
146.856963634491 376.324594020844 2884.0000629425 130 132 127
154.715076088905 376.31568312645 2884.0000629425 121 123 118
162.516221404076 376.175850629807 2882.99989700317 125 127 122
170.48867046833 376.42702460289 2884.99999046326 129 131 126
178.285926580429 376.286417245865 2884.0000629425 115 117 112
186.141610145569 376.275777816772 2884.0000629425 132 134 129
194.063916802406 376.395165920258 2884.99999046326 136 138 133
202.200964093208 376.905500888824 2888.99993896484 141 143 138
210.431784391403 377.545893192291 2894.00005340576 114 116 111
218.613624572754 378.055274486542 2898.00000190735 137 139 134
226.660192012787 378.303408622742 2900.00009536743 79 80 75
234.069809317589 377.507448196411 2894.00005340576 14 16 11
241.780325770378 377.23296880722 2891.99995994568 24 26 21
248.184263706207 375.001549720764 2875 20 22 17
279.591649770737 385.912626981735 2959.00011062622 19 21 16
-149.182081222534 381.647616624832 2986.99998855591 196 198 195
-140.428259968758 379.994988441467 2973.99997711182 178 180 177
-131.967276334763 378.980755805969 2966.00008010864 175 177 174
-123.674683272839 378.349304199219 2960.99996566772 167 169 164
-115.486972033978 377.972930669785 2957.99994468689 177 179 174
-107.496798038483 378.235042095184 2960.00003814697 174 176 171
-99.6968224644661 379.263311624527 2967.99993515015 162 164 159
-59.8581619560719 383.248209953308 2999.00007247925 153 158 152
-51.0954447090626 378.906488418579 2964.99991416931 16 21 15
-43.5914248228073 384.021073579788 3005.00011444092 18 23 16
-2.54865805618465 373.165190219879 2920.00007629395 27 30 23
5.3819203749299 370.992571115494 2903.00011634827 10 13 6
13.2655743509531 370.097398757935 2895.99990844727 101 104 97
21.1329255253077 369.585186243057 2891.99995994568 90 93 86
29.0185231715441 369.583755731583 2891.99995994568 131 134 127
36.9167700409889 369.709610939026 2892.99988746643 122 124 119
44.8358207941055 369.962811470032 2894.99998092651 134 136 131
52.7473874390125 370.087683200836 2895.99990844727 134 136 131
60.6223344802856 369.956582784653 2894.99998092651 137 139 134
68.3969408273697 369.31386590004 2890.00010490417 133 135 130
76.2231945991516 369.053989648819 2888.00001144409 129 131 126
84.0964987874031 369.049310684204 2888.00001144409 129 131 126
91.9376462697983 368.916362524033 2887.00008392334 127 129 124
99.7038632631302 368.527442216873 2884.0000629425 138 140 135
107.527919113636 368.393570184708 2882.99989700317 134 136 131
115.466222167015 368.642598390579 2884.99999046326 115 117 112
123.329497873783 368.635654449463 2884.99999046326 139 141 136
131.192311644554 368.628233671188 2884.99999046326 129 131 126
139.006435871124 368.492603302002 2884.0000629425 129 131 126
146.814614534378 368.35652589798 2882.99989700317 128 130 125
154.563143849373 368.09229850769 2881.00004196167 116 118 113
162.46934235096 368.210911750793 2881.99996948242 123 125 120
170.32128572464 368.201345205307 2881.99996948242 112 114 109
178.048983216286 367.93577671051 2880.00011444092 110 112 107
185.700550675392 367.542058229446 2877.00009346008 117 119 114
193.738773465157 367.914468050003 2880.00011444092 126 128 123
201.862648129463 368.414133787155 2884.0000629425 107 109 104
210.44385433197 369.679808616638 2894.00005340576 12 14 9
218.626126646996 370.178550481796 2898.00000190735 5 7 2
226.673141121864 370.421409606934 2900.00009536743 17 18 12
232.465401291847 367.087453603745 2874.00007247925 20 23 16
239.034950733185 365.158289670944 2858.99996757507 24 27 20
247.680306434631 366.421818733215 2868.99995803833 39 42 35
258.071213960648 370.111435651779 2898.00000190735 21 24 17
269.445031881332 374.94969367981 2936.00010871887 23 26 19
280.268728733063 378.76558303833 2966.00008010864 23 26 19
-140.578016638756 372.283726930618 2976.99999809265 179 181 178
-131.930381059647 370.790898799896 2964.99991416931 178 180 177
-123.556531965733 369.922816753387 2957.99994468689 154 156 151
-115.3374761343 369.429409503937 2953.9999961853 148 150 145
-107.321426272392 369.560897350311 2954.99992370605 144 146 141
-99.5346531271935 370.567321777344 2963.00005912781 139 141 136
-58.9235052466393 369.214415550232 2951.99990272522 67 72 66
-50.5469515919685 366.841226816177 2933.00008773804 25 30 24
-2.5191290769726 360.971808433533 2885.99991798401 8 11 2
5.38038043305278 362.972944974899 2901.99995040894 21 24 17
13.2571896538138 361.971825361252 2894.00005340576 53 56 49
21.119549870491 361.470550298691 2890.00010490417 112 115 108
28.9901159703732 361.34397983551 2888.99993896484 120 123 116
36.8423573672771 361.091911792755 2887.00008392334 125 128 121
44.7455123066902 361.339718103409 2888.99993896484 125 128 121
52.6229627430439 361.336886882782 2888.99993896484 136 138 133
60.5002231895924 361.333608627319 2888.99993896484 135 137 132
68.3062449097633 360.954642295837 2885.99991798401 130 132 127
76.1484429240227 360.825419425964 2884.99999046326 128 130 125
83.984911441803 360.695749521255 2884.0000629425 127 129 124
91.8155983090401 360.565602779388 2882.99989700317 126 128 123
99.605917930603 360.309988260269 2881.00004196167 134 136 131
107.534162700176 360.554158687592 2882.99989700317 122 124 119
115.392841398716 360.547721385956 2882.99989700317 120 122 117
123.165607452393 360.290795564651 2881.00004196167 132 134 129
130.881533026695 359.90834236145 2878.00002098084 126 128 123
138.725236058235 359.900653362274 2878.00002098084 127 129 124
146.517500281334 359.767526388168 2877.00009346008 124 126 121
154.250100255013 359.508842229843 2875 112 114 109
162.083998322487 359.499841928482 2875 120 122 117
169.976398348808 359.615445137024 2875.99992752075 102 104 99
177.811816334724 359.605640172958 2875.99992752075 116 118 113
185.323819518089 358.970195055008 2871.00005149841 132 134 129
193.278849124908 359.209597110748 2872.99990653992 75 77 72
201.804041862488 360.448747873306 2882.99989700317 12 14 9
210.892081260681 362.562626600266 2900.00009536743 28 30 25
219.996422529221 364.550858736038 2915.99988937378 19 21 16
228.171035647392 364.913433790207 2918.99991035461 14 15 9
235.794916749001 364.400535821915 2914.99996185303 26 29 22
258.708894252777 363.109529018402 2904.99997138977 26 29 22
269.551664590836 367.094784975052 2937.00003623962 22 25 18
279.43366765976 369.579523801804 2957.00001716614 33 36 29
-140.822112560272 364.799588918686 2982.00011253357 141 142 137
-132.026866078377 362.97219991684 2967.00000762939 164 164 162
-123.605318367481 362.000733613968 2959.00011062622 162 166 165
-115.265943109989 361.151039600372 2951.99990272522 160 164 163
-107.182241976261 361.034959554672 2950.99997520447 152 156 155
-99.2715731263161 361.530184745789 2954.99992370605 155 160 156
-91.678261756897 363.370776176453 2970.00002861023 75 80 76
-57.549525052309 352.743208408356 2882.99989700317 20 30 22
-50.4292063415051 358.007520437241 2926.00011825562 0 7 0
5.32506639137864 351.409196853638 2871.99997901917 18 21 14
13.2212992757559 353.121608495712 2885.99991798401 12 15 8
21.0842192173004 352.998286485672 2884.99999046326 17 20 13
28.9516374468803 352.99688577652 2884.99999046326 125 128 121
36.7678999900818 352.505624294281 2881.00004196167 153 156 149
44.6241647005081 352.503299713135 2881.00004196167 140 143 136
52.5166839361191 352.745205163956 2882.99989700317 112 117 111
60.3780299425125 352.741986513138 2882.99989700317 109 114 108
68.215474486351 352.616012096405 2881.99996948242 117 122 116
76.0736167430878 352.611929178238 2881.99996948242 120 125 119
83.960585296154 352.729737758636 2882.99989700317 127 132 126
91.757133603096 352.480053901672 2881.00004196167 134 139 133
99.5424464344978 352.229952812195 2878.99994850159 130 132 127
107.391066849232 352.224111557007 2878.99994850159 112 114 109
115.199275314808 352.095484733582 2878.00002098084 128 130 125
122.916087508202 351.721793413162 2875 122 124 119
130.616098642349 351.347655057907 2871.99997901917 125 127 122
138.443842530251 351.340085268021 2871.99997901917 122 124 119
146.322041749954 351.4544069767 2872.99990653992 119 121 116
154.097825288773 351.323664188385 2871.99997901917 110 112 107
161.980330944061 351.43718123436 2872.99990653992 119 121 116
169.926837086678 351.6725897789 2875 97 99 94
177.759930491447 351.662933826447 2875 78 80 75
184.882313013077 350.307434797287 2864.00008201599 10 12 7
192.684128880501 350.296974182129 2864.00008201599 5 8 1
201.955288648605 352.854549884796 2884.99999046326 11 13 8
212.867364287376 357.97992348671 2927.00004577637 9 11 6
221.291244029999 358.701795339584 2933.00008773804 12 15 8
228.652626276016 357.711106538773 2924.99995231628 21 22 14
235.726982355118 356.353253126144 2914.00003433228 0 2 0
243.660360574722 356.340169906616 2914.00003433228 22 25 18
260.05893945694 357.046574354172 2920.00007629395 0 2 0
268.189549446106 357.276886701584 2921.99993133545 25 28 21
-140.924409031868 356.928110122681 2983.99996757507 190 189 185
-132.034212350845 354.902148246765 2967.00000762939 188 188 186
-123.486891388893 353.593468666077 2956.00008964539 172 176 175
-115.15524238348 352.762699127197 2948.99988174438 163 165 164
-107.042968273163 352.529644966125 2947.00002670288 162 164 163
-99.0755632519722 352.77459025383 2948.99988174438 159 164 160
-91.3747176527977 354.095786809921 2960.00003814697 91 96 90
-57.0137687027454 341.670721769333 2855.99994659424 15 25 17
-43.5844175517559 359.382122755051 3003.99994850159 18 25 18
-34.2494063079357 347.779721021652 2907.00006484985 25 28 21
-26.2401178479195 346.704721450806 2898.00000190735 21 24 17
13.153325766325 343.476355075836 2871.00005149841 21 24 17
21.0927166044712 345.26988863945 2885.99991798401 10 13 6
28.9633069187403 345.268487930298 2885.99991798401 33 36 29
36.7699787020683 344.668537378311 2881.00004196167 74 77 70
44.6731522679329 345.02512216568 2884.0000629425 98 101 94
52.5378659367561 345.022410154343 2884.0000629425 122 127 121
60.381431132555 344.899594783783 2882.99989700317 124 129 123
68.219318985939 344.776421785355 2881.99996948242 120 125 119
76.0250985622406 344.533145427704 2880.00011444092 117 122 116
