ply
format ascii 1.0
comment KinectMotionCapture
element vertex 763
property float x
property float y
property float z
property uchar red
property uchar green
property uchar blue
end_header
634.422302246094 620.061218738556 2387.00008392334 185 185 187
641.959965229034 621.080219745636 2391.00003242493 181 181 183
648.705661296844 621.320247650146 2391.99995994568 166 166 168
656.55255317688 622.599720954895 2397.0000743866 172 172 174
664.703071117401 624.139189720154 2403.00011634827 191 190 195
674.003481864929 626.718044281006 2413.00010681152 203 204 208
681.383967399597 627.479016780853 2415.99988937378 181 182 186
689.920008182526 629.279494285584 2423.00009727478 187 188 192
698.493897914886 631.080210208893 2430.0000667572 206 207 211
708.556771278381 634.179890155792 2441.99991226196 224 225 229
718.68497133255 637.28004693985 2453.9999961853 240 241 246
728.878378868103 640.380442142487 2466.00008010864 213 214 218
738.540709018707 642.962038516998 2476.0000705719 187 188 192
747.053623199463 644.505441188812 2482.00011253357 210 211 215
756.814241409302 647.088050842285 2492.00010299683 234 235 240
766.6295170784 649.671137332916 2502.00009346008 220 221 225
776.499509811401 652.25487947464 2512.00008392334 217 218 222
785.176932811737 653.800666332245 2517.99988746643 215 215 217
792.000293731689 653.789103031158 2517.99988746643 230 230 230
796.920895576477 652.220606803894 2512.00008392334 232 232 230
427.514851093292 623.90798330307 2424.00002479553 173 175 172
432.65837430954 621.823966503143 2415.99988937378 135 137 134
438.485145568848 620.769441127777 2411.99994087219 121 121 121
444.105207920074 619.457721710205 2407.00006484985 132 132 132
449.697405099869 618.145883083344 2401.99995040894 131 131 131
455.262035131454 616.834163665771 2397.0000743866 144 144 144
461.569458246231 616.551756858826 2395.99990844727 152 152 154
467.870980501175 616.26935005188 2394.99998092651 154 154 156
474.36460852623 616.244316101074 2394.99998092651 150 148 151
480.656892061234 615.961909294128 2394.00005340576 147 145 148
487.553626298904 616.451382637024 2395.99990844727 144 144 146
493.84218454361 616.169095039368 2394.99998092651 147 147 149
500.124871730804 615.886867046356 2394.00005340576 153 153 155
505.555093288422 614.575624465942 2388.99993896484 154 154 156
512.029349803925 614.550769329071 2388.99993896484 154 154 156
518.06914806366 614.011526107788 2387.00008392334 155 155 157
524.097621440887 613.472461700439 2384.99999046326 149 149 151
530.114829540253 612.93351650238 2382.99989700317 179 179 181
536.345958709717 612.651944160461 2381.99996948242 167 167 169
543.02704334259 612.884938716888 2382.99989700317 176 176 178
549.021363258362 612.346410751343 2381.00004196167 173 173 175
555.237829685211 612.065315246582 2380.00011444092 172 172 174
561.920583248138 612.298846244812 2381.00004196167 236 234 237
568.130970001221 612.018167972565 2380.00011444092 180 178 181
574.57709312439 611.994802951813 2380.00011444092 153 151 154
581.022918224335 611.971735954285 2380.00011444092 136 134 137
588.208913803101 612.720251083374 2382.99989700317 169 167 170
594.412803649902 612.440466880798 2381.99996948242 174 172 175
601.115584373474 612.675249576569 2382.99989700317 178 176 179
608.33352804184 613.42453956604 2385.99991798401 179 177 180
614.794492721558 613.402724266052 2385.99991798401 179 177 180
620.994985103607 613.124191761017 2384.99999046326 180 178 181
627.189993858337 612.84601688385 2384.0000629425 181 179 182
633.9111328125 613.082408905029 2384.99999046326 179 179 181
641.174495220184 613.833129405975 2388.00001144409 176 176 178
648.182988166809 614.327192306519 2390.00010490417 180 180 182
656.29780292511 615.849733352661 2395.99990844727 198 198 200
664.72202539444 617.629766464233 2403.00011634827 207 207 209
674.022078514099 620.181024074554 2413.00010681152 172 173 177
682.248175144196 621.704459190369 2418.99991035461 167 168 172
690.222322940826 622.971534729004 2424.00002479553 196 197 201
698.798537254334 624.752879142761 2430.99999427795 213 214 218
707.702994346619 626.791596412659 2438.99989128113 229 230 234
718.408346176147 630.372762680054 2453.00006866455 208 209 213
728.598594665527 633.440256118774 2464.99991416931 179 180 184
738.854229450226 636.508226394653 2476.99999809265 175 176 180
747.369170188904 638.034820556641 2483.00004005432 228 229 233
756.524562835693 640.075862407684 2490.9999370575 240 241 245
766.030192375183 642.374455928802 2500 210 211 215
775.584936141968 644.673645496368 2509.0000629425 212 213 217
783.006191253662 645.174741744995 2510.99991798401 217 217 219
791.697144508362 646.704435348511 2516.99995994568 224 224 224
796.297013759613 644.894599914551 2509.99999046326 234 234 232
433.041572570801 615.797400474548 2417.99998283386 153 155 152
439.23744559288 615.262806415558 2415.99988937378 138 138 136
445.237368345261 614.473700523376 2413.00010681152 126 126 126
451.407581567764 613.939166069031 2411.00001335144 127 127 127
457.376509904861 613.14994096756 2407.99999237061 132 132 132
463.32848072052 612.360775470734 2404.99997138977 142 142 142
469.263702630997 611.571609973907 2401.99995040894 150 150 150
475.380152463913 611.037135124207 2400.00009536743 149 147 150
481.485158205032 610.502600669861 2398.00000190735 147 145 148
487.782329320908 610.22275686264 2397.0000743866 147 147 149
494.073539972305 609.94291305542 2395.99990844727 147 147 149
500.776648521423 610.172271728516 2397.0000743866 149 149 151
506.849825382233 609.637975692749 2394.99998092651 151 151 153
513.125956058502 609.358370304108 2394.00005340576 153 153 155
518.96208524704 608.569741249084 2391.00003242493 153 153 155
525.001287460327 608.035802841187 2388.99993896484 155 155 157
531.029284000397 607.502043247223 2387.00008392334 167 167 169
537.496268749237 607.477366924286 2387.00008392334 165 165 167
543.734967708588 607.198297977448 2385.99991798401 167 167 169
549.737334251404 606.665074825287 2384.0000629425 183 183 185
555.728375911713 606.131970882416 2381.99996948242 179 177 180
562.18034029007 606.107950210571 2381.99996948242 156 154 157
568.632006645203 606.084167957306 2381.99996948242 138 136 139
575.083255767822 606.06062412262 2381.99996948242 159 157 160
581.534206867218 606.037259101868 2381.99996948242 172 170 173
588.23174238205 606.268465518951 2382.99989700317 183 181 184
594.934582710266 606.500029563904 2384.0000629425 180 178 181
601.642429828644 606.731712818146 2384.99999046326 180 178 181
608.355641365051 606.963813304901 2385.99991798401 180 178 181
614.816308021545 606.941640377045 2385.99991798401 180 178 181
621.016442775726 606.665551662445 2384.99999046326 181 179 182
627.474188804626 606.644093990326 2384.99999046326 181 179 182
633.931815624237 606.622993946075 2384.99999046326 181 181 181
640.926480293274 607.111096382141 2387.00008392334 183 183 183
648.203015327454 607.853651046753 2390.00010490417 193 193 195
656.591415405273 609.61389541626 2397.0000743866 187 187 189
665.01784324646 611.37455701828 2404.00004386902 177 177 179
674.040973186493 613.644063472748 2413.00010681152 194 195 197
681.702673435211 614.642381668091 2417.00005531311 218 219 221
689.955592155457 616.149723529816 2423.00009727478 208 209 213
699.391067028046 618.674516677856 2433.00008773804 203 204 208
709.461152553558 621.708273887634 2444.9999332428 186 187 191
719.5965051651 624.742388725281 2457.00001716614 171 172 176
729.205906391144 627.268373966217 2467.00000762939 197 198 200
739.168167114258 630.049049854279 2477.9999256134 224 225 227
747.986316680908 631.813108921051 2484.99989509583 234 235 237
757.450222969055 634.08637046814 2493.99995803833 210 211 215
765.73771238327 635.343134403229 2499.00007247925 195 196 200
774.361729621887 636.854588985443 2505.00011444092 196 197 201
781.77148103714 637.349903583527 2506.99996948242 209 209 211
792.023539543152 640.133678913116 2517.99988746643 219 219 219
799.798011779785 640.884578227997 2520.99990844727 235 235 235
440.353602170944 610.237896442413 2421.99993133545 165 165 163
446.369796991348 609.456658363342 2418.99991035461 130 130 128
452.743589878082 609.179198741913 2417.99998283386 127 127 125
459.111392498016 608.901798725128 2417.00005531311 126 126 126
464.702516794205 607.616603374481 2411.99994087219 129 129 129
471.047431230545 607.339143753052 2411.00001335144 132 132 132
476.594030857086 606.054127216339 2405.99989891052 145 143 144
482.313722372055 605.020999908447 2401.99995040894 147 145 146
488.011181354523 603.98805141449 2398.00000190735 145 145 147
494.09881234169 603.458881378174 2395.99990844727 148 148 150
501.219749450684 604.189097881317 2398.9999294281 151 151 153
507.721543312073 604.163706302643 2398.9999294281 150 150 152
514.222860336304 604.138374328613 2398.9999294281 151 151 153
519.638359546661 602.854013442993 2394.00005340576 160 160 162
525.685608386993 602.325260639191 2391.99995994568 163 163 165
531.499028205872 601.544857025146 2388.99993896484 167 167 169
538.196504116058 601.771771907806 2390.00010490417 170 170 172
544.443249702454 601.495206356049 2388.99993896484 170 170 172
550.914704799652 601.470589637756 2388.99993896484 163 163 165
556.91921710968 600.942671298981 2387.00008392334 157 157 159
563.148438930511 600.666642189026 2385.99991798401 148 146 149
569.610714912415 600.642621517181 2385.99991798401 156 154 157
576.072633266449 600.618720054626 2385.99991798401 175 173 176
582.29011297226 600.343346595764 2384.99999046326 174 172 175
588.748693466187 600.319862365723 2384.99999046326 176 174 177
595.456540584564 600.548326969147 2385.99991798401 175 173 176
601.917386054993 600.525438785553 2385.99991798401 176 174 177
608.377993106842 600.502729415894 2385.99991798401 178 176 179
615.096092224121 600.732147693634 2387.00008392334 179 177 180
622.079789638519 601.213276386261 2388.99993896484 182 180 183
628.5480260849 601.191580295563 2388.99993896484 182 180 183
634.750247001648 600.918412208557 2388.00001144409 187 187 187
641.215622425079 600.897431373596 2388.00001144409 188 188 188
648.223400115967 601.379990577698 2390.00010490417 181 181 183
656.611502170563 603.120923042297 2397.0000743866 180 180 182
665.314197540283 605.113804340363 2404.99997138977 186 186 188
674.339652061462 607.358574867249 2414.00003433228 219 220 222
682.567715644836 608.848869800568 2420.00007629395 215 216 218
690.828382968903 610.339522361755 2426.00011825562 183 184 188
700.271546840668 612.836837768555 2436.00010871887 175 176 180
709.769010543823 615.334570407867 2446.00009918213 164 165 169
719.61373090744 618.084192276001 2457.00001716614 184 185 189
728.631436824799 620.079517364502 2464.99991416931 224 225 227
738.886058330536 623.081505298615 2476.99999809265 237 238 240
748.3029961586 625.329256057739 2486.00006103516 218 219 221
757.465302944183 627.32607126236 2493.99995803833 195 196 200
765.445590019226 628.31711769104 2497.99990653992 192 193 197
774.06644821167 629.812002182007 2503.99994850159 196 197 201
782.0965051651 630.804300308228 2507.99989700317 205 205 207
792.350649833679 633.557915687561 2519.00005340576 220 220 222
798.857927322388 633.293986320496 2517.99988746643 229 229 229
442.197263240814 606.176793575287 2431.99992179871 171 171 169
448.794275522232 606.151163578033 2431.99992179871 156 156 154
454.45442199707 604.879319667816 2427.00004577637 129 129 127
460.466742515564 604.105889797211 2424.00002479553 130 130 130
465.69150686264 602.335691452026 2417.00005531311 128 128 128
471.854656934738 601.811528205872 2414.99996185303 126 126 126
477.61008143425 600.788950920105 2411.00001335144 138 136 137
483.744949102402 600.26490688324 2408.99991989136 143 141 142
488.850802183151 598.495066165924 2401.99995040894 143 143 145
494.7429895401 597.721934318542 2398.9999294281 146 146 148
501.663208007813 598.194658756256 2401.00002288818 150 150 152
508.593618869781 598.66738319397 2403.00011634827 150 150 152
515.105724334717 598.641812801361 2403.00011634827 152 152 154
520.314812660217 597.12165594101 2397.0000743866 160 160 162
526.370048522949 596.598088741302 2394.99998092651 163 163 165
532.414019107819 596.07470035553 2392.99988746643 147 147 149
538.671851158142 595.800518989563 2391.99995994568 137 137 139
544.695913791656 595.277369022369 2390.00010490417 137 137 139
550.939321517944 595.003426074982 2388.99993896484 147 147 149
556.943655014038 594.480752944946 2387.00008392334 167 165 168
563.40879201889 594.456255435944 2387.00008392334 165 163 166
569.873571395874 594.431936740875 2387.00008392334 165 163 166
576.337993144989 594.407796859741 2387.00008392334 166 164 167
582.313716411591 593.885838985443 2384.99999046326 165 163 166
588.772118091583 593.862175941467 2384.99999046326 173 171 174
595.479786396027 594.087719917297 2385.99991798401 171 169 172
601.940274238586 594.064474105835 2385.99991798401 175 173 176
608.400583267212 594.041526317596 2385.99991798401 178 176 179
615.118443965912 594.267964363098 2387.00008392334 181 179 182
622.622668743134 595.241367816925 2391.00003242493 185 183 186
628.569722175598 594.72131729126 2388.99993896484 186 184 187
635.037481784821 594.699621200562 2388.99993896484 185 185 185
641.773700714111 594.927191734314 2390.00010490417 182 182 182
649.600148200989 596.150696277618 2394.99998092651 178 178 178
657.727599143982 597.623467445374 2401.00002288818 173 173 173
666.717410087585 599.843204021454 2410.00008583069 168 168 170
675.197303295136 601.565420627594 2417.00005531311 152 153 155
683.715164661407 603.287935256958 2424.00002479553 162 163 165
691.416680812836 604.264140129089 2427.99997329712 183 184 186
700.864791870117 606.733977794647 2437.99996376038 180 181 183
709.787011146545 608.706533908844 2446.00009918213 193 194 196
719.338357448578 611.177146434784 2456.00008964539 241 242 244
728.352904319763 613.150358200073 2463.99998664856 232 234 233
738.604366779327 616.11944437027 2476.0000705719 185 186 188
747.716903686523 618.093490600586 2483.99996757507 169 170 172
757.480800151825 620.565831661224 2493.99995803833 171 172 176
766.07346534729 622.043311595917 2500 194 195 199
775.626420974731 624.267756938934 2509.0000629425 198 199 203
783.981144428253 625.49751996994 2513.99993896484 200 199 204
792.36376285553 626.727998256683 2519.00005340576 211 211 213
797.918438911438 625.719904899597 2515.00010490417 220 220 222
451.034605503082 602.528214454651 2444.00000572205 167 167 165
456.352800130844 600.776672363281 2437.00003623962 137 137 135
461.252391338348 598.53196144104 2427.99997329712 130 130 128
466.680735349655 597.027122974396 2421.99993133545 130 130 130
472.857445478439 596.508204936981 2420.00007629395 128 128 128
478.626430034637 595.496296882629 2415.99988937378 133 131 132
484.373182058334 594.484508037567 2411.99994087219 136 134 135
489.894181489944 593.226373195648 2407.00006484985 142 142 144
496.006101369858 592.707574367523 2404.99997138977 142 142 144
502.524673938751 592.68182516098 2404.99997138977 147 147 149
509.254217147827 592.902421951294 2405.99989891052 151 151 153
515.345692634583 592.383921146393 2404.00004386902 154 154 156
520.991563796997 591.372609138489 2400.00009536743 157 157 159
526.61520242691 590.361475944519 2395.99990844727 154 154 156
533.106744289398 590.335965156555 2395.99990844727 142 142 144
539.372563362122 590.064346790314 2394.99998092651 142 142 144
545.860469341278 590.039134025574 2394.99998092651 155 155 157
551.886677742004 589.52134847641 2392.99988746643 158 158 160
558.134973049164 589.250087738037 2391.99995994568 161 159 162
564.377427101135 588.979065418243 2391.00003242493 160 158 161
570.614159107208 588.708221912384 2390.00010490417 162 160 163
576.844990253448 588.437438011169 2388.99993896484 168 166 169
582.581758499146 587.674379348755 2385.99991798401 170 168 171
589.289546012878 587.896823883057 2387.00008392334 173 171 174
595.752835273743 587.873101234436 2387.00008392334 174 172 175
601.963520050049 587.603330612183 2385.99991798401 178 176 179
608.423590660095 587.58020401001 2385.99991798401 180 178 181
615.398764610291 588.04976940155 2388.00001144409 182 180 183
622.905433177948 589.012086391449 2391.99995994568 185 183 186
628.854990005493 588.497281074524 2390.00010490417 185 183 186
635.590851306915 588.721454143524 2391.00003242493 179 179 179
642.332196235657 588.945984840393 2391.99995994568 174 174 174
650.16371011734 590.15566110611 2397.0000743866 170 170 170
658.296167850494 591.611802577972 2403.00011634827 161 161 161
666.461110115051 593.068301677704 2408.99991989136 150 150 150
675.217390060425 595.017373561859 2417.00005531311 164 165 167
683.734834194183 596.720576286316 2424.00002479553 182 183 185
691.720604896545 597.931802272797 2428.99990081787 186 187 189
700.596153736115 599.881887435913 2437.00003623962 186 187 189
709.224998950958 601.586222648621 2444.00000572205 209 210 212
718.184649944305 603.537023067474 2451.99990272522 226 227 229
727.187931537628 605.488240718842 2460.00003814697 211 213 212
737.42800951004 608.424365520477 2471.99988365173 170 171 173
747.4325299263 611.114859580994 2483.00004005432 168 169 171
757.193028926849 613.559544086456 2493.00003051758 180 181 183
767.008066177368 616.004765033722 2503.00002098084 194 195 199
776.877701282501 618.450462818146 2513.00001144409 191 192 196
785.866439342499 620.158433914185 2519.99998092651 202 201 206
793.006300926209 620.39041519165 2520.99990844727 205 205 207
800.469398498535 620.869219303131 2523.00000190735 223 223 225
804.424226284027 618.64173412323 2513.99993896484 193 193 193
457.127839326859 595.156252384186 2440.99998474121 162 162 160
462.988287210464 594.155013561249 2437.00003623962 143 143 141
467.862814664841 591.934621334076 2427.99997329712 129 129 129
473.860442638397 591.17716550827 2424.99995231628 136 136 136
479.444891214371 589.932203292847 2420.00007629395 139 137 138
485.804885625839 589.662313461304 2418.99991035461 136 134 135
491.34486913681 588.417530059814 2414.00003433228 141 141 143
497.682064771652 588.147759437561 2413.00010681152 144 144 146
503.804266452789 587.634205818176 2411.00001335144 149 149 151
510.338425636292 587.608277797699 2411.00001335144 150 150 152
516.014575958252 586.60751581192 2407.00006484985 149 149 151
522.10259437561 586.094200611115 2404.99997138977 148 148 150
527.739822864532 585.09373664856 2401.00002288818 145 145 147
534.467279911041 585.311770439148 2401.99995040894 157 157 159
540.974497795105 585.286200046539 2401.99995040894 157 157 159
547.481238842011 585.260808467865 2401.99995040894 152 152 154
553.29555273056 584.50448513031 2398.9999294281 157 157 159
559.559941291809 584.235668182373 2398.00000190735 159 157 160
565.346419811249 583.479881286621 2394.99998092651 163 161 164
571.354985237122 582.967817783356 2392.99988746643 166 164 167
576.869368553162 581.968784332275 2388.99993896484 161 159 162
583.094298839569 581.700801849365 2388.00001144409 163 161 164
589.807212352753 581.920206546783 2388.99993896484 172 170 173
596.774876117706 582.383453845978 2391.00003242493 174 172 175
602.491557598114 581.629037857056 2388.00001144409 177 175 178
608.956813812256 581.605613231659 2388.00001144409 178 176 179
615.421712398529 581.582427024841 2388.00001144409 179 177 180
622.667729854584 582.290172576904 2391.00003242493 178 176 179
628.614068031311 581.780433654785 2388.99993896484 177 175 178
635.347068309784 582.001745700836 2390.00010490417 175 175 175
642.085254192352 582.223236560822 2391.00003242493 169 169 169
650.456309318542 583.90611410141 2398.00000190735 153 153 153
658.865094184875 585.589170455933 2404.99997138977 149 149 149
667.035162448883 587.029039859772 2411.00001335144 154 154 154
675.237715244293 588.469266891479 2417.00005531311 164 165 167
683.190584182739 589.666247367859 2421.99993133545 173 174 176
692.025125026703 591.594040393829 2430.0000667572 188 189 191
701.19035243988 593.765497207642 2438.99989128113 212 213 215
710.404515266418 595.937311649323 2447.99995422363 216 217 219
719.667434692383 598.109483718872 2457.00001716614 177 178 180
728.38819026947 599.795162677765 2463.99998664856 155 157 156
738.042116165161 602.211594581604 2473.99997711182 167 169 168
747.750401496887 604.628384113312 2483.99996757507 184 186 185
757.816851139069 607.289016246796 2494.99988555908 194 195 197
767.636835575104 609.706699848175 2505.00011444092 189 190 194
777.202129364014 611.881375312805 2513.99993896484 190 191 195
785.881161689758 613.326609134674 2519.99998092651 201 200 205
793.964028358459 614.285469055176 2523.9999294281 201 201 203
803.655505180359 616.461992263794 2532.99999237061 223 223 225
813.396334648132 618.639051914215 2542.00005531311 212 212 212
464.534342288971 589.487493038177 2444.9999332428 162 162 160
469.237923622131 587.050259113312 2434.99994277954 127 127 127
475.254505872726 586.300730705261 2431.99992179871 134 134 134
480.857938528061 585.069119930267 2427.00004577637 142 140 141
487.23703622818 584.801852703094 2426.00011825562 141 139 140
492.592245340347 583.329260349274 2420.00007629395 141 141 143
498.945683240891 583.061993122101 2418.99991035461 146 146 148
504.875183105469 582.312643527985 2415.99988937378 152 152 154
511.634588241577 582.527577877045 2417.00005531311 149 149 151
517.112493515015 581.296384334564 2411.99994087219 146 146 148
523.213982582092 580.788373947144 2410.00008583069 146 146 148
528.864562511444 579.798460006714 2405.99989891052 150 150 152
535.382986068726 579.772591590881 2405.99989891052 148 148 150
541.900932788849 579.746842384338 2405.99989891052 151 151 153
548.64639043808 579.962253570557 2407.00006484985 159 159 161
554.704785346985 579.454779624939 2404.99997138977 156 156 158
560.518503189087 578.706622123718 2401.99995040894 160 158 161
566.079556941986 577.71772146225 2398.00000190735 161 159 162
572.096049785614 577.21084356308 2395.99990844727 161 159 162
577.618420124054 576.222479343414 2391.99995994568 166 164 167
584.095418453217 576.197862625122 2391.99995994568 169 167 170
590.572059154511 576.173484325409 2391.99995994568 167 165 168
597.2980260849 576.390206813812 2392.99988746643 172 170 173
603.524446487427 576.12532377243 2391.99995994568 174 172 175
609.235227108002 575.379133224487 2388.99993896484 175 173 176
615.702509880066 575.355708599091 2388.99993896484 175 173 176
622.690558433533 575.814247131348 2391.00003242493 174 172 175
629.162967205048 575.791358947754 2391.00003242493 174 172 175
635.901033878326 576.009571552277 2391.99995994568 163 163 163
642.644286155701 576.228141784668 2392.99988746643 158 158 158
650.749206542969 577.650904655457 2398.9999294281 153 153 153
659.708380699158 579.796373844147 2407.99999237061 151 151 151
667.332768440247 580.738127231598 2411.99994087219 152 152 152
675.537705421448 582.161724567413 2417.99998283386 171 172 174
682.928800582886 582.863450050354 2421.0000038147 175 176 178
691.760122776031 584.769189357758 2428.99990081787 194 195 197
700.92236995697 586.915969848633 2437.99996376038 210 211 213
711.294233798981 590.025961399078 2450.99997520447 188 189 191
720.564961433411 592.173457145691 2460.00003814697 157 158 160
728.997766971588 593.599081039429 2466.00008010864 157 158 160
738.059818744659 595.506548881531 2473.99997711182 181 182 184
748.068630695343 598.1365442276 2484.99989509583 195 196 198
758.744776248932 601.248323917389 2497.99990653992 194 195 197
768.265962600708 603.397786617279 2506.99996948242 183 184 188
777.836203575134 605.547726154327 2516.00003242493 189 190 194
785.896182060242 606.494784355164 2519.99998092651 182 181 186
794.922173023224 608.164489269257 2526.99995040894 199 199 201
805.255651473999 610.79740524292 2538.00010681152 207 207 209
815.969347953796 613.671481609344 2549.99995231628 226 226 226
466.27077460289 585.014402866364 2453.9999961853 171 171 169
470.035076141357 581.412196159363 2438.99989128113 153 153 153
476.062566041946 580.670654773712 2436.00010871887 151 151 151
481.874883174896 579.690754413605 2431.99992179871 152 152 152
488.669246435165 579.902708530426 2433.00008773804 152 152 152
493.839919567108 578.207910060883 2426.00011825562 151 151 153
499.797016382217 577.466487884521 2423.00009727478 150 150 152
505.946338176727 576.963484287262 2421.0000038147 149 149 151
512.507557868958 576.937139034271 2421.0000038147 150 150 152
518.210589885712 575.957655906677 2417.00005531311 150 150 152
524.108529090881 575.21665096283 2414.00003433228 150 150 152
529.989659786224 574.475646018982 2411.00001335144 152 150 153
536.076486110687 573.973119258881 2408.99991989136 154 152 155
542.377233505249 573.708951473236 2407.99999237061 155 153 156
548.672080039978 573.444902896881 2407.00006484985 155 153 156
554.730296134949 572.942674160004 2404.99997138977 154 152 155
560.31060218811 571.96432352066 2401.00002288818 156 154 157
565.868735313416 570.986092090607 2397.0000743866 157 155 158
572.35985994339 570.960879325867 2397.0000743866 158 156 159
578.609108924866 570.697665214539 2395.99990844727 162 160 163
585.096776485443 570.672869682312 2395.99990844727 163 161 164
591.584086418152 570.64825296402 2395.99990844727 165 163 166
598.071038722992 570.623815059662 2395.99990844727 167 165 168
604.305386543274 570.361495018005 2394.99998092651 168 166 169
609.768986701965 569.385051727295 2391.00003242493 169 167 170
616.499125957489 569.599509239197 2391.99995994568 170 168 171
623.234570026398 569.814205169678 2392.99988746643 167 165 168
629.975259304047 570.029258728027 2394.00005340576 165 163 166
636.455297470093 570.006430149078 2394.00005340576 157 155 156
643.203675746918 570.222020149231 2394.99998092651 155 153 154
651.584982872009 571.86633348465 2401.99995040894 150 150 150
660.277962684631 573.749005794525 2410.00008583069 152 152 152
668.460845947266 575.155794620514 2415.99988937378 156 156 156
677.234947681427 577.038884162903 2424.00002479553 161 161 161
684.077799320221 577.256083488464 2424.99995231628 170 170 170
692.634701728821 578.901708126068 2431.99992179871 184 184 184
701.517164707184 580.785810947418 2440.00005722046 174 176 175
712.184309959412 584.098279476166 2453.9999961853 162 164 163
721.462666988373 586.220979690552 2463.00005912781 155 156 158
729.016244411469 586.915969848633 2466.00008010864 160 161 163
737.77961730957 588.563501834869 2473.00004959106 196 197 201
747.785329818726 591.163337230682 2483.99996757507 189 190 194
758.458316326141 594.23953294754 2496.99997901917 180 181 185
767.976105213165 596.364140510559 2506.00004196167 184 185 189
776.924908161163 598.013460636139 2513.00001144409 182 183 187
784.664273262024 598.711252212524 2516.00003242493 181 182 184
793.993353843689 600.599527359009 2523.9999294281 190 191 193
805.270135402679 603.916108608246 2538.00010681152 200 201 203
817.9030418396 608.184814453125 2555.99999427795 216 217 219
824.502944946289 607.933342456818 2555.0000667572 205 206 208
467.247396707535 579.549252986908 2459.00011062622 173 173 171
471.410661935806 576.458871364594 2446.00009918213 157 157 157
476.870715618134 575.018227100372 2440.00005722046 155 155 155
482.495754957199 573.813378810883 2434.99994277954 155 155 155
488.896638154984 573.55123758316 2434.00001525879 155 155 155
494.680643081665 572.582185268402 2430.0000667572 153 153 155
500.854849815369 572.084367275238 2427.99997329712 153 153 155
506.808698177338 571.350991725922 2424.99995231628 153 153 155
513.169050216675 571.088969707489 2424.00002479553 152 152 154
518.665730953217 569.884598255157 2418.99991035461 152 152 154
524.786114692688 569.387078285217 2417.00005531311 153 153 155
530.895113945007 568.889677524567 2414.99996185303 154 152 155
536.992728710175 568.39245557785 2413.00010681152 153 151 154
542.853653430939 567.659676074982 2410.00008583069 153 151 154
548.697829246521 566.927075386047 2407.00006484985 153 151 154
554.756045341492 566.4302110672 2404.99997138977 154 152 155
560.569405555725 565.697968006134 2401.99995040894 155 153 156
566.602289676666 565.201461315155 2400.00009536743 156 154 157
572.86262512207 564.940571784973 2398.9999294281 157 155 158
579.358577728271 564.915359020233 2398.9999294281 160 158 161
585.365831851959 564.419448375702 2397.0000743866 161 159 162
591.608703136444 564.159154891968 2395.99990844727 163 161 164
597.845792770386 563.899099826813 2394.99998092651 163 161 164
604.329526424408 563.874781131744 2394.99998092651 163 161 164
610.557973384857 563.615262508392 2394.00005340576 164 162 165
617.296040058136 563.826739788055 2394.99998092651 165 163 166
623.778879642487 563.803136348724 2394.99998092651 162 160 163
630.261480808258 563.779771327972 2394.99998092651 160 158 161
637.275636196136 564.227521419525 2397.0000743866 154 152 153
644.837498664856 565.146267414093 2401.00002288818 152 150 151
652.420997619629 566.06525182724 2404.99997138977 151 151 151
660.299837589264 567.219972610474 2410.00008583069 153 153 153
668.205678462982 568.374812602997 2414.99996185303 155 155 155
677.256286144257 570.471405982971 2424.00002479553 162 162 162
684.944987297058 571.391522884369 2427.99997329712 158 158 158
693.224847316742 572.782576084137 2434.00001525879 156 156 156
701.824843883514 574.409365653992 2440.99998474121 151 153 152
711.914002895355 577.213048934937 2453.00006866455 149 151 150
720.896244049072 579.075694084167 2460.99996566772 175 177 176
729.035258293152 580.232858657837 2466.00008010864 200 201 205
737.798035144806 581.861019134521 2473.00004959106 180 181 185
748.104274272919 584.665894508362 2484.99989509583 173 174 178
758.779525756836 587.706506252289 2497.99990653992 174 175 179
768.299698829651 589.806497097015 2506.99996948242 179 180 184
776.941299438477 591.201066970825 2513.00001144409 176 177 181
784.680187702179 591.890454292297 2516.00003242493 173 174 176
793.379545211792 593.286097049713 2522.0000743866 179 180 182
804.650247097015 596.564292907715 2536.00001335144 192 193 195
820.47712802887 603.136122226715 2563.99989128113 213 214 216
830.002307891846 605.003893375397 2572.00002670288 203 204 206
467.274039983749 572.891414165497 2459.00011062622 173 173 171
472.208112478256 570.767939090729 2450.00004768372 165 165 165
477.288216352463 568.877637386322 2441.99991226196 164 164 164
482.522368431091 567.220389842987 2434.99994277954 167 167 167
488.72235417366 566.727936267853 2433.00008773804 165 165 165
495.114326477051 566.468298435211 2431.99992179871 160 160 162
501.912891864777 566.674590110779 2433.00008773804 160 160 162
507.880210876465 565.949261188507 2430.0000667572 159 159 161
514.042377471924 565.456867218018 2427.99997329712 158 158 160
519.335389137268 564.032971858978 2421.99993133545 158 158 160
525.246679782867 563.307881355286 2418.99991035461 159 159 161
531.361103057861 562.815845012665 2417.00005531311 158 156 159
537.464022636414 562.323808670044 2414.99996185303 155 153 156
543.105006217957 561.366200447083 2411.00001335144 153 151 154
549.17973279953 560.874402523041 2408.99991989136 152 150 153
555.473923683167 560.615658760071 2407.99999237061 153 151 154
561.995387077332 560.589790344238 2407.99999237061 153 151 154
567.808210849762 559.865653514862 2404.99997138977 155 153 156
573.6044049263 559.14181470871 2401.99995040894 155 153 156
579.625308513641 558.650851249695 2400.00009536743 157 155 158
586.123466491699 558.625757694244 2400.00009536743 158 156 159
592.12738275528 558.135271072388 2398.00000190735 159 157 160
598.369657993317 557.877719402313 2397.0000743866 159 157 160
604.353904724121 557.387709617615 2394.99998092651 159 157 160
611.347138881683 557.828843593597 2397.0000743866 160 158 161
618.093073368073 558.037400245667 2398.00000190735 160 158 161
624.844253063202 558.246254920959 2398.9999294281 158 156 159
631.074249744415 557.99001455307 2398.00000190735 156 154 157
638.362109661102 558.664739131927 2401.00002288818 151 149 150
645.934581756592 559.572398662567 2404.99997138977 149 147 148
653.528571128845 560.480296611786 2408.99991989136 151 151 151
660.596013069153 560.923218727112 2411.00001335144 154 154 154
668.504238128662 562.064230442047 2415.99988937378 155 155 155
677.277803421021 563.903629779816 2424.00002479553 154 154 154
685.530364513397 565.277934074402 2430.0000667572 156 156 156
694.384932518005 567.117691040039 2437.99996376038 154 154 154
702.707827091217 568.492531776428 2444.00000572205 152 154 153
712.224185466766 570.79815864563 2453.9999961853 161 163 162
721.794784069061 573.104083538055 2463.99998664856 196 198 197
730.828285217285 574.945032596588 2471.99988365173 191 192 196
739.308655261993 576.321363449097 2477.9999256134 166 167 171
748.42381477356 578.163146972656 2486.00006103516 166 167 171
758.190035820007 580.470502376556 2496.00005149841 172 173 177
768.317103385925 583.010792732239 2506.99996948242 176 177 181
777.267396450043 584.62131023407 2513.99993896484 175 176 180
785.943984985352 585.99978685379 2519.99998092651 167 168 170
794.024407863617 586.913764476776 2523.9999294281 171 172 174
805.299997329712 590.153515338898 2538.00010681152 186 187 189
824.011862277985 598.741710186005 2575.00004768372 206 207 209
836.470603942871 602.679967880249 2592.00000762939 199 200 202
466.540515422821 565.311789512634 2454.99992370605 174 174 172
472.427517175674 564.364016056061 2450.99997520447 169 169 169
477.314859628677 562.265038490295 2441.99991226196 168 168 168
482.747197151184 560.856997966766 2436.00010871887 173 173 173
488.949835300446 560.369789600372 2434.00001525879 170 170 170
495.751798152924 560.573279857636 2434.99994277954 164 164 166
502.558529376984 560.776770114899 2436.00010871887 163 163 165
508.533954620361 560.059428215027 2433.00008773804 161 161 163
514.492452144623 559.3421459198 2430.0000667572 161 161 163
520.005226135254 558.164596557617 2424.99995231628 161 161 163
525.924563407898 557.447493076324 2421.99993133545 159 159 161
531.82715177536 556.730508804321 2418.99991035461 161 159 162
538.38050365448 556.704103946686 2418.99991035461 157 155 158
544.482827186584 556.21749162674 2417.00005531311 155 153 156
550.801694393158 555.961072444916 2415.99988937378 153 151 154
557.114720344543 555.704832077026 2414.99996185303 154 152 155
563.421726226807 555.448710918427 2414.00003433228 153 151 154
569.014549255371 554.502487182617 2410.00008583069 153 151 154
574.585139751434 553.556442260742 2405.99989891052 153 151 154
580.133736133575 552.610635757446 2401.99995040894 154 152 155
586.637020111084 552.585244178772 2401.99995040894 154 152 155
592.893123626709 552.330136299133 2401.00002288818 154 152 155
599.143385887146 552.075147628784 2400.00009536743 155 153 156
605.387806892395 551.820278167725 2398.9999294281 153 151 154
612.391650676727 552.255868911743 2401.00002288818 153 151 154
618.890464305878 552.23149061203 2401.00002288818 153 151 154
625.389039516449 552.207469940186 2401.00002288818 151 149 152
631.624221801758 551.953732967377 2400.00009536743 150 148 151
639.183044433594 552.850067615509 2404.00004386902 148 146 147
646.763384342194 553.746700286865 2407.99999237061 149 147 148
654.365181922913 554.643571376801 2411.99994087219 151 151 151
661.440372467041 555.080771446228 2414.00003433228 152 152 152
669.079840183258 555.978178977966 2417.99998283386 153 153 153
677.020192146301 557.105779647827 2423.00009727478 154 154 154
685.269713401794 558.463513851166 2428.99990081787 154 154 154
694.690883159637 560.741186141968 2438.99989128113 162 162 162
703.591227531433 562.559366226196 2447.00002670288 180 182 181
712.534844875336 564.377784729004 2454.99992370605 192 194 193
722.400724887848 566.886186599731 2466.00008010864 167 169 168
732.326149940491 569.394886493683 2476.99999809265 153 154 158
740.521252155304 570.5246925354 2482.00011253357 165 166 170
749.345660209656 572.114586830139 2489.00008201599 172 173 177
758.815705776215 574.164569377899 2497.99990653992 174 175 179
768.947780132294 576.67475938797 2509.0000629425 167 168 170
778.212130069733 578.495740890503 2516.99995994568 166 167 169
786.896407604218 579.857647418976 2523.00000190735 164 165 167
794.98428106308 580.760300159454 2526.99995040894 163 164 166
805.950045585632 583.731949329376 2539.99996185303 177 178 180
826.907217502594 593.828201293945 2584.00011062622 194 196 195
840.035021305084 598.179399967194 2602.9999256134 195 197 196
468.847811222076 561.394155025482 2467.00000762939 175 175 173
472.454279661179 557.726442813873 2450.99997520447 172 172 172
477.5370657444 555.879354476929 2443.00007820129 170 170 170
483.1702709198 554.714918136597 2437.99996376038 175 175 175
489.177495241165 554.00562286377 2434.99994277954 172 172 172
495.982229709625 554.206371307373 2436.00010871887 168 168 170
502.378940582275 553.952038288116 2434.99994277954 164 164 166
508.769750595093 553.697764873505 2434.00001525879 161 161 163
514.730930328369 552.988529205322 2430.99999427795 164 164 166
520.460784435272 552.051901817322 2427.00004577637 164 164 166
526.602685451508 551.570296287537 2424.99995231628 159 159 161
532.51326084137 550.861299037933 2421.99993133545 162 160 163
538.852155208588 550.607323646545 2421.0000038147 159 157 160
544.959723949432 550.126016139984 2418.99991035461 158 156 159
551.739990711212 550.327062606812 2420.00007629395 155 153 156
557.602226734161 549.618542194366 2417.00005531311 155 153 156
563.914477825165 549.364984035492 2415.99988937378 153 151 154
569.276511669159 548.202097415924 2411.00001335144 153 151 154
575.327277183533 547.7215051651 2408.99991989136 153 151 154
580.883800983429 546.786367893219 2404.99997138977 153 151 154
587.883591651917 547.215580940247 2407.00006484985 152 150 153
594.152987003326 546.962916851044 2405.99989891052 152 150 153
600.915789604187 547.165095806122 2407.00006484985 153 151 154
606.674373149872 546.458184719086 2404.00004386902 151 149 152
613.436460494995 546.660780906677 2404.99997138977 150 148 151
619.688034057617 546.408951282501 2404.00004386902 151 149 152
626.454949378967 546.611964702606 2404.99997138977 149 147 150
632.96377658844 546.588003635406 2404.99997138977 147 145 148
640.535950660706 547.4733710289 2408.99991989136 148 146 147
648.12958240509 548.358917236328 2413.00010681152 150 148 149
655.744671821594 549.244701862335 2417.00005531311 151 151 151
663.107097148895 549.903452396393 2420.00007629395 151 151 151
670.762479305267 550.789773464203 2424.00002479553 152 152 152
678.439259529114 551.676273345947 2427.99997329712 153 153 153
686.137735843658 552.56313085556 2431.99992179871 151 151 151
695.281982421875 554.586291313171 2440.99998474121 175 175 175
705.049991607666 557.064116001129 2451.99990272522 185 187 186
714.006721973419 558.86048078537 2460.00003814697 179 181 180
722.713887691498 560.430109500885 2467.00000762939 146 148 147
731.754779815674 562.227189540863 2474.99990463257 150 151 155
740.839064121246 564.02462720871 2483.00004005432 172 173 177
749.665796756744 565.595328807831 2490.00000953674 175 176 180
758.83424282074 567.393481731415 2497.99990653992 172 173 175
769.272327423096 570.100605487823 2509.99999046326 163 164 166
779.157280921936 572.353899478912 2519.99998092651 161 162 164
787.849068641663 573.699116706848 2526.00002288818 161 162 164
795.629918575287 574.363470077515 2529.00004386902 159 161 160
806.917905807495 577.526569366455 2542.99998283386 172 174 173
828.84281873703 588.184416294098 2589.99991416931 188 190 189
841.986417770386 592.483758926392 2608.99996757507 194 196 195
469.824910163879 555.836737155914 2471.99988365173 177 177 175
473.444938659668 552.212357521057 2456.00008964539 176 176 176
478.541195392609 550.386786460876 2447.99995422363 175 175 175
484.386175870895 549.460649490356 2444.00000572205 179 179 179
490.208804607391 548.534631729126 2440.00005722046 175 175 175
496.823459863663 548.507690429688 2440.00005722046 171 171 173
502.818465232849 547.806441783905 2437.00003623962 168 168 170
509.005606174469 547.329962253571 2434.99994277954 160 160 162
514.545977115631 546.179294586182 2430.0000667572 164 164 166
520.487546920776 545.478224754334 2427.00004577637 169 169 171
527.063727378845 545.451462268829 2427.00004577637 162 162 164
533.419370651245 545.200049877167 2426.00011825562 164 162 165
539.546489715576 544.723868370056 2424.00002479553 164 162 165
545.662045478821 544.247925281525 2421.99993133545 165 163 166
551.766335964203 543.772041797638 2420.00007629395 158 156 159
558.089911937714 543.520927429199 2418.99991035461 155 153 156
563.940703868866 542.820632457733 2415.99988937378 154 152 155
569.774687290192 542.120516300201 2413.00010681152 154 152 155
576.069593429565 541.869819164276 2411.99994087219 153 151 154
581.875562667847 541.170001029968 2408.99991989136 152 150 153
588.886022567749 541.593730449677 2411.00001335144 152 150 153
594.919085502625 541.118919849396 2408.99991989136 152 150 153
601.440191268921 541.093587875366 2408.99991989136 152 150 153
607.456266880035 540.619313716888 2407.00006484985 149 147 150
614.226341247559 540.819048881531 2407.99999237061 148 146 149
621.001362800598 541.018903255463 2408.99991989136 147 145 148
627.521097660065 540.99452495575 2408.99991989136 147 145 148
634.040474891663 540.970325469971 2408.99991989136 148 146 149
640.293776988983 540.721893310547 2407.99999237061 150 148 149
647.884368896484 541.596412658691 2411.99994087219 150 148 149
655.767858028412 542.695760726929 2417.00005531311 150 150 150
663.403987884521 543.570756912231 2421.0000038147 151 151 151
671.06169462204 544.445931911469 2424.99995231628 151 151 151
679.299831390381 545.770525932312 2430.99999427795 151 151 151
687.288224697113 546.870827674866 2436.00010871887 155 155 155
696.158111095428 548.644781112671 2444.00000572205 155 155 155
706.221520900726 551.317036151886 2456.00008964539 150 152 151
715.478956699371 553.315937519073 2464.99991416931 147 149 148
723.320364952087 554.192900657654 2469.00010108948 149 151 150
731.183588504791 555.070281028748 2473.00004959106 172 173 175
740.262091159821 556.845784187317 2480.99994659424 171 172 174
750.287294387817 559.294998645782 2492.00010299683 166 167 169
760.372042655945 561.744451522827 2503.00002098084 160 161 163
769.597291946411 563.521027565002 2510.99991798401 154 155 157
778.556823730469 565.073609352112 2517.99988746643 154 155 157
786.930799484253 566.177904605865 2523.00000190735 153 155 154
796.590685844421 568.180203437805 2532.00006484985 148 150 149
809.472858905792 572.426974773407 2551.00011825562 173 175 174
831.418991088867 582.956969738007 2598.00004959106 178 180 179
842.647194862366 585.85798740387 2611.00006103516 203 205 204
851.017653942108 586.74019575119 2615.00000953674 202 204 201
474.43562746048 546.670377254486 2460.99996566772 176 176 176
479.740977287292 545.088589191437 2453.9999961853 176 176 176
485.602259635925 544.173181056976 2450.00004768372 179 179 179
491.039305925369 542.813658714294 2444.00000572205 176 176 176
497.461259365082 542.564630508423 2443.00007820129 170 170 172
503.46440076828 541.871428489685 2440.00005722046 169 169 171
509.450614452362 541.178286075592 2437.00003623962 162 162 164
514.996349811554 540.041089057922 2431.99992179871 163 163 165
520.943284034729 539.348065853119 2428.99990081787 168 168 170
527.524828910828 539.32124376297 2428.99990081787 166 166 168
534.105718135834 539.294421672821 2428.99990081787 163 161 164
540.018320083618 538.601636886597 2426.00011825562 162 160 163
545.913994312286 537.908971309662 2423.00009727478 164 162 165
551.792860031128 537.216424942017 2420.00007629395 163 161 164
558.347046375275 537.189960479736 2420.00007629395 160 158 161
564.433753490448 536.719620227814 2417.99998283386 155 153 156
570.509195327759 536.24951839447 2415.99988937378 154 152 155
576.812148094177 536.00150346756 2414.99996185303 152 150 153
582.626044750214 535.309731960297 2411.99994087219 152 150 153
589.400231838226 535.505890846252 2413.00010681152 152 150 153
594.944596290588 534.592568874359 2408.99991989136 152 150 153
601.964890956879 535.010993480682 2411.00001335144 153 151 154
607.986092567444 534.541964530945 2408.99991989136 150 148 151
615.016460418701 534.960687160492 2411.00001335144 149 147 150
621.541619300842 534.935891628265 2411.00001335144 148 146 149
628.587484359741 535.355031490326 2413.00010681152 149 147 150
634.854257106781 535.108804702759 2411.99994087219 149 147 150
641.381204128265 535.08472442627 2411.99994087219 151 149 150
648.445248603821 535.504579544067 2414.00003433228 151 149 150
656.333744525909 536.590099334717 2418.99991035461 150 150 150
663.701057434082 537.232339382172 2421.99993133545 151 151 151
671.361267566681 538.09654712677 2426.00011825562 152 152 152
679.601728916168 539.404511451721 2431.99992179871 155 155 155
688.438951969147 541.156470775604 2440.00005722046 155 155 155
696.749687194824 542.465031147003 2446.00009918213 150 150 150
706.24303817749 544.660985469818 2456.00008964539 148 150 149
715.500175952911 546.635329723358 2464.99991416931 152 154 153
723.927080631256 547.944664955139 2470.99995613098 163 165 164
731.795310974121 548.81089925766 2474.99990463257 171 172 174
741.177201271057 550.786197185516 2483.99996757507 165 166 168
750.90891122818 552.983582019806 2493.99995803833 160 161 163
761.302590370178 555.624663829803 2506.00004196167 155 156 158
770.842015743256 557.601034641266 2515.00010490417 151 152 154
779.502689838409 558.912634849548 2520.99990844727 152 153 155
787.260353565216 559.55958366394 2523.9999294281 149 151 150
796.922385692596 561.537206172943 2532.99999237061 145 147 146
812.980055809021 567.948997020721 2562.00003623962 172 174 173
834.315598011017 577.907741069794 2607.00011253357 174 176 175
844.599485397339 580.108165740967 2617.00010299683 189 191 190
472.159802913666 545.077383518219 2483.99996757507 179 179 177
475.040942430496 540.661811828613 2463.99998664856 178 178 178
479.963421821594 538.660049438477 2454.99992370605 177 177 177
485.23274064064 537.097275257111 2447.99995422363 179 179 179
491.066217422485 536.192834377289 2444.00000572205 177 177 177
497.284561395645 535.727083683014 2441.99991226196 172 172 174
503.904044628143 535.700142383575 2441.99991226196 174 174 176
509.895622730255 535.014986991882 2438.99989128113 167 167 169
515.870332717896 534.330070018768 2436.00010871887 162 162 164
521.613538265228 533.425748348236 2431.99992179871 162 162 164
527.768850326538 532.960176467896 2430.0000667572 173 173 175
534.132599830627 532.714009284973 2428.99990081787 171 169 172
540.490210056305 532.467901706696 2427.99997329712 160 158 161
546.391248703003 531.783282756805 2424.99995231628 159 157 160
552.047371864319 530.879497528076 2421.0000038147 168 166 169
558.37345123291 530.633747577667 2420.00007629395 168 166 169
564.693510532379 530.387997627258 2418.99991035461 164 162 165
571.007668972015 530.142426490784 2417.99998283386 160 158 161
577.076971530914 529.67780828476 2415.99988937378 156 154 157
583.376586437225 529.432535171509 2414.99996185303 155 153 156
589.425981044769 528.968214988709 2413.00010681152 155 153 156
595.71099281311 528.723299503326 2411.99994087219 153 151 154
602.239906787872 528.697729110718 2411.99994087219 154 152 155
608.768403530121 528.672397136688 2411.99994087219 153 151 154
615.296542644501 528.647303581238 2411.99994087219 152 150 153
622.082054615021 528.841555118561 2413.00010681152 152 150 153
628.612101078033 528.816819190979 2413.00010681152 152 150 153
635.141789913177 528.792321681976 2413.00010681152 152 150 153
641.93719625473 528.987228870392 2414.00003433228 153 151 152
649.006307125092 529.401481151581 2415.99988937378 152 150 151
656.628668308258 530.254244804382 2420.00007629395 151 151 151
663.17617893219 530.230760574341 2420.00007629395 151 151 151
671.107470989227 531.303107738495 2424.99995231628 152 152 152
679.344952106476 532.594740390778 2430.99999427795 150 150 150
688.743472099304 534.762918949127 2440.99998474121 150 150 150
697.056591510773 536.055088043213 2447.00002670288 156 156 156
