ply
format ascii 1.0
comment KinectMotionCapture
element vertex 784
property float x
property float y
property float z
property uchar red
property uchar green
property uchar blue
end_header
-788.271486759186 -217.201665043831 2664.99996185303 10 11 5
-772.845923900604 -214.934602379799 2637.00008392334 9 12 5
-761.636555194855 -213.808506727219 2622.99990653992 8 11 4
-740.14687538147 -209.747716784477 2572.99995422363 15 18 11
-737.734198570251 -211.067095398903 2588.99998664856 16 19 12
-729.589343070984 -210.75613796711 2585.00003814697 15 18 11
-723.422229290009 -211.01601421833 2588.00005912781 12 15 8
-720.836758613586 -212.336048483849 2604.00009155273 12 15 8
-698.03386926651 -209.757432341576 2572.00002670288 12 15 8
-688.910841941834 -209.120467305183 2563.99989128113 12 15 8
-696.852803230286 -213.703691959381 2619.99988555908 12 15 8
-684.745490550995 -212.169751524925 2601.0000705719 14 17 8
-658.670663833618 -206.230372190475 2528.00011634827 16 19 10
-652.58663892746 -206.490576267242 2530.99989891052 17 20 11
-648.271203041077 -207.322031259537 2540.99988937378 17 20 11
-640.871703624725 -207.174450159073 2539.00003433228 16 19 10
-634.480893611908 -207.353264093399 2540.99988937378 13 16 7
-628.819227218628 -207.777008414268 2546.0000038147 13 16 7
-621.759295463562 -210.093855857849 2573.99988174438 13 16 7
-608.799159526825 -208.069115877151 2549.00002479553 12 15 6
-607.071459293365 -209.880813956261 2571.00009918213 11 14 5
-603.589296340942 -211.121320724487 2585.99996566772 12 15 6
-590.335607528687 -208.932846784592 2559.00001525879 17 20 11
-588.170230388641 -210.663348436356 2579.99992370605 18 21 12
-585.889577865601 -212.394088506699 2601.0000705719 15 18 9
-567.915916442871 -208.408519625664 2552.00004577637 16 19 10
-567.353546619415 -210.792660713196 2581.00008964539 19 22 13
-559.033691883087 -210.318386554718 2575.00004768372 15 18 9
-572.1834897995 -218.012347817421 2668.99991035461 15 18 9
-884.576439857483 -228.687584400177 2717.00000762939 31 34 23
-879.47940826416 -229.290679097176 2723.99997711182 18 24 14
-871.14280462265 -229.052290320396 2720.99995613098 15 20 13
-847.584903240204 -224.773213267326 2670.00007629395 14 19 12
-835.004150867462 -223.356246948242 2653.00011634827 13 18 11
-833.124279975891 -224.801942706108 2670.00007629395 13 16 9
-818.779230117798 -222.879961133003 2647.0000743866 12 15 8
-812.223792076111 -223.063051700592 2648.9999294281 12 15 8
-812.934517860413 -227.303862571716 2698.99988174438 11 14 7
-804.429948329926 -226.982429623604 2694.9999332428 10 13 6
-802.749454975128 -228.598400950432 2713.99998664856 9 10 4
-786.31192445755 -226.002961397171 2683.00008773804 9 12 5
-764.234602451324 -221.722468733788 2631.99996948242 8 11 4
-743.87127161026 -217.862740159035 2585.99996566772 14 17 10
-733.729660511017 -216.951429843903 2575.00004768372 16 19 12
-725.904881954193 -216.714173555374 2572.00002670288 15 18 11
-723.127067089081 -217.99373626709 2586.99989318848 11 14 7
-719.990611076355 -219.189360737801 2601.0000705719 11 14 7
-708.006083965302 -217.6883071661 2582.99994468689 11 14 7
-699.917912483215 -217.367127537727 2578.9999961853 12 15 8
-699.104964733124 -219.321757555008 2601.99999809265 12 15 8
-692.581236362457 -219.506591558456 2604.00009155273 12 15 8
-667.091250419617 -213.62167596817 2533.99991989136 15 18 9
-662.563145160675 -214.396372437477 2542.99998283386 16 19 10
-657.727479934692 -215.0868922472 2551.00011825562 17 20 11
-649.786114692688 -214.765712618828 2546.99993133545 16 19 10
-638.079404830933 -213.179603219032 2528.00011634827 16 19 10
-633.965611457825 -214.123293757439 2539.00003433228 13 16 7
-645.597696304321 -220.464944839478 2614.00008201599 13 16 7
-638.257563114166 -220.397174358368 2612.99991607666 13 16 7
-623.675584793091 -217.798873782158 2582.00001716614 13 16 7
-606.63366317749 -214.272230863571 2539.99996185303 12 15 6
-608.471989631653 -217.409908771515 2576.99990272522 12 15 6
-604.0398478508 -218.354433774948 2588.00005912781 12 15 6
-595.856010913849 -217.949002981186 2582.99994468689 17 20 11
-586.558222770691 -217.121541500092 2572.99995422363 18 21 12
-574.385583400726 -215.196892619133 2549.99995231628 15 18 9
-571.460545063019 -216.73221886158 2568.00007820129 16 19 10
-566.897809505463 -217.676892876625 2578.9999961853 16 19 10
-555.327177047729 -215.920567512512 2558.00008773804 16 19 10
-555.6600689888 -218.806773424149 2592.00000762939 20 23 14
-861.772835254669 -230.011537671089 2647.0000743866 17 19 8
-855.250775814056 -230.199202895164 2648.9999294281 16 21 14
-846.618235111237 -231.792077422142 2667.00005531311 15 20 13
-850.096940994263 -234.761863946915 2700.99997520447 12 17 10
-838.102042675018 -233.473047614098 2686.00010871887 12 15 8
-820.62041759491 -230.619549751282 2653.00011634827 12 15 8
-802.70391702652 -227.591961622238 2618.00003051758 12 15 8
-804.426491260529 -230.128303170204 2647.0000743866 11 14 7
-803.280770778656 -231.882631778717 2667.00005531311 10 13 6
-806.205093860626 -234.85466837883 2700.99997520447 9 12 5
-798.592686653137 -234.783783555031 2700.00004768372 8 9 3
-787.761330604553 -233.756393194199 2687.99996376038 9 12 5
-774.67155456543 -232.033282518387 2667.99998283386 8 11 4
-752.772629261017 -227.613836526871 2617.00010299683 11 14 7
-731.815934181213 -225.558429956436 2592.99993515015 14 17 10
-723.949670791626 -225.313603878021 2589.99991416931 11 14 7
-716.375887393951 -225.155845284462 2588.00005912781 11 14 7
-710.730850696564 -225.607201457024 2592.99993515015 12 15 8
-705.600798130035 -226.232722401619 2599.99990463257 12 15 8
-695.058405399323 -225.118026137352 2586.99989318848 13 16 9
-687.511503696442 -224.960550665855 2585.00003814697 13 16 9
-674.182951450348 -222.888424992561 2561.00010871887 16 19 10
-663.328588008881 -221.599340438843 2546.0000038147 17 20 11
-657.195508480072 -221.876919269562 2549.00002479553 17 20 11
-650.279998779297 -221.893489360809 2549.00002479553 16 19 10
-651.177585124969 -227.063447237015 2608.00004005432 12 15 6
-643.358111381531 -226.819261908531 2605.00001907349 12 15 6
-637.996554374695 -227.445840835571 2611.99998855591 13 16 7
-623.900473117828 -224.937468767166 2582.99994468689 13 16 7
-616.886734962463 -224.95436668396 2582.99994468689 13 16 7
-615.302562713623 -226.97451710701 2605.99994659424 12 15 6
-603.08963060379 -225.075304508209 2584.00011062622 13 16 7
-596.531331539154 -225.26641190052 2585.99996566772 18 21 12
-588.593304157257 -224.934846162796 2582.00001716614 18 21 12
-575.270056724548 -222.512245178223 2553.99990081787 16 19 10
-573.224246501923 -224.445775151253 2575.99997520447 17 20 11
-567.320883274078 -224.898174405098 2581.00008964539 17 20 11
-566.816449165344 -227.529227733612 2611.00006103516 18 21 12
-568.291366100311 -231.032058596611 2651.00002288818 20 23 14
-578.859984874725 -238.370195031166 2734.99989509583 16 19 10
-878.118276596069 -239.722236990929 2674.99995231628 31 32 18
-861.370861530304 -239.123374223709 2667.99998283386 14 19 12
-856.707155704498 -239.855021238327 2676.00011825562 15 20 13
-856.44394159317 -241.841852664948 2697.99995422363 15 20 13
-852.599680423737 -242.843121290207 2709.00011062622 11 16 9
-840.583026409149 -241.513818502426 2694.00000572205 12 15 8
-824.935495853424 -239.108696579933 2667.00005531311 12 15 8
-807.594418525696 -236.165449023247 2634.0000629425 12 15 8
-792.559027671814 -233.849719166756 2608.00004005432 11 14 7
-800.855457782745 -238.438591361046 2658.99991989136 10 13 6
-801.413178443909 -240.786254405975 2684.99994277954 9 12 5
-794.731259346008 -240.982010960579 2687.00003623962 9 10 4
-781.883716583252 -239.294409751892 2667.99998283386 9 12 5
-770.590364933014 -238.055244088173 2654.00004386902 8 11 4
-756.208062171936 -235.829249024391 2628.99994850159 10 13 6
-745.665013790131 -234.769329428673 2617.00010299683 15 18 11
-743.370592594147 -236.311107873917 2634.0000629425 13 16 9
-731.480121612549 -234.802693128586 2617.00010299683 12 15 8
-722.172200679779 -234.101697802544 2608.99996757507 12 15 8
-715.09975194931 -234.118595719337 2608.99996757507 13 16 9
-703.141689300537 -232.520222663879 2591.00008010864 13 16 9
-693.967044353485 -231.819167733192 2582.99994468689 14 17 10
-683.771312236786 -230.759114027023 2571.00009918213 15 18 11
-681.010484695435 -232.212230563164 2586.99989318848 16 19 10
-662.269830703735 -228.189811110497 2542.00005531311 17 20 11
-649.702072143555 -226.231649518013 2519.99998092651 16 19 10
-653.069376945496 -229.839667677879 2559.99994277954 15 18 9
-651.928067207336 -231.92186653614 2582.99994468689 14 17 8
-656.403541564941 -236.069723963737 2628.99994850159 12 15 6
-644.822657108307 -234.470918774605 2611.00006103516 12 15 6
-625.766813755035 -230.087861418724 2562.00003623962 13 16 7
-622.917234897614 -231.631919741631 2578.9999961853 13 16 7
-620.929479598999 -233.535468578339 2599.99990463257 13 16 7
-604.188442230225 -229.87000644207 2559.00001525879 13 16 7
-600.97199678421 -231.324583292007 2575.00004768372 14 17 8
-593.74612569809 -231.252014636993 2573.99988174438 19 22 13
-584.017157554626 -230.191111564636 2562.00003623962 19 22 13
-591.470241546631 -235.959008336067 2625.99992752075 17 20 11
-582.330524921417 -235.167846083641 2617.00010299683 16 19 10
-572.579085826874 -234.1068983078 2605.00001907349 18 21 12
-566.148042678833 -234.393879771233 2608.00004005432 16 19 10
-564.629852771759 -236.748158931732 2634.0000629425 23 26 17
-563.815593719482 -239.462241530418 2664.00003433228 21 24 15
-885.184645652771 -251.091152429581 2719.00010108948 19 21 8
-868.781685829163 -248.520225286484 2690.99998474121 13 16 7
-865.656077861786 -249.735891819 2703.9999961853 14 19 12
-858.333349227905 -249.75124001503 2703.9999961853 14 19 12
-846.289575099945 -248.381242156029 2688.99989128113 10 15 8
-841.503322124481 -249.135926365852 2697.00002670288 12 15 8
-829.559445381165 -247.766181826591 2681.99992179871 12 15 8
-801.140189170837 -241.407513618469 2612.99991607666 12 15 8
-798.92498254776 -242.901608347893 2628.99994850159 11 14 7
-795.116901397705 -243.934094905853 2640.00010490417 11 14 7
-802.292108535767 -248.38587641716 2687.99996376038 9 12 5
-790.573954582214 -247.01651930809 2673.00009727478 9 10 4
-781.573951244354 -246.478855609894 2667.00005531311 9 12 5
-769.70249414444 -245.017021894455 2651.00002288818 8 11 4
-753.315091133118 -242.076247930527 2618.99995803833 10 13 6
-743.938684463501 -241.353675723076 2611.00006103516 14 17 10
-736.862659454346 -241.370648145676 2611.00006103516 13 16 9
-728.109121322632 -240.833088755608 2605.00001907349 12 15 8
-722.43195772171 -241.31253361702 2609.99989509583 12 15 8
-717.001080513 -241.884633898735 2615.9999370575 14 17 10
-701.76762342453 -239.127993583679 2585.99996566772 14 17 10
-689.38273191452 -237.295791506767 2565.99998474121 16 19 12
-688.807129859924 -239.532664418221 2589.99991416931 16 19 12
-669.673979282379 -235.295623540878 2543.99991035461 17 20 11
-659.907996654511 -234.295427799225 2532.99999237061 17 20 11
-650.200724601746 -233.295142650604 2522.0000743866 16 19 10
-651.011288166046 -236.087709665298 2552.00004577637 15 18 9
-644.591391086578 -236.2901866436 2553.99990081787 14 17 8
-655.387043952942 -242.876991629601 2625 11 14 5
-643.817067146301 -241.229459643364 2607.00011253357 12 15 6
-632.343888282776 -239.581704139709 2588.99998664856 13 16 7
-626.281023025513 -239.969730377197 2592.99993515015 13 16 7
-625.926911830902 -242.579072713852 2621.00005149841 13 16 7
-606.768012046814 -237.876623868942 2569.9999332428 13 16 7
-601.187825202942 -238.449767231941 2575.99997520447 15 18 9
-593.267261981964 -238.097205758095 2572.00002670288 19 22 13
-593.801438808441 -241.170048713684 2605.00001907349 19 22 13
-589.875817298889 -242.484167218208 2618.99995803833 15 18 9
-581.867694854736 -242.131784558296 2615.00000953674 16 19 10
-571.022927761078 -240.575522184372 2598.00004959106 17 20 11
-564.827978610992 -240.963697433472 2601.99999809265 18 21 12
-556.680917739868 -240.518361330032 2596.99988365173 19 22 13
-554.062485694885 -242.48106777668 2618.00003051758 19 22 13
-887.773931026459 -259.26274061203 2726.99999809265 17 19 8
-882.00318813324 -259.753495454788 2732.00011253357 14 17 8
-830.426037311554 -246.647536754608 2594.00010108948 15 18 11
-837.367653846741 -250.8465051651 2638.00001144409 14 17 10
-848.162174224854 -256.282478570938 2694.9999332428 13 16 9
-841.175436973572 -256.393671035767 2696.00009918213 11 14 7
-813.459694385529 -250.132828950882 2630.00011444092 10 13 6
-806.029796600342 -250.053852796555 2628.99994850159 11 14 7
-805.290400981903 -252.067655324936 2650.00009536743 11 14 7
-799.316883087158 -252.46474146843 2654.00004386902 11 14 7
-790.635168552399 -252.005875110626 2648.9999294281 9 12 5
-791.148543357849 -254.496425390244 2674.99995231628 8 11 4
-775.989055633545 -251.944780349731 2648.00000190735 9 12 5
-760.394513607025 -249.202594161034 2618.99995803833 10 13 6
-751.859903335571 -248.744025826454 2614.00008201599 11 14 7
-740.217626094818 -247.238665819168 2598.00004959106 14 17 10
-729.225873947144 -245.923593640327 2584.00011062622 12 15 8
-721.38375043869 -245.655387639999 2581.00008964539 12 15 8
-716.878712177277 -246.529474854469 2589.99991416931 14 17 10
-715.339064598084 -248.450890183449 2609.99989509583 16 19 12
-705.549240112305 -247.516766190529 2599.99990463257 15 18 11
-684.260785579681 -242.488712072372 2546.99993133545 14 17 10
-678.683698177338 -242.982372641563 2552.00004577637 15 18 11
-665.181636810303 -240.619525313377 2526.99995040894 19 22 15
-661.974608898163 -241.970270872116 2540.99988937378 18 20 15
-668.229579925537 -246.844902634621 2592.00000762939 16 19 12
-655.075132846832 -244.577288627625 2568.00007820129 12 15 8
-643.564164638519 -242.880836129189 2549.99995231628 12 15 8
-638.365983963013 -246.250882744789 2585.00003814697 13 16 9
-631.34890794754 -246.269136667252 2585.00003814697 14 17 8
-624.089241027832 -246.192112565041 2584.00011062622 14 17 8
-615.878820419312 -245.733961462975 2578.9999961853 14 17 8
-606.986224651337 -244.98987197876 2571.00009918213 15 18 9
-601.16982460022 -245.48451602459 2575.99997520447 13 15 4
-594.172060489655 -245.502710342407 2575.99997520447 20 22 11
-589.680373668671 -246.56930565834 2586.99989318848 20 22 11
-589.632391929626 -249.542400240898 2618.00003051758 17 19 8
-585.632085800171 -250.895351171494 2631.99996948242 17 20 9
-576.939165592194 -250.246524810791 2625 19 22 13
-571.75624370575 -251.123011112213 2634.0000629425 13 18 11
-556.019961833954 -247.327566146851 2594.00010108948 21 26 20
-557.007253170013 -250.969052314758 2631.99996948242 15 20 16
-888.735234737396 -266.988664865494 2730.00001907349 16 18 7
-839.694499969482 -256.554633378983 2622.99990653992 15 18 11
-847.826898097992 -261.265307664871 2671.0000038147 15 18 11
-839.019417762756 -260.792255401611 2665.99988937378 13 16 9
-836.790859699249 -262.373745441437 2681.99992179871 11 14 7
-825.815379619598 -261.216342449188 2670.00007629395 9 12 5
-817.663609981537 -260.939508676529 2667.00005531311 10 13 6
-803.146541118622 -258.60807299614 2642.99988746643 10 13 6
-799.902260303497 -259.89705324173 2655.99989891052 10 13 6
-791.812002658844 -259.620726108551 2653.00011634827 8 11 4
-783.145844936371 -259.14865732193 2648.00000190735 7 10 3
-770.110845565796 -257.208734750748 2628.00002098084 9 12 5
-755.441665649414 -254.681348800659 2601.99999809265 10 13 6
-744.076609611511 -253.230541944504 2586.99989318848 13 16 9
-741.33974313736 -254.716426134109 2601.99999809265 14 17 10
-737.109899520874 -255.713164806366 2611.99998855591 13 16 9
-717.173755168915 -251.227408647537 2565.99998474121 12 15 8
-714.093148708344 -252.615928649902 2579.99992370605 13 16 9
-710.113823413849 -253.710985183716 2591.00008010864 15 18 11
-700.104057788849 -252.651900053024 2579.99992370605 15 18 11
-686.392307281494 -250.221699476242 2555.0000667572 15 18 11
-677.070200443268 -249.358251690865 2546.0000038147 16 19 12
-668.585777282715 -248.788595199585 2539.99996185303 19 21 16
-664.301335811615 -249.786227941513 2549.99995231628 18 20 15
-671.820461750031 -255.290329456329 2605.99994659424 16 18 13
-673.167884349823 -258.542031049728 2638.99993896484 12 15 8
-666.511833667755 -258.756905794144 2641.00003242493 12 15 8
-648.858964443207 -254.660576581955 2598.99997711182 14 17 10
-631.927073001862 -250.759690999985 2559.00001525879 13 16 9
-628.399670124054 -252.150148153305 2572.99995422363 14 17 8
-623.104691505432 -252.854764461517 2579.99992370605 14 17 8
-612.755954265594 -251.501262187958 2565.99998474121 15 18 9
-609.328627586365 -252.990126609802 2581.00008964539 15 18 9
-603.018403053284 -253.302901983261 2584.00011062622 15 17 6
-593.230962753296 -252.145141363144 2572.00002670288 20 22 11
-589.889883995056 -253.732413053513 2588.00005912781 20 22 11
-586.460709571838 -255.319863557816 2604.00009155273 17 19 8
-584.278464317322 -257.495909929276 2625.99992752075 16 19 8
-584.832608699799 -260.947018861771 2661.00001335144 18 21 10
-574.125170707703 -259.397000074387 2644.99998092651 28 33 26
-569.505214691162 -260.592877864838 2657.00006484985 17 22 16
-564.18389081955 -261.494576931 2665.99988937378 27 33 31
-859.206438064575 -269.836604595184 2684.00001525879 14 17 10
-850.03262758255 -269.249558448792 2677.99997329712 14 17 10
-836.800217628479 -267.355620861053 2658.99991989136 13 16 9
-835.21431684494 -269.182115793228 2677.00004577637 12 15 8
-833.221435546875 -270.908534526825 2694.00000572205 12 15 8
-821.018993854523 -269.316643476486 2677.99997329712 12 15 8
-809.206962585449 -267.825394868851 2663.00010681152 12 15 8
-801.993191242218 -267.842799425125 2663.00010681152 11 14 7
-795.972883701324 -268.26274394989 2667.00005531311 11 14 7
-781.058132648468 -265.665143728256 2641.00003242493 10 13 6
-781.521558761597 -268.298536539078 2667.00005531311 9 12 5
-765.294969081879 -265.197813510895 2635.99991798401 10 13 6
-748.660802841187 -261.895716190338 2602.9999256134 12 15 8
-740.752100944519 -261.611849069595 2599.99990463257 15 18 11
-729.472637176514 -260.120540857315 2585.00003814697 14 17 10
-721.348226070404 -259.736180305481 2581.00008964539 14 17 10
-716.842830181122 -260.660141706467 2589.99991416931 14 17 10
-707.90296792984 -259.974002838135 2582.99994468689 14 17 10
-698.186337947845 -258.985906839371 2572.99995422363 14 17 10
-692.284107208252 -259.407043457031 2576.99990272522 17 20 13
-680.774986743927 -257.71427154541 2559.99994277954 18 21 14
-669.883668422699 -256.222665309906 2545.00007629395 18 20 15
-667.930006980896 -258.154183626175 2563.99989128113 17 19 14
-672.832727432251 -262.804687023163 2609.99989509583 15 17 12
-686.922967433929 -271.18182182312 2693.00007820129 12 15 8
-663.716673851013 -264.857143163681 2630.00011444092 11 14 7
-645.344972610474 -260.344356298447 2585.00003814697 15 18 11
-634.377717971802 -258.75186920166 2569.00000572205 15 18 11
-618.367850780487 -255.043923854828 2532.00006484985 14 17 8
-620.670795440674 -258.890599012375 2569.9999332428 14 17 8
-623.721599578857 -263.140827417374 2611.99998855591 14 17 8
-609.073638916016 -259.93612408638 2579.99992370605 15 18 9
-604.166269302368 -260.862052440643 2588.99998664856 16 19 8
-594.826638698578 -259.873539209366 2578.9999961853 19 22 11
-585.312485694885 -258.784145116806 2568.00007820129 19 22 11
-582.162737846375 -260.516345500946 2585.00003814697 17 20 9
-581.589460372925 -263.458251953125 2614.00008201599 17 20 9
-580.857276916504 -266.400516033173 2642.99988746643 18 21 10
-575.842440128326 -267.427980899811 2653.00011634827 22 25 16
-569.271564483643 -267.749816179276 2655.99989891052 22 27 20
-557.604610919952 -265.652060508728 2634.99999046326 13 18 12
-895.190954208374 -286.325186491013 2773.00000190735 13 16 9
-850.016295909882 -276.548773050308 2677.99997329712 14 17 10
-843.706965446472 -276.87531709671 2680.99999427795 13 16 9
-833.325445652008 -275.859534740448 2671.0000038147 12 15 8
-832.894861698151 -278.149008750916 2693.00007820129 13 16 9
-826.826572418213 -278.579741716385 2697.00002670288 12 15 8
-818.001568317413 -278.081029653549 2691.99991226196 11 14 7
-806.793987751007 -276.755958795547 2678.99990081787 11 14 7
-801.326930522919 -277.393907308578 2684.99994277954 11 14 7
-793.75684261322 -277.308881282806 2684.00001525879 11 14 7
-775.349617004395 -273.40093255043 2645.99990844727 9 12 5
-767.309129238129 -273.109316825867 2642.99988746643 10 13 6
-760.722279548645 -273.334503173828 2644.99998092651 12 15 8
-742.15829372406 -269.219309091568 2605.00001907349 15 18 11
-732.276260852814 -268.204271793365 2595.00002861023 14 17 10
-724.963068962097 -268.119513988495 2594.00010108948 16 19 12
-722.913205623627 -269.998848438263 2611.99998855591 15 18 11
-710.624933242798 -268.053650856018 2592.99993515015 14 17 10
-696.539640426636 -265.384614467621 2566.99991226196 14 17 10
-685.818135738373 -263.955950737 2552.99997329712 16 19 12
-679.692625999451 -264.284998178482 2555.99999427795 16 19 12
-672.760248184204 -264.303922653198 2555.99999427795 17 19 14
-671.297550201416 -266.494572162628 2576.99990272522 16 18 13
-681.578099727631 -273.442924022675 2644.00005340576 14 16 11
-668.282806873322 -270.980477333069 2619.99988555908 10 13 6
-647.798597812653 -265.518009662628 2566.99991226196 11 14 7
-642.829358577728 -266.364902257919 2575.00004768372 15 18 11
-634.852468967438 -265.970528125763 2571.00009918213 15 18 11
-620.791077613831 -262.989640235901 2542.00005531311 13 16 7
-622.583508491516 -266.733586788177 2578.00006866455 14 17 8
-615.583419799805 -266.753107309341 2578.00006866455 15 18 9
-611.651122570038 -268.117845058441 2591.00008010864 16 19 10
-602.513432502747 -267.20604300499 2582.00001716614 14 20 10
-590.655982494354 -265.052169561386 2561.00010871887 16 22 12
-585.065305233002 -265.692502260208 2566.99991226196 16 22 12
-582.819044589996 -267.885625362396 2588.00005912781 16 22 10
-582.459926605225 -271.010667085648 2618.00003051758 19 22 11
-574.904024600983 -270.823329687119 2615.9999370575 19 22 11
-570.179581642151 -271.981835365295 2627.00009346008 19 22 13
-564.965486526489 -272.93336391449 2635.99991798401 24 27 18
-893.882870674133 -293.458372354507 2769.00005340576 12 15 8
-879.980742931366 -291.355788707733 2749.00007247925 14 17 10
-867.7738904953 -289.783120155334 2733.99996757507 14 17 10
-844.634056091309 -284.500628709793 2684.00001525879 14 17 10
-837.052047252655 -284.41196680069 2683.00008773804 13 16 9
-833.495855331421 -285.70169210434 2694.9999332428 11 14 7
-820.064187049866 -283.59916806221 2674.99995231628 10 13 6
-807.956159114838 -281.92076086998 2658.99991989136 9 12 5
-815.509080886841 -287.134408950806 2707.99994468689 8 11 4
-810.560166835785 -288.001328706741 2716.00008010864 8 11 4
-797.287046909332 -285.89928150177 2696.00009918213 9 12 5
-776.210248470306 -280.933678150177 2648.9999294281 9 12 5
-762.645542621613 -278.619170188904 2627.00009346008 10 13 6
-754.66388463974 -278.31968665123 2624.00007247925 12 15 8
-746.128141880035 -277.808219194412 2618.99995803833 16 19 12
-729.435741901398 -274.220436811447 2585.00003814697 15 18 11
-726.062119007111 -275.618493556976 2598.00004959106 16 19 12
-724.831402301788 -277.865618467331 2618.99995803833 15 18 11
-709.235727787018 -274.595826864243 2588.00005912781 15 18 11
-694.078683853149 -271.431744098663 2558.00008773804 17 20 13
-686.8736743927 -271.344751119614 2556.99992179871 16 19 12
-683.130383491516 -272.637516260147 2569.00000572205 15 18 11
-681.689918041229 -274.885714054108 2589.99991416931 14 16 11
-669.194281101227 -272.676438093185 2569.00000572205 13 15 10
-662.90670633316 -275.90024471283 2598.99997711182 11 14 7
-645.003318786621 -271.355122327805 2555.99999427795 13 16 9
-636.319220066071 -270.631551742554 2549.00002479553 15 18 11
-633.104383945465 -272.243827581406 2563.99989128113 14 17 10
-626.388370990753 -272.369772195816 2565.00005722046 13 16 7
-619.907438755035 -272.601962089539 2566.99991226196 14 17 8
-617.473900318146 -274.63960647583 2585.99996566772 16 19 10
-610.923111438751 -274.872004985809 2588.00005912781 19 22 13
-598.993480205536 -272.661417722702 2566.99991226196 16 21 14
-592.020153999329 -272.68123626709 2566.99991226196 14 22 11
-586.869060993195 -273.550927639008 2575.00004768372 15 23 12
-583.249747753143 -275.164395570755 2589.99991416931 17 23 11
-577.100515365601 -275.609344244003 2594.00010108948 17 23 9
-571.587860584259 -276.37305855751 2601.0000705719 17 23 9
-565.601825714111 -276.924312114716 2605.99994659424 31 35 21
-559.801816940308 -277.581870555878 2611.99998855591 26 28 17
-551.428914070129 -276.964128017426 2605.99994659424 20 21 13
-889.346420764923 -299.482315778732 2755.00011444092 12 15 8
-890.5268907547 -302.434861660004 2782.00006484985 14 17 10
-870.613038539886 -298.212617635727 2743.00003051758 14 17 10
-852.483868598938 -294.533789157867 2709.00011062622 14 17 10
-842.961966991425 -293.790459632874 2701.99990272522 13 16 9
-830.694496631622 -292.068719863892 2686.00010871887 12 15 8
-813.301980495453 -288.498312234879 2653.00011634827 11 14 7
-805.507302284241 -288.298934698105 2651.00002288818 9 12 5
-800.734460353851 -289.18731212616 2658.99991989136 9 12 5
-814.122438430786 -296.710759401321 2727.9999256134 9 12 5
-795.493721961975 -292.596697807312 2690.00005722046 10 13 6
-781.758606433868 -290.222764015198 2667.99998283386 9 12 5
-762.046039104462 -285.564184188843 2625 10 13 6
-758.095979690552 -286.780029535294 2635.99991798401 12 15 8
-738.986968994141 -282.229751348495 2594.00010108948 16 19 12
-725.466370582581 -279.746353626251 2571.00009918213 15 18 11
-709.834039211273 -276.392161846161 2539.99996185303 14 17 10
-708.760380744934 -278.6965072155 2561.00010871887 13 16 9
-713.052809238434 -283.17791223526 2601.99999809265 16 19 12
-695.958614349365 -279.170602560043 2565.00005722046 18 21 14
-689.271926879883 -279.299020767212 2565.99998474121 17 20 13
-688.42887878418 -281.822323799133 2588.99998664856 16 19 12
-686.407685279846 -283.910661935806 2608.00004005432 13 15 10
-676.207482814789 -282.624393701553 2595.99995613098 12 14 9
-674.320220947266 -284.822076559067 2615.9999370575 11 13 8
-661.611437797546 -282.447010278702 2594.00010108948 11 14 7
-644.226491451263 -278.002679347992 2552.99997329712 13 16 9
-637.547492980957 -278.131544589996 2553.99990081787 14 17 10
-626.856744289398 -279.58756685257 2566.99991226196 13 16 7
-626.166045665741 -282.439798116684 2592.99993515015 14 17 8
-622.229039669037 -283.876329660416 2605.99994659424 16 19 10
-609.014451503754 -281.064450740814 2579.99992370605 18 24 14
-603.406846523285 -281.738460063934 2585.99996566772 18 23 16
-596.843183040619 -281.976759433746 2588.00005912781 15 23 12
-591.407060623169 -282.75990486145 2595.00002861023 15 23 12
-585.70659160614 -283.434122800827 2601.0000705719 16 22 10
-579.082548618317 -283.672511577606 2602.9999256134 16 22 8
-573.984861373901 -284.673810005188 2611.99998855591 16 22 8
-566.666781902313 -284.585237503052 2611.00006103516 17 21 7
-558.924496173859 -284.278631210327 2608.00004005432 19 21 10
-878.353655338287 -303.200960159302 2720.99995613098 11 13 8
-878.025233745575 -305.66993355751 2743.00003051758 14 17 10
-879.164695739746 -308.696687221527 2769.99998092651 13 16 9
-854.668736457825 -302.696704864502 2716.00008010864 15 18 11
-840.448141098022 -300.262838602066 2694.00000572205 15 18 11
-832.841157913208 -300.16964673996 2693.00007820129 13 16 9
-819.721400737762 -298.070222139359 2674.00002479553 13 16 9
-811.565756797791 -297.754406929016 2671.0000038147 11 14 7
-813.062369823456 -301.006227731705 2700.00004768372 10 13 6
-805.150270462036 -300.80246925354 2697.99995422363 9 12 5
-795.178651809692 -299.818396568298 2688.99989128113 9 12 5
-776.758313179016 -295.600801706314 2651.00002288818 8 11 4
-774.799883365631 -297.627449035645 2668.99991035461 10 13 6
-746.285557746887 -289.394736289978 2595.00002861023 15 18 11
-731.276035308838 -286.291360855103 2566.99991226196 16 19 12
-722.907543182373 -285.752981901169 2562.00003623962 15 18 11
-714.286148548126 -285.103172063828 2555.99999427795 15 18 11
-707.633793354034 -285.234212875366 2556.99992179871 15 18 11
-705.634117126465 -287.261933088303 2575.00004768372 18 21 14
-700.822710990906 -288.174360990524 2582.99994468689 19 22 15
-694.355726242065 -288.41757774353 2585.00003814697 16 19 12
-690.270066261292 -289.665162563324 2595.99995613098 15 18 11
-687.440037727356 -291.471004486084 2611.99998855591 13 15 10
-681.136250495911 -291.826367378235 2615.00000953674 10 12 7
-668.987214565277 -292.760699987412 2622.99990653992 14 17 10
-653.290331363678 -288.986474275589 2588.99998664856 15 18 11
-645.015954971313 -288.449019193649 2584.00011062622 13 16 9
-633.557915687561 -286.460191011429 2565.99998474121 14 17 10
-627.080619335175 -286.704033613205 2568.00007820129 16 19 10
-627.352774143219 -290.074229240417 2598.00004959106 17 20 11
-623.163342475891 -291.43500328064 2609.99989509583 17 20 11
-614.659011363983 -290.78596830368 2604.00009155273 18 21 12
-603.386282920837 -288.796693086624 2585.99996566772 15 20 13
-598.667442798615 -289.93433713913 2595.99995613098 14 22 11
-595.488488674164 -291.853964328766 2612.99991607666 15 23 12
-587.037026882172 -291.20472073555 2607.00011253357 16 22 10
-584.178447723389 -293.348044157028 2625.99992752075 16 22 10
-580.995917320251 -295.379996299744 2644.00005340576 16 22 10
-569.684505462646 -293.278306722641 2625 26 29 18
-563.832879066467 -293.969601392746 2631.00004196167 17 19 8
-878.013551235199 -310.501039028168 2720.00002861023 12 14 9
-875.76687335968 -312.345266342163 2736.00006103516 15 18 11
-868.990182876587 -312.591642141342 2737.99991607666 13 16 9
-835.438430309296 -305.777698755264 2677.99997329712 15 18 11
-832.513332366943 -307.394802570343 2691.99991226196 13 16 9
-828.899025917053 -308.783918619156 2703.9999961853 12 15 8
-823.092699050903 -309.374094009399 2709.00011062622 11 14 7
-815.150916576386 -309.165060520172 2707.00001716614 10 13 6
-800.654590129852 -306.443482637405 2683.00008773804 9 12 5
-779.48659658432 -301.094561815262 2635.99991798401 9 12 5
-778.789699077606 -303.627133369446 2657.99999237061 9 12 5
-770.135462284088 -303.075790405273 2653.00011634827 10 13 6
-756.906449794769 -300.696581602097 2631.99996948242 12 15 8
-732.681035995483 -293.861389160156 2572.00002670288 16 19 12
-730.78840970993 -295.937746763229 2589.99991416931 16 19 12
-722.929418087006 -295.614957809448 2586.99989318848 14 17 10
-713.148772716522 -294.492244720459 2576.99990272522 15 18 11
-705.61408996582 -294.283866882324 2575.00004768372 18 21 14
-700.259923934937 -294.989913702011 2581.00008964539 17 20 13
-691.917955875397 -294.438779354095 2575.99997520447 15 18 11
-687.856554985046 -295.716673135757 2586.99989318848 15 18 11
-683.997988700867 -297.109156847 2598.99997711182 11 13 8
-681.8967461586 -299.302160739899 2618.00003051758 10 12 7
-673.247814178467 -298.637270927429 2611.99998855591 11 13 8
-665.905773639679 -298.544049263 2611.00006103516 15 18 11
-655.792713165283 -297.193020582199 2598.99997711182 16 19 12
-639.004409313202 -292.754232883453 2559.99994277954 13 16 9
-624.12965297699 -292.338460683823 2555.99999427795 16 19 10
-621.778011322021 -294.532597064972 2575.00004768372 17 20 11
-617.889702320099 -296.040743589401 2588.00005912781 17 20 11
-610.861361026764 -296.061903238297 2588.00005912781 18 21 12
-603.365302085876 -295.854240655899 2585.99996566772 15 20 13
-600.260615348816 -297.82047867775 2602.9999256134 15 20 13
-591.744482517242 -300.723820924759 2628.00002098084 15 21 11
-583.934843540192 -300.401926040649 2625 18 21 12
-578.55749130249 -301.338881254196 2632.99989700317 18 21 12
-571.833491325378 -301.589250564575 2634.99999046326 27 30 21
-569.597780704498 -304.243296384811 2657.99999237061 23 26 17
-879.609942436218 -318.496555089951 2724.99990463257 12 14 9
-873.82835149765 -319.098919630051 2730.00001907349 15 18 11
-866.750299930573 -319.234073162079 2730.99994659424 13 16 9
-848.024070262909 -315.04425406456 2694.9999332428 15 18 11
-833.860218524933 -312.490910291672 2673.00009727478 15 18 11
-828.474223613739 -313.21108341217 2678.99990081787 12 15 8
-828.573346138 -316.036194562912 2703.00006866455 11 14 7
-816.996574401855 -314.418584108353 2688.99989128113 10 13 6
-804.893255233765 -312.567234039307 2673.00009727478 10 13 6
-802.72376537323 -314.574927091599 2690.00005722046 9 12 5
-792.182147502899 -313.308447599411 2678.99990081787 10 13 6
-771.738111972809 -308.065533638 2634.0000629425 9 12 5
-739.056944847107 -300.619423389435 2569.9999332428 15 18 11
-732.946038246155 -300.990223884583 2572.99995422363 16 19 12
-729.921877384186 -302.648037672043 2586.99989318848 15 18 11
-726.821422576904 -304.306358098984 2601.0000705719 14 17 10
-710.914790630341 -300.582766532898 2569.00000572205 16 19 12
-702.305436134338 -299.901098012924 2562.99996376038 18 21 14
-690.472424030304 -297.815293073654 2545.00007629395 16 19 12
-685.988306999207 -298.889011144638 2553.99990081787 14 17 10
-682.784020900726 -300.548166036606 2568.00007820129 15 18 11
-681.345283985138 -303.02694439888 2588.99998664856 11 13 8
-672.238707542419 -302.111715078354 2581.00008964539 11 13 8
-666.267454624176 -302.60106921196 2585.00003814697 13 15 10
-659.763693809509 -302.856475114822 2586.99989318848 15 18 11
-651.482045650482 -302.292436361313 2582.00001716614 15 18 11
-645.473062992096 -302.782118320465 2585.99996566772 14 17 10
-623.393654823303 -295.660853385925 2525.00009536743 15 18 11
-622.15518951416 -298.375189304352 2548.00009727478 16 19 10
-619.100689888 -300.270110368729 2563.99989128113 17 20 11
-615.00346660614 -301.69689655304 2575.99997520447 18 21 12
-607.535481452942 -301.484048366547 2573.99988174438 17 20 11
-605.910360813141 -304.199635982513 2596.99988365173 14 19 12
-599.547326564789 -304.572701454163 2599.99990463257 14 19 12
-597.724556922913 -307.288825511932 2622.99990653992 14 19 12
-593.073844909668 -308.599472045898 2634.0000629425 15 21 11
-585.247874259949 -308.269798755646 2631.00004196167 17 20 11
-566.820800304413 -306.086927652359 2611.99998855591 25 28 21
-565.71888923645 -309.389919042587 2640.00010490417 14 17 10
-874.280035495758 -321.238785982132 2686.00010871887 0 1 0
-877.330958843231 -327.852874994278 2740.9999370575 14 17 10
-868.953287601471 -327.512592077255 2737.99991607666 11 14 7
-869.402348995209 -330.52209019661 2763.00001144409 13 16 9
-839.768469333649 -322.047591209412 2691.99991226196 13 16 9
-830.619990825653 -321.348905563354 2686.00010871887 11 14 7
-823.036313056946 -321.248531341553 2684.99994277954 10 13 6
-813.331246376038 -320.310920476913 2677.00004577637 9 12 5
-802.464663982391 -318.894743919373 2664.99996185303 9 12 5
-807.776570320129 -323.940694332123 2707.00001716614 9 12 5
-805.763840675354 -326.115280389786 2724.99990463257 10 13 6
-789.004027843475 -322.306245565414 2693.00007820129 10 13 6
-763.999283313751 -315.025866031647 2631.99996948242 11 14 7
-743.638038635254 -309.540182352066 2585.99996566772 15 18 11
-734.635055065155 -308.722525835037 2578.9999961853 15 18 11
-727.926552295685 -308.862656354904 2579.99992370605 13 16 9
-717.020571231842 -307.207107543945 2565.99998474121 15 18 11
-711.72434091568 -307.946115732193 2572.00002670288 16 19 12
-694.064617156982 -303.297102451324 2532.99999237061 16 19 12
-688.281416893005 -303.796678781509 2536.99994087219 14 17 10
-683.281600475311 -304.65567111969 2543.99991035461 12 15 8
-685.687661170959 -308.86834859848 2578.9999961853 12 15 8
-680.271446704865 -309.608280658722 2585.00003814697 13 15 10
-670.133769512177 -308.192372322083 2572.99995422363 13 15 10
-664.699614048004 -308.932512998581 2578.9999961853 14 16 11
-657.702028751373 -308.95408987999 2578.9999961853 15 18 11
-653.226733207703 -310.173779726028 2588.99998664856 14 17 10
-642.456293106079 -308.398336172104 2573.99988174438 15 18 11
-627.569496631622 -304.585754871368 2542.00005531311 16 19 12
-620.668888092041 -304.60724234581 2542.00005531311 17 20 11
-618.596315383911 -307.025521993637 2562.00003623962 17 20 11
-615.220487117767 -308.844894170761 2576.99990272522 17 20 11
-609.402120113373 -309.466004371643 2582.00001716614 17 20 11
-602.855622768402 -309.727638959885 2584.00011062622 16 19 12
-603.676021099091 -313.825160264969 2618.00003051758 15 18 9
-595.195949077606 -313.128054141998 2611.99998855591 14 17 8
-593.276858329773 -315.907657146454 2634.99999046326 15 18 9
-595.457851886749 -320.965617895126 2677.00004577637 16 19 10
-577.195644378662 -314.992934465408 2627.00009346008 17 20 11
-567.233026027679 -313.456177711487 2614.00008201599 15 17 12
-561.839878559113 -314.437538385391 2621.99997901917 19 24 20
-878.819227218628 -330.268770456314 2700.00004768372 6 8 3
-885.38384437561 -335.546791553497 2743.00003051758 14 16 11
-882.753491401672 -337.4003469944 2757.99989700317 14 17 10
-876.233756542206 -337.786316871643 2760.99991798401 12 15 8
-860.572695732117 -334.624528884888 2734.99989509583 13 16 9
-862.20920085907 -338.192224502563 2763.99993896484 14 17 10
-829.363644123077 -328.178346157074 2681.99992179871 10 13 6
-825.775444507599 -329.666376113892 2694.00000572205 10 13 6
-814.222812652588 -327.9729783535 2680.0000667572 9 12 5
-804.853618144989 -327.136367559433 2673.00009727478 9 12 5
-801.191389560699 -328.625321388245 2684.99994277954 9 12 5
-801.307737827301 -331.705898046494 2710.00003814697 10 13 6
-788.690209388733 -329.52356338501 2691.99991226196 10 13 6
-772.106170654297 -325.62729716301 2660.00008583069 11 14 7
-753.107011318207 -320.628881454468 2618.99995803833 13 16 9
-735.18431186676 -315.997362136841 2581.00008964539 15 18 11
-732.419967651367 -317.854642868042 2595.99995613098 14 17 10
-726.220846176147 -318.242996931076 2598.99997711182 17 20 13
-702.295303344727 -310.794353485107 2538.00010681152 15 18 11
-700.619876384735 -313.142001628876 2556.99992179871 14 17 10
-690.702140331268 -311.815917491913 2546.0000038147 14 17 10
-693.198025226593 -316.123932600021 2581.00008964539 12 15 8
-688.324868679047 -317.125409841537 2588.99998664856 10 13 6
-677.355051040649 -315.309643745422 2573.99988174438 13 15 10
-665.684700012207 -313.126236200333 2555.99999427795 12 14 9
-659.523487091064 -313.515424728394 2559.00001525879 14 17 10
-652.324974536896 -313.414663076401 2558.00008773804 15 18 11
-647.401928901672 -314.416706562042 2565.99998474121 15 18 11
-639.938592910767 -314.193546772003 2563.99989128113 16 19 12
-631.250977516174 -313.357651233673 2556.99992179871 16 19 12
-622.600436210632 -312.521696090698 2549.99995231628 17 20 11
-614.469945430756 -311.930805444717 2545.00007629395 18 21 12
-612.33377456665 -314.404219388962 2565.00005722046 17 20 11
-613.392233848572 -318.59415769577 2598.99997711182 17 20 11
-609.599053859711 -320.332795381546 2612.99991607666 17 18 10
-601.117372512817 -319.619745016098 2607.00011253357 15 16 8
-595.17365694046 -320.255219936371 2611.99998855591 15 16 8
-589.652061462402 -321.136027574539 2618.99995803833 16 17 9
-586.315512657166 -323.243170976639 2635.99991798401 16 19 12
-578.271746635437 -322.775274515152 2631.99996948242 17 20 13
-568.512678146362 -321.326106786728 2619.99988555908 15 20 14
-881.814897060394 -341.643840074539 2732.00011253357 11 14 7
-881.774485111237 -344.538897275925 2755.00011444092 14 17 10
-870.184779167175 -342.932194471359 2742.00010299683 11 14 7
-860.553383827209 -342.076063156128 2734.99989509583 12 15 8
-854.079067707062 -342.470973730087 2737.99991607666 13 16 9
-845.423877239227 -341.990560293198 2733.99996757507 11 14 7
-824.835956096649 -336.631625890732 2690.99998474121 11 14 7
-815.721750259399 -335.901170969009 2684.99994277954 10 13 6
-808.145344257355 -335.796445608139 2684.00001525879 9 12 5
-800.574064254761 -335.691958665848 2683.00008773804 9 12 5
-792.712032794952 -335.462540388107 2680.99999427795 10 13 6
-783.102810382843 -334.48252081871 2673.00009727478 10 12 7
-757.282018661499 -326.494634151459 2608.99996757507 11 13 8
-748.772919178009 -325.8897960186 2604.00009155273 11 13 8
-747.981071472168 -328.664302825928 2625.99992752075 12 14 9
-732.11681842804 -324.805527925491 2595.00002861023 14 17 10
-726.47899389267 -325.45268535614 2599.99990463257 15 18 11
-717.493116855621 -324.597924947739 2592.99993515015 14 17 10
-703.612565994263 -321.489781141281 2568.00007820129 12 15 8
-701.803386211395 -323.890030384064 2586.99989318848 11 14 5
-699.890553951263 -326.290845870972 2605.99994659424 12 15 6
-686.707854270935 -323.432952165604 2582.99994468689 12 15 6
-669.175863265991 -318.445980548859 2542.99998283386 12 15 6
-655.766487121582 -315.336883068085 2517.99988746643 13 16 7
-647.904217243195 -314.857572317123 2513.99993896484 14 17 8
-643.632829189301 -316.131770610809 2523.9999294281 15 18 7
-635.774433612823 -315.65260887146 2519.99998092651 16 19 10
-640.665233135223 -321.562051773071 2566.99991226196 16 19 10
-631.969392299652 -320.707440376282 2559.99994277954 16 19 10
-625.26398897171 -320.855051279068 2561.00010871887 17 20 11
-616.862177848816 -320.125639438629 2555.0000667572 17 20 11
-609.446942806244 -319.897383451462 2552.99997329712 16 19 10
-617.381632328033 -327.814310789108 2615.9999370575 16 19 10
-616.808235645294 -331.346184015274 2644.00005340576 16 19 12
-605.014383792877 -328.862756490707 2624.00007247925 14 17 10
-592.64463186264 -326.002955436707 2601.0000705719 13 16 9
-591.205239295959 -329.15934920311 2625.99992752075 14 17 8
-582.289218902588 -328.179478645325 2618.00003051758 15 18 9
-576.051950454712 -328.703761100769 2621.99997901917 16 19 10
-574.999570846558 -332.237064838409 2650.00009536743 15 17 12
-906.123220920563 -355.711549520493 2783.99991989136 8 15 8
-879.21416759491 -348.063886165619 2723.99997711182 13 16 9
-864.770531654358 -348.229646682739 2724.99990463257 13 16 9
-855.499505996704 -347.48238325119 2719.00010108948 12 15 8
-849.068343639374 -347.885549068451 2721.99988365173 13 16 9
-838.291585445404 -346.499651670456 2710.99996566772 11 14 7
-821.75076007843 -342.685371637344 2680.99999427795 10 13 6
-821.777403354645 -345.773577690125 2704.99992370605 9 12 5
-821.071624755859 -348.606765270233 2726.99999809265 9 12 5
-796.674251556396 -341.340929269791 2670.00007629395 10 13 6
-789.734244346619 -341.489732265472 2671.0000038147 10 13 6
-776.929378509521 -339.081704616547 2651.99995040894 9 11 6
-770.902693271637 -339.614421129227 2655.99989891052 10 12 7
-752.777338027954 -334.776759147644 2618.00003051758 10 12 7
-732.294142246246 -328.787714242935 2571.00009918213 12 14 9
-722.503542900085 -327.530026435852 2561.00010871887 15 18 11
-724.780976772308 -331.771999597549 2594.00010108948 15 18 11
-719.961643218994 -332.817018032074 2601.99999809265 14 17 10
-710.166573524475 -331.559836864471 2592.00000762939 12 15 8
-705.308020114899 -332.605242729187 2599.99990463257 11 14 5
-697.182714939117 -332.115739583969 2595.99995613098 11 14 5
-684.824824333191 -329.579263925552 2575.99997520447 11 14 5
-672.837913036346 -327.170461416245 2556.99992179871 13 16 5
-657.828152179718 -323.225885629654 2526.00002288818 13 16 5
-647.882401943207 -321.712285280228 2513.99993896484 15 18 7
-631.116032600403 -316.743165254593 2474.99990463257 15 18 7
-657.196462154388 -333.40311050415 2605.00001907349 16 19 8
-633.155763149261 -324.722409248352 2536.99994087219 17 20 11
-632.440745830536 -327.944904565811 2562.00003623962 17 20 11
-626.95050239563 -328.735679388046 2568.00007820129 17 20 11
-622.151017189026 -329.910606145859 2576.99990272522 16 19 10
-619.211494922638 -332.109987735748 2594.00010108948 16 19 10
-608.626842498779 -330.212444067001 2578.9999961853 15 18 9
-611.41961812973 -335.613399744034 2621.00005149841 14 19 13
-611.908078193665 -339.862525463104 2654.00004386902 12 17 10
-593.305230140686 -333.482831716537 2604.00009155273 11 16 9
-594.333946704865 -338.116645812988 2640.00010490417 14 17 8
-585.157513618469 -336.987286806107 2631.00004196167 15 18 9
-578.884959220886 -337.522953748703 2634.99999046326 15 18 9
-578.013896942139 -341.261208057404 2664.00003433228 23 25 20
-585.340023040771 -349.996238946915 2732.00011253357 13 17 16
-898.618638515472 -360.293507575989 2760.99991798401 3 10 3
-884.036779403687 -357.441425323486 2739.00008201599 11 14 7
-867.973923683167 -353.936851024628 2711.99989318848 16 19 12
-859.673678874969 -353.564620018005 2709.00011062622 14 17 10
-851.704239845276 -353.323131799698 2707.00001716614 12 15 8
-838.131010532379 -350.73247551918 2687.00003623962 11 14 7
-819.718718528748 -346.053212881088 2651.00002288818 12 15 8
-819.584965705872 -349.075794219971 2674.00002479553 11 14 7
-824.794590473175 -354.448944330215 2714.99991416931 11 14 7
-826.469838619232 -358.386844396591 2744.99988555908 10 13 6
-800.233602523804 -350.182682275772 2681.99992179871 11 14 7
-792.373955249786 -349.942892789841 2680.0000667572 11 14 7
-790.969789028168 -352.576166391373 2700.00004768372 9 11 6
-783.361554145813 -352.467507123947 2698.99988174438 10 12 7
-750.743210315704 -340.996891260147 2611.00006103516 14 17 10
-729.994237422943 -334.749311208725 2562.99996376038 16 19 12
-725.30323266983 -335.815727710724 2571.00009918213 16 19 12
-722.244620323181 -337.666153907776 2585.00003814697 12 15 8
-718.279421329498 -339.125066995621 2595.99995613098 12 15 8
-713.706135749817 -340.323060750961 2605.00001907349 12 15 8
-691.789269447327 -336.578994989395 2575.99997520447 13 16 7
-679.393768310547 -337.408095598221 2582.00001716614 15 18 7
-672.649562358856 -337.561458349228 2582.99994468689 15 18 7
-661.260724067688 -335.362493991852 2565.99998474121 16 19 8
-652.768135070801 -334.601044654846 2559.99994277954 17 20 9
-644.307434558868 -333.839595317841 2553.99990081787 17 20 9
-638.373911380768 -334.385275840759 2558.00008773804 17 20 11
-639.576375484467 -338.722288608551 2591.00008010864 17 20 11
-632.786691188812 -338.876277208328 2592.00000762939 15 18 9
-632.508814334869 -342.56049990654 2619.99988555908 15 18 9
-619.904339313507 -339.576691389084 2596.99988365173 14 17 8
-616.15526676178 -341.430872678757 2611.00006103516 14 17 8
-612.562417984009 -343.416005373001 2625.99992752075 12 17 10
-610.039830207825 -346.0553586483 2645.99990844727 12 17 10
-601.939618587494 -345.556110143662 2641.99995994568 11 16 9
-592.734456062317 -344.402700662613 2632.99989700317 14 17 8
-589.359641075134 -346.650213003159 2650.00009536743 15 18 9
-583.47475528717 -347.458899021149 2655.99989891052 15 18 9
-584.716081619263 -352.585136890411 2694.9999332428 18 20 17
-582.102119922638 -355.487704277039 2717.00000762939 20 24 23
-899.901688098907 -368.346631526947 2765.00010490417 18 25 18
-883.049488067627 -364.502280950546 2736.00006103516 11 14 7
-864.114284515381 -359.725266695023 2700.00004768372 16 19 12
-864.414036273956 -362.942337989807 2723.99997711182 15 18 11
-858.291506767273 -363.495260477066 2727.9999256134 14 17 10
-829.689383506775 -354.454278945923 2660.00008583069 14 17 10
-818.152666091919 -352.60871052742 2645.99990844727 13 16 9
-823.855400085449 -358.226209878922 2687.99996376038 13 16 9
-820.824265480042 -360.112935304642 2701.99990272522 12 15 8
-803.566634654999 -355.735778808594 2668.99991035461 11 14 7
-806.776285171509 -360.422253608704 2703.9999961853 11 14 7
-799.152433872223 -360.310763120651 2703.00006866455 11 14 7
-794.170081615448 -361.399263143539 2710.99996566772 9 11 6
-788.273394107819 -362.088203430176 2716.00008010864 9 12 5
-767.39776134491 -355.844438076019 2668.99991035461 11 14 7
-738.232314586639 -345.600217580795 2592.00000762939 16 19 12
-727.256178855896 -343.75536441803 2578.00006866455 15 18 11
-723.060786724091 -345.110893249512 2588.00005912781 10 13 6
-711.61687374115 -342.999398708344 2572.00002670288 11 14 7
-704.368770122528 -342.888325452805 2571.00009918213 13 16 7
-700.109302997589 -344.244539737701 2581.00008964539 14 17 8
-692.303895950317 -343.867033720016 2578.00006866455 15 18 9
