ply
format ascii 1.0
comment KinectMotionCapture
element vertex 776
property float x
property float y
property float z
property uchar red
property uchar green
property uchar blue
end_header
-696.705162525177 21.5766802430153 2516.00003242493 28 31 24
-688.515186309814 21.5354841202497 2510.99991798401 26 29 22
-685.781180858612 21.6658283025026 2526.00002288818 27 30 23
-680.00853061676 21.7018462717533 2529.99997138977 27 30 23
-675.011456012726 21.7636078596115 2536.99994087219 27 30 23
-670.238852500916 21.8339674174786 2545.00007629395 31 34 27
-663.075983524323 21.8271221965551 2543.99991035461 30 33 26
-654.628217220306 21.7773783951998 2538.00010681152 29 32 25
-649.784803390503 21.8477677553892 2546.0000038147 25 28 21
-642.624497413635 21.8409318476915 2545.00007629395 26 29 22
-636.467814445496 21.8684282153845 2548.00009727478 25 28 21
-629.305243492126 21.8615978956223 2546.99993133545 24 27 20
-625.568270683289 21.9749417155981 2559.99994277954 25 28 21
-619.82649564743 22.0196284353733 2565.00005722046 26 29 22
-613.100588321686 22.0299810171127 2565.99998474121 26 29 22
-604.242205619812 21.9630599021912 2558.00008773804 23 26 19
-602.197647094727 22.1451371908188 2578.9999961853 19 20 12
-598.191499710083 22.2585462033749 2592.00000762939 14 15 7
-590.692520141602 22.2431495785713 2589.99991416931 14 15 7
-580.949723720551 22.1418552100658 2578.00006866455 14 17 10
-575.946152210236 22.2209207713604 2586.99989318848 11 13 8
-568.913221359253 22.2226865589619 2586.99989318848 8 10 5
-560.793101787567 22.1814904361963 2582.00001716614 110 111 106
-553.127825260162 22.1574660390615 2578.9999961853 127 126 122
-546.112954616547 22.1592076122761 2578.9999961853 144 139 136
-539.723873138428 22.1867263317108 2582.00001716614 145 137 134
-532.90456533432 22.1970472484827 2582.99994468689 186 175 171
-526.689231395721 22.2331434488297 2586.99989318848 192 181 175
-520.852565765381 22.286431863904 2592.99993515015 193 183 174
-514.585733413696 22.3225280642509 2596.99988365173 110 101 96
-860.712349414825 14.9258635938168 2558.00008773804 19 24 18
-864.469826221466 15.1135297492146 2589.99991416931 22 27 21
-853.487372398376 15.0444656610489 2578.00006866455 22 27 20
-845.196664333344 15.0220943614841 2573.99988174438 35 40 33
-834.64789390564 14.958880841732 2562.99996376038 32 37 30
-829.325795173645 14.9890622124076 2568.00007820129 40 42 37
-821.09397649765 14.9667244404554 2563.99989128113 40 42 37
-791.787326335907 14.6827222779393 2515.00010490417 43 45 40
-783.730804920197 14.6603966131806 2510.99991798401 42 44 39
-779.408633708954 14.7081464529037 2519.00005340576 29 31 26
-770.748853683472 14.6741652861238 2513.00001144409 17 19 14
-768.505096435547 14.7628216072917 2528.00011634827 22 24 19
-763.468027114868 14.798941090703 2533.99991989136 24 26 21
-758.099317550659 14.8292323574424 2539.00003433228 24 26 21
-747.969031333923 14.7660840302706 2528.00011634827 20 22 17
-737.018227577209 14.6854091435671 2513.99993896484 22 25 18
-726.723611354828 14.616415835917 2502.00009346008 24 27 20
-722.535908222198 14.6701037883759 2510.99991798401 23 26 19
-715.733528137207 14.6712251007557 2510.99991798401 23 26 19
-707.518875598907 14.643139205873 2506.00004196167 26 29 22
-700.728595256805 14.6442726254463 2506.00004196167 26 29 22
-697.814166545868 14.7272264584899 2519.99998092651 25 28 21
-691.258549690247 14.7342216223478 2520.99990844727 26 29 22
-684.696793556213 14.7412242367864 2522.0000743866 27 30 23
-680.278718471527 14.7949941456318 2530.99989891052 27 30 23
-671.820104122162 14.7610874846578 2525.00009536743 26 29 22
-667.606830596924 14.8207228630781 2535.00008583069 30 33 26
-662.295579910278 14.856981113553 2540.99988937378 29 32 25
-655.661344528198 14.8640144616365 2542.00005531311 28 31 24
-649.531126022339 14.8827442899346 2545.00007629395 26 29 22
-642.373442649841 14.8780858144164 2543.99991035461 26 29 22
-635.969638824463 14.8909743875265 2546.0000038147 25 28 21
-632.518768310547 14.9740586057305 2559.99994277954 26 29 22
-626.302897930145 14.9928098544478 2562.99996376038 30 33 26
-618.861377239227 14.9823119863868 2561.00010871887 31 34 27
-612.146317958832 14.9893639609218 2562.00003623962 29 32 25
-606.133460998535 15.0139722973108 2565.99998474121 23 26 19
-601.031601428986 15.0619857013226 2573.99988174438 19 20 12
-598.885357379913 15.1860862970352 2595.00002861023 14 15 7
-587.273001670837 15.0702493265271 2575.00004768372 14 15 7
-580.275177955627 15.0714516639709 2575.00004768372 14 17 10
-575.725018978119 15.1370381936431 2585.99996566772 12 15 8
-568.474948406219 15.1323862373829 2585.00003814697 11 14 7
-560.794591903687 15.1160210371017 2582.00001716614 100 99 94
-553.55829000473 15.1113606989384 2581.00008964539 158 153 149
-547.173202037811 15.1301138103008 2584.00011062622 150 141 136
-540.143430233002 15.1312993839383 2584.00011062622 145 134 130
-533.318638801575 15.1383355259895 2585.00003814697 125 110 103
-526.690661907196 15.1512222364545 2586.99989318848 102 85 77
-521.255850791931 15.1992524042726 2595.00002861023 104 87 77
-514.983534812927 15.2238514274359 2598.99997711182 100 87 79
-508.297264575958 15.2367306873202 2601.0000705719 152 143 138
-886.62189245224 8.1885103136301 2634.99999046326 54 59 53
-868.809640407562 8.08957405388355 2602.9999256134 22 27 21
-862.757921218872 8.09941347688437 2605.99994659424 18 23 16
-853.078007698059 8.07507336139679 2598.00004959106 20 25 18
-838.882088661194 8.00721906125546 2575.99997520447 29 34 27
-826.742827892303 7.95801542699337 2559.99994277954 35 37 32
-827.499687671661 8.03316477686167 2584.00011062622 33 35 30
-798.399388790131 7.88502767682076 2536.00001335144 37 39 34
-785.916388034821 7.82961025834084 2517.99988746643 28 30 25
-773.840010166168 7.7773011289537 2500.99992752075 26 28 23
-769.522845745087 7.80273834243417 2509.0000629425 24 26 21
-765.769898891449 7.83440284430981 2519.00005340576 24 26 21
-759.552001953125 7.84119684249163 2520.99990844727 17 19 14
-750.934243202209 7.82311148941517 2515.00010490417 24 26 21
-743.531763553619 7.81747046858072 2513.00001144409 22 24 19
-735.84645986557 7.80872255563736 2509.99999046326 24 27 20
-726.433992385864 7.78131047263741 2500.99992752075 25 28 21
-717.357337474823 7.75700900703669 2493.00003051758 24 27 20
-717.159748077393 7.82917346805334 2516.00003242493 23 26 19
-712.884068489075 7.85778369754553 2525.00009536743 23 26 19
-705.203354358673 7.84905441105366 2522.0000743866 23 26 19
-698.645830154419 7.8527769073844 2523.00000190735 22 25 18
-695.920884609222 7.90008157491684 2538.00010681152 24 27 20
-688.76987695694 7.89758842438459 2536.99994087219 24 27 20
-678.398191928864 7.85773806273937 2523.9999294281 21 24 17
-675.545930862427 7.90506135672331 2539.00003433228 19 22 15
-668.134331703186 7.89946038275957 2536.99994087219 23 26 19
-661.775350570679 7.90631771087646 2539.00003433228 23 26 19
-654.888451099396 7.90694821625948 2539.00003433228 22 25 18
-646.469354629517 7.88889266550541 2532.99999237061 21 24 17
-639.344334602356 7.88640882819891 2532.00006484985 22 25 18
-637.71915435791 7.95245449990034 2552.99997329712 21 24 17
-634.990453720093 8.00605025142431 2569.9999332428 21 24 17
-625.815093517303 7.97865353524685 2561.00010871887 22 25 18
-618.137359619141 7.96994753181934 2558.00008773804 22 25 18
-612.864077091217 7.9923989251256 2565.00005722046 21 24 17
-608.260333538055 8.02420172840357 2575.00004768372 18 21 14
-604.068040847778 8.06224159896374 2586.99989318848 19 20 12
-596.347689628601 8.05353745818138 2584.00011062622 15 18 9
-588.186204433441 8.03859625011683 2578.9999961853 14 17 8
-580.050706863403 8.0236503854394 2573.99988174438 14 17 8
-577.952265739441 8.09287466108799 2595.99995613098 15 16 8
-569.355487823486 8.07169266045094 2588.99998664856 15 16 8
-561.447083950043 8.05986020714045 2585.00003814697 8 4 0
-553.773701190948 8.05114209651947 2582.00001716614 59 50 41
-546.750605106354 8.05177539587021 2582.00001716614 117 100 90
-540.353298187256 8.06176196783781 2585.00003814697 121 101 92
-534.144759178162 8.07486567646265 2588.99998664856 158 134 122
-528.523921966553 8.09732731431723 2595.99995613098 162 134 122
-523.265421390533 8.12602788209915 2605.00001907349 154 126 114
-516.767740249634 8.13601166009903 2608.00004005432 159 137 126
-886.958658695221 1.00223172921687 2635.99991798401 33 38 32
-879.156947135925 1.00153416860849 2634.0000629425 21 26 20
-863.420426845551 0.991711276583374 2608.00004005432 17 22 15
-858.988761901855 0.994817819446325 2615.9999370575 21 26 19
-846.372425556183 0.98841788712889 2598.99997711182 37 42 35
-826.097428798676 0.972890353295952 2558.00008773804 30 32 27
-816.932022571564 0.970293476711959 2551.00011825562 27 29 24
-809.074640274048 0.969218788668513 2548.00009727478 29 31 26
-787.065982818604 0.951026333495975 2500 31 33 28
-786.541044712067 0.958701712079346 2519.99998092651 21 23 18
-778.172135353088 0.956867355853319 2515.00010490417 22 24 19
-772.283434867859 0.958077318500727 2517.99988746643 26 28 23
-766.074240207672 0.958907708991319 2519.99998092651 27 29 24
-756.840825080872 0.955933472141624 2512.00008392334 21 23 18
-746.754288673401 0.951817433815449 2500.99992752075 27 29 24
-741.165161132813 0.953410752117634 2505.00011444092 24 26 21
-732.915103435516 0.951578898821026 2500 24 27 20
-722.658276557922 0.947082706261426 2487.99991607666 25 28 21
-713.616907596588 0.944109226111323 2480.00001907349 26 29 22
-708.038747310638 0.945704290643334 2483.99996757507 26 29 22
-712.319731712341 0.960626290179789 2523.00000190735 26 29 22
-704.923987388611 0.959938915912062 2520.99990844727 26 29 22
-696.984648704529 0.958490360062569 2516.99995994568 25 28 21
-691.534042358398 0.960469478741288 2522.0000743866 26 29 22
-682.525992393494 0.957497919443995 2513.99993896484 26 29 22
-678.398489952087 0.961382233072072 2523.9999294281 23 26 19
-670.757055282593 0.960315519478172 2520.99990844727 21 24 17
-667.608022689819 0.965725164860487 2535.00008583069 23 26 19
-660.733044147491 0.965801882557571 2535.00008583069 24 27 20
-652.051627635956 0.963211816269904 2528.00011634827 23 26 19
-643.917560577393 0.961383571848273 2523.00000190735 21 24 17
-639.344751834869 0.964890175964683 2532.00006484985 22 25 18
-636.720299720764 0.971446221228689 2549.00002479553 22 25 18
-628.813922405243 0.969999644439667 2545.00007629395 20 23 16
-624.104857444763 0.973507878370583 2553.99990081787 19 22 15
-617.89608001709 0.974729715380818 2556.99992179871 19 22 15
-613.34228515625 0.978620257228613 2566.99991226196 19 22 15
-611.095309257507 0.986323924735188 2586.99989318848 17 20 13
-610.373020172119 0.99669792689383 2614.00008201599 19 20 12
-598.886668682098 0.989532563835382 2595.00002861023 16 19 10
-591.151416301727 0.98846759647131 2592.00000762939 15 18 9
-585.459470748901 0.990834785625339 2598.00004959106 14 17 8
-578.843176364899 0.991676468402147 2599.99990463257 15 16 8
-572.434604167938 0.992899644188583 2602.9999256134 15 15 5
-562.316179275513 0.987637555226684 2588.99998664856 18 11 1
-553.774058818817 0.985044986009598 2582.00001716614 51 41 31
-546.750903129578 0.985122518613935 2582.00001716614 104 84 73
-540.144681930542 0.985962804406881 2584.00011062622 132 110 97
-534.14511680603 0.987947802059352 2588.99998664856 134 106 94
-527.709901332855 0.989169231615961 2592.00000762939 170 138 123
-522.261440753937 0.992298941127956 2599.99990463257 150 118 103
-516.569972038269 0.995047041215003 2607.00011253357 163 139 127
-511.034429073334 0.99817686714232 2615.00000953674 161 141 132
-883.593618869781 -6.16368465125561 2625.99992752075 16 21 15
-877.48783826828 -6.17111288011074 2628.99994850159 17 22 16
-870.372593402863 -6.17150636389852 2628.99994850159 18 23 16
-852.749764919281 -6.09678216278553 2596.99988365173 26 31 24
-839.859306812286 -6.05492340400815 2578.9999961853 25 28 21
-835.139691829681 -6.07176218181849 2585.99996566772 18 20 15
-803.481876850128 -5.89136965572834 2509.0000629425 20 22 17
-807.804346084595 -5.97396166995168 2543.99991035461 24 26 21
-795.566141605377 -5.93445263803005 2526.99995040894 21 23 18
-784.043967723846 -5.89963980019093 2512.00008392334 15 17 12
-782.813012599945 -5.9423353523016 2529.99997138977 11 13 8
-773.510158061981 -5.92397013679147 2522.0000743866 24 26 21
-768.506050109863 -5.93849364668131 2528.00011634827 28 30 25
-760.456085205078 -5.92952966690063 2523.9999294281 26 28 23
-749.739944934845 -5.89942373335361 2510.99991798401 31 33 28
-736.135065555573 -5.84582192823291 2487.99991607666 28 31 24
-728.224277496338 -5.83686074241996 2483.99996757507 28 31 24
-724.110424518585 -5.85845019668341 2493.00003051758 27 30 23
-713.904500007629 -5.83069352433085 2480.99994659424 25 28 21
-715.164542198181 -5.89694874361157 2509.0000629425 24 27 20
-710.3431224823 -5.91385550796986 2516.00003242493 21 24 17
-704.64426279068 -5.9237158857286 2519.99998092651 22 25 18
-691.723167896271 -5.87245728820562 2497.99990653992 22 25 18
-684.952974319458 -5.87291643023491 2497.99990653992 22 25 18
-681.711316108704 -5.90394251048565 2510.99991798401 23 26 19
-677.323222160339 -5.92557154595852 2519.99998092651 23 26 19
-672.0871925354 -5.9401486068964 2526.00002288818 22 25 18
-664.974212646484 -5.93826873227954 2525.00009536743 24 27 20
-658.387124538422 -5.94109296798706 2526.00002288818 26 29 22
-648.956179618835 -5.91804506257176 2516.00003242493 25 28 21
-641.620337963104 -5.91381220147014 2513.99993896484 23 26 19
-636.566877365112 -5.93075295910239 2520.99990844727 21 24 17
-627.97737121582 -5.91475982218981 2513.99993896484 22 25 18
-625.848710536957 -5.95993921160698 2532.99999237061 21 24 17
-620.683610439301 -5.97688974812627 2539.99996185303 22 25 16
-616.20432138443 -6.00090203806758 2549.99995231628 22 25 18
-610.952734947205 -6.01785769686103 2556.99992179871 21 24 15
-609.441578388214 -6.07247510924935 2579.99992370605 16 19 10
-607.103705406189 -6.12003915011883 2599.99990463257 19 20 12
-600.271105766296 -6.12288294360042 2601.0000705719 19 22 13
-592.975735664368 -6.12101797014475 2599.99990463257 18 21 12
-585.233926773071 -6.11444236710668 2596.99988365173 16 19 10
-580.401420593262 -6.13847654312849 2607.00011253357 12 15 6
-572.874248027802 -6.13425392657518 2605.00001907349 13 15 4
-562.967598438263 -6.10412424430251 2592.00000762939 27 21 9
-554.417252540588 -6.08812039718032 2585.00003814697 12 0 0
-546.96249961853 -6.08388846740127 2582.99994468689 96 74 61
-540.771543979645 -6.09378749504685 2586.99989318848 115 89 76
-533.938646316528 -6.09661964699626 2588.00005912781 151 119 104
-527.709722518921 -6.10651588067412 2592.00000762939 157 121 105
-522.261202335358 -6.12583663314581 2599.99990463257 159 123 107
-517.560482025146 -6.15458283573389 2611.99998855591 166 138 126
-512.597560882568 -6.18097372353077 2622.99990653992 152 128 118
-872.825860977173 -13.1634045392275 2594.00010108948 24 29 23
-873.48198890686 -13.2809523493052 2617.00010299683 11 16 10
-864.412784576416 -13.2513465359807 2611.00006103516 16 19 12
-848.480463027954 -13.1151657551527 2584.00011062622 22 25 18
-834.648132324219 -13.0094336345792 2562.99996376038 28 31 24
-821.575224399567 -12.913852930069 2543.99991035461 20 23 16
-801.239490509033 -12.7015123143792 2502.00009346008 19 22 15
-798.595249652863 -12.7683812752366 2515.00010490417 21 24 17
-792.732000350952 -12.7844959497452 2517.99988746643 20 23 16
-785.291731357574 -12.7752386033535 2516.00003242493 15 18 11
-777.861833572388 -12.7659859135747 2513.99993896484 15 18 11
-776.269793510437 -12.8532331436872 2530.99989891052 24 27 20
-766.07346534729 -12.798298150301 2519.99998092651 27 30 23
-761.660575866699 -12.8398649394512 2528.00011634827 28 31 24
-751.530826091766 -12.7849373966455 2516.99995994568 27 30 23
-738.797247409821 -12.6842902973294 2496.99997901917 26 29 22
-732.034623622894 -12.685239315033 2496.99997901917 26 29 22
-725.85254907608 -12.6963574439287 2499.00007247925 25 28 21
-719.946563243866 -12.7125652506948 2502.00009346008 24 27 20
-711.458325386047 -12.6830488443375 2496.00005149841 23 26 19
-706.672132015228 -12.7195967361331 2503.00002098084 22 25 18
-699.330687522888 -12.71041482687 2500.99992752075 23 26 19
-687.568843364716 -12.6199182122946 2483.00004005432 21 24 17
-684.12971496582 -12.6818995922804 2494.99988555908 22 25 18
-680.896103382111 -12.7489771693945 2507.99989700317 23 26 19
-679.741501808167 -12.8567405045033 2529.00004386902 22 25 18
-670.490026473999 -12.8119988366961 2519.99998092651 20 23 16
-663.393378257751 -12.8079317510128 2519.00005340576 24 26 21
-653.434038162231 -12.7479294314981 2506.99996948242 24 27 20
-646.891951560974 -12.7540305256844 2507.99989700317 24 27 20
-641.364395618439 -12.7804782241583 2513.00001144409 23 26 19
-636.061191558838 -12.8120165318251 2519.00005340576 22 25 18
-632.722675800323 -12.8842554986477 2532.99999237061 22 25 16
-627.330422401428 -12.9158096387982 2539.00003433228 20 23 14
-620.194137096405 -12.9117602482438 2538.00010681152 20 23 12
-613.062083721161 -12.9077062010765 2536.99994087219 21 24 15
-611.907720565796 -13.0308605730534 2561.00010871887 21 24 13
-608.495891094208 -13.1082339212298 2575.99997520447 18 20 9
-601.265430450439 -13.1041957065463 2575.00004768372 21 21 11
-593.57762336731 -13.0899762734771 2572.00002670288 21 23 12
-588.413655757904 -13.1317405030131 2579.99992370605 16 19 10
-580.951511859894 -13.1226079538465 2578.00006866455 11 17 7
-574.16695356369 -13.128743506968 2578.9999961853 11 17 7
-574.63276386261 -13.3028794080019 2612.99991607666 9 15 5
-565.790414810181 -13.2632022723556 2605.00001907349 18 15 6
-555.917859077454 -13.1980562582612 2592.00000762939 16 8 0
-548.23225736618 -13.1838172674179 2588.99998664856 90 72 60
-541.188836097717 -13.1848491728306 2588.99998664856 107 83 71
-534.144222736359 -13.1858782842755 2588.99998664856 135 106 92
-527.505397796631 -13.1970886141062 2591.00008010864 148 114 102
-522.26048707962 -13.2439527660608 2599.99990463257 149 115 103
-517.757833003998 -13.3111961185932 2612.99991607666 148 120 109
-512.792348861694 -13.3682545274496 2624.00007247925 143 119 109
-505.067706108093 -13.3539857342839 2621.00005149841 133 118 111
-871.815383434296 -20.2148091048002 2591.00008010864 17 22 16
-866.805493831635 -20.2628877013922 2596.99988365173 13 18 12
-862.425327301025 -20.3266013413668 2605.00001907349 18 21 14
-848.807752132416 -20.1718490570784 2585.00003814697 19 20 14
-834.321439266205 -19.9936833232641 2562.00003623962 22 23 17
-819.313585758209 -19.7999030351639 2536.99994087219 18 21 14
-806.041955947876 -19.6451395750046 2516.99995994568 17 20 13
-798.594117164612 -19.6308754384518 2515.00010490417 19 22 15
-788.32334280014 -19.5463672280312 2503.99994850159 19 22 15
-784.666359424591 -19.6258034557104 2513.99993896484 13 16 9
-779.407799243927 -19.6662321686745 2519.00005340576 11 14 7
-774.73509311676 -19.7222921997309 2526.00002288818 21 24 17
-766.376197338104 -19.6846779435873 2520.99990844727 26 29 22
-759.249091148376 -19.6783058345318 2519.99998092651 28 31 24
-749.140977859497 -19.5938497781754 2509.0000629425 27 30 23
-746.488749980927 -19.7046454995871 2523.00000190735 26 29 22
-739.655792713165 -19.7061225771904 2523.00000190735 25 28 21
-731.95081949234 -19.6841731667519 2519.99998092651 23 26 19
-719.945311546326 -19.545054063201 2502.00009346008 21 24 17
-713.737368583679 -19.5621736347675 2503.99994850159 21 24 17
-702.718317508698 -19.4464828819036 2489.00008201599 23 26 19
-697.092473506927 -19.4792412221432 2493.00003051758 23 26 19
-689.505994319916 -19.4573123008013 2490.00000953674 22 25 18
-689.063966274261 -19.6385718882084 2513.00001144409 22 25 18
-684.967279434204 -19.7182670235634 2523.00000190735 24 27 20
-678.665161132813 -19.7354517877102 2525.00009536743 24 27 20
-675.544023513794 -19.8464430868626 2539.00003433228 23 26 19
-668.659150600433 -19.8480170220137 2539.00003433228 24 27 20
-661.512732505798 -19.8417752981186 2538.00010681152 24 27 20
-652.823090553284 -19.7886265814304 2530.99989891052 24 27 20
-647.488296031952 -19.8371205478907 2536.99994087219 22 25 18
-640.857517719269 -19.8465287685394 2538.00010681152 22 25 16
-634.220123291016 -19.8559369891882 2539.00003433228 21 24 15
-629.305779933929 -19.9200995266438 2546.99993133545 21 24 15
-620.925843715668 -19.8747627437115 2540.99988937378 21 24 15
-613.302409648895 -19.8528934270144 2538.00010681152 22 25 14
-611.667454242706 -20.0265888124704 2559.99994277954 21 24 13
-605.423748493195 -20.0516656041145 2562.99996376038 19 21 10
-598.228573799133 -20.0454462319613 2562.00003623962 22 22 12
-591.960847377777 -20.0705267488956 2565.00005722046 24 24 16
-587.956190109253 -20.1738588511944 2578.00006866455 19 22 13
-579.147398471832 -20.1128590852022 2569.9999332428 14 21 13
-575.278759002686 -20.2240347862244 2584.00011062622 11 18 10
-570.673048496246 -20.3117392957211 2595.00002861023 8 15 7
-567.74377822876 -20.4620752483606 2614.00008201599 11 13 2
-559.13370847702 -20.4088930040598 2607.00011253357 14 10 0
-549.501478672028 -20.3165467828512 2595.00002861023 52 35 25
-541.605651378632 -20.2868208289146 2591.00008010864 95 75 64
-534.761786460876 -20.2962309122086 2592.00000762939 141 113 101
-528.929233551025 -20.3447919338942 2598.00004959106 147 115 102
-523.866176605225 -20.4246807843447 2608.00004005432 156 124 111
-518.945455551147 -20.5124020576477 2618.99995803833 157 129 118
-513.181865215302 -20.5688010901213 2625.99992752075 143 119 109
-504.102885723114 -20.4920303076506 2615.9999370575 145 128 121
-889.001846313477 -27.5955833494663 2621.00005149841 106 113 106
-872.150242328644 -27.2919312119484 2592.00000762939 18 23 17
-866.470158100128 -27.3357592523098 2595.99995613098 14 19 13
-858.451008796692 -27.3059085011482 2592.99993515015 16 19 12
-850.447952747345 -27.2760801017284 2589.99991416931 22 23 17
-842.461168766022 -27.2462759166956 2586.99989318848 26 27 21
-795.47256231308 -26.1649880558252 2483.99996757507 17 20 13
-800.497651100159 -26.5565384179354 2520.99990844727 18 21 14
-790.840446949005 -26.4635644853115 2512.00008392334 18 21 14
-786.537408828735 -26.5497006475925 2519.99998092651 13 16 9
-779.406130313873 -26.5410467982292 2519.00005340576 10 13 6
-773.506641387939 -26.574557647109 2522.0000743866 20 23 16
-763.030529022217 -26.4500211924315 2509.99999046326 25 28 21
-756.234467029572 -26.4519527554512 2509.99999046326 27 30 23
-747.347712516785 -26.3801235705614 2503.00002098084 25 28 21
-747.374594211578 -26.6245044767857 2526.00002288818 23 26 19
-738.774597644806 -26.5632532536983 2519.99998092651 24 27 20
-726.720929145813 -26.3755042105913 2502.00009346008 22 25 18
-716.490626335144 -26.2509919703007 2490.00000953674 20 23 16
-713.45055103302 -26.3900589197874 2503.00002098084 20 23 16
-702.998876571655 -26.255015283823 2490.00000953674 23 26 19
-694.853782653809 -26.2043178081512 2484.99989509583 22 25 18
-697.2576379776 -26.5543665736914 2517.99988746643 22 25 18
-694.546163082123 -26.7146378755569 2532.99999237061 22 25 18
-685.236871242523 -26.6218055039644 2523.9999294281 23 26 19
-678.66325378418 -26.6344491392374 2525.00009536743 25 28 21
-674.211859703064 -26.7314948141575 2533.99991989136 25 28 21
-675.24117231369 -27.0501095801592 2563.99989128113 24 27 20
-668.026924133301 -27.0417109131813 2562.99996376038 25 28 21
-660.817086696625 -27.0333103835583 2562.00003623962 24 27 20
-651.059567928314 -26.9193947315216 2551.00011825562 21 24 17
-641.865611076355 -26.8265660852194 2542.00005531311 21 24 15
-634.467959403992 -26.8076006323099 2539.99996185303 21 24 15
-627.574324607849 -26.8097501248121 2539.99996185303 21 24 15
-618.480384349823 -26.7168954014778 2530.99989891052 22 25 16
-613.783895969391 -26.8140491098166 2539.99996185303 22 25 14
-610.470950603485 -26.9745625555515 2555.0000667572 21 24 13
-603.768348693848 -26.9872806966305 2555.99999427795 19 21 10
-598.226726055145 -27.0528011023998 2562.00003623962 21 21 11
-593.112826347351 -27.1394439041615 2569.9999332428 22 23 15
-589.550793170929 -27.300026267767 2585.00003814697 19 22 13
-581.849694252014 -27.2705163806677 2582.00001716614 15 22 14
-576.390027999878 -27.3466259241104 2588.99998664856 11 18 10
-571.990668773651 -27.475556358695 2601.0000705719 7 14 6
-564.049541950226 -27.4354722350836 2596.99988365173 11 12 4
-558.488309383392 -27.5115929543972 2604.00009155273 14 10 1
-550.134897232056 -27.4503584951162 2598.00004959106 31 17 6
-541.812777519226 -27.3891072720289 2592.00000762939 86 66 55
-534.966230392456 -27.4018105119467 2592.99993515015 134 106 94
-529.130935668945 -27.4673458188772 2598.99997711182 144 112 99
-524.667739868164 -27.6068672537804 2611.99998855591 163 131 116
-519.736170768738 -27.7252607047558 2622.99990653992 147 119 107
-513.961732387543 -27.8013739734888 2630.00011444092 150 126 114
-506.028056144714 -27.7611967176199 2625.99992752075 138 121 113
-897.818803787231 -35.0881703197956 2647.0000743866 81 88 81
-886.953353881836 -34.9445044994354 2635.99991798401 20 27 20
-871.474802494049 -34.6152558922768 2611.00006103516 15 20 14
-866.725623607636 -34.7102619707584 2618.00003051758 14 17 10
-849.132537841797 -34.2882126569748 2585.99996566772 17 18 12
-842.133462429047 -34.2904627323151 2585.99996566772 17 18 12
-824.799954891205 -33.8683947920799 2553.99990081787 17 20 13
-825.572967529297 -34.1889671981335 2578.00006866455 15 18 11
-795.415222644806 -33.2231223583221 2505.00011444092 18 21 14
-793.042063713074 -33.4111116826534 2519.00005340576 17 20 13
-790.904879570007 -33.6124114692211 2533.99991989136 12 15 8
-782.807528972626 -33.5617326200008 2529.99997138977 13 16 9
-776.57151222229 -33.5906632244587 2532.00006484985 17 20 13
-766.676366329193 -33.4604196250439 2522.0000743866 21 24 17
-762.257993221283 -33.5690006613731 2529.99997138977 23 26 19
-752.12287902832 -33.425509929657 2519.00005340576 20 23 16
-749.147653579712 -33.6005054414272 2532.00006484985 18 21 14
-735.840678215027 -33.3110466599464 2509.99999046326 21 24 17
-725.556790828705 -33.1542864441872 2497.99990653992 19 22 15
-715.912818908691 -33.0240651965141 2487.99991607666 18 21 14
-716.583609580994 -33.3717167377472 2513.99993896484 19 22 15
-708.925366401672 -33.334456384182 2510.99991798401 21 24 17
-703.799307346344 -33.4166921675205 2516.99995994568 20 23 16
-698.916792869568 -33.5122272372246 2523.9999294281 21 24 17
-694.269597530365 -33.6210653185844 2532.00006484985 20 23 16
-684.148490428925 -33.4643460810184 2519.99998092651 19 22 15
-672.747731208801 -33.2412086427212 2503.00002098084 22 25 18
-669.420301914215 -33.4164947271347 2516.00003242493 23 26 19
-669.971704483032 -33.7910577654839 2543.99991035461 25 28 21
-669.84897851944 -34.1391153633595 2569.9999332428 26 29 22
-659.524977207184 -33.9691303670406 2556.99992179871 24 27 20
-648.249685764313 -33.7459780275822 2539.99996185303 19 22 15
-638.32813501358 -33.5892364382744 2528.00011634827 19 22 13
-632.217466831207 -33.6317829787731 2530.99989891052 19 22 13
-626.830697059631 -33.7142124772072 2536.99994087219 21 24 15
-617.256164550781 -33.570721745491 2526.00002288818 24 27 18
-613.78139257431 -33.7594859302044 2539.99996185303 22 25 16
-608.318090438843 -33.8419452309608 2546.0000038147 19 22 11
-602.821052074432 -33.9244157075882 2552.00004577637 19 22 11
-601.026237010956 -34.2196077108383 2573.99988174438 19 20 12
-595.649003982544 -34.3154110014439 2581.00008964539 17 20 13
-592.741191387177 -34.5574840903282 2598.99997711182 14 19 12
-587.030231952667 -34.6400253474712 2605.00001907349 13 20 13
-582.398533821106 -34.7890630364418 2615.9999370575 9 19 11
-577.705860137939 -34.9381230771542 2627.00009346008 6 13 6
-566.436290740967 -34.6881709992886 2608.00004005432 11 12 4
-557.413458824158 -34.571185708046 2598.99997711182 15 11 2
-549.073696136475 -34.494087100029 2592.99993515015 23 9 0
-540.347158908844 -34.390352666378 2585.00003814697 77 59 47
-534.757554531097 -34.4861671328545 2592.00000762939 126 99 88
-529.53577041626 -34.6085987985134 2601.0000705719 140 108 93
-525.468826293945 -34.810870885849 2615.9999370575 156 124 109
-520.130097866058 -34.9333174526691 2625 136 108 94
-514.545559883118 -35.0424498319626 2632.99989700317 151 127 115
-506.989181041718 -35.0184924900532 2631.00004196167 117 103 94
-906.635165214539 -42.7225232124329 2673.00009727478 76 83 76
-892.67110824585 -42.4054674804211 2653.00011634827 23 30 23
-872.47371673584 -41.7847074568272 2614.00008201599 17 22 16
-867.054283618927 -41.8672859668732 2618.99995803833 16 19 12
-848.801791667938 -41.3264334201813 2585.00003814697 17 18 12
-836.594939231873 -41.0733297467232 2569.00000572205 14 15 9
-824.151635169983 -40.8042408525944 2552.00004577637 17 20 13
-815.96314907074 -40.7430343329906 2548.00009727478 16 19 12
-809.066474437714 -40.7458171248436 2548.00009727478 18 21 14
-793.354272842407 -40.3008423745632 2519.99998092651 17 20 13
-791.838705539703 -40.5755527317524 2536.99994087219 12 15 8
-782.804846763611 -40.4664538800716 2529.99997138977 12 15 8
-771.661639213562 -40.2454026043415 2516.00003242493 15 18 11
-765.761733055115 -40.2963049709797 2519.00005340576 19 22 15
-762.556552886963 -40.4912121593952 2530.99989891052 22 25 18
-755.703032016754 -40.4941886663437 2530.99989891052 21 24 17
-743.819117546082 -40.2251817286015 2513.99993896484 19 22 15
-737.303733825684 -40.2441881597042 2515.00010490417 19 22 13
-728.168070316315 -40.1191934943199 2506.99996948242 19 22 13
-723.67924451828 -40.2502678334713 2515.00010490417 18 21 12
-721.426486968994 -40.5094176530838 2530.99989891052 19 22 13
-715.416133403778 -40.5605472624302 2533.99991989136 19 22 13
-707.431495189667 -40.4996462166309 2529.99997138977 19 22 13
-697.529315948486 -40.3266921639442 2519.00005340576 20 23 14
-687.960147857666 -40.1697307825089 2509.0000629425 18 21 12
-677.087008953094 -39.9327017366886 2493.99995803833 17 20 11
-669.250845909119 -39.8717895150185 2490.00000953674 19 22 13
-667.288839817047 -40.1631854474545 2507.99989700317 21 24 15
-667.861878871918 -40.6147912144661 2536.00001335144 25 28 21
-661.244809627533 -40.6340286135674 2536.99994087219 26 29 22
-653.331756591797 -40.5731908977032 2532.99999237061 24 27 20
-643.908083438873 -40.4162369668484 2523.00000190735 19 22 13
-638.577699661255 -40.5155904591084 2529.00004386902 19 22 13
-632.214486598969 -40.5508615076542 2530.99989891052 19 22 13
-628.063142299652 -40.7303646206856 2542.00005531311 22 25 16
-623.85094165802 -40.9098938107491 2552.99997329712 24 27 18
-616.194844245911 -40.8650860190392 2549.99995231628 23 26 17
-609.509766101837 -40.8843941986561 2551.00011825562 20 23 14
-605.180203914642 -41.0639718174934 2562.00003623962 19 22 13
-599.855720996857 -41.1794632673264 2569.00000572205 20 21 13
-597.722947597504 -41.5193922817707 2589.99991416931 16 19 12
-591.141760349274 -41.5547713637352 2592.00000762939 12 17 10
-584.773778915405 -41.606180369854 2595.00002861023 14 20 16
-583.063364028931 -41.9943109154701 2618.99995803833 11 17 13
-574.184238910675 -41.8693535029888 2611.00006103516 6 13 6
-567.084848880768 -41.8726690113544 2611.00006103516 10 11 5
-559.126317501068 -41.8118126690388 2607.00011253357 16 11 5
-549.282431602478 -41.6065789759159 2594.00010108948 20 5 0
-541.598379611969 -41.5617078542709 2591.00008010864 45 27 17
-535.786151885986 -41.6611954569817 2596.99988365173 116 92 80
-530.957877635956 -41.8409034609795 2608.00004005432 121 92 76
-526.068449020386 -42.0206226408482 2618.99995803833 118 87 69
-521.117866039276 -42.2003529965878 2630.00011444092 119 93 78
-515.12885093689 -42.2998480498791 2635.99991798401 115 93 79
-508.142471313477 -42.3191040754318 2637.00008392334 100 88 76
-908.667385578156 -50.1244179904461 2678.99990081787 78 85 78
-888.630509376526 -49.4164675474167 2641.00003242493 27 34 27
-877.4773478508 -49.1949990391731 2628.99994850159 16 21 15
-847.849786281586 -47.9255951941013 2561.00010871887 21 24 17
-843.216836452484 -48.0596944689751 2568.00007820129 17 18 12
-837.243258953094 -48.1189824640751 2571.00009918213 13 14 8
-835.128724575043 -48.402938991785 2585.99996566772 17 20 13
-822.044610977173 -48.0505414307117 2566.99991226196 16 19 12
-804.300427436829 -47.4173426628113 2532.99999237061 18 21 14
-796.814262866974 -47.3831743001938 2530.99989891052 18 21 14
-792.459905147552 -47.5362651050091 2539.00003433228 12 15 8
-787.133395671844 -47.6332381367683 2543.99991035461 12 15 8
-773.191928863525 -47.2059585154057 2520.99990844727 13 16 9
-766.062557697296 -47.1906363964081 2519.99998092651 17 20 13
-763.155937194824 -47.4375300109386 2532.99999237061 21 24 17
-758.386969566345 -47.5721172988415 2539.99996185303 21 24 17
-748.254001140594 -47.3696030676365 2529.00004386902 20 23 16
-738.473117351532 -47.1858195960522 2519.00005340576 19 22 13
-734.554767608643 -47.3766997456551 2529.00004386902 19 22 13
-727.128803730011 -47.3428145051003 2526.99995040894 19 22 13
-722.278237342834 -47.4775768816471 2533.99991989136 19 22 13
-718.235969543457 -47.6685911417007 2543.99991035461 18 21 12
-707.987248897552 -47.4473983049393 2532.00006484985 19 22 13
-693.926155567169 -46.9638220965862 2506.00004196167 19 22 13
-682.472825050354 -46.6488637030125 2489.00008201599 17 20 11
-674.368739128113 -46.5587936341763 2483.99996757507 16 19 10
-669.784963130951 -46.7124097049236 2492.00010299683 18 21 12
-669.679999351501 -47.1847541630268 2516.99995994568 20 23 14
-666.278302669525 -47.4322028458118 2529.99997138977 25 28 21
-659.938216209412 -47.4734716117382 2532.00006484985 26 29 22
-651.006877422333 -47.3272353410721 2523.9999294281 21 24 15
-646.711885929108 -47.5185215473175 2533.99991989136 18 21 12
-642.361640930176 -47.7098524570465 2543.99991035461 19 22 13
-634.209334850311 -47.619890421629 2539.00003433228 19 22 13
-628.800809383392 -47.7362349629402 2545.00007629395 22 25 16
-624.580502510071 -47.9463972151279 2555.99999427795 25 28 19
-620.540976524353 -48.1753535568714 2568.00007820129 23 26 17
-612.851202487946 -48.1229238212109 2565.00005722046 20 23 14
-607.538759708405 -48.2581108808517 2572.00002670288 19 22 13
-600.552678108215 -48.2619665563107 2572.00002670288 20 21 13
-595.411539077759 -48.415943980217 2579.99992370605 14 19 12
-589.313685894012 -48.4948828816414 2584.00011062622 12 17 10
-581.164658069611 -48.4048910439014 2578.9999961853 14 20 16
-579.720437526703 -48.8779991865158 2604.00009155273 12 18 14
-574.40048456192 -49.0320362150669 2611.99998855591 8 13 9
-568.601548671722 -49.1485483944416 2618.00003051758 11 12 6
-561.910808086395 -49.1899624466896 2619.99988555908 16 11 7
-551.18465423584 -48.874631524086 2602.9999256134 16 1 0
-542.639970779419 -48.7469993531704 2595.99995613098 28 10 0
-536.60786151886 -48.8446950912476 2601.0000705719 110 86 74
-531.768679618835 -49.0550622344017 2611.99998855591 121 92 76
-527.471005916595 -49.3217930197716 2625.99992752075 117 88 70
-522.89754152298 -49.5697595179081 2638.99993896484 117 94 78
-517.665803432465 -49.761388450861 2648.9999294281 104 85 71
-509.680509567261 -49.690019339323 2644.99998092651 116 103 94
-894.418716430664 -56.529987603426 2637.00008392334 49 56 49
-890.982627868652 -56.7692667245865 2648.00000190735 13 20 13
-872.801303863525 -56.0652874410152 2615.00000953674 9 14 8
-854.467630386353 -55.3398355841637 2581.00008964539 16 19 12
-838.288128376007 -54.7430031001568 2552.99997329712 13 14 8
-841.147661209106 -55.389903485775 2582.99994468689 16 17 11
-844.167649745941 -56.0583882033825 2614.00008201599 17 20 13
-825.88404417038 -55.3115122020245 2578.9999961853 17 20 13
-803.979516029358 -54.3072074651718 2532.00006484985 17 20 13
-804.681360721588 -54.8257455229759 2555.99999427795 16 19 12
-798.386335372925 -54.8724718391895 2558.00008773804 14 17 10
-787.439227104187 -54.5974560081959 2545.00007629395 13 16 9
-777.788937091827 -54.4082596898079 2536.00001335144 13 16 9
-764.842867851257 -53.9830550551414 2516.00003242493 17 20 13
-760.742008686066 -54.1801005601883 2525.00009536743 24 27 20
-756.890416145325 -54.3986633419991 2535.00008583069 24 27 20
-751.504778862 -54.509986191988 2539.99996185303 22 25 18
-743.453085422516 -54.4282011687756 2536.00001335144 22 25 16
-734.841465950012 -54.3034970760345 2529.99997138977 20 23 14
-727.124869823456 -54.2432107031345 2526.99995040894 18 21 12
-723.414480686188 -54.4834807515144 2538.00010681152 18 21 12
-715.973556041718 -54.4447153806686 2536.00001335144 17 20 11
-707.703709602356 -54.3415509164333 2530.99989891052 17 20 11
-693.091511726379 -53.7445470690727 2503.00002098084 19 22 13
-685.485064983368 -53.684301674366 2500 18 21 12
-678.708553314209 -53.6884963512421 2500 17 20 11
-677.0378947258 -54.1007779538631 2519.00005340576 18 21 12
-668.877720832825 -53.9976358413696 2513.99993896484 20 23 14
-664.694130420685 -54.2167015373707 2523.9999294281 22 25 16
-658.109664916992 -54.2424842715263 2525.00009536743 22 25 16
-651.776611804962 -54.2897544801235 2526.99995040894 20 23 14
-647.473454475403 -54.5089282095432 2536.99994087219 19 22 13
-645.387649536133 -54.9215376377106 2555.99999427795 20 23 14
-636.703073978424 -54.77549508214 2549.00002479553 22 25 16
-629.785060882568 -54.7798722982407 2549.00002479553 21 24 15
-625.798165798187 -55.0421625375748 2561.00010871887 25 28 19
-620.536863803864 -55.1970228552818 2568.00007820129 25 28 21
-615.236341953278 -55.3519017994404 2575.00004768372 20 23 16
-606.117308139801 -55.1628395915031 2565.99998474121 17 20 13
-600.548505783081 -55.2962459623814 2572.00002670288 17 20 11
-595.176696777344 -55.4511621594429 2578.9999961853 15 20 13
-588.16921710968 -55.4555840790272 2578.9999961853 15 20 13
-582.963228225708 -55.6320212781429 2586.99989318848 16 21 17
-576.599419116974 -55.7009540498257 2589.99991416931 18 23 19
-572.197377681732 -55.9634603559971 2601.99999809265 14 16 11
-565.556824207306 -56.0108944773674 2604.00009155273 13 12 7
-559.761941432953 -56.1443641781807 2609.99989509583 12 5 0
-551.604032516479 -56.0411997139454 2605.00001907349 23 8 1
-544.308185577393 -56.0240596532822 2604.00009155273 67 49 39
-538.047969341278 -56.1144836246967 2608.00004005432 117 95 82
-532.579004764557 -56.2909618020058 2615.9999370575 121 95 80
-528.270423412323 -56.596577167511 2630.00011444092 93 66 49
-524.08242225647 -56.9237284362316 2644.99998092651 106 87 72
-519.029676914215 -57.1648143231869 2655.99989891052 105 89 76
-511.410713195801 -57.126097381115 2654.00004386902 112 105 95
-892.719089984894 -63.6004656553268 2631.99996948242 61 68 61
-894.007086753845 -64.2085000872612 2657.00006484985 8 15 8
-870.127499103546 -63.0041360855103 2607.00011253357 16 21 15
-842.214643955231 -61.4854730665684 2543.99991035461 12 15 8
-843.537986278534 -62.0936863124371 2569.00000572205 15 16 10
-843.748986721039 -62.6295208930969 2591.00008010864 18 19 13
-851.91410779953 -63.7698173522949 2638.00001144409 14 17 10
-847.015380859375 -63.9433339238167 2644.99998092651 16 19 12
-815.406441688538 -62.0860643684864 2568.00007820129 17 20 13
-805.621683597565 -61.8727281689644 2559.00001525879 16 19 12
-797.758042812347 -61.8044957518578 2555.99999427795 14 17 10
-794.551432132721 -62.0990358293056 2568.00007820129 12 15 8
-779.624938964844 -61.4746809005737 2542.00005531311 13 16 9
-770.918488502502 -61.3339804112911 2536.00001335144 16 19 12
-763.750612735748 -61.3142512738705 2535.00008583069 20 23 16
-758.97616147995 -61.4880621433258 2542.00005531311 22 25 18
-751.500427722931 -61.4442192018032 2539.99996185303 21 24 17
-744.035005569458 -61.4004097878933 2538.00010681152 23 26 17
-735.418021678925 -61.2598471343517 2532.00006484985 22 25 16
-727.120578289032 -61.1434988677502 2526.99995040894 17 20 11
-720.274746417999 -61.1481443047524 2526.99995040894 16 19 10
-715.122044086456 -61.2980201840401 2532.99999237061 17 20 11
-706.301212310791 -61.1333213746548 2526.00002288818 17 20 11
-697.517573833466 -60.9686262905598 2519.00005340576 18 21 12
-687.400043010712 -60.682900249958 2506.99996948242 18 21 12
-682.504892349243 -60.8570836484432 2513.99993896484 18 21 12
-681.871175765991 -61.4186562597752 2536.99994087219 20 23 14
-674.726545810699 -61.3992772996426 2536.00001335144 21 24 15
-669.693231582642 -61.5736171603203 2542.99998283386 21 24 13
-661.754012107849 -61.4816285669804 2539.00003433228 20 23 14
-653.06168794632 -61.3169856369495 2532.00006484985 17 20 11
-648.234486579895 -61.5156069397926 2539.99996185303 18 21 12
-642.10045337677 -61.5931674838066 2542.99998283386 20 23 14
-636.198878288269 -61.6949647665024 2546.99993133545 25 28 19
-630.521535873413 -61.8210099637508 2552.00004577637 24 27 18
-624.571681022644 -61.9228519499302 2555.99999427795 26 29 22
-618.840634822845 -62.0489418506622 2561.00010871887 24 27 20
-611.408889293671 -62.0054379105568 2559.00001525879 21 24 17
-608.002305030823 -62.3738616704941 2573.99988174438 19 22 15
-604.279696941376 -62.7181231975555 2588.00005912781 18 21 12
-593.787252902985 -62.3595714569092 2572.99995422363 17 20 13
-591.357290744781 -62.8492906689644 2592.99993515015 17 20 13
-585.211932659149 -62.9512444138527 2596.99988365173 20 22 17
-576.594769954681 -62.7865418791771 2589.99991416931 23 25 20
-572.632431983948 -63.1309226155281 2604.00009155273 19 20 15
-566.855192184448 -63.2813647389412 2609.99989509583 19 16 11
-558.685004711151 -63.1651058793068 2605.00001907349 16 7 2
-552.446365356445 -63.2670521736145 2608.99996757507 32 18 9
-545.766711235046 -63.320480287075 2611.00006103516 97 79 69
-540.106356143951 -63.4951740503311 2618.00003051758 118 96 83
-534.406661987305 -63.6698752641678 2625 95 69 56
-529.270112514496 -63.9173462986946 2634.99999046326 85 59 46
-524.474084377289 -64.2133429646492 2647.0000743866 117 99 87
-519.025087356567 -64.4365772604942 2655.99989891052 112 98 87
-511.213481426239 -64.3686726689339 2653.00011634827 164 160 151
-897.463500499725 -71.1545199155808 2645.99990844727 106 113 106
-888.955891132355 -71.0512846708298 2641.99995994568 17 24 17
-875.129818916321 -70.5178081989288 2621.99997901917 16 21 15
-861.411988735199 -69.9843317270279 2601.99999809265 15 18 11
-855.682730674744 -70.096418261528 2605.99994659424 15 16 10
-847.001135349274 -69.9664801359177 2601.0000705719 7 8 2
-838.02342414856 -69.809690117836 2595.00002861023 12 15 8
-836.443185806274 -70.271722972393 2611.99998855591 15 18 11
-824.610114097595 -69.8729157447815 2596.99988365173 18 21 14
-808.45057964325 -69.0974146127701 2568.00007820129 18 21 14
-801.498889923096 -69.1022202372551 2568.00007820129 15 18 11
-795.165538787842 -69.1608861088753 2569.9999332428 11 14 7
-785.447478294373 -68.9235925674438 2561.00010871887 10 13 6
-770.305812358856 -68.2018399238586 2533.99991989136 12 15 8
-762.841999530792 -68.1529566645622 2532.00006484985 16 19 12
-757.777154445648 -68.3194547891617 2538.00010681152 18 21 14
-750.016272068024 -68.2437270879745 2535.00008583069 17 20 13
-744.323372840881 -68.356491625309 2539.00003433228 18 21 12
-736.57488822937 -68.2808309793472 2536.00001335144 21 24 15
-730.85629940033 -68.3936923742294 2539.99996185303 20 23 14
-721.979975700378 -68.2103782892227 2532.99999237061 18 21 12
-715.117156505585 -68.2155936956406 2532.99999237061 17 20 11
-707.974016666412 -68.1939050555229 2532.00006484985 19 22 13
-696.958720684052 -67.795142531395 2516.99995994568 19 22 13
-686.846673488617 -67.4771592020988 2505.00011444092 19 22 13
-680.328071117401 -67.5093531608582 2506.00004196167 21 24 15
-679.44723367691 -68.1073367595673 2528.00011634827 23 26 17
-677.382051944733 -68.597674369812 2546.0000038147 23 26 17
-673.374891281128 -68.8994750380516 2556.99992179871 21 24 13
-662.530720233917 -68.500705063343 2542.00005531311 20 23 12
-652.798593044281 -68.2096853852272 2530.99989891052 19 22 13
-643.125176429749 -67.9186284542084 2519.99998092651 21 24 15
-638.560354709625 -68.1666135787964 2529.00004386902 25 28 19
-636.193692684174 -68.657249212265 2546.99993133545 26 29 20
-628.292739391327 -68.5548931360245 2542.99998283386 24 27 18
-620.901167392731 -68.5064345598221 2540.99988937378 24 27 20
-615.452468395233 -68.6736777424812 2546.99993133545 22 25 18
-613.076090812683 -69.1914781928062 2565.99998474121 19 22 15
-614.13848400116 -70.1138749718666 2599.99990463257 19 22 15
-597.503185272217 -69.0137296915054 2559.00001525879 20 21 13
-600.243747234344 -70.1520070433617 2601.0000705719 17 18 10
-591.580152511597 -69.9687674641609 2594.00010108948 16 17 9
-587.234735488892 -70.2980160713196 2605.99994659424 13 14 8
-583.268165588379 -70.6812739372253 2619.99988555908 23 22 17
-575.046122074127 -70.5519616603851 2615.00000953674 19 18 13
-568.153023719788 -70.5844908952713 2615.9999370575 11 4 0
-559.537589550018 -70.4011470079422 2608.99996757507 35 24 18
-552.441120147705 -70.4066529870033 2608.99996757507 82 65 55
-547.015607357025 -70.6280469894409 2617.00010299683 92 74 62
-542.164146900177 -70.9304139018059 2628.00002098084 78 58 47
-536.437213420868 -71.1248368024826 2634.99999046326 76 53 45
-530.068337917328 -71.2382793426514 2638.99993896484 119 96 88
-523.478209972382 -71.3247209787369 2641.99995994568 102 87 80
-515.69789648056 -71.2491497397423 2638.99993896484 95 84 78
-887.268900871277 -78.1083628535271 2637.00008392334 14 21 14
-885.805547237396 -78.6167755723 2654.00004386902 19 24 18
-875.642657279968 -78.3551186323166 2644.99998092651 14 17 10
-857.3197722435 -77.3528590798378 2611.00006103516 15 16 10
-854.486107826233 -77.7430459856987 2624.00007247925 9 10 4
-847.706615924835 -77.7778029441834 2625 12 15 8
-834.516823291779 -77.2199928760529 2605.99994659424 14 17 10
-821.112334728241 -76.6325518488884 2585.99996566772 17 20 13
-816.001057624817 -76.8156200647354 2592.00000762939 17 20 13
-806.175351142883 -76.5542089939117 2582.99994468689 16 19 12
-796.707451343536 -76.3224735856056 2575.00004768372 13 16 9
-785.135626792908 -75.8832544088364 2559.99994277954 11 14 7
-771.212637424469 -75.206883251667 2536.99994087219 13 16 9
-762.535452842712 -75.0344395637512 2530.99989891052 18 21 14
-756.577491760254 -75.128860771656 2533.99991989136 19 22 15
-748.827576637268 -75.0454440712929 2530.99989891052 18 21 14
-741.679608821869 -75.0213637948036 2529.99997138977 15 18 9
-734.536468982697 -74.9973207712173 2529.00004386902 19 22 13
-728.836715221405 -75.121596455574 2532.99999237061 21 24 15
-721.404492855072 -75.0679671764374 2530.99989891052 19 22 13
-714.829325675964 -75.1033574342728 2532.00006484985 17 20 11
-706.570327281952 -74.9607905745506 2526.99995040894 19 22 13
-698.337733745575 -74.8182460665703 2522.0000743866 18 21 12
-687.93797492981 -74.4383558630943 2509.0000629425 19 22 13
-679.508030414581 -74.2661207914352 2503.00002098084 21 24 15
-679.710388183594 -75.0434175133705 2529.00004386902 23 26 17
-677.376389503479 -75.5537897348404 2546.0000038147 22 25 16
-674.42262172699 -76.0049000382423 2561.00010871887 23 26 15
-664.610087871552 -75.6844133138657 2549.99995231628 23 26 15
-652.534961700439 -75.0967413187027 2529.99997138977 22 25 16
-643.885135650635 -74.8949125409126 2523.00000190735 24 27 18
-638.807117938995 -75.1086696982384 2529.99997138977 27 30 21
-636.687517166138 -75.6787434220314 2549.00002479553 26 29 20
-628.287017345428 -75.5066126585007 2542.99998283386 24 27 18
-618.207573890686 -75.1265957951546 2529.99997138977 25 28 21
-609.647452831268 -74.9246999621391 2523.00000190735 23 26 19
-618.087589740753 -76.8314078450203 2586.99989318848 20 23 16
-612.242996692657 -76.9860371947289 2592.00000762939 20 23 16
-607.303977012634 -77.2594958543777 2601.0000705719 20 22 11
-594.699382781982 -76.5526816248894 2576.99990272522 16 17 9
-592.03040599823 -77.1232172846794 2595.99995613098 15 16 8
-588.130295276642 -77.5452852249146 2609.99989509583 12 13 7
-583.03964138031 -77.8188332915306 2618.99995803833 21 20 15
-575.260102748871 -77.7358189225197 2615.9999370575 18 15 10
-568.798780441284 -77.8310894966125 2618.99995803833 38 29 22
-560.818612575531 -77.7183175086975 2615.00000953674 77 64 56
