ply
format ascii 1.0
comment KinectMotionCapture
element vertex 806
property float x
property float y
property float z
property uchar red
property uchar green
property uchar blue
end_header
139.490112662315 188.310399651527 2891.00003242493 8 11 4
146.713569760323 187.459051609039 2878.00002098084 9 12 5
155.261859297752 188.300982117653 2891.00003242493 10 13 6
163.20326924324 188.361033797264 2891.99995994568 11 14 7
171.918541193008 189.267516136169 2905.99989891052 11 14 7
176.377430558205 185.614764690399 2849.99990463257 11 14 7
185.505479574203 186.976730823517 2871.00005149841 10 13 6
194.814637303352 188.403442502022 2892.99988746643 13 16 9
203.962773084641 189.569383859634 2911.00001335144 14 17 10
211.461201310158 189.172118902206 2904.99997138977 14 17 10
217.717796564102 187.73278594017 2882.99989700317 16 19 10
225.027337670326 187.270045280457 2875.99992752075 16 19 8
234.645947813988 188.695386052132 2898.00000190735 16 19 10
243.965059518814 189.794838428497 2914.99996185303 16 19 10
252.943813800812 190.568417310715 2927.00004577637 16 19 10
261.630415916443 191.081315279007 2934.99994277954 17 20 11
268.246799707413 190.096616744995 2920.00007629395 19 22 13
276.766747236252 190.478831529617 2926.00011825562 22 25 16
-84.7609266638756 187.816798686981 3009.0000629425 101 93 82
-76.3452276587486 187.319949269295 3000.99992752075 43 34 25
-67.8820610046387 186.573147773743 2989.00008201599 28 21 11
-59.38421189785 185.513973236084 2971.99988365173 21 17 6
-50.5993850529194 183.081299066544 2933.00008773804 26 22 13
-42.7243113517761 183.644518256187 2941.99991226196 18 20 9
-34.5876701176167 183.083936572075 2933.00008773804 18 21 10
-26.210006326437 180.525571107864 2891.99995994568 18 21 12
-18.3283984661102 180.651113390923 2894.00005340576 17 20 11
-10.5475056916475 182.711511850357 2927.00004577637 16 19 10
-2.54184450022876 181.588113307953 2908.99991989136 13 16 7
13.3580937981606 181.837469339371 2913.00010681152 14 17 10
21.0683364421129 179.776981472969 2880.00011444092 15 18 11
29.1809476912022 181.336760520935 2904.99997138977 16 19 12
37.0466820895672 181.023627519608 2900.00009536743 16 19 12
44.6058921515942 179.58664894104 2877.00009346008 13 16 9
52.714005112648 180.459022521973 2891.00003242493 13 16 9
61.4014491438866 182.829231023788 2928.99990081787 11 14 7
68.8982233405113 181.516394019127 2907.99999237061 7 10 3
75.2232000231743 177.706554532051 2846.99988365173 9 12 5
82.8182175755501 177.329614758492 2841.00008010864 10 13 6
91.5278345346451 179.199442267418 2871.00005149841 10 13 6
100.366212427616 181.006535887718 2900.00009536743 10 13 6
115.912184119225 180.562928318977 2892.99988746643 13 16 9
130.924686789513 179.494291543961 2875.99992752075 6 9 2
137.27493584156 177.555456757545 2845.00002861023 7 10 3
164.111316204071 181.473284959793 2907.99999237061 11 14 7
179.910585284233 181.400373578072 2907.00006484985 11 14 7
188.160449266434 181.706756353378 2911.99994087219 10 13 6
195.426762104034 181.07695877552 2901.99995040894 13 16 9
202.707827091217 180.509373545647 2892.99988746643 13 16 9
210.521399974823 180.440738797188 2891.99995994568 14 17 10
225.660189986229 179.928481578827 2884.0000629425 17 20 9
234.491154551506 180.670231580734 2895.99990844727 16 19 10
245.646372437477 183.096081018448 2934.99994277954 15 18 9
255.716949701309 184.585809707642 2959.00011062622 16 19 10
269.839614629745 188.8198107481 3026.99995040894 17 20 11
271.286517381668 184.195920825005 2953.00006866455 18 21 12
-76.4238759875298 179.313004016876 3003.99994850159 74 74 66
-67.8841322660446 178.419783711433 2989.00008201599 33 33 25
-59.1861978173256 176.809966564178 2961.99989318848 22 22 14
-50.9287156164646 176.214694976807 2951.99990272522 21 21 13
-42.4642078578472 174.544662237167 2924.00002479553 18 19 11
-34.4825908541679 174.545839428902 2924.00002479553 17 20 11
-26.3648815453053 173.651307821274 2908.99991989136 17 20 11
-18.4429604560137 173.831075429916 2911.99994087219 16 19 10
-10.4937739670277 173.831507563591 2911.99994087219 16 19 10
-2.53056245855987 172.876566648483 2895.99990844727 15 18 9
5.41954534128308 174.309208989143 2920.00007629395 13 16 7
13.413529843092 174.607396125793 2924.99995231628 12 15 6
21.0909247398376 172.099694609642 2882.99989700317 14 17 8
28.8704317063093 171.561717987061 2874.00007247925 16 19 10
37.0861366391182 173.291862010956 2903.00011634827 15 18 9
44.8398254811764 172.63400554657 2891.99995994568 14 17 8
53.3720515668392 174.72180724144 2927.00004577637 14 17 8
60.8582682907581 173.287495970726 2903.00011634827 13 16 7
69.6821957826614 175.553828477859 2940.99998474121 12 15 6
75.5425542593002 170.656964182854 2858.99996757507 11 14 5
84.1617286205292 172.325938940048 2887.00008392334 11 14 5
92.9652452468872 174.0542948246 2915.99988937378 12 15 8
101.026847958565 174.230486154556 2918.99991035461 9 12 5
108.170904219151 172.914251685143 2897.0000743866 9 12 5
116.316385567188 173.269048333168 2903.00011634827 10 13 6
138.967931270599 171.884998679161 2880.00011444092 8 11 4
154.465734958649 171.637624502182 2875.99992752075 10 13 6
161.576583981514 170.857176184654 2862.99991607666 10 13 6
172.63899743557 174.134522676468 2917.99998283386 11 14 7
178.863808512688 172.458484768867 2890.00010490417 12 15 8
187.58450448513 173.228904604912 2903.00011634827 13 16 9
196.779429912567 174.357056617737 2921.99993133545 13 16 9
202.994123101234 172.859534621239 2897.0000743866 14 17 10
211.182788014412 173.092216253281 2901.00002288818 13 16 9
219.316899776459 173.265010118484 2904.00004386902 13 16 7
227.701276540756 173.616528511047 2910.00008583069 16 18 7
231.744930148125 170.746207237244 2861.99998855591 17 19 8
247.49493598938 176.406934857368 2957.00001716614 18 20 9
256.588608026505 177.115604281425 2969.00010108948 19 21 10
261.3784968853 174.901023507118 2931.99992179871 20 22 11
280.85058927536 177.092745900154 2969.00010108948 21 22 14
-67.7725523710251 169.980868697166 2983.99996757507 14 14 6
-59.6675053238869 170.09662091732 2986.00006103516 13 13 5
-43.0173240602016 168.73237490654 2961.99989318848 16 17 9
-34.5307737588882 166.796654462814 2927.99997329712 15 18 9
-26.4019090682268 165.943041443825 2913.00010681152 16 19 10
-18.4688325971365 166.114553809166 2915.99988937378 16 19 10
-10.5553437024355 166.855543851852 2928.99990081787 16 19 10
-2.55947280675173 166.855722665787 2928.99990081787 15 18 9
5.4271281696856 166.570842266083 2924.00002479553 12 15 6
13.4368529543281 166.912406682968 2930.0000667572 11 14 5
21.2524924427271 165.487736463547 2904.99997138977 12 15 6
28.8411378860474 163.550153374672 2871.00005149841 16 19 10
36.5250967442989 162.865623831749 2858.99996757507 16 19 10
44.9186600744724 165.029183030128 2897.0000743866 14 17 8
52.9359728097916 165.36957025528 2903.00011634827 14 17 8
60.9858185052872 165.70970416069 2908.99991989136 14 17 8
74.1971582174301 159.952506422997 2808.00008773804 13 16 9
84.9804505705833 166.045263409615 2914.99996185303 13 16 9
93.2867750525475 166.669324040413 2926.00011825562 12 15 8
100.960552692413 166.153907775879 2917.00005531311 9 12 5
109.294250607491 166.720524430275 2927.00004577637 9 12 5
116.720430552959 165.919899940491 2913.00010681152 9 12 5
121.11672013998 161.189034581184 2829.99992370605 9 11 6
135.940283536911 170.070648193359 2986.00006103516 8 10 5
139.550969004631 164.712950587273 2891.99995994568 8 11 4
147.950381040573 165.278434753418 2901.99995040894 9 12 5
155.759230256081 165.160268545151 2900.00009536743 11 14 7
165.193244814873 166.693463921547 2927.00004577637 11 14 7
167.733237147331 161.449432373047 2835.00003814697 10 13 6
177.135929465294 162.982225418091 2861.99998855591 14 17 10
187.912926077843 165.596649050713 2907.99999237061 13 16 9
197.256445884705 166.78711771965 2928.99990081787 13 16 9
204.261168837547 165.984362363815 2914.99996185303 13 16 9
211.989521980286 165.807768702507 2911.99994087219 14 17 10
222.192987799644 167.50992834568 2941.99991226196 14 17 8
227.629438042641 165.624842047691 2908.99991989136 15 17 6
237.500712275505 166.984885931015 2933.00008773804 16 18 7
246.330037713051 167.547583580017 2943.00007820129 18 20 9
253.225177526474 166.800677776337 2930.0000667572 18 20 9
262.544721364975 167.647570371628 2944.9999332428 19 21 10
265.05446434021 164.224907755852 2884.99999046326 20 21 13
275.93931555748 166.039139032364 2917.00005531311 21 22 14
-51.1214137077332 160.704016685486 2963.00005912781 23 23 15
-42.321402579546 158.047676086426 2914.00003433228 16 17 9
-34.4255901873112 158.319890499115 2918.99991035461 15 18 9
-26.3573247939348 157.724097371101 2907.99999237061 16 19 10
-18.7480375170708 160.545095801353 2960.00003814697 17 20 11
-10.5736581608653 159.135296940804 2934.00001525879 16 19 10
-2.5674095377326 159.35243666172 2937.99996376038 16 19 10
5.42542384937406 158.538833260536 2923.00009727478 16 19 10
13.258371502161 156.80293738842 2891.00003242493 14 17 8
20.9165476262569 155.066847801208 2858.99996757507 12 15 6
28.8620330393314 155.825480818748 2872.99990653992 13 16 7
36.7688573896885 156.095787882805 2878.00002098084 14 17 8
45.0749695301056 157.667577266693 2907.00006484985 12 15 6
52.6274442672729 156.527265906334 2885.99991798401 12 15 6
61.1762069165707 158.26128423214 2917.99998283386 12 15 6
69.4492161273956 158.964559435844 2930.99999427795 12 15 8
76.3131603598595 156.630471348763 2888.00001144409 12 15 8
82.4755951762199 153.428480029106 2828.9999961853 12 15 8
92.8748920559883 157.981738448143 2913.00010681152 13 16 9
101.032577455044 158.304512500763 2918.99991035461 11 14 7
108.065024018288 156.945884227753 2894.00005340576 11 14 7
128.705188632011 153.302893042564 2826.99990272522 7 10 3
139.554813504219 156.824082136154 2891.99995994568 9 12 5
148.311331868172 157.74205327034 2908.99991989136 10 13 6
159.630730748177 161.154091358185 2971.99988365173 12 15 8
165.9314930439 159.414604306221 2940.00005722046 11 14 7
171.228662133217 156.915888190269 2894.00005340576 9 12 5
178.316742181778 156.206369400024 2881.00004196167 14 17 10
188.111916184425 157.828032970428 2911.00001335144 12 15 8
196.925058960915 158.527746796608 2924.00002479553 12 15 8
204.827308654785 158.4682315588 2923.00009727478 12 15 8
213.232859969139 158.787995576859 2928.99990081787 13 16 9
220.38634121418 158.185958862305 2917.99998283386 14 17 8
231.156900525093 160.131573677063 2953.9999961853 15 17 6
237.830981612206 159.20390188694 2937.00003623962 15 17 6
245.081081986427 158.70974957943 2927.99997329712 17 19 8
249.429136514664 156.426787376404 2885.99991798401 18 20 9
258.985608816147 157.449990510941 2904.99997138977 19 21 10
275.378972291946 157.761380076408 2911.00001335144 21 22 14
-59.9904917180538 154.626742005348 3002.00009346008 24 24 16
-49.8632453382015 148.859232664108 2890.00010490417 14 14 6
-41.6399091482162 147.675737738609 2867.00010299683 16 19 10
-34.049104899168 148.706883192062 2887.00008392334 16 19 10
-26.8656071275473 152.67388522625 2963.99998664856 16 19 10
-18.6598617583513 151.747316122055 2946.00009918213 17 20 11
-10.6532266363502 152.262806892395 2956.00008964539 16 19 10
-2.56835157051682 151.387289166451 2938.99989128113 15 18 9
5.42742433026433 150.614604353905 2924.00002479553 17 20 11
13.2495509460568 148.811504244804 2888.99993896484 15 18 9
21.1365893483162 148.81107211113 2888.99993896484 13 16 7
29.0637277066708 149.016469717026 2892.99988746643 11 14 5
36.9103699922562 148.809567093849 2888.99993896484 13 16 7
44.7350293397903 148.602485656738 2884.99999046326 12 15 6
53.3218085765839 150.610059499741 2924.00002479553 12 15 6
60.9681755304337 149.784430861473 2907.99999237061 11 14 5
69.4510638713837 150.967419147491 2930.99999427795 11 14 7
77.3457512259483 150.759503245354 2927.00004577637 11 14 7
84.0521156787872 148.491129279137 2882.99989700317 11 14 7
100.862182676792 150.083020329475 2914.00003433228 11 14 7
108.590669929981 149.771317839622 2907.99999237061 11 14 7
116.806872189045 150.128930807114 2914.99996185303 11 13 8
135.128080844879 152.852028608322 2967.99993515015 8 10 5
148.162245750427 149.651855230331 2905.99989891052 11 14 7
159.366339445114 152.789250016212 2967.00000762939 12 15 8
166.44375026226 151.858165860176 2948.99988174438 11 14 7
171.588137745857 149.330675601959 2900.00009536743 9 12 5
180.363938212395 150.047123432159 2914.00003433228 12 15 8
187.276691198349 149.21860396862 2898.00000190735 12 15 8
196.256637573242 150.037586688995 2914.00003433228 12 15 8
204.622343182564 150.341480970383 2920.00007629395 12 15 8
220.316499471664 150.176361203194 2917.00005531311 14 17 8
228.815197944641 150.531128048897 2924.00002479553 16 18 7
237.918019294739 151.246041059494 2937.99996376038 15 17 6
244.08283829689 150.107517838478 2915.99988937378 16 18 7
250.472635030746 149.174824357033 2898.00000190735 18 20 9
257.744014263153 148.808240890503 2891.00003242493 20 21 13
270.39709687233 151.478260755539 2943.00007820129 21 22 14
284.092366695404 150.229439139366 2918.99991035461 21 22 14
-69.6177557110786 149.506598711014 3065.00005722046 13 14 8
-59.5323741436005 145.313203334808 2979.00009155273 20 21 15
-50.3131076693535 142.241433262825 2915.99988937378 13 14 8
-42.7593179047108 143.608406186104 2944.00000572205 15 18 9
-34.3212299048901 141.950845718384 2910.00008583069 15 18 9
-26.4674630016088 142.439395189285 2920.00007629395 15 18 9
-18.818685784936 144.927769899368 2970.99995613098 15 18 9
-10.7003478333354 144.830584526062 2969.00010108948 14 17 8
-2.57802940905094 143.903896212578 2950.00004768372 13 16 7
5.39229344576597 141.708701848984 2904.99997138977 15 18 9
13.3920637890697 142.440214753151 2920.00007629395 16 19 10
21.4151479303837 142.781242728233 2927.00004577637 14 17 8
29.2151588946581 141.853779554367 2907.99999237061 11 14 5
44.9842661619186 141.510501503944 2901.00002288818 12 15 6
53.2502047717571 142.436102032661 2920.00007629395 12 15 6
61.6196617484093 143.361479043961 2938.99989128113 12 15 8
69.0499842166901 142.140418291092 2914.00003433228 11 14 7
77.3741230368614 142.82152056694 2927.99997329712 10 13 6
87.144672870636 145.794928073883 2989.00008201599 10 13 6
94.2825973033905 144.231870770454 2957.00001716614 11 14 7
101.14161670208 142.522305250168 2921.99993133545 10 12 7
109.302908182144 142.763629555702 2927.00004577637 11 13 8
118.252389132977 143.931418657303 2950.99997520447 11 13 8
127.203986048698 144.952669739723 2971.99988365173 10 12 7
136.178612709045 145.87613940239 2990.9999370575 8 10 5
141.733556985855 143.239125609398 2937.00003623962 10 13 6
158.027440309525 143.475711345673 2941.99991226196 12 15 8
165.770575404167 143.227964639664 2937.00003623962 11 14 7
173.189967870712 142.736241221428 2927.00004577637 9 12 5
179.873198270798 141.707926988602 2905.99989891052 11 14 7
186.118081212044 140.435710549355 2880.00011444092 13 16 9
196.194142103195 142.040252685547 2913.00010681152 14 17 10
204.907655715942 142.571806907654 2924.00002479553 15 18 11
212.515518069267 142.323046922684 2918.99991035461 16 19 12
220.019727945328 142.025366425514 2913.00010681152 16 19 10
228.351235389709 142.263829708099 2917.99998283386 16 18 7
239.300474524498 144.062161445618 2954.99992370605 16 18 7
246.683672070503 143.666416406631 2947.00002670288 17 18 10
253.158003091812 142.783060669899 2928.99990081787 18 19 11
260.781526565552 142.582058906555 2924.99995231628 21 22 14
272.241175174713 144.428133964539 2963.00005912781 21 22 14
-59.8335601389408 137.874498963356 2993.99995803833 24 25 19
-52.1087907254696 139.073103666306 3019.99998092651 16 17 11
-43.1525073945522 136.81772351265 2970.99995613098 17 20 11
-34.6405059099197 135.252892971039 2937.00003623962 17 20 11
-26.6403183341026 135.345682501793 2938.99989128113 16 19 10
-18.6607800424099 135.668590664864 2946.00009918213 16 19 10
-10.6573551893234 136.175498366356 2957.00001716614 16 19 10
-2.58158706128597 136.037483811378 2953.9999961853 17 20 11
5.40541624650359 134.103268384933 2911.99994087219 14 17 8
13.529977761209 135.853037238121 2950.00004768372 14 17 8
21.7522252351046 136.911809444427 2973.00004959106 14 17 8
37.4104864895344 134.838119149208 2927.99997329712 12 15 6
45.512568205595 135.159507393837 2934.99994277954 13 16 9
53.3061921596527 134.605765342712 2923.00009727478 14 17 10
60.7824698090553 133.499220013618 2898.9999294281 16 19 12
68.838357925415 133.774012327194 2904.99997138977 16 19 12
77.6138156652451 135.245904326439 2937.00003623962 15 18 11
85.6306552886963 135.244011878967 2937.00003623962 14 16 11
93.0413156747818 134.367033839226 2917.99998283386 11 13 8
110.948614776134 136.802792549133 2970.99995613098 9 11 6
119.537524878979 137.35269010067 2983.00004005432 7 9 4
128.919079899788 138.685137033463 3012.00008392334 7 9 6
135.316759347916 136.840328574181 2971.99988365173 6 8 3
141.302555799484 134.811282157898 2927.99997329712 12 15 8
149.036228656769 134.577766060829 2923.00009727478 12 15 8
157.601445913315 135.080695152283 2934.00001525879 12 15 8
166.508242487907 135.813608765602 2950.00004768372 11 14 7
180.620193481445 134.332522749901 2917.99998283386 14 17 10
187.738060951233 133.729875087738 2904.99997138977 15 18 11
195.794582366943 133.817613124847 2907.00006484985 16 19 12
205.683305859566 135.101974010468 2934.99994277954 17 20 13
212.957262992859 134.636953473091 2924.99995231628 19 22 15
219.345033168793 133.665487170219 2904.00004386902 19 22 15
228.199943900108 134.212791919708 2915.99988937378 17 20 11
238.253176212311 135.404244065285 2941.99991226196 16 19 10
246.940433979034 135.76702773571 2950.00004768372 15 18 9
261.857360601425 135.157480835915 2937.00003623962 17 20 11
272.614896297455 136.532098054886 2967.00000762939 22 25 18
277.858465909958 135.145574808121 2937.00003623962 22 25 18
287.22009062767 135.783568024635 2950.99997520447 24 27 20
-69.0531209111214 131.6948980093 3039.99996185303 18 19 13
-51.0746687650681 128.231838345528 2960.00003814697 19 20 14
-42.7613109350204 127.539724111557 2944.00000572205 17 20 11
-34.7710251808167 127.713844180107 2947.99995422363 17 20 11
-26.3327248394489 125.851660966873 2904.99997138977 16 19 10
-18.3318108320236 125.375613570213 2894.00005340576 16 19 10
-10.5963237583637 127.36876308918 2940.00005722046 16 19 10
-2.55630095489323 126.719057559967 2924.99995231628 17 20 11
5.38140675053 125.592648983002 2898.9999294281 15 18 9
13.4614827111363 127.152055501938 2934.99994277954 15 18 9
21.825885400176 129.231169819832 2983.00004005432 15 18 9
30.0805550068617 129.707127809525 2993.99995803833 14 17 8
37.7307571470737 127.930194139481 2953.00006866455 12 15 6
45.6531643867493 127.53938138485 2944.00000572205 13 16 9
54.4928051531315 129.444420337677 2987.99991607666 14 17 10
61.3499544560909 126.757249236107 2926.00011825562 15 18 11
69.2664608359337 126.6258507967 2923.00009727478 15 18 11
77.879823744297 127.663925290108 2947.00002670288 14 17 10
85.3701680898666 126.839071512222 2927.99997329712 13 15 10
93.2347178459167 126.663848757744 2924.00002479553 14 16 11
101.596295833588 127.13822722435 2934.99994277954 11 13 8
111.399248242378 129.21516597271 2983.00004005432 8 10 5
119.540207087994 129.212647676468 2983.00004005432 7 9 4
128.622338175774 130.162909626961 3005.00011444092 11 13 10
141.209200024605 126.735210418701 2926.00011825562 10 13 6
149.09054338932 126.645475625992 2924.00002479553 10 13 6
156.423151493073 126.122415065765 2911.99994087219 10 13 6
173.375368118286 126.894921064377 2930.0000667572 10 13 6
180.871769785881 126.544654369354 2921.99993133545 14 17 10
186.772793531418 125.154912471771 2890.00010490417 15 18 11
197.415366768837 126.926332712173 2930.99999427795 16 19 12
205.827981233597 127.181872725487 2937.00003623962 17 20 13
213.835626840591 127.17741727829 2937.00003623962 18 21 14
220.936015248299 126.65319442749 2924.99995231628 19 22 15
227.109268307686 125.652566552162 2901.99995040894 18 21 12
236.07175052166 126.210570335388 2914.99996185303 17 20 11
243.346258997917 125.859171152115 2907.00006484985 16 19 10
252.737104892731 126.589983701706 2924.00002479553 17 20 11
263.646185398102 128.013253211975 2957.00001716614 18 21 12
269.129127264023 126.795560121536 2928.99990081787 21 24 17
-59.3964979052544 120.639033615589 2971.99988365173 18 19 13
-51.3690896332264 120.843134820461 2976.99999809265 26 27 21
-42.8638942539692 119.788706302643 2950.99997520447 18 21 12
-34.3589410185814 118.246987462044 2913.00010681152 17 20 11
-26.2788962572813 117.679290473461 2898.9999294281 16 19 10
-18.3448698371649 117.557980120182 2895.99990844727 16 19 10
-10.4235447943211 117.395900189877 2891.99995994568 16 19 10
-2.55373306572437 118.613824248314 2921.99993133545 16 19 10
5.37223927676678 117.477186024189 2894.00005340576 15 18 9
13.3792096748948 118.410639464855 2917.00005531311 15 18 9
21.4092843234539 118.775628507137 2926.00011825562 15 18 9
29.6190213412046 119.668148458004 2947.99995422363 14 17 8
37.7954430878162 120.07337808609 2957.99994468689 13 16 7
46.1503751575947 120.803192257881 2976.0000705719 12 15 6
53.8921244442463 119.949720799923 2954.99992370605 13 16 9
62.923826277256 121.815748512745 3000.99992752075 13 16 9
70.3580155968666 120.515458285809 2969.00010108948 12 14 9
77.7229070663452 119.377389550209 2940.99998474121 11 13 8
86.5090936422348 120.431058108807 2967.00000762939 9 11 6
93.4917852282524 119.00856345892 2931.99992179871 6 8 3
102.256149053574 119.899548590183 2953.9999961853 6 8 3
110.430605709553 120.019130408764 2957.00001716614 7 9 4
119.703024625778 121.234424412251 2986.99998855591 7 9 6
126.998499035835 120.420157909393 2967.00000762939 8 10 7
130.814909934998 116.602458059788 2872.99990653992 11 13 8
139.909103512764 117.654919624329 2898.9999294281 10 13 6
148.430779576302 118.139013648033 2911.00001335144 10 13 6
155.889242887497 117.770686745644 2901.99995040894 11 14 7
163.636654615402 117.645718157291 2898.9999294281 13 16 9
171.781271696091 117.804668843746 2903.00011634827 17 20 13
180.380299687386 118.247494101524 2914.00003433228 15 18 11
190.008088946342 119.298830628395 2940.00005722046 16 19 12
196.880623698235 118.605144321918 2923.00009727478 17 20 13
206.533044576645 119.574934244156 2947.00002670288 17 20 13
213.912829756737 119.205564260483 2937.99996376038 18 21 14
221.242666244507 118.836082518101 2928.99990081787 19 22 15
227.81828045845 118.101358413696 2911.00001335144 16 19 10
234.051898121834 117.244824767113 2890.00010490417 16 19 10
243.434891104698 117.97034740448 2907.99999237061 16 19 10
252.310037612915 118.411704897881 2918.99991035461 16 19 10
259.282559156418 117.96049028635 2907.99999237061 17 20 13
270.696610212326 119.496718049049 2946.00009918213 19 22 15
275.883138179779 118.274539709091 2915.99988937378 20 23 16
-68.8287913799286 114.721886813641 3029.99997138977 14 16 11
-59.8573535680771 113.39795589447 2994.99988555908 16 18 13
-42.8647436201572 111.733943223953 2950.99997520447 18 21 12
-34.465778619051 110.636658966541 2921.99993133545 18 21 12
-26.3338088989258 109.993577003479 2904.99997138977 16 19 10
-18.4655953198671 110.372647643089 2914.99996185303 16 19 10
-10.5282785370946 110.600098967552 2921.0000038147 16 19 10
-2.53805238753557 109.956540167332 2904.00004386902 16 19 10
5.41689898818731 110.486604273319 2917.99998283386 15 18 9
13.3565412834287 110.259234905243 2911.99994087219 15 18 9
21.2706867605448 110.069587826729 2907.00006484985 14 17 8
29.3382871896029 110.561333596706 2920.00007629395 13 16 7
37.6045368611813 111.431546509266 2943.00007820129 12 15 6
45.7946099340916 111.809380352497 2953.00006866455 11 14 7
53.9479106664658 111.997738480568 2957.99994468689 12 15 8
61.8976354598999 111.769445240498 2951.99990272522 12 14 9
70.7148835062981 112.979769706726 2983.99996757507 12 14 9
94.4502428174019 112.142071127892 2961.99989318848 10 12 7
101.842761039734 111.382991075516 2941.99991226196 7 9 6
110.992968082428 112.51674592495 2971.99988365173 8 10 7
119.905762374401 113.271735608578 2992.00010299683 7 9 6
127.300620079041 112.587936222553 2973.99997711182 8 10 7
132.638826966286 110.276207327843 2913.00010681152 12 14 9
138.126134872437 108.342960476875 2861.99998855591 11 14 7
148.739621043205 110.422283411026 2917.00005531311 11 14 7
157.181560993195 110.760092735291 2926.00011825562 12 15 8
164.768785238266 110.492087900639 2918.99991035461 14 17 10
171.547919511795 109.731875360012 2898.9999294281 18 21 14
180.879026651382 110.599122941494 2921.99993133545 16 19 12
188.977688550949 110.671371221542 2924.00002479553 16 19 12
198.635682463646 111.613966524601 2948.99988174438 17 20 13
205.766126513481 111.11818999052 2936.00010871887 17 20 13
214.135378599167 111.303508281708 2940.99998474121 18 21 14
221.851214766502 111.148066818714 2937.00003623962 19 22 15
229.231357574463 110.841147601604 2928.99990081787 16 19 10
237.376883625984 110.912539064884 2930.99999427795 16 19 10
244.7789311409 110.643208026886 2924.00002479553 16 19 12
252.919882535934 110.714323818684 2926.00011825562 17 20 13
262.140691280365 111.239321529865 2940.00005722046 17 20 13
265.280336141586 109.229236841202 2887.00008392334 19 22 15
276.361405849457 110.510662198067 2921.0000038147 21 24 17
-59.9184185266495 105.328164994717 2997.99990653992 21 23 18
-50.9914308786392 103.81843149662 2954.99992370605 20 22 17
-42.6912270486355 103.25713455677 2938.99989128113 19 22 15
-34.749511629343 103.50376367569 2946.00009918213 18 21 12
-26.5881214290857 103.047572076321 2933.00008773804 16 19 10
-18.5356196016073 102.802038192749 2926.00011825562 16 19 10
-10.5500994250178 102.837421000004 2927.00004577637 15 18 9
-2.54246941767633 102.205134928226 2908.99991989136 15 18 9
5.42442547157407 102.661848068237 2921.99993133545 15 18 9
13.3292702957988 102.099537849426 2905.99989891052 15 18 9
21.2930329144001 102.239780128002 2910.00008583069 15 18 9
29.2885955423117 102.414987981319 2914.99996185303 13 16 7
37.3368933796883 102.660320699215 2921.99993133545 12 15 6
53.456474095583 102.974914014339 2930.99999427795 10 12 7
62.1923431754112 104.203522205353 2966.00008010864 11 13 8
68.7729120254517 101.953878998756 2901.99995040894 11 13 8
102.086953818798 103.598982095718 2948.99988174438 6 8 5
111.966043710709 105.318456888199 2997.99990653992 10 12 9
119.467116892338 104.719214141369 2980.99994659424 9 11 8
127.431377768517 104.576513171196 2976.99999809265 6 8 5
134.735822677612 103.941909968853 2959.00011062622 12 14 9
141.989707946777 103.342309594154 2941.99991226196 11 14 7
149.09927546978 102.707475423813 2924.00002479553 11 14 7
160.676211118698 105.058155953884 2990.9999370575 11 14 7
175.397470593452 104.103937745094 2963.99998664856 12 15 8
183.048933744431 103.854939341545 2957.00001716614 13 16 9
192.341908812523 104.518979787827 2976.0000705719 14 17 10
199.043422937393 103.778056800365 2954.99992370605 14 17 10
206.330493092537 103.388242423534 2944.00000572205 14 17 10
213.775157928467 103.103667497635 2936.00010871887 15 18 11
222.383961081505 103.380843997002 2944.00000572205 15 18 11
229.391977190971 102.920450270176 2930.99999427795 16 19 10
236.409217119217 102.495089173317 2918.99991035461 17 20 11
244.866997003555 102.701656520367 2924.99995231628 18 21 14
252.751469612122 102.662295103073 2924.00002479553 18 21 14
260.005325078964 102.377064526081 2915.99988937378 19 22 15
269.236266613007 102.864108979702 2930.0000667572 20 23 16
-69.8534995317459 99.6383354067802 3075.00004768372 19 21 16
-50.8715137839317 95.5251157283783 2947.99995422363 18 20 15
-42.8953282535076 95.6879183650017 2953.00006866455 19 22 13
-34.7736999392509 95.5265313386917 2947.99995422363 18 21 12
-26.6973599791527 95.429815351963 2944.9999332428 16 19 10
-18.4535831212997 94.3932607769966 2913.00010681152 15 18 9
-10.5863250792027 95.1711982488632 2937.00003623962 15 18 9
-2.56785959936678 95.2037200331688 2937.99996376038 15 18 9
5.43565722182393 94.879649579525 2927.99997329712 16 19 10
13.4441712871194 94.9767082929611 2930.99999427795 16 19 10
21.3299840688705 94.4579541683197 2914.99996185303 15 18 9
29.409671202302 94.8463976383209 2927.00004577637 14 17 8
37.4525375664234 94.9754491448402 2930.99999427795 13 16 7
53.9133585989475 95.7840383052826 2956.00008964539 10 12 7
69.4139525294304 94.9071198701859 2928.99990081787 12 14 9
93.624509871006 95.1299294829369 2936.00010871887 6 8 5
109.951168298721 95.3857973217964 2944.00000572205 20 22 19
120.310768485069 97.2631201148033 3002.00009346008 20 22 19
126.491814851761 95.7383364439011 2954.99992370605 7 9 6
142.474755644798 95.6367626786232 2951.99990272522 12 15 8
151.345461606979 96.1527302861214 2967.99993515015 12 15 8
169.516280293465 97.2813814878464 3003.00002098084 11 14 7
178.773492574692 97.8616699576378 3020.99990844727 11 14 7
193.896308541298 97.1754267811775 3000 12 15 8
201.539054512978 96.9131216406822 2992.00010299683 12 15 8
207.455292344093 95.8733633160591 2960.00003814697 13 16 9
213.487461209297 94.9631035327911 2931.99992179871 13 16 9
221.405640244484 94.9272587895393 2930.99999427795 13 16 9
228.534862399101 94.5674329996109 2920.00007629395 15 18 9
236.089155077934 94.4018140435219 2914.99996185303 16 19 10
244.117558002472 94.4304093718529 2915.99988937378 17 20 13
250.940352678299 94.0055474638939 2903.00011634827 17 20 13
261.703759431839 95.0377136468887 2934.99994277954 17 20 13
276.500016450882 97.4296480417252 3009.0000629425 23 26 19
289.900660514832 99.2060527205467 3063.99989128113 18 21 14
-59.420719742775 88.2183387875557 2973.00004959106 22 25 18
-51.0448813438416 87.7740606665611 2957.99994468689 20 23 16
-42.7797921001911 87.3890146613121 2944.9999332428 17 20 11
-34.7624495625496 87.4489545822144 2947.00002670288 17 20 9
-26.6524571925402 87.2417017817497 2940.00005722046 16 19 10
-18.7389496713877 87.7761766314507 2957.99994468689 15 18 9
-10.6513742357492 87.6873731613159 2954.99992370605 15 18 9
-2.57227011024952 87.3313844203949 2943.00007820129 15 18 9
5.50443213433027 87.9841893911362 2964.99991416931 15 18 9
13.5086011141539 87.3905643820763 2944.9999332428 14 17 10
21.6888748109341 87.9541113972664 2963.99998664856 14 17 10
29.4101350009441 86.8557840585709 2927.00004577637 13 16 9
37.4531261622906 86.9739726185799 2930.99999427795 12 15 8
45.5333217978477 87.1217250823975 2936.00010871887 10 13 4
53.2028898596764 86.5571796894073 2917.00005531311 11 14 5
70.0075328350067 87.6532196998596 2953.9999961853 11 13 8
76.4862671494484 85.8717709779739 2894.00005340576 9 11 8
95.7625433802605 89.1034230589867 3003.00002098084 4 6 3
102.436490356922 87.7963975071907 2959.00011062622 0 1 0
110.289037227631 87.6167863607407 2953.00006866455 124 126 123
133.829474449158 87.1959254145622 2938.99989128113 10 12 7
142.959609627724 87.8762230277061 2961.99989318848 12 15 8
151.347830891609 88.0520567297935 2967.99993515015 12 15 8
158.586263656616 87.5750854611397 2951.99990272522 12 15 8
166.696399450302 87.6023322343826 2953.00006866455 12 15 8
177.711054682732 89.0830382704735 3003.00002098084 12 15 8
184.911996126175 88.6057317256927 2986.99998855591 11 14 7
193.576112389565 88.8402536511421 2994.99988555908 12 15 8
198.982447385788 87.6212045550346 2953.9999961853 13 16 9
206.54733479023 87.4106138944626 2947.00002670288 12 15 8
212.689772248268 86.6363719105721 2921.0000038147 13 16 9
221.711188554764 87.0484337210655 2934.99994277954 14 17 10
229.555815458298 86.9858339428902 2933.00008773804 15 16 8
235.687777400017 86.3003358244896 2910.00008583069 15 18 9
243.535220623016 86.2672105431557 2908.99991989136 17 20 11
254.228949546814 87.2125700116158 2940.99998474121 18 21 12
265.096098184586 88.1577506661415 2973.00004959106 18 21 14
275.217652320862 88.8062119483948 2994.99988555908 20 23 16
291.702687740326 91.4114266633987 3082.99994468689 17 20 13
295.914530754089 90.1323184370995 3039.99996185303 16 21 14
-51.4597781002522 80.3452655673027 2982.00011253357 20 23 16
-42.1121902763844 78.1095921993256 2898.9999294281 17 20 11
-34.3972742557526 78.5681530833244 2915.99988937378 16 19 8
-26.8794782459736 79.888828098774 2964.99991416931 15 18 9
-18.7392197549343 79.7005370259285 2957.99994468689 14 17 8
-10.6587372720242 79.6737968921661 2957.00001716614 14 17 8
-2.57580354809761 79.4044360518456 2947.00002670288 14 17 8
5.50822447985411 79.9432992935181 2967.00000762939 15 18 9
13.6555815115571 80.2126154303551 2976.99999809265 14 17 10
21.7038244009018 79.9159929156303 2966.00008010864 13 16 9
29.7521892935038 79.7809138894081 2960.99996566772 12 15 8
37.7220138907433 79.5379504561424 2951.99990272522 12 15 8
45.5804988741875 79.1871175169945 2938.99989128113 11 14 5
52.3646548390388 77.354297041893 2871.00005149841 11 14 5
89.2574936151505 82.4695527553558 3061.00010871887 9 11 8
96.3379144668579 81.3906118273735 3020.99990844727 6 8 5
101.987920701504 79.3686583638191 2946.00009918213 0 1 0
113.465249538422 81.8457528948784 3038.00010681152 158 160 157
135.97160577774 80.4397985339165 2986.00006103516 7 9 4
142.527267336845 79.5489326119423 2953.00006866455 11 14 7
150.78903734684 79.6547010540962 2957.00001716614 11 14 7
158.749669790268 79.5987248420715 2954.99992370605 11 14 7
166.585862636566 79.4887915253639 2950.99997520447 11 14 7
175.523966550827 79.8905342817307 2966.00008010864 12 15 8
185.843214392662 80.8577686548233 3002.00009346008 11 14 7
189.700797200203 79.0506601333618 2934.99994277954 13 16 9
199.65885579586 79.8291265964508 2963.99998664856 13 16 9
205.779254436493 79.0723115205765 2936.00010871887 13 16 9
214.003384113312 79.1503116488457 2938.99989128113 14 17 10
224.056035280228 79.8745304346085 2966.00008010864 15 18 11
229.089364409447 78.8212865591049 2927.00004577637 16 17 9
234.962105751038 78.1180858612061 2901.00002288818 16 19 10
245.129272341728 78.841969370842 2927.99997329712 17 20 11
256.652891635895 79.9426510930061 2969.00010108948 18 21 12
263.940542936325 79.696923494339 2960.00003814697 18 21 14
274.30248260498 80.3665146231651 2984.99989509583 20 23 16
289.719730615616 82.4359133839607 3062.00003623962 19 22 15
-67.2667026519775 71.6940239071846 2960.99996566772 17 20 13
-57.9632744193077 70.2178105711937 2900.00009536743 23 26 19
-50.7356561720371 71.1870044469833 2940.00005722046 20 23 16
-42.5340123474598 70.8970129489899 2927.99997329712 18 21 12
-34.8341800272465 71.5028345584869 2953.00006866455 17 20 9
-26.8526319414377 71.7211291193962 2961.99989318848 16 19 10
-18.910514190793 72.2783356904984 2984.99989509583 16 19 10
-10.5615509673953 70.9467530250549 2930.0000667572 16 19 10
-2.57671135477722 71.3826864957809 2947.99995422363 16 19 10
5.51572255790234 71.9395875930786 2970.99995613098 14 17 8
13.6053012683988 71.8184038996696 2966.00008010864 13 16 9
21.7260606586933 71.8908309936523 2969.00010108948 13 16 9
38.1314232945442 72.2532942891121 2983.99996757507 11 14 7
53.4779354929924 70.9930658340454 2931.99992179871 11 14 5
70.1279491186142 71.6452896595001 2959.00011062622 10 12 7
105.24345934391 73.6021548509598 3039.99996185303 0 2 0
122.560322284698 74.0351602435112 3058.00008773804 146 148 143
136.246576905251 72.4341571331024 2992.00010299683 9 11 6
144.990667700768 72.7229490876198 3003.99994850159 10 13 6
151.65787935257 71.994885802269 2973.99997711182 10 13 6
157.462358474731 70.9520801901817 2930.99999427795 11 14 7
176.65059864521 72.2552016377449 2984.99989509583 12 15 8
181.202530860901 70.8491131663322 2927.00004577637 11 14 7
190.091013908386 71.1857378482819 2940.99998474121 13 16 9
199.122488498688 71.5464651584625 2956.00008964539 13 16 9
208.164870738983 71.8828663229942 2970.00002861023 13 16 9
213.350772857666 70.9122493863106 2930.0000667572 14 17 10
223.530068993568 71.6114863753319 2959.00011062622 15 18 11
228.779181838036 70.7375630736351 2923.00009727478 17 18 10
235.289022326469 70.2992156147957 2904.99997138977 16 19 10
244.546294212341 70.6835612654686 2921.0000038147 17 20 11
256.483197212219 71.7937052249908 2967.00000762939 18 21 12
270.446300506592 71.2068006396294 2943.00007820129 21 24 17
281.396806240082 71.9536170363426 2973.99997711182 21 24 17
299.621224403381 74.4663774967194 3078.00006866455 19 24 17
-65.5863657593727 62.0202049612999 2887.00008392334 22 25 18
-58.6235336959362 63.0090907216072 2933.00008773804 23 26 19
-50.6154485046864 63.0096942186356 2933.00008773804 20 23 16
-42.8831502795219 63.418373465538 2951.99990272522 19 22 13
-35.542368888855 64.7292882204056 3013.00001144409 18 21 10
-27.1521154791117 64.3429309129715 2994.99988555908 18 21 12
-18.8347119837999 63.8705417513847 2973.00004959106 16 19 10
-10.6734186410904 63.6129006743431 2960.99996566772 16 19 10
-2.58023757487535 63.4196251630783 2951.99990272522 17 20 11
5.51207410171628 63.7848302721977 2969.00010108948 15 18 9
13.5825239121914 63.6128559708595 2960.99996566772 14 17 10
21.7482633888721 63.8489723205566 2971.99988365173 13 16 9
30.2151460200548 64.6006166934967 3006.99996948242 12 15 8
38.4896732866764 64.7076591849327 3012.00008392334 12 15 8
46.0313931107521 63.7619271874428 2967.99993515015 12 15 6
61.6935342550278 63.2021948695183 2941.99991226196 10 13 6
69.9154585599899 63.3733347058296 2950.00004768372 9 11 6
80.5859342217445 65.4992684721947 3049.00002479553 9 11 6
86.7518931627274 63.9086812734604 2974.99990463257 10 12 9
95.830038189888 64.5521432161331 3005.00011444092 5 7 4
104.03298586607 64.5510479807854 3005.00011444092 2 4 1
113.281272351742 65.1513338088989 3032.99999237061 91 93 90
137.978553771973 65.0828033685684 3029.99997138977 11 13 8
159.290760755539 63.6818706989288 2964.99991416931 11 14 7
168.227002024651 64.0022680163383 2980.00001907349 12 15 8
175.764918327332 63.785657286644 2970.00002861023 13 16 9
182.009384036064 63.139446079731 2940.00005722046 12 15 8
188.477292656898 62.6220479607582 2915.99988937378 14 17 10
201.415061950684 64.2091184854507 2990.00000953674 14 17 10
207.956969738007 63.7130290269852 2967.00000762939 13 16 9
215.319231152534 63.496045768261 2957.00001716614 14 17 10
223.532557487488 63.5366663336754 2959.00011062622 15 18 11
227.138072252274 62.3103864490986 2901.99995040894 16 17 9
236.34460568428 62.6514852046967 2917.99998283386 15 18 9
245.302498340607 62.9065930843353 2930.0000667572 17 20 11
256.486058235168 63.6983290314674 2967.00000762939 19 22 13
263.946741819382 63.5453313589096 2960.00003814697 21 24 17
269.162744283676 62.8770589828491 2928.99990081787 21 24 17
279.791384935379 63.4752810001373 2957.00001716614 24 27 20
293.881207704544 64.8031756281853 3019.00005340576 19 24 17
-58.7040856480598 55.0760962069035 2937.00003623962 23 26 19
-50.8920811116695 55.3016476333141 2948.99988174438 20 23 16
-43.2612933218479 55.8459311723709 2977.9999256134 19 22 13
-35.4601591825485 56.3713870942593 3006.00004196167 18 21 10
-27.206789702177 56.2779232859612 3000.99992752075 18 21 12
-18.8285689800978 55.7342991232872 2971.99988365173 17 20 11
-10.6482952833176 55.3968884050846 2953.9999961853 17 20 11
-2.61173071339726 56.0345612466335 2987.99991607666 17 20 11
5.530696362257 55.8657683432102 2979.00009155273 15 18 9
13.5597279295325 55.4343536496162 2956.00008964539 14 17 10
21.587498486042 55.3216673433781 2950.00004768372 14 17 10
29.763275757432 55.5464550852776 2961.99989318848 13 16 9
38.2600463926792 56.1462230980396 2993.99995803833 12 15 8
46.1869612336159 55.8457784354687 2977.9999256134 12 15 8
53.9351068437099 55.4514974355698 2957.00001716614 11 14 5
61.0231310129166 54.5695759356022 2910.00008583069 10 13 6
68.6363503336906 54.3064139783382 2895.99990844727 9 11 6
85.7321694493294 55.1300346851349 2940.00005722046 10 12 9
94.3640619516373 55.4854646325111 2959.00011062622 3 5 2
105.591960251331 57.1908690035343 3049.99995231628 10 12 9
129.582211375237 56.7562617361546 3026.99995040894 9 11 6
133.107408881187 54.8050329089165 2923.00009727478 10 13 6
145.910859107971 56.678656488657 3023.00000190735 10 13 6
152.834042906761 56.1897717416286 2996.99997901917 11 14 7
161.065280437469 56.2070459127426 2997.99990653992 12 15 8
169.527113437653 56.2992282211781 3003.00002098084 13 16 9
176.831930875778 56.0163892805576 2987.99991607666 14 17 10
182.382673025131 55.227342993021 2946.00009918213 12 15 8
192.098796367645 55.7129979133606 2971.99988365173 14 17 10
197.779461741447 55.036336183548 2936.00010871887 14 17 10
206.837594509125 55.3156286478043 2950.99997520447 14 17 10
214.738816022873 55.2761852741241 2948.99988174438 15 18 11
219.077721238136 54.3557405471802 2900.00009536743 16 17 9
226.827248930931 54.3161928653717 2898.00000190735 16 17 9
239.019781351089 55.3073845803738 2950.99997520447 15 18 9
247.649133205414 55.4363466799259 2957.99994468689 17 20 11
253.030687570572 54.8530928790569 2927.00004577637 19 22 13
265.108525753021 55.7127632200718 2973.00004959106 23 26 19
282.064974308014 55.8577030897141 2980.99994659424 25 28 21
287.94601559639 55.4241687059402 2957.99994468689 18 23 16
-59.224296361208 47.4735125899315 2963.00005912781 18 21 14
-51.2031652033329 47.538049519062 2967.00000762939 23 26 19
-43.3488450944424 47.810822725296 2983.99996757507 18 21 12
-35.3896953165531 48.0674989521503 3000 18 21 10
-27.0710457116365 47.8434413671494 2986.00006103516 18 21 12
-18.7843907624483 47.5071519613266 2964.99991416931 16 19 10
-10.752928443253 47.7956831455231 2983.00004005432 15 18 9
-2.58203526027501 47.3310798406601 2953.9999961853 14 17 8
5.47504751011729 47.2509488463402 2948.99988174438 14 17 8
13.6424181982875 47.6514399051666 2973.99997711182 13 16 9
21.6681845486164 47.4430024623871 2960.99996566772 13 16 9
29.6831578016281 47.3306328058243 2953.9999961853 12 15 8
37.9664711654186 47.6027391850948 2970.99995613098 12 15 8
46.7146933078766 48.2593104243279 3012.00008392334 12 15 8
55.3765408694744 48.6434288322926 3036.00001335144 9 12 3
70.9833204746246 47.9854941368103 2994.99988555908 9 11 6
78.0765488743782 47.3279915750027 2953.9999961853 9 11 6
87.5992104411125 48.128392547369 3003.99994850159 8 10 7
127.913773059845 47.8676818311214 2987.99991607666 6 8 3
134.656876325607 47.3700053989887 2957.00001716614 10 12 7
141.71290397644 47.0324866473675 2936.00010871887 12 15 8
152.47842669487 47.8963255882263 2990.00000953674 13 16 9
160.959228873253 47.9911714792252 2996.00005149841 11 14 7
168.060809373856 47.6855076849461 2976.99999809265 11 14 7
176.36002600193 47.7321781218052 2980.00001907349 15 18 11
182.817608118057 47.2982712090015 2953.00006866455 13 16 9
192.165091633797 47.6171113550663 2973.00004959106 16 19 12
199.465289711952 47.423355281353 2960.99996566772 16 19 12
204.105794429779 46.6369763016701 2911.99994087219 14 17 10
211.682304739952 46.5552546083927 2907.00006484985 14 17 10
219.155132770538 46.4574657380581 2901.00002288818 15 16 8
228.864207863808 46.824011951685 2924.00002479553 15 16 8
237.887874245644 47.0303520560265 2937.00003623962 15 18 9
244.469776749611 46.7562414705753 2920.00007629395 17 20 11
255.885601043701 47.3947711288929 2960.00003814697 18 21 12
264.129877090454 47.4247597157955 2961.99989318848 20 23 16
-51.7385378479958 39.8487448692322 2997.99990653992 23 26 19
-43.5380190610886 39.8357771337032 2996.99997901917 19 22 13
-35.1304337382317 39.5835004746914 2977.9999256134 18 21 10
-26.8627293407917 39.3843352794647 2963.00005912781 17 20 11
-18.82254332304 39.4908227026463 2970.99995613098 16 19 10
-10.7169607654214 39.5175069570541 2973.00004959106 16 19 10
-2.59516574442387 39.4643843173981 2969.00010108948 15 18 9
5.43053075671196 38.8795137405396 2924.99995231628 14 17 8
13.6379338800907 39.5174771547318 2973.00004959106 13 16 9
21.9830181449652 39.9294085800648 3003.99994850159 13 16 9
30.014980584383 39.7032685577869 2986.99998855591 12 15 8
37.8645248711109 39.3840335309505 2963.00005912781 12 15 8
47.1803322434425 40.4338017106056 3042.00005531311 12 15 8
62.5759363174438 39.6621376276016 2983.99996757507 10 13 6
71.6711729764938 40.1933379471302 3023.9999294281 10 12 7
79.0286436676979 39.7409237921238 2990.00000953674 9 11 6
87.2499346733093 39.7669449448586 2992.00010299683 8 10 7
126.373589038849 39.2317213118076 2951.99990272522 17 19 14
134.339109063148 39.204265922308 2950.00004768372 11 14 7
141.376048326492 38.9242619276047 2928.99990081787 12 15 8
152.020573616028 39.61431235075 2980.99994659424 13 16 9
159.939646720886 39.5601168274879 2976.99999809265 11 14 7
166.42490029335 39.1736663877964 2947.99995422363 12 15 8
172.336965799332 38.6941656470299 2911.99994087219 16 19 12
183.190405368805 39.3175035715103 2959.00011062622 14 17 10
192.683592438698 39.6085791289806 2980.99994659424 16 19 12
199.062526226044 39.2618253827095 2954.99992370605 15 18 11
203.967124223709 38.6626087129116 2910.00008583069 14 17 10
210.591554641724 38.4220965206623 2891.99995994568 14 17 10
220.969766378403 38.859099149704 2924.99995231628 14 17 10
229.961693286896 39.0303246676922 2937.99996376038 16 17 9
235.945656895638 38.6966951191425 2913.00010681152 15 18 9
244.806408882141 38.841251283884 2924.00002479553 17 20 11
253.207504749298 38.9060489833355 2928.99990081787 19 22 13
263.061672449112 39.1833186149597 2950.00004768372 21 24 17
266.136884689331 38.464367389679 2895.99990844727 20 23 16
-66.4972513914108 30.9121143072844 2927.00004577637 15 18 11
-60.1645484566689 31.7890271544456 3009.99999046326 25 28 21
-51.7043359577656 31.6414684057236 2996.00005149841 18 21 14
-43.5092262923718 31.631164252758 2994.99988555908 19 22 13
-35.295806825161 31.5996967256069 2992.00010299683 19 22 11
-27.0532816648483 31.5153747797012 2983.99996757507 18 21 12
-18.7719762325287 31.2937051057816 2963.00005912781 17 20 11
-10.6990020722151 31.3465930521488 2967.99993515015 16 19 10
-2.61703389696777 31.621228903532 2993.99995803833 15 18 9
5.6162248365581 31.9486260414124 3025.00009536743 14 17 8
13.6609533801675 31.4521826803684 2977.9999256134 13 16 9
21.8441095203161 31.5260142087936 2984.99989509583 13 16 9
29.9046281725168 31.4308255910873 2976.0000705719 12 15 8
54.884810000658 31.7786633968353 3009.0000629425 12 15 6
64.1281455755234 32.2958379983902 3058.00008773804 12 15 8
71.4820027351379 31.8519063293934 3016.00003242493 11 13 8
79.4520229101181 31.7458920180798 3006.00004196167 10 12 7
88.3585885167122 31.9988988339901 3029.99997138977 9 11 8
128.086730837822 31.5947085618973 2992.00010299683 0 1 0
136.070385575294 31.5517634153366 2987.99991607666 13 15 10
141.714781522751 31.0019385069609 2936.00010871887 10 13 6
149.930611252785 31.0433972626925 2940.00005722046 10 13 6
157.576680183411 30.9686679393053 2933.00008773804 12 15 8
163.716107606888 30.6193865835667 2900.00009536743 13 16 9
173.640012741089 30.9774726629257 2934.00001525879 14 17 10
183.191493153572 31.2404781579971 2959.00011062622 14 17 10
191.521257162094 31.2817208468914 2963.00005912781 14 17 10
198.996335268021 31.1856772750616 2953.9999961853 13 16 9
203.968331217766 30.7201184332371 2910.00008583069 13 16 9
211.029723286629 30.5923540145159 2898.00000190735 15 18 11
221.273273229599 30.9184659272432 2928.99990081787 16 19 12
227.536603808403 30.685069039464 2907.00006484985 16 17 9
235.785022377968 30.7260882109404 2911.00001335144 15 18 9
245.310187339783 30.9253875166178 2930.0000667572 18 21 12
251.912266016006 30.7552330195904 2914.00003433228 19 22 13
259.674578905106 30.7328049093485 2911.99994087219 21 24 17
265.770852565765 30.520386993885 2891.99995994568 28 31 24
283.279478549957 30.707536265254 2910.00008583069 20 25 18
-69.1783651709557 23.8438546657562 3045.00007629395 11 14 7
-60.2048076689243 23.585706949234 3012.00008392334 24 27 20
-51.4629781246185 23.3510117977858 2982.00011253357 15 18 11
-43.0300310254097 23.1945868581533 2961.99989318848 19 22 13
-35.6380715966225 23.6567575484514 3020.99990844727 19 22 11
-27.1531343460083 23.4532821923494 2994.99988555908 18 21 12
-10.6305619701743 23.0932161211967 2948.99988174438 16 19 10
-2.62491311877966 23.516109213233 3003.00002098084 15 18 9
5.63481682911515 23.7666927278042 3035.00008583069 14 17 8
13.734414242208 23.4455857425928 2993.99995803833 13 16 9
