ply
format ascii 1.0
comment KinectMotionCapture
element vertex 751
property float x
property float y
property float z
property uchar red
property uchar green
property uchar blue
end_header
-573.633909225464 504.072725772858 2490.9999370575 225 226 228
-568.003416061401 505.111873149872 2496.00005149841 223 224 226
-563.019633293152 506.758272647858 2503.99994850159 222 223 225
-556.658923625946 507.190644741058 2506.00004196167 219 220 222
-892.88717508316 520.89786529541 2614.00008201599 182 184 183
-883.75586271286 519.716203212738 2608.00004005432 217 218 220
-876.002371311188 519.33228969574 2605.99994659424 200 201 203
-866.593360900879 517.952561378479 2598.99997711182 202 203 205
-856.230914592743 515.975534915924 2588.99998664856 195 196 198
-846.907317638397 514.596879482269 2582.00001716614 195 195 197
-838.923275470734 514.015913009644 2578.9999961853 240 240 242
-829.988479614258 512.837648391724 2572.99995422363 166 167 169
-819.487154483795 510.663211345673 2562.00003623962 148 149 151
-809.046030044556 508.48913192749 2551.00011825562 194 195 197
-798.664927482605 506.315469741821 2539.99996185303 196 197 199
-790.525794029236 505.537509918213 2536.00001335144 205 206 208
-780.863583087921 503.763258457184 2526.99995040894 203 204 206
-771.250426769257 501.989305019379 2517.99988746643 203 204 206
-760.168433189392 499.218881130219 2503.99994850159 203 204 206
-751.569390296936 498.043656349182 2497.99990653992 201 202 204
-744.791865348816 498.065054416656 2497.99990653992 199 200 202
-737.128019332886 497.488647699356 2494.99988555908 199 200 202
-730.065882205963 497.311413288116 2493.99995803833 198 198 200
-721.849143505096 496.336966753006 2489.00008201599 196 196 198
-714.521288871765 495.96095085144 2486.99998855591 194 194 196
-706.065773963928 494.78754401207 2480.99994659424 191 191 193
-698.77016544342 494.412124156952 2479.00009155273 192 192 194
-690.089344978333 493.039667606354 2471.99988365173 196 196 198
-683.105230331421 492.864280939102 2470.99995613098 195 195 197
-675.578594207764 492.290139198303 2467.99993515015 199 199 201
-668.880999088287 492.314606904984 2467.99993515015 214 214 216
-661.646544933319 491.940438747406 2466.00008010864 216 216 218
-654.422581195831 491.566449403763 2463.99998664856 215 215 217
-647.997677326202 491.791158914566 2464.99991416931 220 220 222
-641.567051410675 492.016136646271 2466.00008010864 208 208 210
-634.358167648315 491.642713546753 2463.99998664856 223 223 225
-627.669095993042 491.668462753296 2463.99998664856 255 255 255
-620.979607105255 491.694509983063 2463.99998664856 225 225 227
-615.037500858307 492.319345474243 2467.00000762939 232 232 234
-608.585238456726 492.545187473297 2467.99993515015 225 225 227
-601.883292198181 492.571651935577 2467.99993515015 226 226 228
-595.421969890594 492.797911167145 2469.00010108948 225 225 227
-589.192926883698 493.223816156387 2470.99995613098 224 224 226
-584.131062030792 494.647949934006 2477.9999256134 226 226 228
-579.263627529144 496.271997690201 2486.00006103516 228 228 230
-573.661148548126 497.297316789627 2490.9999370575 225 226 228
-568.030834197998 498.32284450531 2496.00005149841 220 221 223
-562.372624874115 499.348521232605 2500.99992752075 222 223 225
-557.352960109711 500.973403453827 2509.0000629425 219 220 222
-891.534566879272 512.997567653656 2609.99989509583 188 190 189
-883.431434631348 512.422204017639 2607.00011253357 207 209 208
-876.017510890961 512.240529060364 2605.99994659424 194 196 195
-865.608870983124 510.290443897247 2595.99995613098 175 177 176
-856.577932834625 509.127080440521 2589.99991416931 195 197 196
-847.908139228821 508.160889148712 2585.00003814697 220 220 220
-839.916706085205 507.588386535645 2582.00001716614 151 151 151
-830.32888174057 506.033360958099 2573.99988174438 157 159 158
-819.505572319031 503.692507743835 2562.00003623962 165 167 166
-808.430552482605 501.155316829681 2549.00002479553 207 209 208
-797.740876674652 498.815059661865 2536.99994087219 203 205 204
-789.298713207245 497.851550579071 2532.00006484985 209 211 210
-779.956698417664 496.298462152481 2523.9999294281 199 200 202
-770.045757293701 494.352489709854 2513.99993896484 199 200 202
-759.278476238251 491.816908121109 2500.99992752075 200 201 203
-750.988841056824 490.854740142822 2496.00005149841 199 200 202
-743.919014930725 490.679532289505 2494.99988555908 199 200 202
-736.854493618011 490.504711866379 2493.99995803833 199 200 202
-729.795575141907 490.330338478088 2493.00003051758 196 196 198
-721.581697463989 489.369422197342 2487.99991607666 194 194 196
-713.969647884369 488.802224397659 2484.99989509583 192 192 194
-706.089079380035 488.038659095764 2480.99994659424 190 190 192
-699.075698852539 487.865477800369 2480.00001907349 191 191 193
-690.950810909271 486.905634403229 2474.99990463257 195 195 197
-683.12931060791 486.142724752426 2470.99995613098 191 191 193
-675.876796245575 485.773593187332 2469.00010108948 196 196 198
-668.634712696075 485.40461063385 2467.00000762939 213 213 215
-661.403119564056 485.035836696625 2464.99991416931 214 214 216
-654.447734355927 484.864115715027 2463.99998664856 212 212 214
-648.023068904877 485.08608341217 2464.99991416931 222 222 224
-641.592621803284 485.308349132538 2466.00008010864 192 192 194
-634.383857250214 484.940320253372 2463.99998664856 255 255 255
-627.695024013519 484.966188669205 2463.99998664856 243 243 245
-621.005654335022 484.992146492004 2463.99998664856 237 237 239
-614.814400672913 485.41197180748 2466.00008010864 233 233 235
-608.611702919006 485.83197593689 2467.99993515015 221 221 223
-601.909816265106 485.858380794525 2467.99993515015 223 223 225
-595.448613166809 486.08186841011 2469.00010108948 225 225 227
-588.981330394745 486.305445432663 2470.00002861023 223 223 225
-583.686649799347 487.51363158226 2476.0000705719 225 225 227
-578.591704368591 488.918900489807 2483.00004005432 226 226 228
-572.997450828552 489.930540323257 2487.99991607666 223 224 226
-567.375361919403 490.942388772964 2493.00003051758 220 221 223
-561.950266361237 492.151290178299 2499.00007247925 220 221 223
-557.380437850952 494.148194789886 2509.0000629425 218 219 221
-550.341725349426 493.978768587112 2507.99989700317 218 219 221
-894.622921943665 507.638871669769 2618.99995803833 203 205 204
-885.479331016541 506.490409374237 2612.99991607666 193 195 194
-877.377510070801 505.923986434937 2609.99989509583 179 181 180
-865.624725818634 503.225982189178 2595.99995613098 210 212 211
-856.594264507294 502.079129219055 2589.99991416931 245 247 246
-847.925245761871 501.126825809479 2585.00003814697 139 139 139
-839.934229850769 500.562608242035 2582.00001716614 140 140 140
-830.024421215057 498.835682868958 2572.99995422363 165 167 166
-818.884313106537 496.333718299866 2559.99994277954 198 200 199
-807.815194129944 493.832111358643 2546.99993133545 192 194 193
-797.445774078369 491.718500852585 2536.00001335144 191 193 192
-788.071572780609 490.187019109726 2528.00011634827 187 189 188
-779.049932956696 488.849729299545 2520.99990844727 195 197 196
-769.760191440582 487.318933010101 2513.00001144409 195 197 196
-759.906649589539 485.400527715683 2503.00002098084 196 198 197
-751.311063766479 484.25817489624 2496.99997901917 196 198 197
-743.344366550446 483.503937721252 2493.00003051758 196 198 197
-735.990285873413 483.137965202332 2490.9999370575 196 198 197
-728.64705324173 482.772380113602 2489.00008201599 191 191 191
-721.314549446106 482.407033443451 2486.99998855591 190 190 190
-713.418185710907 481.654137372971 2483.00004005432 189 189 189
-706.112504005432 481.28941655159 2480.99994659424 187 187 187
-698.817551136017 480.924963951111 2479.00009155273 190 190 190
-690.695583820343 479.978770017624 2473.99997711182 189 189 189
-683.429896831512 479.614764451981 2471.99988365173 189 189 189
-676.174879074097 479.251086711884 2470.00002861023 192 192 192
-669.2014336586 479.08166050911 2469.00010108948 194 194 194
-661.428034305573 478.330254554749 2464.99991416931 196 196 196
-654.472827911377 478.161215782166 2463.99998664856 199 199 199
-648.048400878906 478.380471467972 2464.99991416931 202 202 204
-641.618132591248 478.600025177002 2466.00008010864 201 201 203
-634.152114391327 478.043377399445 2463.00005912781 192 192 194
-627.466201782227 478.069186210632 2463.00005912781 212 212 214
-620.779693126678 478.09511423111 2463.00005912781 225 225 227
-614.591240882874 478.509426116943 2464.99991416931 216 216 218
-608.14493894577 478.729903697968 2466.00008010864 213 213 215
-601.448595523834 478.756248950958 2466.00008010864 220 220 222
-595.475256443024 479.365289211273 2469.00010108948 223 223 225
-589.008033275604 479.586035013199 2470.00002861023 221 221 223
-583.949208259583 480.971962213516 2476.99999809265 226 226 228
-578.152596950531 481.7755818367 2480.99994659424 219 219 221
-572.794258594513 482.967793941498 2486.99998855591 217 218 220
-567.175030708313 483.965963125229 2492.00010299683 220 221 223
-561.752736568451 485.15847325325 2497.99990653992 215 216 218
-556.519269943237 486.545443534851 2505.00011444092 214 215 217
-549.710929393768 486.572802066803 2505.00011444092 207 208 210
-894.6373462677 500.511050224304 2618.99995803833 201 203 202
-885.494351387024 499.379187822342 2612.99991607666 173 175 174
-876.384615898132 498.24783205986 2607.00011253357 169 171 170
-865.307450294495 495.97030878067 2595.00002861023 250 252 251
-855.949580669403 494.648903608322 2588.00005912781 176 178 177
-847.614407539368 493.901461362839 2584.00011062622 147 147 147
-838.976085186005 492.963254451752 2578.9999961853 136 136 136
-828.429818153381 490.878760814667 2568.00007820129 183 185 184
-817.623496055603 488.603353500366 2555.99999427795 190 192 191
-807.834327220917 486.901849508286 2546.99993133545 190 192 191
-798.408687114716 485.391885042191 2539.00003433228 190 192 191
-788.714945316315 483.691096305847 2529.99997138977 192 194 193
-779.379367828369 482.18184709549 2522.0000743866 194 196 195
-770.699799060822 481.055229902267 2516.00003242493 192 194 193
-761.445701122284 479.546546936035 2507.99989700317 192 194 193
-752.837002277374 478.420704603195 2502.00009346008 194 196 195
-744.260728359222 477.295011281967 2496.00005149841 194 196 195
-736.307919025421 476.552158594131 2492.00010299683 193 195 194
-728.376805782318 475.809544324875 2487.99991607666 191 191 191
-721.047401428223 475.449770689011 2486.00006103516 189 189 189
-713.153958320618 474.707722663879 2482.00011253357 187 187 187
-705.851316452026 474.348455667496 2480.00001907349 184 184 184
-698.841273784637 474.18075799942 2479.00009155273 188 188 188
-691.277921199799 473.630756139755 2476.0000705719 190 190 190
-684.28361415863 473.463535308838 2474.99990463257 184 184 184
-676.199376583099 472.53143787384 2470.00002861023 188 188 188
-668.684065341949 471.982032060623 2467.00000762939 192 192 192
-660.647869110107 471.050173044205 2461.99989318848 181 181 181
-654.232323169708 471.266537904739 2463.00005912781 195 195 195
-648.336589336395 471.865743398666 2466.00008010864 192 192 192
-641.383409500122 471.699774265289 2464.99991416931 210 210 210
-634.17786359787 471.34268283844 2463.00005912781 183 183 183
-627.237200737 471.177011728287 2461.99989318848 220 220 220
-620.805680751801 471.394330263138 2463.00005912781 211 211 211
-614.617466926575 471.803158521652 2464.99991416931 195 195 195
-608.171164989471 472.020834684372 2466.00008010864 214 214 214
-601.47500038147 472.047179937363 2466.00008010864 220 220 220
-595.501780509949 472.647905349731 2469.00010108948 221 221 221
-589.034676551819 472.86593914032 2470.00002861023 220 220 220
-583.268702030182 473.658442497253 2473.99997711182 221 221 221
-576.781332492828 473.876684904099 2474.99990463257 222 222 224
-571.900010108948 475.435376167297 2483.00004005432 219 220 222
-566.064059734344 476.228266954422 2486.99998855591 216 217 219
-561.330199241638 477.978855371475 2496.00005149841 214 215 217
-555.880069732666 479.155123233795 2502.00009346008 213 214 216
-550.177156925201 480.140000581741 2506.99996948242 207 208 210
-895.676732063293 493.948310613632 2621.99997901917 200 202 201
-886.865139007568 493.02139878273 2617.00010299683 213 215 212
-877.072751522064 491.529792547226 2608.99996757507 204 206 203
-866.324067115784 489.473551511765 2598.00004959106 124 126 123
-856.627941131592 487.982958555222 2589.99991416931 147 149 146
-847.631812095642 486.869722604752 2584.00011062622 152 152 150
-838.668704032898 485.756874084473 2578.00006866455 173 173 171
-828.125536441803 483.702391386032 2566.99991226196 180 182 181
-817.642331123352 481.648296117783 2555.99999427795 184 186 185
-807.536363601685 479.782909154892 2546.0000038147 185 187 186
-797.799468040466 478.106379508972 2536.99994087219 186 188 187
-788.423299789429 476.618647575378 2529.00004386902 185 187 186
-779.090642929077 475.131183862686 2520.99990844727 185 187 186
-770.107984542847 473.832577466965 2513.99993896484 185 187 186
-761.466860771179 472.722679376602 2507.99989700317 185 187 186
-753.460228443146 471.99010848999 2503.99994850159 186 188 187
-744.878888130188 470.88086605072 2497.99990653992 187 189 188
-736.625611782074 469.960451126099 2493.00003051758 188 190 189
-728.69211435318 469.228804111481 2489.00008201599 186 186 186
-721.360266208649 468.874484300613 2486.99998855591 185 185 185
-712.889730930328 467.766284942627 2480.99994659424 183 183 183
-705.305516719818 467.223912477493 2477.9999256134 183 183 183
-698.583006858826 467.247486114502 2477.9999256134 188 188 188
-691.860377788544 467.271357774735 2477.9999256134 189 189 189
-684.584379196167 466.918379068375 2476.0000705719 177 177 177
-676.497578620911 465.999782085419 2470.99995613098 179 179 179
-669.250845909119 465.647220611572 2469.00010108948 182 182 182
-661.746203899384 465.106219053268 2466.00008010864 173 173 173
-654.788613319397 464.942514896393 2464.99991416931 196 196 196
-648.099005222321 464.967727661133 2464.99991416931 178 178 178
-640.628337860107 464.427173137665 2461.99989318848 181 181 181
-633.17346572876 463.886797428131 2459.00011062622 193 193 193
-626.498699188232 463.912457227707 2459.00011062622 228 228 228
-620.327472686768 464.315593242645 2460.99996566772 186 186 186
-614.394247531891 464.907646179199 2463.99998664856 198 198 198
-607.704102993011 464.933753013611 2463.99998664856 210 210 210
-601.257383823395 465.148687362671 2464.99991416931 216 216 216
-595.287084579468 465.741246938705 2467.99993515015 218 218 218
-589.061260223389 466.145187616348 2470.00002861023 218 218 218
-582.823932170868 466.549247503281 2471.99988365173 217 217 217
-576.342046260834 466.764718294144 2473.00004959106 218 218 220
-571.005642414093 467.923998832703 2479.00009155273 217 218 220
-564.953088760376 468.517154455185 2482.00011253357 214 215 217
-559.783041477203 469.865530729294 2489.00008201599 213 214 216
-555.018544197083 471.591621637344 2497.99990653992 212 213 215
-550.862848758698 473.884344100952 2509.99999046326 209 210 212
-544.040143489838 473.911613225937 2509.99999046326 198 199 201
-901.431560516357 486.05489730835 2618.00003051758 178 182 181
-894.666612148285 486.25510931015 2618.99995803833 197 199 198
-885.863840579987 485.341995954514 2614.00008201599 174 176 173
-876.08015537262 483.872324228287 2605.99994659424 148 150 147
-866.340577602386 482.403188943863 2598.00004959106 141 143 140
-856.644988059998 480.934590101242 2589.99991416931 145 147 144
-846.993207931519 479.46634888649 2582.00001716614 169 169 167
-837.710797786713 478.184342384338 2575.00004768372 162 162 160
-828.144013881683 476.71702504158 2566.99991226196 176 178 177
-817.981064319611 474.878638982773 2556.99992179871 179 181 180
-807.555794715881 472.854912281036 2546.0000038147 181 183 182
-798.448204994202 471.574455499649 2539.00003433228 183 185 184
-789.378762245178 470.294266939163 2532.00006484985 181 183 182
-779.420256614685 468.457221984863 2522.0000743866 182 184 183
-769.516229629517 466.620415449142 2512.00008392334 182 184 183
-761.488139629364 465.898454189301 2507.99989700317 181 183 182
-754.083752632141 465.548425912857 2506.00004196167 182 184 183
-745.497286319733 464.455515146255 2500 184 186 185
-736.352384090424 462.991386651993 2492.00010299683 186 188 187
-728.129148483276 462.084829807281 2486.99998855591 184 184 184
-720.803022384644 461.735934019089 2484.99989509583 183 183 183
-713.200271129608 461.201518774033 2482.00011253357 181 181 181
-705.89816570282 460.853159427643 2480.00001907349 180 180 180
-699.452579021454 461.062580347061 2480.99994659424 185 185 185
-693.001270294189 461.272388696671 2482.00011253357 191 191 191
-685.161530971527 460.553079843521 2477.9999256134 173 173 173
-676.522135734558 459.276407957077 2470.99995613098 173 173 173
-669.004380702972 458.743304014206 2467.99993515015 177 177 177
-661.771059036255 458.396345376968 2466.00008010864 166 166 166
-655.079424381256 458.421289920807 2466.00008010864 191 191 191
-647.861361503601 458.074599504471 2463.99998664856 159 159 159
-640.393555164337 457.542181015015 2460.99996566772 175 175 175
-633.456528186798 457.381725311279 2460.00003814697 220 220 220
-626.779198646545 457.407355308533 2460.00003814697 211 211 211
-620.85747718811 457.990914583206 2463.00005912781 187 187 187
-614.669620990753 458.388805389404 2464.99991416931 193 193 193
-607.976973056793 458.414882421494 2464.99991416931 204 204 204
-601.283669471741 458.441019058228 2464.99991416931 210 210 210
-594.831049442291 458.65336060524 2466.00008010864 214 214 214
-588.610768318176 459.051758050919 2467.99993515015 216 216 216
-582.614719867706 459.636270999908 2470.99995613098 216 216 216
-576.601803302765 460.220962762833 2473.99997711182 216 216 218
-571.032464504242 461.177855730057 2479.00009155273 214 215 217
-564.97997045517 461.762726306915 2482.00011253357 213 214 216
-560.034930706024 463.277965784073 2490.00000953674 212 213 215
-555.712223052979 465.351641178131 2500.99992752075 211 212 214
-551.98746919632 467.983782291412 2515.00010490417 209 210 212
-546.018183231354 468.75536441803 2519.00005340576 195 196 198
-905.233502388 480.941593647003 2628.99994850159 181 185 184
-895.023286342621 479.309886693954 2619.99988555908 191 193 190
-885.879337787628 478.227585554123 2614.00008201599 151 153 150
-875.423908233643 476.41396522522 2604.00009155273 144 146 143
-866.690754890442 475.515693426132 2598.99997711182 147 149 146
-856.331408023834 473.702996969223 2588.99998664856 157 159 154
-847.010970115662 472.439706325531 2582.00001716614 154 155 150
-837.728977203369 471.176862716675 2575.00004768372 168 169 164
-828.485310077667 469.91440653801 2568.00007820129 173 175 172
-818.320095539093 468.103289604187 2558.00008773804 177 179 176
-806.623518466949 465.377569198608 2542.99998283386 178 180 177
-797.838985919952 464.299231767654 2536.99994087219 179 181 178
-788.775444030762 463.038176298141 2529.99997138977 178 180 177
-780.058920383453 461.960434913635 2523.9999294281 176 178 175
-769.230782985687 459.601879119873 2510.99991798401 175 177 174
-761.205911636353 458.890855312347 2506.99996948242 173 175 172
-752.9017329216 457.997143268585 2502.00009346008 170 172 169
-744.922876358032 457.286655902863 2497.99990653992 172 174 171
-735.783696174622 455.844283103943 2490.00000953674 175 177 174
-728.444457054138 455.500543117523 2487.99991607666 179 179 177
-720.825910568237 454.973995685577 2484.99989509583 179 179 177
-713.223516941071 454.447835683823 2482.00011253357 173 173 171
-705.637037754059 453.921794891357 2479.00009155273 173 173 171
-699.476301670074 454.311579465866 2480.99994659424 171 171 169
-693.304479122162 454.701721668243 2483.00004005432 183 183 181
-685.738921165466 454.176425933838 2480.00001907349 173 173 171
-677.094101905823 452.918827533722 2473.00004959106 161 161 159
-670.113325119019 452.760130167007 2471.99988365173 167 167 165
-662.869334220886 452.418625354767 2470.00002861023 152 152 150
-655.6356549263 452.077180147171 2467.99993515015 176 176 174
-648.14954996109 451.552748680115 2464.99991416931 159 159 159
-640.939295291901 451.211631298065 2463.00005912781 152 152 152
-633.739531040192 450.870633125305 2460.99996566772 200 200 200
-627.059638500214 450.896173715591 2460.99996566772 196 196 196
-620.631277561188 451.105117797852 2461.99989318848 192 192 192
-614.19689655304 451.314181089401 2463.00005912781 191 191 191
-607.263028621674 451.156884431839 2461.99989318848 204 204 204
-600.822031497955 451.366245746613 2463.00005912781 207 207 207
-594.616115093231 451.758980751038 2464.99991416931 207 207 207
-588.637173175812 452.335119247437 2467.99993515015 207 207 207
-582.877039909363 453.094631433487 2471.99988365173 209 209 209
-577.094495296478 453.854411840439 2476.0000705719 210 210 212
-571.289420127869 454.614192247391 2480.00001907349 210 211 213
-565.461933612823 455.374121665955 2483.99996757507 210 211 213
-560.511648654938 456.867575645447 2492.00010299683 210 211 213
-556.183636188507 458.911180496216 2503.00002098084 209 210 212
-552.453577518463 461.505144834518 2516.99995994568 208 209 211
-546.912431716919 462.632447481155 2523.00000190735 198 199 201
-904.903769493103 473.605692386627 2628.00002098084 183 187 186
-893.671989440918 471.457988023758 2615.9999370575 190 192 189
-884.200513362885 470.211863517761 2608.99996757507 146 148 145
-874.431550502777 468.786120414734 2601.0000705719 147 149 146
-865.707039833069 467.901468276978 2595.99995613098 153 155 150
-855.687141418457 466.296404600143 2586.99989318848 145 147 142
-845.71647644043 464.691758155823 2578.00006866455 168 169 164
-837.096512317657 463.808506727219 2572.99995422363 161 162 157
-828.181385993958 462.74545788765 2566.99991226196 173 175 172
-819.299042224884 461.682826280594 2561.00010871887 177 179 176
-808.546304702759 459.538877010345 2549.00002479553 175 177 174
-800.374925136566 458.837538957596 2545.00007629395 175 177 174
-790.978133678436 457.41531252861 2536.99994087219 174 176 173
-781.934022903442 456.173717975616 2529.99997138977 171 173 170
-771.396160125732 454.030901193619 2517.99988746643 170 172 169
-762.441694736481 452.789843082428 2510.99991798401 166 168 165
-753.22437286377 451.368808746338 2503.00002098084 161 163 160
-744.348466396332 450.12828707695 2496.00005149841 163 165 162
-735.21488904953 448.707640171051 2487.99991607666 166 168 165
-727.881491184235 448.369354009628 2486.00006103516 174 174 172
-720.558643341064 448.031336069107 2483.99996757507 175 175 173
-713.821291923523 448.05434346199 2483.99996757507 169 169 167
-706.514418125153 447.716861963272 2482.00011253357 168 168 166
-700.06388425827 447.920858860016 2483.00004005432 164 164 162
-693.049252033234 447.764307260513 2482.00011253357 171 171 169
-685.486614704132 447.247177362442 2479.00009155273 177 177 175
-677.118480205536 446.188926696777 2473.00004959106 158 158 156
-670.137941837311 446.0329413414 2471.99988365173 160 160 158
-662.894129753113 445.696800947189 2470.00002861023 147 147 145
-655.926287174225 445.541203022003 2469.00010108948 173 173 171
-648.174583911896 444.844365119934 2464.99991416931 156 156 156
-640.96462726593 444.508641958237 2463.00005912781 144 144 144
-633.764982223511 444.173008203506 2460.99996566772 203 203 203
-627.340018749237 444.378972053528 2461.99989318848 194 194 194
-620.657026767731 444.404602050781 2461.99989318848 182 182 182
-613.973319530487 444.430351257324 2461.99989318848 189 189 189
-607.535719871521 444.636762142181 2463.00005912781 205 205 205
-601.092100143433 444.843322038651 2463.99998664856 207 207 207
-594.883620738983 445.230484008789 2466.00008010864 204 204 204
-588.424980640411 445.43719291687 2467.00000762939 203 203 203
-582.43191242218 446.005195379257 2470.00002861023 206 206 206
-576.65491104126 446.753889322281 2473.99997711182 208 208 210
-571.085691452026 447.683274745941 2479.00009155273 208 209 211
-565.716207027435 448.793351650238 2484.99989509583 209 210 212
-560.538411140442 450.084328651428 2492.00010299683 209 210 212
-555.543839931488 451.555967330933 2500 208 209 211
-551.383137702942 453.750401735306 2512.00008392334 207 208 210
-546.722710132599 455.58375120163 2522.0000743866 201 202 204
-895.395398139954 465.22518992424 2621.00005149841 185 189 188
-886.249899864197 464.175850152969 2615.00000953674 147 151 150
-876.128852367401 462.594449520111 2605.99994659424 145 149 148
-867.057859897614 461.546123027802 2599.99990463257 153 155 152
-857.358455657959 460.143178701401 2592.00000762939 156 158 155
-847.702741622925 458.740711212158 2584.00011062622 155 157 154
-839.066922664642 457.871168851852 2578.9999961853 158 160 157
-829.813301563263 456.647038459778 2572.00002670288 174 176 173
-820.27792930603 455.245673656464 2563.99989128113 172 174 171
-810.786306858063 453.84469628334 2555.99999427795 170 172 169
-801.967322826386 452.799201011658 2549.99995231628 169 171 168
-792.24568605423 451.221287250519 2540.99988937378 166 168 165
-781.954824924469 449.288547039032 2529.99997138977 164 164 162
-772.029995918274 447.533577680588 2519.99998092651 159 159 157
-762.766778469086 446.134001016617 2512.00008392334 156 156 154
-753.847897052765 444.9123442173 2505.00011444092 153 153 151
-744.66860294342 443.513214588165 2496.99997901917 154 154 152
-736.419260501862 442.647278308868 2492.00010299683 155 155 153
-728.782534599304 442.136824131012 2489.00008201599 165 165 163
-721.451818943024 441.804230213165 2486.99998855591 168 168 166
-714.41924571991 441.649585962296 2486.00006103516 160 160 158
-706.537783145905 440.962195396423 2482.00011253357 159 159 157
-700.087547302246 441.163420677185 2483.00004005432 158 158 156
-693.073213100433 441.009551286697 2482.00011253357 148 148 146
-686.063766479492 440.855860710144 2480.99994659424 183 183 181
-678.237974643707 440.169304609299 2476.99999809265 162 162 160
-670.975804328918 439.838379621506 2474.99990463257 148 148 146
-663.724064826965 439.507603645325 2473.00004959106 138 138 136
-656.482577323914 439.176917076111 2470.99995613098 161 161 159
-649.251639842987 438.846498727798 2469.00010108948 142 141 139
-641.510367393494 438.160628080368 2464.99991416931 134 134 134
-634.562969207764 438.00812959671 2463.99998664856 207 207 207
-627.620339393616 437.855750322342 2463.00005912781 177 177 177
-621.186852455139 438.059061765671 2463.99998664856 183 183 183
-614.248514175415 437.906920909882 2463.00005912781 183 183 183
-607.561647891998 437.932699918747 2463.00005912781 203 203 203
-600.874185562134 437.958598136902 2463.00005912781 206 206 206
-594.185948371887 437.984526157379 2463.00005912781 202 202 202
-588.212728500366 438.544094562531 2466.00008010864 202 202 202
-582.458138465881 439.281582832336 2470.00002861023 206 206 206
-576.681137084961 440.019249916077 2473.99997711182 206 206 208
-570.88178396225 440.757036209106 2477.9999256134 207 208 210
-565.287470817566 441.672831773758 2483.00004005432 209 210 212
-559.890270233154 442.766636610031 2489.00008201599 208 209 211
-554.459452629089 443.860530853271 2494.99988555908 208 209 211
-550.312459468842 446.022093296051 2506.99996948242 206 207 209
-546.099305152893 448.183864355087 2519.00005340576 204 205 207
-898.827135562897 459.838896989822 2631.00004196167 184 188 187
-888.299345970154 458.106905221939 2621.00005149841 145 149 148
-877.826571464539 456.375390291214 2611.00006103516 147 151 150
-867.741942405701 454.819142818451 2601.99999809265 150 152 151
-857.706665992737 453.263223171234 2592.99993515015 148 150 147
-847.392678260803 451.532959938049 2582.99994468689 163 165 162
-838.434636592865 450.502336025238 2576.99990272522 174 176 173
-829.186856746674 449.297279119492 2569.9999332428 171 173 170
-820.617198944092 448.442310094833 2565.00005722046 170 172 169
-812.709391117096 447.937339544296 2562.00003623962 168 170 167
-803.560018539429 446.733385324478 2555.0000667572 167 169 166
-792.577922344208 444.480657577515 2542.00005531311 163 165 162
-781.66651725769 442.228078842163 2529.00004386902 161 161 159
-772.663831710815 441.024959087372 2522.0000743866 155 155 153
-764.002799987793 439.996927976608 2516.00003242493 152 152 150
-755.374252796173 438.969224691391 2509.99999046326 150 150 148
-745.883524417877 437.417060136795 2500.99992752075 150 150 148
-737.623631954193 436.564683914185 2496.00005149841 151 151 149
-729.683399200439 435.887455940247 2492.00010299683 157 157 155
-722.054839134216 435.385406017303 2489.00008201599 160 160 158
-715.017080307007 435.233414173126 2487.99991607666 159 159 157
-707.69989490509 434.906870126724 2486.00006103516 158 158 156
-701.239049434662 435.105264186859 2486.99998855591 147 147 145
-694.214046001434 434.954136610031 2486.00006103516 144 144 142
-686.917543411255 434.628129005432 2483.99996757507 197 197 195
-679.083824157715 433.952480554581 2480.00001907349 172 172 170
-671.542584896088 433.451920747757 2476.99999809265 152 152 150
-664.553940296173 433.301508426666 2476.0000705719 130 130 128
-657.304525375366 432.976245880127 2473.99997711182 160 160 158
-649.539530277252 432.301074266434 2470.00002861023 129 128 126
-641.535401344299 431.450963020325 2464.99991416931 129 128 126
-634.588241577148 431.301146745682 2463.99998664856 179 178 176
-627.90060043335 431.326419115067 2463.99998664856 182 181 179
-621.464490890503 431.526899337769 2464.99991416931 185 184 182
-614.274203777313 431.202352046967 2463.00005912781 205 203 204
-607.834100723267 431.403070688248 2463.99998664856 194 192 193
-600.655972957611 431.078642606735 2461.99989318848 191 189 190
-593.970537185669 431.104421615601 2461.99989318848 198 196 197
-587.52304315567 431.305468082428 2463.00005912781 199 197 198
-582.248508930206 432.382166385651 2469.00010108948 197 195 196
-576.47430896759 433.108806610107 2473.00004959106 203 203 205
-570.447325706482 433.660387992859 2476.0000705719 204 204 206
-564.63086605072 434.387236833572 2480.00001907349 206 206 208
-559.241771697998 435.46450138092 2486.00006103516 209 209 211
-553.819298744202 436.541944742203 2492.00010299683 207 207 209
-549.680471420288 438.670575618744 2503.99994850159 201 202 204
-545.90916633606 441.149860620499 2517.99988746643 205 206 208
-540.99053144455 442.753434181213 2526.99995040894 188 189 191
-901.917517185211 454.225897789001 2640.00010490417 185 189 188
-891.026854515076 452.349215745926 2628.99994850159 149 153 152
-880.196571350098 450.473010540009 2618.00003051758 148 152 151
-870.093524456024 448.941379785538 2608.99996757507 148 150 149
-859.047412872314 446.893900632858 2596.99988365173 156 158 155
-849.051058292389 445.36304473877 2588.00005912781 166 168 165
-838.778495788574 443.660438060761 2578.00006866455 163 165 162
-830.173790454865 442.81867146492 2572.99995422363 166 168 165
-820.636510848999 441.460996866226 2565.00005722046 165 167 164
-812.094688415527 440.62003493309 2559.99994277954 165 167 164
-802.322089672089 439.090877771378 2551.00011825562 163 165 162
-791.351139545441 436.873495578766 2538.00010681152 158 160 157
-781.069040298462 435.000538825989 2526.99995040894 156 156 154
-772.684931755066 434.160768985748 2522.0000743866 151 151 149
-764.327824115753 433.321237564087 2516.99995994568 148 148 146
-755.696952342987 432.309806346893 2510.99991798401 145 145 143
-747.396767139435 431.470841169357 2506.00004196167 145 145 143
-738.82794380188 430.459916591644 2500 145 145 143
-730.877280235291 429.793566465378 2496.00005149841 151 151 149
-722.947955131531 429.12745475769 2492.00010299683 153 153 151
-715.327560901642 428.633779287338 2489.00008201599 159 159 157
-708.007872104645 428.312480449677 2486.99998855591 158 158 156
-701.826691627502 428.680449724197 2489.00008201599 142 142 140
-694.79638338089 428.531885147095 2487.99991607666 140 140 138
-688.047766685486 428.555846214294 2487.99991607666 188 188 186
-679.929673671722 427.718788385391 2483.00004005432 186 186 184
-672.651529312134 427.398562431335 2480.99994659424 144 144 142
-665.383756160736 427.078545093536 2479.00009155273 124 124 122
-658.126354217529 426.758617162704 2476.99999809265 154 154 152
-650.879323482513 426.438897848129 2474.99990463257 118 117 115
-642.861902713776 425.602346658707 2470.00002861023 128 127 125
-635.643601417542 425.282835960388 2467.99993515015 174 173 171
-628.690421581268 425.135672092438 2467.00000762939 174 173 171
-621.742069721222 424.988716840744 2466.00008010864 196 195 193
-614.299774169922 424.497127532959 2463.00005912781 204 202 203
-607.366323471069 424.35023188591 2461.99989318848 180 178 179
-600.437700748444 424.203455448151 2460.99996566772 193 191 192
-593.513906002045 424.056798219681 2460.00003814697 200 198 199
-587.310373783112 424.42724108696 2461.99989318848 196 194 195
-582.038640975952 425.487488508224 2467.99993515015 194 192 193
-576.267242431641 426.203042268753 2471.99988365173 203 203 205
-570.243000984192 426.746249198914 2474.99990463257 203 203 205
-564.201653003693 427.289634943008 2477.9999256134 205 205 207
-558.593213558197 428.177982568741 2483.00004005432 207 207 209
-553.178906440735 429.238885641098 2489.00008201599 207 207 209
-549.267888069153 431.507140398026 2502.00009346008 200 201 203
-545.285403728485 433.775633573532 2515.00010490417 205 206 208
-540.374875068665 435.354441404343 2523.9999294281 186 187 189
-898.516893386841 445.346385240555 2630.00011444092 186 190 189
-889.687538146973 444.515734910965 2625 151 155 154
-879.540979862213 443.008244037628 2615.9999370575 148 152 151
-869.443774223328 441.501140594482 2607.00011253357 150 152 151
-859.065115451813 439.825028181076 2596.99988365173 159 161 158
-848.741173744202 438.149392604828 2586.99989318848 161 163 160
-838.797092437744 436.64339184761 2578.00006866455 154 156 153
-829.547464847565 435.476571321487 2571.00009918213 159 161 158
-820.975840091705 434.648841619492 2565.99998474121 159 161 158
-811.479985713959 433.313250541687 2558.00008773804 159 161 158
-800.769567489624 431.3003718853 2546.0000038147 157 159 156
-789.812505245209 429.11833524704 2532.99999237061 151 153 150
-781.089842319489 428.12243103981 2526.99995040894 151 151 149
-772.706031799316 427.296191453934 2522.0000743866 146 146 144
-764.045596122742 426.300823688507 2516.00003242493 144 144 142
-755.116760730743 425.136268138886 2509.0000629425 140 140 138
-747.716903686523 424.819141626358 2506.99996948242 140 140 138
-740.032315254211 424.332857131958 2503.99994850159 140 140 138
-732.363820075989 423.846840858459 2500.99992752075 146 146 144
-724.131226539612 423.022150993347 2496.00005149841 147 147 145
-716.212868690491 422.36715555191 2492.00010299683 150 150 148
-708.885312080383 422.051280736923 2490.00000953674 153 153 151
-702.132165431976 422.074645757675 2490.00000953674 160 160 158
-695.37878036499 422.098368406296 2490.00000953674 143 143 141
-688.348412513733 421.952664852142 2489.00008201599 130 130 128
-680.501461029053 421.298563480377 2484.99989509583 163 163 161
-673.489272594452 421.153366565704 2483.99996757507 173 173 171
-666.750431060791 421.17777466774 2483.99996757507 130 130 128
-659.745335578918 421.032816171646 2483.00004005432 139 139 137
-651.693165302277 420.20970582962 2477.9999256134 108 107 105
-643.667697906494 419.386714696884 2473.00004959106 128 127 125
-636.44140958786 419.072479009628 2470.99995613098 165 164 162
-629.225432872772 418.758451938629 2469.00010108948 176 175 173
-621.515274047852 418.105155229568 2464.99991416931 190 189 187
-614.075601100922 417.621493339539 2461.99989318848 165 163 164
-607.145071029663 417.477250099182 2460.99996566772 185 183 184
-600.463271141052 417.502701282501 2460.99996566772 196 194 195
-594.022035598755 417.697876691818 2461.99989318848 189 187 188
-587.33606338501 417.723447084427 2461.99989318848 197 195 196
-581.592738628387 418.427854776382 2466.00008010864 198 196 197
-575.12754201889 418.623268604279 2467.00000762939 202 202 204
-569.347262382507 419.327795505524 2470.99995613098 203 203 205
-563.316881656647 419.862776994705 2473.99997711182 202 202 204
-557.944297790527 420.906990766525 2480.00001907349 204 204 206
-552.538216114044 421.951323747635 2486.00006103516 205 205 207
-548.635482788086 424.183964729309 2499.00007247925 201 202 204
-544.878125190735 426.586657762527 2513.00001144409 202 203 205
-540.829539299011 428.819745779037 2526.00002288818 187 188 190
-535.01832485199 429.694950580597 2530.99989891052 197 198 200
-891.358077526093 434.688359498978 2608.99996757507 186 190 189
-886.992335319519 436.037302017212 2617.00010299683 154 158 157
-879.557728767395 435.887277126312 2615.9999370575 150 154 153
-870.79519033432 435.07131934166 2611.00006103516 151 153 152
-859.744489192963 433.089256286621 2598.99997711182 154 156 153
-850.071609020233 431.774109601974 2591.00008010864 157 159 156
-839.466392993927 429.959416389465 2579.99992370605 160 162 159
-830.85709810257 429.144978523254 2575.00004768372 160 162 159
-821.635186672211 427.997529506683 2568.00007820129 159 161 158
-810.86528301239 426.017045974731 2555.99999427795 158 160 157
-799.846112728119 423.870146274567 2542.99998283386 156 158 155
-790.144741535187 422.390192747116 2533.99991989136 150 152 149
-781.728744506836 421.577274799347 2529.00004386902 148 148 146
-772.727072238922 420.43125629425 2522.0000743866 144 144 142
-763.459622859955 419.118732213974 2513.99993896484 142 142 140
-755.439400672913 418.473303318024 2509.99999046326 139 139 137
-748.633623123169 418.495029211044 2509.99999046326 139 139 137
-741.236805915833 418.183654546738 2507.99989700317 139 139 137
-733.557760715485 417.705804109573 2505.00011444092 141 141 139
-725.604593753815 417.061418294907 2500.99992752075 142 142 140
-717.672884464264 416.417211294174 2496.99997901917 141 141 139
-709.762632846832 415.773212909698 2493.00003051758 142 142 140
-702.719688415527 415.629774332047 2492.00010299683 158 158 156
-695.960998535156 415.653318166733 2492.00010299683 145 145 143
-689.202070236206 415.677100419998 2492.00010299683 134 134 132
-681.620955467224 415.200650691986 2489.00008201599 135 135 133
-674.598097801209 415.057986974716 2487.99991607666 159 159 157
-668.117105960846 415.249228477478 2489.00008201599 136 136 134
-661.098539829254 415.106892585754 2487.99991607666 138 138 136
-653.558909893036 414.631009101868 2484.99989509583 110 109 107
-644.733667373657 413.320958614349 2476.99999809265 125 124 122
-637.239098548889 412.845224142075 2473.99997711182 175 174 172
-629.505276679993 412.202686071396 2470.00002861023 189 188 186
-622.549057006836 412.060916423798 2469.00010108948 169 168 166
-614.599764347076 411.251485347748 2463.99998664856 157 155 156
-607.663869857788 411.109864711761 2463.00005912781 193 191 192
-600.732624530792 410.96818447113 2461.99989318848 192 190 191
-594.771325588226 411.494344472885 2464.99991416931 183 181 182
-588.077306747437 411.519795656204 2464.99991416931 196 194 195
-581.854224205017 411.879271268845 2467.00000762939 197 195 196
-575.852572917938 412.405669689178 2470.00002861023 201 201 203
-569.833934307098 412.932306528091 2473.00004959106 202 202 204
-563.798129558563 413.458943367004 2476.0000705719 201 201 203
-557.97016620636 414.152592420578 2480.00001907349 203 203 205
-552.786409854889 415.347456932068 2486.99998855591 204 204 206
-548.222422599792 417.043447494507 2496.99997901917 203 204 206
-544.253706932068 419.240683317184 2509.99999046326 199 200 202
-539.99936580658 421.271234750748 2522.0000743866 191 192 194
-887.008726596832 428.91338467598 2617.00010299683 179 183 182
-881.255924701691 429.585665464401 2621.00005149841 157 161 160
-872.146546840668 428.619384765625 2615.00000953674 151 153 152
-861.085474491119 426.670104265213 2602.9999256134 159 161 158
-850.089907646179 424.721121788025 2591.00008010864 154 156 153
-839.810431003571 423.100262880325 2581.00008964539 156 158 155
-830.553352832794 421.971529722214 2573.99988174438 156 158 155
-821.334540843964 420.843154191971 2566.99991226196 154 156 153
-811.51956319809 419.387221336365 2558.00008773804 151 153 150
-800.809800624847 417.439639568329 2546.0000038147 149 151 148
-792.036056518555 416.47607088089 2539.99996185303 145 147 144
-783.295035362244 415.512800216675 2533.99991989136 141 141 139
-774.2800116539 414.385765790939 2526.99995040894 139 139 137
-764.391899108887 412.767052650452 2516.99995994568 138 138 136
-756.363868713379 412.13247179985 2513.00001144409 137 137 135
-748.655557632446 411.66216135025 2509.99999046326 136 136 134
-741.554617881775 411.520183086395 2509.0000629425 136 136 134
-733.872950077057 411.050349473953 2506.00004196167 138 138 136
-725.917518138886 410.416781902313 2502.00009346008 139 139 137
-718.270659446716 409.947425127029 2499.00007247925 137 137 135
-710.924565792084 409.642338752747 2496.99997901917 132 132 130
-704.153060913086 409.665614366531 2496.99997901917 137 137 135
-697.660326957703 409.853160381317 2497.99990653992 153 153 151
-690.055549144745 409.384608268738 2494.99988555908 132 132 130
-683.014333248138 409.244447946548 2493.99995803833 143 143 141
-675.978064537048 409.104436635971 2493.00003051758 128 128 126
-669.75200176239 409.456938505173 2494.99988555908 143 143 141
-662.45174407959 409.153133630753 2493.00003051758 132 132 130
-654.372692108154 408.357113599777 2487.99991607666 117 116 114
-645.539283752441 407.068729400635 2480.00001907349 127 126 124
-637.263834476471 406.108528375626 2473.99997711182 159 158 156
-630.039930343628 405.805081129074 2471.99988365173 161 160 158
-623.078346252441 405.665814876556 2470.99995613098 161 160 158
-615.123748779297 404.869973659515 2466.00008010864 166 164 165
-608.182430267334 404.730796813965 2464.99991416931 178 176 177
-601.245939731598 404.591798782349 2463.99998664856 170 168 169
-595.037996768951 404.945373535156 2466.00008010864 182 180 181
-588.579893112183 405.134916305542 2467.00000762939 191 189 190
-582.58730173111 405.652940273285 2470.00002861023 191 189 190
-576.34437084198 406.006783246994 2471.99988365173 200 200 202
-570.550858974457 406.689375638962 2476.0000705719 202 202 204
-563.823759555817 406.714856624603 2476.0000705719 199 199 201
-558.22080373764 407.56168961525 2480.99994659424 201 201 203
-552.812159061432 408.573031425476 2486.99998855591 203 203 205
-548.248291015625 410.241574048996 2496.99997901917 206 207 209
-543.412268161774 411.746025085449 2506.00004196167 194 195 197
-539.168834686279 413.743525743485 2517.99988746643 198 199 201
-533.379375934601 414.591044187546 2523.00000190735 185 186 188
-894.481956958771 425.334960222244 2638.99993896484 185 189 188
-884.635150432587 424.062371253967 2631.00004196167 167 171 170
-873.831570148468 422.306597232819 2619.99988555908 152 154 153
-862.42663860321 420.228838920593 2607.00011253357 157 159 156
-850.764274597168 417.990118265152 2592.99993515015 157 159 156
-839.828968048096 416.074126958847 2581.00008964539 157 159 156
-830.572426319122 414.964467287064 2573.99988174438 154 156 153
-821.034014225006 413.693875074387 2565.99998474121 152 154 151
-811.85644865036 412.584811449051 2559.00001525879 147 149 146
-801.458895206451 410.831123590469 2548.00009727478 145 147 144
-793.927431106567 410.528838634491 2546.0000038147 140 142 139
-785.788655281067 409.904420375824 2542.00005531311 141 141 139
-777.058660984039 408.957690000534 2536.00001335144 139 139 137
-766.842782497406 407.204926013947 2525.00009536743 138 138 136
-758.492231369019 406.419932842255 2519.99998092651 137 137 135
-749.870419502258 405.473917722702 2513.99993896484 136 136 134
-741.872191429138 404.850751161575 2509.99999046326 136 136 134
-734.188258647919 404.3889939785 2506.99996948242 138 138 136
-726.81051492691 404.088854789734 2505.00011444092 139 139 137
-719.730734825134 403.950244188309 2503.99994850159 142 142 140
-712.371349334717 403.650552034378 2502.00009346008 139 139 137
-705.868303775787 403.834998607636 2503.00002098084 127 127 125
-699.080407619476 403.858453035355 2503.00002098084 131 131 129
-691.738724708557 403.559327125549 2500.99992752075 145 145 143
-684.955358505249 403.583168983459 2500.99992752075 147 147 145
-677.629172801971 403.284430503845 2499.00007247925 138 138 136
-671.387016773224 403.63135933876 2500.99992752075 124 124 122
-664.070606231689 403.332978487015 2499.00007247925 128 128 126
-656.238377094269 402.711808681488 2494.99988555908 125 124 122
-646.865487098694 401.122242212296 2484.99989509583 130 129 127
-638.061344623566 399.855464696884 2476.99999809265 151 150 148
-630.319654941559 399.234443902969 2473.00004959106 157 156 154
-623.355388641357 399.097710847855 2471.99988365173 151 150 148
-615.897059440613 398.638248443604 2469.00010108948 161 159 160
-608.700931072235 398.340195417404 2467.00000762939 177 175 176
-601.759135723114 398.203760385513 2466.00008010864 177 175 176
-595.545768737793 398.55170249939 2467.99993515015 184 182 183
-589.082360267639 398.738384246826 2469.00010108948 189 187 188
-582.612574100494 398.925006389618 2470.00002861023 191 189 190
-576.60299539566 399.434804916382 2473.00004959106 197 197 199
-571.03705406189 400.267690420151 2477.9999256134 200 200 202
-564.532339572906 400.454580783844 2479.00009155273 199 199 201
-558.246254920959 400.802999734879 2480.99994659424 199 199 201
-552.393078804016 401.474624872208 2484.99989509583 202 202 204
-547.615170478821 402.954161167145 2493.99995803833 203 204 206
-542.5705909729 404.272317886353 2502.00009346008 203 204 206
-538.123905658722 406.075298786163 2513.00001144409 201 202 204
-532.348036766052 406.908839941025 2517.99988746643 194 195 197
-885.324597358704 417.216747999191 2632.99989700317 177 181 180
-873.849034309387 415.174007415771 2619.99988555908 156 158 157
-863.436877727509 413.607031106949 2609.99989509583 155 157 154
-852.423012256622 411.723464727402 2598.00004959106 155 157 154
-840.823769569397 409.523159265518 2584.00011062622 155 157 154
-831.882178783417 408.591032028198 2578.00006866455 151 153 150
-821.053385734558 406.708240509033 2565.99998474121 149 151 148
-812.19345331192 405.776649713516 2559.99994277954 146 148 145
-802.42258310318 404.369950294495 2551.00011825562 144 146 143
-796.1305975914 404.707103967667 2552.99997329712 140 142 139
-787.354946136475 403.776496648788 2546.99993133545 140 140 138
-778.305351734161 402.687519788742 2539.99996185303 140 140 138
-768.382549285889 401.123255491257 2529.99997138977 138 138 136
-760.018765926361 400.351852178574 2525.00009536743 137 137 135
-750.488758087158 398.946404457092 2516.00003242493 136 136 134
-742.189764976501 398.175358772278 2510.99991798401 136 136 134
-734.796226024628 397.880345582962 2509.0000629425 134 134 132
-727.703452110291 397.744089365005 2507.99989700317 135 135 133
-720.615744590759 397.60810136795 2506.99996948242 146 146 144
-713.248491287231 397.313743829727 2505.00011444092 148 148 146
-706.737637519836 397.495418787003 2506.00004196167 140 140 138
-699.662446975708 397.360116243362 2505.00011444092 130 130 128
-692.592203617096 397.224962711334 2503.99994850159 121 121 119
-685.526967048645 397.08998799324 2503.00002098084 127 127 125
-679.008960723877 397.272527217865 2503.99994850159 134 134 132
-671.948075294495 397.13791012764 2503.00002098084 127 127 125
-665.157914161682 397.162109613419 2503.00002098084 122 122 120
-657.577991485596 396.710455417633 2500 114 113 111
-648.972511291504 395.624071359634 2493.00003051758 120 119 117
-639.373958110809 393.902897834778 2482.00011253357 144 143 141
-630.599081516266 392.657727003098 2473.99997711182 149 148 146
-623.380124568939 392.364889383316 2471.99988365173 147 146 144
-616.420686244965 392.230808734894 2470.99995613098 155 153 154
-609.219312667847 391.938090324402 2469.00010108948 166 164 165
-601.53990983963 391.327828168869 2464.99991416931 170 168 169
-595.088183879852 391.511470079422 2466.00008010864 181 179 180
-588.391542434692 391.536325216293 2466.00008010864 186 184 185
