ply
format ascii 1.0
comment KinectMotionCapture
element vertex 801
property float x
property float y
property float z
property uchar red
property uchar green
property uchar blue
end_header
563.380420207977 -385.568588972092 2467.99993515015 11 14 7
576.762199401855 -390.074104070663 2496.99997901917 10 13 6
586.794674396515 -392.2358751297 2510.99991798401 11 14 7
598.793268203735 -395.646959543228 2532.99999237061 9 12 5
609.714686870575 -398.276716470718 2549.99995231628 11 14 7
622.178137302399 -401.843190193176 2572.99995422363 14 17 10
635.987877845764 -406.190186738968 2601.0000705719 11 14 7
654.398381710052 -413.34742307663 2647.0000743866 9 11 6
658.311247825623 -411.291211843491 2634.0000629425 8 10 5
664.679348468781 -410.796701908112 2631.00004196167 8 10 5
665.412962436676 -406.867504119873 2605.99994659424 8 10 5
671.945631504059 -406.529724597931 2604.00009155273 8 10 5
682.117223739624 -408.37749838829 2615.9999370575 9 11 6
684.9764585495 -405.854493379593 2599.99990463257 12 13 8
688.813149929047 -403.956234455109 2588.00005912781 13 16 9
698.23032617569 -405.336052179337 2596.99988365173 15 18 11
712.040722370148 -409.212976694107 2621.99997901917 15 18 11
723.791480064392 -411.841124296188 2638.99993896484 15 18 11
732.03319311142 -412.440478801727 2642.99988746643 12 15 8
737.499058246613 -411.479562520981 2637.00008392334 12 15 8
740.108489990234 -408.958703279495 2621.00005149841 12 17 13
754.319071769714 -412.835210561752 2645.99990844727 11 15 14
461.744487285614 -409.421265125275 2572.99995422363 21 23 18
466.361373662949 -407.328128814697 2559.99994277954 21 24 15
463.511228561401 -398.870974779129 2506.99996948242 17 20 11
477.068811655045 -404.574006795883 2542.99998283386 17 20 9
484.92106795311 -405.344635248184 2548.00009727478 16 19 8
490.869134664536 -404.524207115173 2542.99998283386 14 17 8
493.657231330872 -401.158809661865 2522.0000743866 14 17 8
498.513340950012 -399.543285369873 2512.00008392334 14 17 8
503.71652841568 -398.245871067047 2503.99994850159 15 18 11
513.564646244049 -400.606423616409 2519.00005340576 15 18 11
517.708539962769 -398.513823747635 2506.00004196167 14 17 10
524.711191654205 -398.647636175156 2506.99996948242 14 17 10
529.174268245697 -396.873354911804 2496.00005149841 15 18 11
535.723924636841 -396.689116954803 2494.99988555908 15 18 11
542.919516563416 -396.981835365295 2496.99997901917 15 18 11
548.363924026489 -396.002680063248 2490.9999370575 15 18 11
554.44347858429 -395.500510931015 2487.99991607666 15 18 11
560.731470584869 -395.157337188721 2486.00006103516 14 17 10
570.431768894196 -397.198408842087 2499.00007247925 13 16 9
580.432534217834 -399.398058652878 2513.00001144409 12 15 8
586.769223213196 -399.054706096649 2510.99991798401 13 16 9
593.803644180298 -399.188190698624 2512.00008392334 11 14 7
606.58073425293 -403.135269880295 2536.99994087219 12 15 8
612.963974475861 -402.791917324066 2535.00008583069 14 17 10
639.629364013672 -415.635734796524 2615.9999370575 11 14 7
650.416553020477 -417.992562055588 2631.00004196167 8 10 5
659.784495830536 -419.395923614502 2640.00010490417 8 10 5
662.379503250122 -416.510194540024 2621.99997901917 7 9 4
671.004414558411 -417.437136173248 2628.00002098084 7 9 4
671.403884887695 -413.281470537186 2601.99999809265 8 10 5
677.137613296509 -412.461668252945 2596.99988365173 8 10 5
681.789815425873 -411.006897687912 2588.00005912781 11 12 7
688.788115978241 -410.981714725494 2588.00005912781 12 15 8
700.087428092957 -413.49732875824 2604.00009155273 13 16 9
714.18821811676 -417.600601911545 2630.00011444092 16 19 12
725.960612297058 -420.274645090103 2647.0000743866 16 19 12
732.562243938446 -419.932007789612 2644.99998092651 14 17 10
734.398245811462 -416.890829801559 2625.99992752075 14 17 10
739.519476890564 -415.755122900009 2618.99995803833 13 18 14
761.42156124115 -423.98527264595 2671.0000038147 12 16 15
458.489716053009 -413.499295711517 2555.0000667572 20 22 17
457.592874765396 -406.515896320343 2512.00008392334 21 24 15
469.587773084641 -411.022365093231 2539.99996185303 17 20 11
479.482561349869 -413.586437702179 2555.99999427795 17 20 9
485.086262226105 -412.428647279739 2549.00002479553 16 19 8
488.720804452896 -409.652978181839 2532.00006484985 14 17 8
494.610786437988 -408.81884098053 2526.99995040894 14 17 8
497.694462537766 -405.719935894012 2507.99989700317 14 17 8
502.886831760406 -404.400646686554 2500 15 18 11
511.908352375031 -406.154692173004 2510.99991798401 15 18 11
519.12933588028 -406.452775001526 2513.00001144409 14 17 10
523.430109024048 -404.486507177353 2500.99992752075 14 17 10
532.328903675079 -406.07824921608 2510.99991798401 15 18 11
540.207505226135 -406.861275434494 2516.00003242493 15 18 11
544.633448123932 -405.056864023209 2505.00011444092 14 17 10
547.017812728882 -401.797443628311 2484.99989509583 14 17 10
548.178732395172 -397.730052471161 2460.00003814697 14 17 10
562.28494644165 -403.039932250977 2493.00003051758 13 16 9
570.862710475922 -404.307663440704 2500.99992752075 13 16 9
577.173352241516 -403.958737850189 2499.00007247925 12 15 8
584.406971931458 -404.256463050842 2500.99992752075 13 16 9
590.23243188858 -403.584390878677 2496.99997901917 12 15 8
596.035361289978 -402.912437915802 2493.00003051758 13 16 9
616.323292255402 -411.937028169632 2549.00002479553 15 18 11
643.759369850159 -425.485283136368 2632.99989700317 14 17 10
652.36759185791 -426.428109407425 2638.99993896484 9 11 6
657.508850097656 -425.108850002289 2631.00004196167 9 11 6
663.869023323059 -424.597650766373 2628.00002098084 8 10 5
664.084672927856 -420.209288597107 2601.0000705719 8 10 5
672.926247119904 -421.314120292664 2608.00004005432 9 11 6
676.590502262115 -419.188231229782 2595.00002861023 9 11 6
684.398829936981 -419.647216796875 2598.00004959106 9 10 5
691.690325737 -419.783174991608 2598.99997711182 9 12 5
699.79327917099 -420.403808355331 2602.9999256134 10 13 6
709.003508090973 -421.670615673065 2611.00006103516 11 14 7
722.095847129822 -425.19822716713 2632.99989700317 12 15 8
728.659868240356 -424.850195646286 2631.00004196167 14 17 10
727.382242679596 -419.981181621552 2601.0000705719 15 18 11
736.38916015625 -421.087056398392 2608.00004005432 13 18 14
760.826885700226 -430.911332368851 2668.99991035461 15 19 18
448.775261640549 -411.554455757141 2500.99992752075 20 23 16
471.594125032425 -426.010131835938 2588.99998664856 17 20 11
476.402908563614 -424.010217189789 2576.99990272522 19 22 13
478.894650936127 -420.036137104034 2552.99997329712 16 19 8
480.303585529327 -415.239721536636 2523.9999294281 15 18 7
490.046590566635 -417.682111263275 2539.00003433228 14 17 8
493.019700050354 -414.366692304611 2519.00005340576 13 16 7
491.120904684067 -407.103836536407 2474.99990463257 13 16 7
505.878806114197 -413.65784406662 2515.00010490417 14 17 10
512.494385242462 -413.467764854431 2513.99993896484 14 17 10
517.03804731369 -411.633104085922 2503.00002098084 13 16 9
521.730422973633 -409.963071346283 2493.00003051758 13 16 9
531.455338001251 -412.239581346512 2506.99996948242 14 17 10
540.181756019592 -413.693636655808 2516.00003242493 14 17 10
550.042927265167 -415.969491004944 2529.99997138977 13 16 9
550.514221191406 -411.175698041916 2500.99992752075 13 16 9
546.59366607666 -403.258979320526 2453.00006866455 13 16 9
552.335739135742 -402.576088905334 2448.99988174438 13 16 9
563.989698886871 -406.167060136795 2470.99995613098 12 15 8
565.831065177917 -402.689933776855 2450.00004768372 11 14 7
582.979321479797 -410.060495138168 2494.99988555908 12 15 8
586.897730827332 -408.062756061554 2483.00004005432 12 15 8
593.858122825623 -408.201515674591 2483.99996757507 13 16 9
657.53185749054 -437.042325735092 2660.00008583069 9 11 6
664.729237556458 -437.015235424042 2660.00008583069 9 11 6
662.579536437988 -430.909812450409 2622.99990653992 8 10 5
671.717822551727 -432.197540998459 2631.00004196167 8 10 5
677.286326885223 -431.185483932495 2625 9 11 6
682.561159133911 -430.009484291077 2618.00003051758 9 11 6
687.534153461456 -428.669512271881 2609.99989509583 11 12 7
693.261563777924 -427.822589874268 2605.00001907349 11 14 7
700.305581092834 -427.796989679337 2605.00001907349 12 15 8
711.422026157379 -430.234760046005 2619.99988555908 12 15 8
721.522033214569 -432.015627622604 2631.00004196167 12 15 8
728.080749511719 -431.661993265152 2628.99994850159 11 14 7
725.120484828949 -425.726413726807 2592.99993515015 12 15 8
731.282472610474 -425.209432840347 2589.99991416931 10 15 11
745.69445848465 -429.453551769257 2615.9999370575 13 17 16
442.667543888092 -419.041723012924 2505.00011444092 8 10 5
458.798825740814 -427.715331315994 2556.99992179871 17 19 14
470.657974481583 -432.206302881241 2584.00011062622 15 18 9
480.629146099091 -434.856653213501 2599.99990463257 16 19 10
474.555045366287 -423.123747110367 2529.99997138977 16 19 8
482.561767101288 -424.101769924164 2536.00001335144 15 18 7
486.740052700043 -421.73507809639 2522.0000743866 14 17 8
495.147049427032 -423.047244548798 2529.99997138977 13 16 7
502.207398414612 -423.188656568527 2530.99989891052 13 16 7
500.62358379364 -416.140735149384 2489.00008201599 14 17 10
502.887964248657 -412.437230348587 2467.00000762939 14 17 10
507.717251777649 -410.907298326492 2457.99994468689 13 16 9
518.147170543671 -413.890868425369 2476.0000705719 14 17 10
526.553988456726 -415.202498435974 2483.99996757507 14 17 10
535.003244876862 -416.513890028 2492.00010299683 14 17 10
544.799268245697 -418.827831745148 2506.00004196167 13 16 9
544.545412063599 -413.453966379166 2473.99997711182 13 16 9
549.01921749115 -411.7571413517 2463.99998664856 14 17 10
553.212463855743 -409.893453121185 2453.00006866455 13 16 9
555.063009262085 -406.359046697617 2431.99992179871 13 16 9
566.960334777832 -410.176515579224 2454.99992370605 12 15 8
574.074923992157 -410.485208034515 2457.00001716614 15 18 11
586.39931678772 -414.469063282013 2480.99994659424 15 18 11
591.202855110168 -413.106977939606 2473.00004959106 17 20 13
602.490127086639 -416.25514626503 2492.00010299683 17 20 13
660.717964172363 -446.433663368225 2673.00009727478 8 10 5
662.453055381775 -442.732125520706 2651.00002288818 8 10 5
668.867647647858 -442.204058170319 2648.00000190735 7 9 4
672.967672348022 -440.173357725143 2635.99991798401 7 9 4
683.968067169189 -442.651301622391 2651.00002288818 8 10 5
689.313471317291 -441.455870866776 2644.00005340576 8 10 5
691.45941734314 -438.257247209549 2625 10 11 6
697.227537631989 -437.39640712738 2619.99988555908 12 15 8
703.237056732178 -436.702847480774 2615.9999370575 14 17 10
711.124956607819 -437.177956104279 2618.99995803833 14 17 10
721.770763397217 -439.322352409363 2631.99996948242 13 16 9
727.501809597015 -438.462466001511 2627.00009346008 12 15 8
729.849636554718 -435.600072145462 2609.99989509583 13 16 9
730.975866317749 -432.070761919022 2588.99998664856 7 12 8
739.969372749329 -433.214634656906 2595.99995613098 13 17 16
463.140666484833 -445.56525349617 2621.00005149841 8 10 5
463.438510894775 -439.079821109772 2582.99994468689 21 23 18
471.907198429108 -440.414011478424 2591.00008010864 17 20 11
479.124397039413 -440.558016300201 2592.00000762939 19 22 13
482.032090425491 -436.79291009903 2569.9999332428 17 20 9
481.013923883438 -429.62908744812 2528.00011634827 17 20 9
483.626663684845 -425.86475610733 2506.00004196167 16 19 10
491.011500358582 -426.348954439163 2509.0000629425 16 19 10
502.975225448608 -430.741101503372 2535.00008583069 16 19 10
502.408146858215 -424.428373575211 2497.99990653992 14 17 10
501.028001308441 -417.606711387634 2457.99994468689 14 17 10
507.691860198975 -417.58120059967 2457.99994468689 14 17 10
514.982640743256 -418.065279722214 2460.99996566772 14 17 10
524.832427501678 -420.587658882141 2476.0000705719 14 17 10
531.542479991913 -420.561850070953 2476.0000705719 14 17 10
538.468897342682 -420.705765485764 2476.99999809265 15 18 11
544.0793633461 -419.830679893494 2471.99988365173 15 18 11
549.439132213593 -418.785870075226 2466.00008010864 15 18 11
554.539978504181 -417.571306228638 2459.00011062622 14 17 10
558.91740322113 -415.847510099411 2448.99988174438 14 17 10
568.089425563812 -417.689561843872 2460.00003814697 12 15 8
573.11475276947 -416.475355625153 2453.00006866455 13 16 9
582.355618476868 -418.317198753357 2463.99998664856 12 15 8
592.611491680145 -420.837968587875 2479.00009155273 14 17 10
656.241357326508 -450.63328742981 2654.99997138977 7 9 4
662.425875663757 -449.927002191544 2651.00002288818 7 9 4
668.335437774658 -449.051201343536 2645.99990844727 7 9 4
677.536010742188 -450.381755828857 2654.00004386902 8 10 5
682.909250259399 -449.16695356369 2647.0000743866 8 10 5
686.679840087891 -446.934312582016 2634.0000629425 9 11 6
693.27700138092 -446.568489074707 2631.99996948242 10 11 6
704.120337963104 -448.917359113693 2645.99990844727 10 13 6
710.200369358063 -448.212504386902 2641.99995994568 14 17 10
713.27143907547 -445.641875267029 2627.00009346008 13 16 9
720.374226570129 -445.616215467453 2627.00009346008 13 16 9
734.95352268219 -450.170487165451 2654.00004386902 11 14 7
736.815392971039 -446.922332048416 2634.99999046326 12 15 8
734.904050827026 -441.470086574554 2602.9999256134 14 19 15
731.96417093277 -435.509920120239 2568.00007820129 7 11 10
463.291496038437 -452.855706214905 2621.99997901917 9 11 6
460.721731185913 -443.503648042679 2568.00007820129 22 24 19
471.152782440186 -446.759074926376 2586.99989318848 18 21 12
476.510554552078 -445.178866386414 2578.00006866455 18 21 12
473.566323518753 -436.001062393188 2525.00009536743 16 19 8
477.943986654282 -433.730721473694 2512.00008392334 16 19 8
481.671214103699 -430.942505598068 2496.00005149841 16 19 10
487.267673015594 -429.881006479263 2490.00000953674 16 19 10
499.37778711319 -434.516340494156 2516.99995994568 17 20 11
502.382218837738 -431.210368871689 2497.99990653992 14 17 10
501.817762851715 -424.970358610153 2461.99989318848 14 17 10
507.872819900513 -424.426913261414 2459.00011062622 14 17 10
514.119923114777 -424.055904150009 2457.00001716614 14 17 10
521.839082241058 -424.89305138588 2461.99989318848 14 17 10
531.945765018463 -427.628308534622 2477.9999256134 14 17 10
536.921262741089 -426.221698522568 2470.00002861023 15 18 11
543.613195419312 -426.195681095123 2470.00002861023 15 18 11
551.641225814819 -427.204936742783 2476.0000705719 15 18 11
560.151696205139 -428.558975458145 2483.99996757507 14 17 10
565.281629562378 -427.325159311295 2476.99999809265 13 16 9
572.451174259186 -427.64413356781 2479.00009155273 14 17 10
583.36865901947 -430.722922086716 2496.99997901917 14 17 10
584.693133831024 -426.729500293732 2473.99997711182 12 15 8
605.015754699707 -436.534613370895 2530.99989891052 13 16 9
647.562146186829 -456.831276416779 2648.9999294281 12 15 8
654.73085641861 -456.80370926857 2648.9999294281 7 9 4
665.896654129028 -459.535151720047 2664.99996185303 7 9 4
672.349333763123 -458.990335464478 2661.99994087219 8 10 5
678.019404411316 -457.928478717804 2655.99989891052 8 10 5
678.75462770462 -453.591287136078 2631.00004196167 8 10 5
684.828460216522 -452.874958515167 2627.00009346008 8 10 5
690.616548061371 -451.986461877823 2621.99997901917 10 11 6
704.360067844391 -456.269443035126 2647.0000743866 10 13 6
708.830177783966 -454.519391059875 2637.00008392334 13 16 9
710.802018642426 -451.218605041504 2618.00003051758 12 15 8
721.993803977966 -453.777998685837 2632.99989700317 12 15 8
736.866176128387 -458.57772231102 2661.00001335144 15 18 11
746.856391429901 -460.275262594223 2671.0000038147 9 12 5
755.206346511841 -460.938990116119 2674.99995231628 10 15 11
459.025025367737 -455.764979124069 2598.00004959106 11 13 8
465.180933475494 -454.86181974411 2592.99993515015 19 21 16
466.938108205795 -449.748814105988 2563.99989128113 18 21 12
475.190699100494 -450.950592756271 2571.00009918213 16 19 10
475.603431463242 -444.785743951797 2536.00001335144 17 20 9
477.53769159317 -440.199851989746 2509.99999046326 17 20 9
482.9962849617 -438.946396112442 2503.00002098084 15 18 9
492.329567670822 -441.200137138367 2516.00003242493 15 18 9
496.3758289814 -438.719093799591 2502.00009346008 14 17 8
502.155125141144 -437.816232442856 2496.99997901917 15 18 11
506.479740142822 -435.686141252518 2484.99989509583 15 18 11
508.466601371765 -431.627780199051 2461.99989318848 15 18 11
514.721870422363 -431.251257658005 2460.00003814697 15 18 11
524.992346763611 -434.205234050751 2476.99999809265 15 18 11
529.343783855438 -432.250916957855 2466.00008010864 15 18 11
539.286196231842 -434.853851795197 2480.99994659424 14 17 10
544.467389583588 -433.600723743439 2473.99997711182 14 17 10
551.392138004303 -433.749735355377 2474.99990463257 14 17 10
557.41947889328 -433.19770693779 2471.99988365173 14 17 10
567.080974578857 -435.449481010437 2484.99989509583 13 16 9
574.734032154083 -436.124086380005 2489.00008201599 13 16 9
578.202664852142 -433.644682168961 2474.99990463257 13 16 9
599.791884422302 -444.656133651733 2538.00010681152 11 14 7
610.725998878479 -447.607576847076 2555.0000667572 13 16 9
630.453824996948 -456.865102052689 2608.00004005432 14 17 10
648.023426532745 -464.369922876358 2651.00002288818 12 15 8
662.117779254913 -469.246566295624 2678.99990081787 7 9 4
668.617427349091 -468.693226575851 2676.00011825562 7 9 4
677.625775337219 -469.891369342804 2683.00008773804 8 10 5
682.081282138824 -463.006556034088 2644.00005340576 8 10 5
683.49826335907 -459.127187728882 2621.99997901917 8 10 5
689.273178577423 -458.225101232529 2617.00010299683 9 10 5
697.149097919464 -458.723872900009 2619.99988555908 10 13 6
705.309510231018 -459.397971630096 2624.00007247925 13 16 9
712.133646011353 -459.196835756302 2622.99990653992 12 15 8
722.790598869324 -461.446672677994 2635.99991798401 12 15 8
737.394213676453 -466.147243976593 2663.00010681152 15 18 11
747.949182987213 -468.221843242645 2674.99995231628 11 14 7
755.180954933167 -468.196183443069 2674.99995231628 8 13 9
457.232236862183 -461.036890745163 2588.00005912781 12 14 9
465.513557195663 -462.25768327713 2595.00002861023 17 19 14
466.001600027084 -455.818921327591 2559.00001525879 19 22 13
469.989508390427 -452.942907810211 2542.99998283386 18 21 12
477.827817201614 -453.807324171066 2548.00009727478 19 22 11
482.077598571777 -451.287657022476 2533.99991989136 18 21 10
487.601280212402 -450.014799833298 2526.99995040894 16 19 10
491.129338741302 -446.961224079132 2509.99999046326 15 18 9
495.357692241669 -444.620132446289 2496.99997901917 13 16 7
503.134429454803 -445.484131574631 2502.00009346008 15 18 11
505.842208862305 -441.896915435791 2482.00011253357 15 18 11
513.396978378296 -442.582786083221 2486.00006103516 15 18 11
516.788065433502 -439.708113670349 2470.00002861023 15 18 11
526.661515235901 -442.351937294006 2484.99989509583 15 18 11
533.181190490723 -442.147523164749 2483.99996757507 15 18 11
535.782098770142 -438.73929977417 2464.99991416931 14 17 10
542.900621891022 -439.0689432621 2467.00000762939 14 17 10
551.811397075653 -440.822243690491 2476.99999809265 14 17 10
556.040346622467 -438.838332891464 2466.00008010864 13 16 9
564.772665500641 -440.413504838943 2474.99990463257 12 15 8
573.322176933289 -441.810578107834 2483.00004005432 11 14 7
585.885405540466 -446.232199668884 2507.99989700317 12 15 8
592.675566673279 -446.20555639267 2507.99989700317 11 14 7
604.723334312439 -450.092762708664 2529.99997138977 14 17 10
624.383151531219 -459.494262933731 2582.99994468689 16 19 12
651.906490325928 -474.40904378891 2667.00005531311 14 17 10
665.302515029907 -478.827714920044 2691.99991226196 8 10 5
669.339060783386 -476.487338542938 2678.99990081787 8 10 5
675.830066204071 -475.925892591476 2676.00011825562 8 10 5
681.538283824921 -474.831074476242 2670.00007629395 8 10 5
681.022346019745 -469.468653202057 2640.00010490417 7 9 4
683.992803096771 -466.596394777298 2624.00007247925 7 9 4
683.979094028473 -461.768805980682 2596.99988365173 9 10 5
696.324527263641 -465.298533439636 2617.00010299683 10 13 6
705.014526844025 -466.338843107224 2622.99990653992 13 16 9
714.551031589508 -467.91273355484 2631.99996948242 12 15 8
722.216367721558 -468.242228031158 2634.0000629425 12 15 8
739.306449890137 -474.615722894669 2670.00007629395 11 14 7
745.686590671539 -474.056571722031 2667.00005531311 10 13 6
761.930644512177 -479.718625545502 2698.99988174438 9 14 10
460.03270149231 -470.955848693848 2604.00009155273 17 19 14
466.742843389511 -470.567673444748 2601.99999809265 18 20 15
468.160480260849 -464.935094118118 2571.00009918213 19 22 13
468.115299940109 -458.037197589874 2532.99999237061 18 21 12
482.489436864853 -465.243697166443 2572.99995422363 19 22 11
488.328993320465 -464.132070541382 2566.99991226196 18 21 10
487.574905157089 -456.873446702957 2526.99995040894 16 19 10
490.124732255936 -452.86962389946 2505.00011444092 15 18 9
498.703688383102 -454.470127820969 2513.99993896484 14 17 8
503.107964992523 -452.274441719055 2502.00009346008 14 17 10
511.522114276886 -453.693896532059 2509.99999046326 14 17 10
513.783514499664 -449.690788984299 2487.99991607666 14 17 10
522.829055786133 -451.652377843857 2499.00007247925 14 17 10
531.297445297241 -453.071415424347 2506.99996948242 14 17 10
530.579030513763 -446.719646453857 2471.99988365173 14 17 10
534.45166349411 -444.344043731689 2459.00011062622 14 17 10
541.553914546967 -444.67905163765 2460.99996566772 14 17 10
547.106802463531 -443.749189376831 2456.00008964539 14 17 10
553.759157657623 -443.722873926163 2456.00008964539 13 16 9
561.779797077179 -444.780439138412 2461.99989318848 12 15 8
569.832265377045 -445.83797454834 2467.99993515015 13 16 9
582.121193408966 -450.14688372612 2492.00010299683 13 16 9
591.703593730927 -452.287703752518 2503.99994850159 12 15 8
599.677264690399 -453.164100646973 2509.0000629425 14 17 10
625.564396381378 -467.405200004578 2588.00005912781 16 19 12
650.900721549988 -480.922341346741 2663.00010681152 13 16 9
662.06157207489 -483.783513307571 2678.99990081787 8 10 5
669.310927391052 -483.755320310593 2678.99990081787 8 10 5
655.851185321808 -468.92112493515 2596.99988365173 8 10 5
670.024454593658 -473.949551582336 2625 7 9 4
677.125751972198 -473.922342061996 2625 7 9 4
679.274022579193 -470.465153455734 2605.99994659424 7 9 4
687.903046607971 -471.521615982056 2611.99998855591 9 10 5
699.756920337677 -474.744349718094 2630.00011444092 9 12 5
711.707592010498 -477.966815233231 2648.00000190735 12 15 8
717.239558696747 -476.857334375381 2641.99995994568 11 14 7
726.57722234726 -478.275001049042 2650.00009536743 11 14 7
735.680878162384 -479.512214660645 2657.00006484985 13 16 9
741.46693944931 -478.584080934525 2651.99995040894 14 17 10
748.35479259491 -478.378057479858 2651.00002288818 15 20 16
464.599311351776 -482.796430587769 2630.00011444092 21 23 20
465.819418430328 -476.711988449097 2596.99988365173 17 19 14
468.134105205536 -471.912890672684 2571.00009918213 15 18 11
466.980338096619 -463.810443878174 2526.99995040894 15 18 9
476.274847984314 -466.170072555542 2539.99996185303 16 19 10
490.965306758881 -473.667830228806 2581.00008964539 15 18 9
487.162530422211 -463.36418390274 2525.00009536743 13 16 9
488.728731870651 -458.382964134216 2497.99990653992 14 17 10
492.527961730957 -455.604165792465 2483.00004005432 15 18 11
505.896329879761 -461.632549762726 2516.00003242493 14 17 10
509.457528591156 -458.670228719711 2500 13 16 9
512.72451877594 -455.52471280098 2483.00004005432 12 15 8
523.220658302307 -458.800137042999 2500.99992752075 12 15 8
531.694412231445 -460.240751504898 2509.0000629425 14 17 10
537.205874919891 -459.11318063736 2503.00002098084 14 17 10
541.379928588867 -456.8852186203 2490.9999370575 14 17 10
543.067693710327 -452.640056610107 2467.99993515015 13 16 9
548.41685295105 -451.513111591339 2461.99989318848 11 14 7
554.409205913544 -450.936436653137 2459.00011062622 11 14 7
563.122451305389 -452.560245990753 2467.99993515015 14 17 10
570.036709308624 -452.717065811157 2469.00010108948 13 16 9
581.860840320587 -456.724166870117 2490.9999370575 13 16 9
592.385709285736 -459.630876779556 2506.99996948242 12 15 8
606.342494487762 -465.1038646698 2536.99994087219 14 16 11
629.645884037018 -477.542400360107 2605.00001907349 15 18 11
646.228551864624 -484.663605690002 2644.00005340576 13 16 9
658.573567867279 -488.484799861908 2664.99996185303 9 11 6
653.793632984161 -479.658931493759 2617.00010299683 8 10 5
657.844305038452 -477.432101964951 2605.00001907349 8 10 5
665.402829647064 -477.771401405334 2607.00011253357 7 9 4
673.745334148407 -478.660553693771 2611.99998855591 7 9 4
683.417677879334 -480.46600818634 2621.99997901917 7 9 4
689.456582069397 -479.706197977066 2618.00003051758 9 10 4
703.721106052399 -484.62650179863 2644.99998092651 9 12 5
712.487161159515 -485.699087381363 2651.00002288818 12 15 8
713.412702083588 -481.458783149719 2628.00002098084 11 14 7
723.260939121246 -483.264595270157 2638.00001144409 11 14 7
734.54737663269 -485.98638176918 2653.00011634827 13 16 9
735.570132732391 -481.930673122406 2631.00004196167 13 16 9
743.81297826767 -482.638001441956 2634.99999046326 13 18 14
460.332930088043 -485.462754964828 2605.99994659424 20 22 19
460.053265094757 -477.798700332642 2565.00005722046 17 19 14
464.101880788803 -474.791914224625 2549.00002479553 16 19 12
469.356209039688 -473.089069128037 2539.99996185303 17 20 13
474.560797214508 -471.386283636093 2530.99989891052 16 19 10
480.476438999176 -470.428466796875 2526.00002288818 14 17 10
491.187244653702 -474.126309156418 2546.0000038147 13 16 9
490.462958812714 -466.836929321289 2506.99996948242 13 16 9
492.501527070999 -462.341398000717 2483.00004005432 15 17 12
501.044034957886 -463.990539312363 2492.00010299683 14 17 10
511.67219877243 -467.501252889633 2510.99991798401 13 16 9
515.38211107254 -464.681684970856 2496.00005149841 13 16 9
520.264983177185 -462.979346513748 2486.99998855591 13 16 9
529.760181903839 -465.372443199158 2500 14 17 10
539.324939250946 -467.765182256699 2513.00001144409 14 17 10
544.395625591278 -466.249018907547 2505.00011444092 14 17 10
546.781599521637 -462.499529123306 2484.99989509583 13 16 9
550.617635250092 -460.053205490112 2471.99988365173 11 14 7
559.567928314209 -461.887389421463 2482.00011253357 11 14 7
566.289961338043 -461.860507726669 2482.00011253357 14 17 10
577.397763729095 -465.369045734406 2500.99992752075 13 16 9
587.206244468689 -467.760860919952 2513.99993896484 13 16 9
597.793221473694 -470.710605382919 2529.99997138977 12 15 8
608.705163002014 -473.846137523651 2546.99993133545 14 16 11
626.475930213928 -482.190161943436 2592.00000762939 15 17 12
648.644506931305 -493.695735931396 2654.00004386902 13 15 10
652.267158031464 -485.641419887543 2611.00006103516 7 9 4
663.119912147522 -488.403677940369 2625.99992752075 8 10 7
672.77717590332 -490.235924720764 2635.99991798401 8 10 7
679.392755031586 -489.836484193802 2634.0000629425 8 10 7
686.518311500549 -489.80924487114 2634.0000629425 8 10 5
692.326486110687 -488.852351903915 2628.99994850159 9 12 3
701.831817626953 -490.498900413513 2638.00001144409 10 13 4
706.547915935516 -488.798856735229 2628.99994850159 11 14 5
710.128962993622 -486.355513334274 2615.9999370575 12 15 6
719.122409820557 -487.630814313889 2622.99990653992 10 16 6
735.905766487122 -494.111359119415 2657.99999237061 11 16 9
736.383378505707 -489.624112844467 2634.0000629425 8 13 6
746.610403060913 -491.643339395523 2644.99998092651 7 12 8
455.890357494354 -487.808972597122 2581.00008964539 13 15 12
460.744112730026 -485.514372587204 2569.00000572205 11 13 8
462.618827819824 -480.196237564087 2540.99988937378 14 17 10
469.329655170441 -479.980736970901 2539.99996185303 16 19 12
476.971477270126 -480.709820985794 2543.99991035461 14 17 8
480.83022236824 -477.659821510315 2528.00011634827 13 16 9
486.916065216064 -476.877212524414 2523.9999294281 13 16 9
494.153201580048 -477.228164672852 2526.00002288818 13 16 9
496.243417263031 -472.667127847672 2502.00009346008 14 16 11
500.213086605072 -469.995558261871 2487.99991607666 15 18 11
513.275325298309 -475.824505090714 2519.00005340576 14 17 10
522.168755531311 -477.686077356339 2529.00004386902 14 17 10
525.258541107178 -474.25901889801 2510.99991798401 14 17 10
529.309272766113 -471.77654504776 2497.99990653992 15 18 11
537.151694297791 -472.693681716919 2503.00002098084 15 18 11
541.760563850403 -470.778048038483 2493.00003051758 13 16 9
546.754598617554 -469.2402780056 2484.99989509583 14 17 10
552.595436573029 -468.458026647568 2480.99994659424 11 14 7
563.373506069183 -471.82959318161 2499.00007247925 11 14 7
573.335647583008 -474.445551633835 2513.00001144409 12 15 8
587.990045547485 -480.836987495422 2546.99993133545 13 16 9
594.653129577637 -480.62065243721 2546.0000038147 13 16 9
597.057163715363 -477.006554603577 2526.99995040894 12 15 8
609.394729137421 -481.320649385452 2549.99995231628 13 15 10
630.55682182312 -492.42901802063 2608.99996757507 15 17 12
650.32684803009 -502.215147018433 2661.00001335144 13 15 10
658.516943454742 -502.941608428955 2664.99996185303 7 9 4
658.984184265137 -497.818142175674 2638.00001144409 7 9 4
670.920133590698 -501.375555992126 2657.00006484985 8 10 7
676.577806472778 -500.215411186218 2651.00002288818 8 10 7
679.623186588287 -497.168868780136 2634.99999046326 8 10 7
689.879238605499 -499.405592679977 2647.0000743866 8 10 5
693.352818489075 -496.737003326416 2632.99989700317 9 12 5
697.016358375549 -494.257658720016 2619.99988555908 10 13 4
701.146483421326 -492.156028747559 2608.99996757507 12 15 6
707.388341426849 -491.56391620636 2605.99994659424 12 15 6
721.28963470459 -496.253401041031 2631.00004196167 10 16 6
736.433327198029 -501.697063446045 2660.00008583069 11 16 9
736.078143119812 -496.578931808472 2632.99989700317 8 13 6
751.101136207581 -501.833975315094 2661.00001335144 12 17 13
459.396153688431 -498.645514249802 2601.0000705719 14 16 13
460.00012755394 -491.717278957367 2565.00005722046 12 14 9
460.953831672668 -485.364586114883 2532.00006484985 14 17 10
471.150606870651 -488.788247108459 2549.99995231628 16 19 12
481.631577014923 -492.40306019783 2569.00000572205 13 16 7
479.662209749222 -483.367741107941 2522.0000743866 13 16 9
483.995616436005 -480.849385261536 2509.0000629425 13 16 9
493.343651294708 -483.313798904419 2522.0000743866 13 16 9
495.224803686142 -478.495955467224 2496.99997901917 13 15 10
506.820559501648 -483.067870140076 2520.99990844727 14 17 10
516.508102416992 -485.723078250885 2535.00008583069 14 17 10
523.173630237579 -485.503911972046 2533.99991989136 15 18 11
527.741312980652 -483.368992805481 2523.00000190735 15 18 11
530.341506004334 -479.510009288788 2503.00002098084 14 17 10
534.334719181061 -476.992428302765 2490.00000953674 14 17 10
539.995014667511 -476.007431745529 2484.99989509583 13 16 9
545.187473297119 -474.639505147934 2477.9999256134 14 17 10
551.454782485962 -474.229454994202 2476.0000705719 12 15 8
562.669932842255 -478.032797574997 2496.00005149841 12 15 8
571.483314037323 -479.729205369949 2505.00011444092 13 16 9
578.497767448425 -479.893386363983 2506.00004196167 12 15 8
593.924880027771 -486.951172351837 2542.99998283386 12 15 8
600.101232528687 -486.349165439606 2539.99996185303 11 14 7
609.845221042633 -488.619267940521 2552.00004577637 13 15 10
631.495475769043 -500.270485877991 2612.99991607666 15 17 12
648.587703704834 -508.091628551483 2654.00004386902 12 14 9
660.712361335754 -511.891901493073 2674.00002479553 7 9 4
666.449964046478 -510.714828968048 2667.99998283386 7 9 4
670.63957452774 -508.38965177536 2655.99989891052 8 10 7
676.29486322403 -507.213294506073 2650.00009536743 8 10 7
677.274584770203 -502.592086791992 2625.99992752075 8 10 7
685.421288013458 -503.33034992218 2630.00011444092 8 10 5
694.642305374146 -504.834115505219 2638.00001144409 9 12 5
700.979948043823 -504.233062267303 2634.99999046326 10 13 6
703.538715839386 -500.953257083893 2618.00003051758 12 15 6
713.062405586243 -502.649009227753 2627.00009346008 12 15 6
719.070374965668 -501.857459545136 2622.99990653992 10 15 8
728.655576705933 -503.553509712219 2631.99996948242 11 16 10
737.729907035828 -504.866898059845 2638.99993896484 12 17 11
459.722399711609 -506.089985370636 2602.9999256134 14 16 13
463.739186525345 -502.757787704468 2585.99996566772 12 14 9
463.293790817261 -494.760096073151 2545.00007629395 9 12 5
471.86267375946 -496.482759714127 2553.99990081787 10 13 6
471.855968236923 -489.263445138931 2516.99995994568 11 14 5
477.353125810623 -487.876027822495 2509.99999046326 12 15 8
484.547406435013 -488.237887620926 2512.00008392334 13 16 9
493.12087893486 -489.959985017776 2520.99990844727 13 16 9
502.535581588745 -492.459177970886 2533.99991989136 13 15 10
504.581928253174 -487.767815589905 2509.99999046326 14 17 10
518.314182758331 -494.347423315048 2543.99991035461 14 17 10
526.4493227005 -495.485574007034 2549.99995231628 15 18 11
525.203824043274 -487.880140542984 2510.99991798401 15 18 11
528.831124305725 -484.938383102417 2496.00005149841 14 17 10
533.449172973633 -482.968330383301 2486.00006103516 14 17 10
539.967894554138 -482.746869325638 2484.99989509583 13 16 9
544.940412044525 -481.165647506714 2476.99999809265 14 17 10
552.095890045166 -481.527000665665 2479.00009155273 13 16 9
561.966419219971 -484.219044446945 2493.00003051758 12 15 8
567.121505737305 -482.832282781601 2486.00006103516 12 15 8
590.160548686981 -490.740180015564 2526.99995040894 12 15 8
599.128663539886 -492.460399866104 2536.00001335144 11 14 7
605.516374111176 -492.044538259506 2533.99991989136 13 15 10
632.434010505676 -508.132934570313 2617.00010299683 14 16 11
647.337317466736 -514.317750930786 2648.9999294281 8 10 5
649.812400341034 -510.600626468658 2630.00011444092 7 9 4
661.425948143005 -514.066994190216 2648.00000190735 7 9 4
670.863926410675 -515.785992145538 2657.00006484985 8 10 7
673.970222473145 -512.652099132538 2641.00003242493 8 10 7
683.952510356903 -514.759600162506 2651.99995040894 8 10 7
685.133397579193 -510.267853736877 2628.99994850159 8 10 5
694.088578224182 -511.599183082581 2635.99991798401 9 12 5
702.283203601837 -512.348532676697 2640.00010490417 10 13 6
709.692776203156 -512.515723705292 2641.00003242493 11 14 7
717.650353908539 -513.071298599243 2644.00005340576 12 15 6
726.445972919464 -514.209151268005 2650.00009536743 10 15 8
727.522373199463 -509.914338588715 2628.00002098084 10 15 9
740.220189094543 -513.769090175629 2648.00000190735 11 16 10
458.988904953003 -512.361586093903 2598.99997711182 19 21 18
468.194991350174 -514.699935913086 2611.00006103516 17 19 14
470.91218829155 -509.941518306732 2586.99989318848 13 16 9
468.69495511055 -500.058889389038 2536.99994087219 13 16 9
469.767153263092 -493.921846151352 2506.00004196167 11 14 5
474.473655223846 -491.727083921433 2494.99988555908 12 15 8
487.220704555511 -497.809529304504 2526.00002288818 12 15 8
494.854003190994 -498.570501804352 2529.99997138977 13 16 9
498.740345239639 -495.587348937988 2515.00010490417 12 14 9
510.987222194672 -500.880122184753 2542.00005531311 12 15 8
518.897652626038 -501.837551593781 2546.99993133545 13 16 9
526.008605957031 -502.006828784943 2548.00009727478 14 17 10
525.594711303711 -495.083570480347 2513.00001144409 14 17 10
526.4732837677 -489.540010690689 2484.99989509583 13 16 9
534.92397069931 -491.088688373566 2493.00003051758 12 15 8
542.113363742828 -491.455256938934 2494.99988555908 13 16 9
547.333061695099 -490.049064159393 2487.99991607666 14 17 10
554.963767528534 -490.809559822083 2492.00010299683 13 16 9
564.869403839111 -493.539422750473 2506.00004196167 12 15 8
567.550480365753 -489.96713757515 2487.99991607666 12 15 8
580.751299858093 -495.453745126724 2516.00003242493 11 14 7
592.935383319855 -499.955236911774 2539.00003433228 12 15 8
597.683668136597 -498.155474662781 2529.99997138977 11 14 7
602.621555328369 -496.552854776382 2522.0000743866 12 14 9
627.572655677795 -511.29138469696 2596.99988365173 14 16 11
649.263799190521 -523.075461387634 2657.00006484985 12 14 9
657.196223735809 -523.637473583221 2660.00008583069 7 9 4
661.897361278534 -521.640598773956 2650.00009536743 7 9 4
664.271354675293 -517.87257194519 2631.00004196167 8 10 7
684.404969215393 -527.882814407349 2681.99992179871 8 10 7
682.893335819244 -521.163046360016 2648.00000190735 8 10 7
686.409056186676 -518.380165100098 2634.0000629425 8 10 5
691.955089569092 -517.17221736908 2628.00002098084 9 12 5
698.532164096832 -516.751706600189 2625.99992752075 10 13 6
698.648869991302 -511.608898639679 2599.99990463257 12 15 8
717.623770236969 -520.240247249603 2644.00005340576 12 15 8
722.856104373932 -518.836617469788 2637.00008392334 10 15 8
727.219820022583 -516.843259334564 2627.00009346008 10 15 9
737.119674682617 -518.784999847412 2637.00008392334 12 17 11
462.493568658829 -523.406863212585 2618.99995803833 21 23 20
468.70544552803 -522.380173206329 2614.00008201599 22 24 19
476.163387298584 -522.752165794373 2615.9999370575 17 20 13
479.567229747772 -518.727958202362 2595.99995613098 15 18 11
480.424731969833 -512.106537818909 2562.99996376038 10 13 4
474.827140569687 -498.892456293106 2496.99997901917 8 11 4
486.80767416954 -504.259705543518 2523.9999294281 13 16 9
495.80454826355 -506.42991065979 2535.00008583069 15 18 11
500.894248485565 -504.604458808899 2526.00002288818 13 15 10
506.13534450531 -502.978920936584 2517.99988746643 13 16 9
516.01779460907 -505.947530269623 2532.99999237061 14 17 10
519.581377506256 -502.724051475525 2516.99995994568 14 17 10
524.52141046524 -500.898897647858 2507.99989700317 14 17 10
530.683040618896 -500.272274017334 2505.00011444092 14 17 10
534.682035446167 -497.648626565933 2492.00010299683 14 17 10
541.651427745819 -497.820824384689 2493.00003051758 12 15 8
547.745704650879 -497.1943795681 2490.00000953674 12 15 8
556.94055557251 -499.363243579865 2500.99992752075 12 15 8
566.645085811615 -501.931250095367 2513.99993896484 12 15 8
575.050711631775 -503.301203250885 2520.99990844727 12 15 8
584.878385066986 -505.86873292923 2533.99991989136 11 14 7
592.674136161804 -506.63948059082 2538.00010681152 13 16 9
599.073529243469 -506.212592124939 2536.00001335144 12 15 8
607.850730419159 -507.781803607941 2543.99991035461 13 15 10
641.801416873932 -530.108153820038 2655.99989891052 14 16 11
654.122114181519 -534.270644187927 2677.00004577637 12 14 9
660.13240814209 -533.244073390961 2671.99993133545 7 9 4
667.613565921783 -533.415079116821 2673.00009727478 7 9 4
677.876770496368 -535.78120470047 2684.99994277954 6 8 5
679.783582687378 -531.562566757202 2664.00003433228 6 8 5
693.438589572906 -536.522686481476 2688.99989128113 7 9 6
690.029919147491 -528.314590454102 2648.00000190735 7 9 4
689.558327198029 -522.501587867737 2618.99995803833 9 12 5
693.717360496521 -520.280361175537 2608.00004005432 10 13 6
699.966073036194 -519.655406475067 2605.00001907349 11 14 7
709.726512432098 -521.623969078064 2615.00000953674 11 14 7
718.718349933624 -522.994220256805 2621.99997901917 9 14 7
718.335866928101 -517.583072185516 2595.00002861023 11 16 10
741.56641960144 -529.12563085556 2653.00011634827 16 21 15
465.091913938522 -525.41708946228 2594.00010108948 19 21 16
473.587453365326 -527.009785175323 2601.99999809265 23 26 19
481.386691331863 -527.79221534729 2605.99994659424 16 19 12
477.398216724396 -515.815615653992 2546.99993133545 13 16 7
482.025891542435 -513.358116149902 2535.00008583069 11 14 7
490.251898765564 -514.748156070709 2542.00005531311 13 16 9
492.843389511108 -510.265827178955 2519.99998092651 14 17 10
494.719862937927 -505.176424980164 2494.99988555908 11 13 8
502.891898155212 -506.566524505615 2502.00009346008 12 15 8
513.545513153076 -510.385632514954 2520.99990844727 12 15 8
517.283141613007 -507.321298122406 2506.00004196167 13 16 9
521.147787570953 -504.45967912674 2492.00010299683 13 16 9
527.266025543213 -503.825008869171 2489.00008201599 13 16 9
534.010887145996 -503.79753112793 2489.00008201599 13 16 9
539.234101772308 -502.353250980377 2482.00011253357 12 15 8
549.25799369812 -505.361676216125 2496.99997901917 12 15 8
554.241001605988 -503.715217113495 2489.00008201599 12 15 8
565.039753913879 -507.330298423767 2506.99996948242 12 15 8
574.110627174377 -509.326279163361 2516.99995994568 12 15 8
582.311809062958 -510.512709617615 2523.00000190735 11 14 7
594.514429569244 -515.138745307922 2546.0000038147 13 16 9
604.95126247406 -518.145740032196 2561.00010871887 12 15 8
612.123787403107 -518.320202827454 2562.00003623962 13 15 10
643.705785274506 -538.927018642426 2664.00003433228 14 16 11
653.604567050934 -541.123330593109 2674.99995231628 12 14 9
664.79754447937 -544.331073760986 2690.99998474121 8 10 5
671.830892562866 -544.100046157837 2690.00005722046 7 9 4
678.605675697327 -543.666899204254 2687.99996376038 7 9 6
688.941419124603 -546.065509319305 2700.00004768372 7 9 6
695.473492145538 -545.430481433868 2697.00002670288 7 9 6
695.735096931458 -539.94232416153 2670.00007629395 8 10 7
691.637694835663 -531.219482421875 2627.00009346008 9 12 5
692.360818386078 -526.339590549469 2602.9999256134 9 12 5
698.596358299255 -525.706648826599 2599.99990463257 11 14 7
708.343386650085 -527.702331542969 2609.99989509583 11 14 7
715.677320957184 -527.878642082214 2611.00006103516 9 14 7
737.963736057281 -538.972020149231 2665.99988937378 10 15 9
735.112071037292 -531.668543815613 2630.00011444092 14 19 15
455.199092626572 -529.192864894867 2578.00006866455 29 31 28
457.893013954163 -524.239361286163 2553.99990081787 16 18 13
468.09983253479 -527.906715869904 2572.00002670288 21 24 17
473.970323801041 -526.647746562958 2565.99998474121 18 21 14
483.181059360504 -529.082894325256 2578.00006866455 15 18 9
488.653272390366 -527.413249015808 2569.9999332428 13 16 9
492.53848195076 -524.102032184601 2553.99990081787 14 17 10
492.424815893173 -516.687154769897 2517.99988746643 14 17 10
498.063296079636 -515.42854309082 2512.00008392334 11 13 8
507.085144519806 -517.657935619354 2523.00000190735 12 15 8
516.573250293732 -520.297408103943 2536.00001335144 12 15 8
515.81072807312 -512.678802013397 2499.00007247925 12 15 8
521.120369434357 -511.215269565582 2492.00010299683 13 16 9
525.332093238831 -508.726119995117 2480.00001907349 14 17 10
531.623482704163 -508.288502693176 2477.9999256134 12 15 8
538.989424705505 -508.876442909241 2480.99994659424 12 15 8
547.470808029175 -510.489881038666 2489.00008201599 12 15 8
554.658770561218 -510.872483253479 2490.9999370575 12 15 8
561.631500720978 -511.05010509491 2492.00010299683 12 15 8
572.486400604248 -514.713823795319 2509.99999046326 12 15 8
579.514682292938 -514.89132642746 2510.99991798401 11 14 7
594.253063201904 -521.835267543793 2545.00007629395 13 16 9
601.616442203522 -522.217512130737 2546.99993133545 12 15 8
610.662460327148 -524.034976959229 2555.99999427795 13 15 10
634.737014770508 -538.563013076782 2627.00009346008 14 16 11
650.399506092072 -545.709609985352 2661.99994087219 12 14 9
660.322189331055 -547.935903072357 2673.00009727478 8 10 5
672.051846981049 -551.596879959106 2690.99998474121 8 10 5
679.33452129364 -551.568269729614 2690.99998474121 7 9 6
689.423203468323 -553.794384002686 2701.99990272522 7 9 6
692.093133926392 -550.077080726624 2684.00001525879 8 10 7
692.059516906738 -544.310927391052 2655.99989891052 8 10 7
696.349501609802 -542.029321193695 2644.99998092651 7 9 4
699.515759944916 -538.92856836319 2630.00011444092 8 10 5
698.838829994202 -532.959699630737 2601.0000705719 10 13 6
704.246520996094 -531.704187393188 2595.00002861023 11 14 7
724.696457386017 -541.717886924744 2644.00005340576 10 15 9
736.000120639801 -544.765055179596 2658.99991989136 12 17 13
452.523469924927 -533.061623573303 2562.99996376038 18 20 17
457.507342100143 -530.746757984161 2552.00004577637 19 21 16
465.160489082336 -531.551361083984 2555.99999427795 14 17 10
473.573297262192 -533.187568187714 2563.99989128113 19 22 15
482.778370380402 -535.65526008606 2575.99997520447 17 20 11
488.815575838089 -534.587740898132 2571.00009918213 17 20 13
492.896348237991 -531.441032886505 2555.99999427795 15 18 11
495.721697807312 -527.047038078308 2535.00008583069 14 17 10
499.027073383331 -523.277163505554 2516.99995994568 12 14 9
506.454467773438 -523.873090744019 2519.99998092651 13 16 9
521.768629550934 -525.480568408966 2528.00011634827 13 16 9
523.183882236481 -520.048499107361 2502.00009346008 14 17 10
526.575565338135 -516.695380210876 2486.00006103516 16 19 12
531.596064567566 -515.005171298981 2477.9999256134 13 16 9
537.65857219696 -514.354348182678 2474.99990463257 13 16 9
546.343564987183 -516.197264194489 2483.99996757507 13 16 9
551.959455013275 -515.130817890167 2479.00009155273 12 15 8
560.251891613007 -516.557991504669 2486.00006103516 11 14 7
570.634245872498 -519.85502243042 2502.00009346008 11 14 7
579.256296157837 -521.489560604095 2509.99999046326 11 14 7
587.921023368835 -523.124039173126 2517.99988746643 13 16 9
600.407719612122 -528.082430362701 2542.00005531311 12 15 8
613.97922039032 -533.871173858643 2569.9999332428 13 15 10
634.95010137558 -545.891106128693 2628.00002098084 14 16 11
646.217405796051 -549.393832683563 2644.99998092651 8 10 5
658.317267894745 -553.519368171692 2664.99996185303 8 10 5
672.772407531738 -559.513926506042 2694.00000572205 8 10 5
677.034080028534 -556.993126869202 2681.99992179871 7 9 6
680.464923381805 -553.849875926971 2667.00005531311 7 9 6
683.298289775848 -550.291836261749 2650.00009536743 8 10 7
687.342047691345 -547.772526741028 2638.00001144409 8 10 7
695.532619953156 -548.575878143311 2641.99995994568 7 9 4
706.935942173004 -551.871001720428 2657.99999237061 7 9 4
706.872820854187 -546.238481998444 2631.00004196167 9 11 6
703.949332237244 -538.530766963959 2594.00010108948 11 13 8
723.300039768219 -547.846913337708 2638.99993896484 10 15 9
733.483254909515 -550.10461807251 2650.00009536743 13 18 14
742.887258529663 -551.739692687988 2657.99999237061 11 16 12
454.968005418777 -542.958319187164 2576.99990272522 13 15 12
454.970479011536 -534.714341163635 2538.00010681152 24 26 21
463.495343923569 -536.583244800568 2546.99993133545 15 18 11
473.361074924469 -539.926469326019 2562.99996376038 18 21 14
477.128446102142 -536.317765712738 2546.0000038147 17 20 11
486.126005649567 -538.607120513916 2556.99992179871 18 21 14
492.482841014862 -537.947416305542 2553.99990081787 16 19 12
498.431533575058 -536.866426467896 2549.00002479553 14 17 10
503.559231758118 -534.942984580994 2539.99996185303 13 15 10
502.005636692047 -526.070058345795 2497.99990653992 13 16 9
516.31373167038 -533.834218978882 2535.00008583069 12 15 8
523.391783237457 -534.016788005829 2536.00001335144 12 15 8
529.219925403595 -532.935917377472 2530.99989891052 12 15 8
529.513359069824 -526.380777359009 2500 15 18 11
534.142851829529 -524.247765541077 2490.00000953674 17 20 13
541.75853729248 -525.062263011932 2493.99995803833 13 16 9
546.755969524384 -523.350536823273 2486.00006103516 13 16 9
552.599966526031 -522.481024265289 2482.00011253357 12 15 8
559.773683547974 -522.874593734741 2483.99996757507 11 14 7
569.694340229034 -525.79402923584 2497.99990653992 11 14 7
579.690277576447 -528.713226318359 2512.00008392334 11 14 7
586.259126663208 -528.475224971771 2510.99991798401 13 16 9
594.947755336761 -530.1313996315 2519.00005340576 12 15 8
624.223649501801 -549.885511398315 2612.99991607666 13 15 10
635.88809967041 -553.855419158936 2631.99996948242 14 16 11
646.188974380493 -556.562483310699 2644.99998092651 8 10 5
658.041715621948 -560.531914234161 2664.00003433228 9 11 6
667.249917984009 -562.186658382416 2671.99993133545 8 10 5
673.219382762909 -561.106383800507 2667.00005531311 8 10 7
675.844550132751 -557.291507720947 2648.9999294281 8 10 7
681.465744972229 -556.001603603363 2642.99988746643 8 10 7
685.230433940887 -553.239643573761 2630.00011444092 9 11 8
692.873120307922 -553.633332252502 2631.99996948242 8 10 5
703.983545303345 -556.761562824249 2647.0000743866 7 9 4
708.18954706192 -554.421305656433 2635.99991798401 8 10 5
709.893584251404 -550.188660621643 2615.9999370575 9 11 6
