ply
format ascii 1.0
comment KinectMotionCapture
element vertex 784
property float x
property float y
property float z
property uchar red
property uchar green
property uchar blue
end_header
-600.732505321503 -205.492377281189 2604.00009155273 12 15 6
-590.693593025208 -204.481989145279 2591.00008010864 12 15 6
-578.836023807526 -205.302298069 2601.0000705719 16 19 10
-567.808747291565 -203.896895051003 2582.99994468689 17 20 11
-563.82554769516 -205.01746237278 2596.99988365173 17 20 11
-558.907568454742 -205.822378396988 2607.00011253357 17 20 11
-551.182270050049 -205.600902438164 2604.00009155273 15 18 9
-562.486171722412 -212.56485581398 2691.99991226196 17 20 11
-875.799417495728 -219.081670045853 2690.00005722046 15 17 6
-870.775759220123 -219.665214419365 2697.00002670288 19 20 12
-865.07374048233 -220.086082816124 2701.99990272522 17 20 13
-845.376670360565 -216.923087835312 2663.00010681152 16 19 12
-831.241250038147 -215.144738554955 2641.00003242493 16 19 12
-836.259067058563 -218.335941433907 2680.0000667572 14 17 10
-837.662696838379 -220.631510019302 2707.99994468689 12 15 8
-828.795969486237 -220.238745212555 2703.00006866455 12 15 8
-812.965869903564 -217.971935868263 2674.99995231628 13 16 9
-797.588348388672 -215.786471962929 2648.00000190735 11 16 9
-785.640060901642 -214.497298002243 2631.99996948242 9 14 7
-778.510510921478 -214.512124657631 2631.99996948242 8 13 6
-775.77668428421 -215.749680995941 2647.0000743866 10 13 6
-770.637989044189 -216.335415840149 2654.00004386902 9 12 5
-739.859223365784 -209.666207432747 2572.00002670288 8 11 4
-738.056540489197 -213.202059268951 2615.00000953674 12 15 8
-734.882891178131 -214.358985424042 2628.99994850159 16 19 12
-716.407656669617 -211.031377315521 2588.00005912781 15 18 11
-703.08780670166 -209.171190857887 2565.00005722046 14 17 10
-693.691492080688 -208.452567458153 2555.99999427795 12 15 8
-701.539158821106 -212.953805923462 2611.00006103516 10 13 6
-678.2346367836 -207.994058728218 2549.99995231628 9 12 5
-678.163886070251 -210.13043820858 2575.99997520447 11 14 5
-665.184378623962 -208.269819617271 2552.99997329712 12 15 6
-659.032583236694 -208.530202507973 2555.99999427795 12 15 6
-652.863442897797 -208.790674805641 2559.00001525879 14 17 8
-640.366852283478 -207.011237740517 2536.99994087219 14 17 8
-631.734251976013 -206.455633044243 2529.99997138977 17 20 11
-627.337336540222 -207.287356257439 2539.99996185303 17 20 11
-623.129427433014 -208.200827240944 2551.00011825562 16 19 10
-618.86066198349 -209.114417433739 2562.00003623962 15 18 9
-611.793875694275 -211.513489484787 2591.00008010864 12 15 6
-608.024060726166 -212.672486901283 2605.00001907349 12 15 6
-597.948372364044 -211.627170443535 2592.00000762939 11 14 5
-595.921337604523 -213.439539074898 2614.00008201599 12 15 6
-583.186507225037 -211.41417324543 2588.99998664856 16 19 10
-568.583548069 -208.653509616852 2555.0000667572 17 20 11
-566.849291324615 -213.258758187294 2611.00006103516 16 19 10
-564.680159091949 -215.153440833092 2634.0000629425 16 19 10
-553.283274173737 -213.535711169243 2614.00008201599 16 19 10
-553.276777267456 -216.329216957092 2648.00000190735 17 20 11
-856.577336788177 -221.44903242588 2631.00004196167 25 27 14
-852.681756019592 -222.304224967957 2641.00003242493 19 20 14
-859.297037124634 -225.937649607658 2684.00001525879 17 20 13
-855.203628540039 -226.793631911278 2694.00000572205 17 20 13
-833.430409431458 -222.935289144516 2648.00000190735 16 19 12
-835.308492183685 -225.391298532486 2677.00004577637 14 17 10
-837.957262992859 -228.100419044495 2709.00011062622 12 15 8
-826.94137096405 -227.104976773262 2697.00002670288 12 15 8
-816.597878932953 -226.278007030487 2687.00003623962 11 16 9
-801.187813282013 -224.019378423691 2660.00008583069 11 16 9
-791.893422603607 -223.445057868958 2653.00011634827 8 13 6
-787.368834018707 -224.218472838402 2661.99994087219 8 13 6
-791.880249977112 -227.603420615196 2701.99990272522 9 12 5
-764.524936676025 -221.806704998016 2632.99989700317 9 12 5
-755.665063858032 -221.316874027252 2627.00009346008 8 11 4
-752.251029014587 -222.427889704704 2640.00010490417 10 13 6
-741.427779197693 -221.348434686661 2627.00009346008 13 16 9
-725.083827972412 -218.583613634109 2594.00010108948 16 19 12
-705.31952381134 -214.722990989685 2548.00009727478 15 18 11
-700.057089328766 -215.244263410568 2553.99990081787 12 15 8
-696.418166160584 -218.478858470917 2592.00000762939 10 13 6
-688.325703144073 -218.157842755318 2588.00005912781 10 13 6
-667.091250419617 -213.62167596817 2533.99991989136 11 14 5
-671.94277048111 -217.431485652924 2578.9999961853 12 15 6
-669.329822063446 -218.881040811539 2595.99995613098 13 16 7
-646.214425563812 -213.58522772789 2532.99999237061 14 17 8
-635.302901268005 -212.251991033554 2516.99995994568 15 18 9
-627.223968505859 -211.84629201889 2512.00008392334 17 20 11
-624.851644039154 -213.380366563797 2529.99997138977 17 20 11
-621.159255504608 -214.492931962013 2542.99998283386 15 18 9
-610.454976558685 -215.62197804451 2555.99999427795 13 16 7
-610.597014427185 -218.169197440147 2585.99996566772 13 16 7
-604.506611824036 -218.523159623146 2589.99991416931 12 15 6
-598.624229431152 -218.961536884308 2595.00002861023 11 14 5
-587.926030158997 -217.627853155136 2578.9999961853 12 15 6
-578.440070152283 -216.715931892395 2568.00007820129 17 20 11
-576.801300048828 -218.757748603821 2592.00000762939 17 20 11
-569.095969200134 -218.520924448967 2588.99998664856 17 20 11
-568.569898605347 -221.069559454918 2618.99995803833 17 20 11
-558.018207550049 -219.735354185104 2602.9999256134 17 20 11
-552.420437335968 -220.34265100956 2609.99989509583 17 20 11
-546.156704425812 -220.696702599525 2614.00008201599 18 21 12
-871.393620967865 -234.544217586517 2698.99988174438 19 20 12
-852.967083454132 -233.530297875404 2687.00003623962 17 18 12
-850.411653518677 -234.848767518997 2701.99990272522 15 18 11
-841.846287250519 -234.516113996506 2697.99995422363 14 17 10
-829.899907112122 -233.227372169495 2683.00008773804 12 15 8
-819.874107837677 -232.460245490074 2674.00002479553 12 15 8
-810.200572013855 -231.780141592026 2665.99988937378 10 15 8
-805.389106273651 -232.491239905357 2674.00002479553 9 14 7
-796.355128288269 -231.985285878181 2667.99998283386 9 14 7
-797.11377620697 -234.348982572556 2694.9999332428 8 13 6
-796.260237693787 -236.27832531929 2717.00000762939 8 11 4
-782.801628112793 -234.468415379524 2696.00009918213 8 11 4
-770.031452178955 -232.832342386246 2677.00004577637 8 11 4
-754.229485988617 -230.239361524582 2647.0000743866 10 13 6
-735.767185688019 -226.776272058487 2607.00011253357 13 16 9
-713.048577308655 -221.920862793922 2551.00011825562 15 18 11
-706.964373588562 -222.197830677032 2553.99990081787 13 16 9
-700.863420963287 -222.474977374077 2556.99992179871 9 12 5
-687.804222106934 -222.768515348434 2559.99994277954 11 14 7
-678.734719753265 -222.088724374771 2552.00004577637 12 15 8
-673.919677734375 -222.801372408867 2559.99994277954 12 15 6
-666.194438934326 -222.556754946709 2556.99992179871 13 16 7
-661.57853603363 -223.356679081917 2565.99998474121 14 17 8
-642.881751060486 -219.368994235992 2519.99998092651 15 18 9
-639.325201511383 -220.51714360714 2532.99999237061 16 19 10
-629.454970359802 -219.488859176636 2520.99990844727 16 19 10
-632.49146938324 -222.988158464432 2561.00010871887 16 19 10
-619.921624660492 -221.002131700516 2538.00010681152 14 17 8
-610.857248306274 -220.234960317612 2529.00004386902 13 16 7
-607.094883918762 -221.383675932884 2542.00005531311 13 16 7
-604.913711547852 -223.142266273499 2562.00003623962 14 17 8
-604.723334312439 -225.685030221939 2591.00008010864 13 16 7
-597.454011440277 -225.614845752716 2589.99991416931 12 15 6
-588.13738822937 -224.760606884956 2579.99992370605 13 16 7
-580.901145935059 -224.690333008766 2578.9999961853 17 20 11
-580.567538738251 -227.321043610573 2608.99996757507 18 21 12
-573.915064334869 -227.512255311012 2611.00006103516 18 21 12
-564.862668514252 -226.744934916496 2601.99999809265 17 20 11
-561.217188835144 -228.15614938736 2618.00003051758 17 20 11
-553.462147712708 -227.911546826363 2615.00000953674 20 23 14
-540.916919708252 -225.662171840668 2588.99998664856 19 22 13
-879.127740859985 -244.052842259407 2723.00004959106 19 19 9
-868.872582912445 -243.261009454727 2713.99998664856 16 17 11
-854.856789112091 -241.393685340881 2693.00007820129 16 17 11
-842.843055725098 -240.064173936844 2677.99997329712 15 18 11
-840.894997119904 -241.603463888168 2694.9999332428 13 16 9
-826.172709465027 -239.467307925224 2671.0000038147 12 15 8
-815.566122531891 -238.496631383896 2660.00008583069 12 15 8
-809.881031513214 -238.960683345795 2664.99996185303 9 14 7
-797.54239320755 -237.452208995819 2648.00000190735 9 14 7
-804.994940757751 -241.862401366234 2697.00002670288 8 13 6
-799.16775226593 -242.327272891998 2701.99990272522 8 13 6
-789.503276348114 -241.626366972923 2694.00000572205 9 12 5
-781.333327293396 -241.374015808105 2690.99998474121 9 12 5
-767.713665962219 -239.417359232903 2668.99991035461 8 11 4
-750.223875045776 -236.204668879509 2632.99989700317 10 13 6
-726.719498634338 -231.017887592316 2575.00004768372 13 16 9
-726.72837972641 -233.277410268784 2599.99990463257 14 17 10
-707.501828670502 -229.346096515656 2555.99999427795 13 16 9
-701.121211051941 -229.542121291161 2558.00008773804 10 13 6
-691.200971603394 -228.571593761444 2546.99993133545 9 12 5
-685.907006263733 -229.12672162056 2552.99997329712 12 15 8
-682.707488536835 -230.400085449219 2566.99991226196 13 16 9
-675.745666027069 -230.416998267174 2566.99991226196 13 16 7
-665.396153926849 -229.267001152039 2553.99990081787 13 16 7
-657.436609268188 -228.924885392189 2549.99995231628 15 18 9
-652.30405330658 -229.570314288139 2556.99992179871 16 19 10
-651.675641536713 -231.832087039948 2582.00001716614 16 19 10
-645.168125629425 -232.028976082802 2584.00011062622 15 18 9
-640.871226787567 -233.034089207649 2595.00002861023 15 18 9
-623.568534851074 -229.279577732086 2552.99997329712 13 16 7
-611.137926578522 -229.852810502052 2559.00001525879 13 16 7
-606.313347816467 -230.678468942642 2568.00007820129 13 16 7
-599.338293075562 -230.695739388466 2568.00007820129 13 16 7
-598.128914833069 -232.959002256393 2592.99993515015 12 15 6
-589.48802947998 -232.347458600998 2585.99996566772 13 16 7
-583.586990833282 -232.814103364944 2591.00008010864 17 20 11
-583.888113498688 -235.796868801117 2624.00007247925 18 21 12
-580.052316188812 -237.162411212921 2638.99993896484 18 21 12
-570.489704608917 -236.191377043724 2628.00002098084 16 19 10
-567.6309466362 -238.006487488747 2648.00000190735 17 20 11
-565.297067165375 -240.09145796299 2671.0000038147 20 23 14
-555.315673351288 -238.940447568893 2657.99999237061 20 23 14
-880.081355571747 -251.752555370331 2726.0000705719 18 18 8
-865.656077861786 -249.735891819 2703.9999961853 15 16 10
-836.113214492798 -243.285790085793 2634.0000629425 15 16 10
-836.533188819885 -245.517805218697 2657.99999237061 15 16 10
-826.526582241058 -244.701907038689 2648.9999294281 12 15 8
-822.445392608643 -245.6414103508 2658.99991989136 10 15 8
-821.682274341583 -247.597455978394 2680.0000667572 10 15 8
-814.119398593903 -247.521266341209 2678.99990081787 9 14 7
-808.067679405212 -247.907266020775 2683.00008773804 8 13 6
-805.276870727539 -249.309927225113 2697.99995422363 8 13 6
-802.404403686523 -250.712990760803 2713.00005912781 8 13 6
-786.555886268616 -248.049959540367 2684.00001525879 10 13 6
-773.767292499542 -246.310964226723 2664.99996185303 9 12 5
-762.519419193268 -245.034039020538 2651.00002288818 8 11 4
-742.229104042053 -240.79903960228 2605.00001907349 9 12 5
-729.807257652283 -239.059552550316 2585.99996566772 12 15 8
-724.475502967834 -239.631235599518 2592.00000762939 13 16 9
-721.601665019989 -241.03519320488 2607.00011253357 12 15 8
-705.763697624207 -238.093629479408 2575.00004768372 10 13 6
-696.340203285217 -237.278580665588 2565.99998474121 10 13 6
-688.84539604187 -237.110823392868 2563.99989128113 12 15 8
-682.158470153809 -237.220585346222 2565.00005722046 13 16 9
-672.043144702911 -236.128032207489 2552.99997329712 13 16 7
-661.471128463745 -234.850406646729 2539.00003433228 14 17 8
-656.646013259888 -235.607728362083 2546.99993133545 15 18 9
-652.796983718872 -236.735284328461 2559.00001525879 16 19 10
-653.424918651581 -239.528313279152 2588.99998664856 17 20 11
-655.636727809906 -242.969498038292 2625.99992752075 14 17 8
-630.23442029953 -236.140221357346 2552.00004577637 14 17 8
-632.832407951355 -239.766791462898 2591.00008010864 11 14 5
-628.696262836456 -240.895181894302 2602.9999256134 11 14 5
-613.269865512848 -237.673804163933 2568.00007820129 12 15 6
-607.240259647369 -238.061755895615 2572.00002670288 13 16 7
-600.721061229706 -238.264620304108 2573.99988174438 13 16 7
-590.268671512604 -236.893758177757 2559.00001525879 12 15 6
-589.470446109772 -239.411026239395 2585.99996566772 13 16 7
-583.118975162506 -239.706575870514 2588.99998664856 18 21 12
-577.417492866516 -240.279912948608 2595.00002861023 18 21 12
-576.517760753632 -242.890521883965 2622.99990653992 18 21 12
-572.425603866577 -244.204953312874 2637.00008392334 16 19 10
-569.327890872955 -245.982587337494 2655.99989891052 16 19 10
-566.76059961319 -248.038306832314 2677.99997329712 19 22 13
-569.713115692139 -252.595216035843 2726.99999809265 19 22 13
-866.921186447144 -257.487088441849 2707.99994468689 13 16 9
-855.46088218689 -256.266593933105 2694.9999332428 17 20 13
-829.593896865845 -250.671833753586 2635.99991798401 10 13 6
-825.26296377182 -251.543492078781 2644.99998092651 15 18 11
-826.759576797485 -254.222452640533 2673.00009727478 12 15 8
-827.797830104828 -256.806910037994 2700.00004768372 12 15 8
-817.749619483948 -255.967557430267 2690.99998474121 12 15 8
-809.255599975586 -255.603909492493 2687.00003623962 11 14 7
-804.066121578217 -256.286859512329 2694.00000572205 11 14 7
-800.908446311951 -257.635980844498 2707.99994468689 11 14 7
-787.710905075073 -255.750596523285 2687.99996376038 10 12 7
-775.201797485352 -254.055351018906 2670.00007629395 10 12 7
-764.803111553192 -253.026127815247 2658.99991989136 9 11 6
-734.587788581848 -247.731849551201 2602.9999256134 13 16 9
-723.060727119446 -246.226444840431 2586.99989318848 12 15 8
-715.218067169189 -245.958387851715 2584.00011062622 12 15 8
-711.776077747345 -247.213393449783 2596.99988365173 12 15 6
-700.936079025269 -245.898380875587 2582.99994468689 13 16 7
-692.589104175568 -245.440095663071 2578.00006866455 13 16 7
-684.00251865387 -244.886621832848 2572.00002670288 13 16 7
-668.340444564819 -241.762161254883 2539.00003433228 14 17 10
-661.193072795868 -241.68461561203 2538.00010681152 13 16 9
-657.659649848938 -242.940351366997 2551.00011825562 17 20 13
-656.60560131073 -245.148718357086 2573.99988174438 18 21 14
-659.2116355896 -248.786181211472 2611.99998855591 18 21 14
-649.876177310944 -247.94727563858 2602.9999256134 15 18 11
-634.661734104156 -244.821950793266 2569.9999332428 12 15 8
-619.625627994537 -241.696238517761 2536.99994087219 10 13 6
-626.262903213501 -247.049570083618 2592.99993515015 12 15 8
-623.759388923645 -248.878285288811 2611.99998855591 14 17 10
-609.819293022156 -246.133327484131 2582.99994468689 13 16 9
-603.970348834991 -246.62809073925 2588.00005912781 10 15 8
-594.633340835571 -245.693325996399 2578.00006866455 12 18 8
-587.628960609436 -245.711520314217 2578.00006866455 14 20 10
-584.001779556274 -247.159451246262 2592.99993515015 16 22 10
-576.286911964417 -246.891707181931 2589.99991416931 18 21 10
-572.983026504517 -248.530566692352 2607.00011253357 18 21 10
-575.446367263794 -252.743780612946 2651.00002288818 18 21 10
-565.880000591278 -251.713484525681 2640.00010490417 19 22 13
-555.949151515961 -250.492304563522 2627.00009346008 20 23 16
-554.652988910675 -253.180623054504 2654.99997138977 21 24 17
-881.987452507019 -267.1999335289 2732.00011253357 15 18 9
-867.865741252899 -265.161871910095 2710.99996566772 11 14 7
-859.888911247253 -264.982312917709 2709.00011062622 13 16 9
-846.572518348694 -263.139992952347 2690.00005722046 13 16 9
-844.590961933136 -264.819443225861 2707.00001716614 14 17 10
-827.052533626556 -261.607676744461 2674.00002479553 12 15 8
-830.540180206299 -265.048772096634 2709.00011062622 12 15 8
-818.948149681091 -263.696104288101 2694.9999332428 12 15 8
-809.238493442535 -262.930512428284 2687.00003623962 11 14 7
-803.750336170197 -263.53508234024 2693.00007820129 11 14 7
-797.341823577881 -263.84624838829 2696.00009918213 11 14 7
-785.349011421204 -262.298107147217 2680.0000667572 10 12 7
-777.506828308105 -262.12015748024 2677.99997329712 10 12 7
-766.223549842834 -260.767757892609 2664.00003433228 9 11 6
-757.294774055481 -260.198414325714 2657.99999237061 10 13 6
-730.05485534668 -253.265649080276 2586.99989318848 13 16 9
-726.396977901459 -254.45830821991 2598.99997711182 12 15 8
-710.494995117188 -251.343041658401 2566.99991226196 12 15 8
-704.906523227692 -251.850515604019 2572.00002670288 13 16 7
-698.747277259827 -252.162277698517 2575.00004768372 13 16 7
-686.392307281494 -250.221699476242 2555.0000667572 13 16 7
-683.718621730804 -251.806795597076 2571.00009918213 14 17 8
-679.641127586365 -252.902418375015 2582.00001716614 14 17 10
-666.124880313873 -250.471919775009 2556.99992179871 14 17 10
-661.766350269318 -251.469790935516 2566.99991226196 15 18 11
-660.923838615417 -253.839492797852 2591.00008010864 18 21 14
-654.145658016205 -253.95604968071 2592.00000762939 17 20 13
-645.613431930542 -253.38676571846 2585.99996566772 14 17 10
-630.841970443726 -253.130108118057 2582.99994468689 11 14 7
-626.48594379425 -254.226863384247 2594.00010108948 12 15 8
-621.83028459549 -255.225747823715 2604.00009155273 14 17 10
-610.509037971497 -253.480195999146 2585.99996566772 13 16 9
-603.485107421875 -253.498941659927 2585.99996566772 11 16 9
-593.461632728577 -252.243161201477 2572.99995422363 13 19 9
-588.750183582306 -253.242194652557 2582.99994468689 15 21 11
-583.30762386322 -253.947168588638 2589.99991416931 17 23 11
-575.823545455933 -253.769785165787 2588.00005912781 19 22 11
-568.568885326386 -253.690302371979 2586.99989318848 17 20 9
-572.171628475189 -258.51434469223 2635.99991798401 18 21 10
-574.649393558502 -262.946724891663 2680.99999427795 18 21 12
-557.623624801636 -258.45393538475 2634.99999046326 20 23 16
-544.398188591003 -255.628019571304 2605.99994659424 21 24 17
-869.450330734253 -273.053735494614 2716.00008010864 16 19 12
-859.773755073547 -274.695605039597 2732.00011253357 17 20 13
-831.158339977264 -267.874926328659 2664.00003433228 9 12 5
-820.84995508194 -266.88614487648 2654.00004386902 11 14 7
-812.853336334229 -269.03223991394 2674.99995231628 11 14 7
-809.522151947021 -270.35728096962 2687.99996376038 11 14 7
-801.941931247711 -270.274460315704 2687.00003623962 11 14 7
-797.915458679199 -271.398901939392 2697.99995422363 10 13 6
-785.917043685913 -269.807517528534 2681.99992179871 10 12 7
-775.746643543243 -268.819659948349 2671.99993133545 10 12 7
-765.630066394806 -267.831861972809 2661.99994087219 9 11 6
-740.752100944519 -261.611849069595 2599.99990463257 10 13 6
-732.012391090393 -261.026203632355 2594.00010108948 13 16 9
-724.143087863922 -260.742515325546 2591.00008010864 13 16 9
-715.182244777679 -260.05631685257 2584.00011062622 13 16 9
-703.517973423004 -258.363634347916 2566.99991226196 14 17 8
-694.930195808411 -257.778078317642 2561.00010871887 14 17 8
-693.358719348907 -259.809702634811 2581.00008964539 14 17 8
-673.860847949982 -255.096852779388 2533.99991989136 14 17 8
-672.779023647308 -257.33008980751 2555.99999427795 15 18 11
-674.442648887634 -260.67128777504 2588.99998664856 16 19 12
-659.42770242691 -257.568746805191 2558.00008773804 17 20 13
-653.762876987457 -258.090972900391 2562.99996376038 16 19 12
-650.088965892792 -259.418994188309 2575.99997520447 14 17 10
-645.594596862793 -260.445058345795 2585.99996566772 10 13 6
-640.551149845123 -261.269897222519 2594.00010108948 11 14 7
-633.021116256714 -261.087626218796 2592.00000762939 13 16 9
-627.915978431702 -261.912673711777 2599.99990463257 14 17 10
-618.707001209259 -261.025220155716 2591.00008010864 13 16 9
-601.132571697235 -259.552180767059 2575.99997520447 12 17 10
-597.133100032806 -260.881185531616 2588.99998664856 14 20 10
-592.37813949585 -261.908084154129 2598.99997711182 16 22 12
-585.315644741058 -261.927276849747 2598.99997711182 17 23 11
-576.249659061432 -261.039346456528 2589.99991416931 19 22 11
-574.044346809387 -263.275891542435 2611.99998855591 19 22 11
-566.075026988983 -262.891858816147 2608.00004005432 16 19 8
-568.414270877838 -267.346560955048 2651.99995040894 17 20 11
-569.031774997711 -271.096169948578 2688.99989128113 19 22 13
-555.242002010345 -267.990201711655 2657.99999237061 22 25 18
-869.43382024765 -280.456155538559 2716.00008010864 16 19 12
-881.122231483459 -286.668926477432 2776.00002288818 12 15 8
-873.603343963623 -286.686271429062 2776.00002288818 14 17 10
-842.997074127197 -279.061198234558 2701.99990272522 8 11 4
-833.822727203369 -278.458893299103 2696.00009918213 11 14 7
-826.213419437408 -278.373152017593 2694.9999332428 11 14 7
-815.874516963959 -277.357935905457 2684.99994277954 11 14 7
-808.299779891968 -277.272522449493 2684.00001525879 11 14 7
-807.295858860016 -279.460161924362 2704.99992370605 10 13 6
-800.263047218323 -279.581904411316 2706.00008964539 10 13 6
-787.656784057617 -277.740627527237 2687.99996376038 10 12 7
-773.115575313568 -275.175988674164 2663.00010681152 10 12 7
-748.64274263382 -268.994212150574 2602.9999256134 9 12 5
-739.879071712494 -268.392503261566 2596.99988365173 10 13 6
-724.374949932098 -265.310347080231 2566.99991226196 16 19 12
-723.286211490631 -267.499357461929 2588.00005912781 14 17 10
-717.9314494133 -268.138229846954 2594.00010108948 14 17 10
-704.047620296478 -265.572637319565 2569.00000572205 14 17 8
-698.981761932373 -266.315072774887 2575.99997520447 14 17 8
-686.624050140381 -264.266133308411 2555.99999427795 14 17 8
-653.282880783081 -256.651937961578 2482.00011253357 16 19 12
-656.970322132111 -260.806888341904 2522.0000743866 17 20 13
-658.377587795258 -264.135092496872 2553.99990081787 17 20 13
-653.743863105774 -265.085101127625 2562.99996376038 15 18 11
-648.303329944611 -265.724897384644 2569.00000572205 13 16 9
-648.571133613586 -268.744111061096 2598.00004959106 10 13 6
-639.297127723694 -267.832607030869 2588.99998664856 11 14 7
-631.048083305359 -267.334878444672 2584.00011062622 14 17 10
-620.651483535767 -265.905857086182 2569.9999332428 14 17 10
-614.867091178894 -266.442686319351 2575.00004768372 12 15 8
-609.76254940033 -267.289966344833 2582.99994468689 11 14 7
-603.213489055634 -267.516493797302 2585.00003814697 12 17 10
-595.499336719513 -267.225563526154 2582.00001716614 14 20 10
-590.079545974731 -267.969578504562 2588.99998664856 15 21 11
-585.746705532074 -269.231259822845 2601.0000705719 16 22 10
-578.677713871002 -269.250869750977 2601.0000705719 18 21 10
-568.970382213593 -268.028140068054 2588.99998664856 16 19 8
-565.187513828278 -269.600570201874 2604.00009155273 16 19 8
-563.67951631546 -272.312134504318 2630.00011444092 17 20 11
-558.854758739471 -273.470789194107 2641.00003242493 22 25 18
-561.071336269379 -278.150469064713 2686.00010871887 23 26 19
-881.901443004608 -291.991710662842 2755.00011444092 10 13 6
-859.204113483429 -286.921352148056 2707.00001716614 15 18 11
-849.039673805237 -285.984605550766 2697.99995422363 17 20 13
-844.22767162323 -286.850094795227 2706.00008964539 11 14 7
-835.660755634308 -286.443769931793 2701.99990272522 11 14 7
-829.874336719513 -286.991775035858 2707.00001716614 11 14 7
-820.110380649567 -286.161750555038 2698.99988174438 10 13 6
-813.702166080475 -286.498218774796 2701.99990272522 10 13 6
-814.738273620605 -289.48587179184 2730.00001907349 10 13 6
-804.680228233337 -288.550406694412 2720.99995613098 10 13 6
-793.498396873474 -287.190794944763 2707.99994468689 10 12 7
-773.967623710632 -282.755464315414 2665.99988937378 10 12 7
-752.36302614212 -277.471125125885 2615.9999370575 9 11 6
-735.017418861389 -273.671299219131 2579.99992370605 10 13 6
-728.024780750275 -273.690015077591 2579.99992370605 13 16 9
-723.546862602234 -274.663686752319 2588.99998664856 16 19 12
-720.956802368164 -276.380270719528 2605.00001907349 16 19 12
-712.524235248566 -275.86904168129 2599.99990463257 15 18 9
-701.13343000412 -274.190634489059 2584.00011062622 15 18 9
-699.767708778381 -276.438444852829 2605.00001907349 14 17 8
-662.421584129334 -269.916743040085 2542.99998283386 18 21 14
-660.162746906281 -271.846771240234 2561.00010871887 14 17 10
-659.845948219299 -274.62637424469 2586.99989318848 12 15 8
-648.031532764435 -272.629112005234 2568.00007820129 11 14 7
-645.30611038208 -274.453729391098 2585.00003814697 11 14 7
-645.203530788422 -277.446627616882 2612.99991607666 13 16 9
-627.853631973267 -273.00688624382 2571.00009918213 15 18 11
-620.390474796295 -272.814363241196 2569.00000572205 14 17 10
-612.937152385712 -272.621750831604 2566.99991226196 13 16 9
-606.910109519959 -273.066431283951 2571.00009918213 14 17 10
-601.093590259552 -273.617386817932 2575.99997520447 13 18 11
-595.710217952728 -274.38086271286 2582.99994468689 15 21 11
-590.287685394287 -275.144398212433 2589.99991416931 16 22 12
-587.078034877777 -276.970505714417 2607.00011253357 17 23 11
-579.547762870789 -276.778072118759 2605.00001907349 18 21 10
-570.928573608398 -276.054292917252 2598.00004959106 18 21 10
-559.741795063019 -274.055182933807 2578.9999961853 17 20 9
-564.731180667877 -280.026108026505 2634.99999046326 18 21 12
-566.02931022644 -284.297406673431 2674.99995231628 23 26 19
-558.753430843353 -284.3177318573 2674.99995231628 22 25 18
-860.757231712341 -292.32469201088 2688.99989128113 11 14 7
-856.647610664368 -293.429017066956 2698.99988174438 18 21 14
-849.336922168732 -293.446511030197 2698.99988174438 18 21 14
-844.209969043732 -294.225424528122 2706.00008964539 12 15 8
-831.931591033936 -292.503654956818 2690.00005722046 11 14 7
-827.710270881653 -293.609261512756 2700.00004768372 11 14 7
-820.092082023621 -293.518960475922 2698.99988174438 10 13 6
-820.910930633545 -296.474128961563 2726.0000705719 10 13 6
-815.913081169128 -297.363340854645 2733.99996757507 10 13 6
-811.167001724243 -298.361629247665 2743.00003051758 10 13 6
-789.669930934906 -293.159782886505 2694.9999332428 10 12 7
-774.529099464417 -290.24201631546 2667.99998283386 10 12 7
-762.409925460815 -288.411945104599 2651.00002288818 9 11 6
-742.120683193207 -283.426553010941 2605.00001907349 10 13 6
-734.213709831238 -283.119380474091 2601.99999809265 13 16 9
-727.999091148376 -283.465176820755 2605.00001907349 16 19 12
-724.535167217255 -284.899443387985 2618.00003051758 16 19 12
-714.697062969208 -283.830881118774 2608.00004005432 15 18 9
-707.083106040955 -283.632963895798 2605.99994659424 15 18 9
-697.599053382874 -282.673239707947 2596.99988365173 14 17 8
-695.342421531677 -284.652531147003 2615.00000953674 14 17 8
-680.354237556458 -281.406849622726 2585.00003814697 18 21 14
-667.090713977814 -278.813987970352 2561.00010871887 18 21 14
-672.773599624634 -284.168809652328 2609.99989509583 16 19 12
-670.538306236267 -286.257982254028 2628.99994850159 11 14 7
-653.058469295502 -281.81391954422 2588.00005912781 11 14 7
-633.553504943848 -276.3891518116 2538.00010681152 12 15 8
-639.257311820984 -281.963407993317 2588.99998664856 14 17 10
-634.915292263031 -283.181816339493 2599.99990463257 15 18 11
-624.475657939911 -281.677335500717 2585.99996566772 14 17 10
-615.30476808548 -280.717313289642 2576.99990272522 14 17 10
-608.542382717133 -280.846565961838 2578.00006866455 15 18 11
-602.006852626801 -281.084775924683 2579.99992370605 14 19 12
-597.765624523163 -282.412588596344 2592.00000762939 16 22 12
-591.407060623169 -282.75990486145 2595.00002861023 17 23 13
-583.004355430603 -282.1264564991 2588.99998664856 17 23 11
-577.970266342163 -283.127635717392 2598.00004959106 19 22 11
-579.698324203491 -287.507474422455 2638.00001144409 18 21 10
-572.743594646454 -287.637084722519 2638.99993896484 18 21 10
-555.281162261963 -282.425612211227 2591.00008010864 18 21 12
-558.603048324585 -287.787288427353 2640.00010490417 23 26 19
-563.745856285095 -294.239819049835 2698.99988174438 22 25 18
-874.18407201767 -304.332703351974 2730.99994659424 13 16 9
-850.917160511017 -298.778265714645 2680.99999427795 17 20 13
-864.109098911285 -306.040167808533 2746.00005149841 16 19 12
-849.807262420654 -303.606510162354 2723.99997711182 16 19 12
-835.62445640564 -301.17279291153 2701.99990272522 12 15 8
-823.093414306641 -299.296379089355 2684.99994277954 12 15 8
-815.819561481476 -299.315065145493 2684.99994277954 10 13 6
-815.170288085938 -301.786601543427 2707.00001716614 9 12 5
-815.893590450287 -304.816156625748 2733.99996757507 9 12 5
-796.952962875366 -300.487399101257 2694.9999332428 9 12 5
-789.94357585907 -300.618529319763 2696.00009918213 9 11 6
-777.702867984772 -298.742592334747 2678.99990081787 8 10 5
-764.978647232056 -296.643555164337 2660.00008583069 8 10 5
-752.926588058472 -294.767439365387 2642.99988746643 11 14 7
-737.862288951874 -291.664361953735 2615.00000953674 13 16 9
-728.538393974304 -290.791869163513 2607.00011253357 15 18 11
-721.747756004334 -290.923297405243 2608.00004005432 15 18 11
-713.581025600433 -290.497124195099 2604.00009155273 14 17 8
-707.60577917099 -290.963500738144 2608.00004005432 14 17 8
-697.847604751587 -289.868056774139 2598.00004959106 15 18 9
-688.142955303192 -288.772523403168 2588.00005912781 16 19 10
-679.018139839172 -287.900120019913 2579.99992370605 16 19 12
-672.540605068207 -288.143664598465 2582.00001716614 15 18 11
-676.104128360748 -292.739897966385 2622.99990653992 13 16 9
-674.598276615143 -295.216172933578 2644.99998092651 12 15 8
-655.056655406952 -289.76783156395 2595.99995613098 12 15 8
-644.017398357391 -288.002461194992 2579.99992370605 15 18 11
-638.495981693268 -288.69292140007 2585.99996566772 15 18 11
-638.801693916321 -292.062968015671 2615.9999370575 14 17 10
-627.835690975189 -290.297508239746 2599.99990463257 13 16 9
-615.045487880707 -287.638515233994 2575.99997520447 14 17 10
-612.770676612854 -289.892613887787 2595.99995613098 14 17 10
-606.886208057404 -290.471851825714 2601.0000705719 16 21 14
-598.206281661987 -289.710968732834 2594.00010108948 17 23 13
-589.10745382309 -288.726568222046 2585.00003814697 17 23 13
-579.155802726746 -287.295162677765 2572.00002670288 16 22 10
-575.280070304871 -288.879692554474 2585.99996566772 18 21 10
-572.86548614502 -291.246473789215 2607.00011253357 17 20 9
-565.778136253357 -291.267275810242 2607.00011253357 19 22 11
-556.5465092659 -290.170669555664 2596.99988365173 18 21 12
-559.640169143677 -295.554846525192 2644.99998092651 24 27 20
-559.338569641113 -299.263507127762 2677.99997329712 24 27 20
-874.166429042816 -311.774462461472 2730.99994659424 17 20 13
-864.229500293732 -310.8791410923 2723.00004959106 13 16 9
-860.943973064423 -312.381625175476 2736.00006103516 17 20 13
-859.459638595581 -314.569652080536 2755.00011444092 16 19 12
-843.028008937836 -311.277210712433 2726.0000705719 12 15 8
-821.541965007782 -306.043237447739 2680.0000667572 12 15 8
-812.458395957947 -305.377006530762 2674.00002479553 10 13 6
-804.009258747101 -304.939299821854 2670.00007629395 9 12 5
-796.342015266418 -307.605355978012 2693.00007820129 9 12 5
-784.356653690338 -305.797517299652 2677.00004577637 8 10 5
-775.070309638977 -305.017858743668 2670.00007629395 8 10 5
-766.396522521973 -304.466724395752 2664.99996185303 8 10 5
-738.406717777252 -299.022853374481 2617.00010299683 13 16 9
-723.208904266357 -295.729249715805 2588.00005912781 14 17 10
-715.916156768799 -295.635014772415 2586.99989318848 14 17 10
-709.450423717499 -295.883864164352 2588.99998664856 14 17 8
-704.872250556946 -296.932876110077 2598.00004959106 15 18 9
-696.48414850235 -296.381890773773 2592.99993515015 17 20 11
-681.475222110748 -292.973279953003 2562.99996376038 18 21 12
-675.839483737946 -293.565362691879 2568.00007820129 14 17 10
-672.780454158783 -295.30081152916 2582.99994468689 13 16 9
-677.114129066467 -300.352275371552 2627.00009346008 11 14 7
-679.677844047546 -304.718464612961 2664.99996185303 11 14 7
-661.848545074463 -299.937397241592 2622.99990653992 12 15 8
-647.740840911865 -296.756744384766 2595.00002861023 16 19 12
-642.42547750473 -297.578394412994 2601.99999809265 15 18 11
-637.803852558136 -298.743367195129 2611.99998855591 13 16 9
-632.16108083725 -299.450993537903 2618.00003051758 13 16 9
-612.875878810883 -293.638527393341 2566.99991226196 15 18 11
-613.693714141846 -297.434657812119 2599.99990463257 15 18 11
-608.498334884644 -298.371195793152 2608.00004005432 17 22 15
-597.262740135193 -296.333074569702 2589.99991416931 16 22 12
-586.807608604431 -294.637948274612 2575.00004768372 16 22 12
-583.638370037079 -296.604305505753 2592.00000762939 15 21 9
-579.93072271347 -298.342049121857 2607.00011253357 18 21 10
-574.60230588913 -299.278855323792 2615.00000953674 18 21 10
-561.850845813751 -296.32431268692 2588.99998664856 17 20 9
-564.240336418152 -301.381707191467 2632.99989700317 21 24 15
-568.928301334381 -307.813376188278 2688.99989128113 20 23 14
-877.673268318176 -317.795306444168 2719.00010108948 8 10 5
-871.267676353455 -318.163812160492 2721.99988365173 19 22 15
-860.085487365723 -316.779345273972 2710.00003814697 13 16 9
-849.5973944664 -315.62876701355 2700.00004768372 14 17 10
-843.218922615051 -315.998107194901 2703.00006866455 12 15 8
-836.514711380005 -316.250830888748 2704.99992370605 12 15 8
-829.799473285675 -316.50385260582 2707.00001716614 12 15 8
-812.743008136749 -312.781602144241 2674.99995231628 10 13 6
-806.097745895386 -313.034981489182 2677.00004577637 9 12 5
-799.44121837616 -313.288539648056 2678.99990081787 9 12 5
-797.800481319427 -315.530508756638 2697.99995422363 9 12 5
-785.801649093628 -313.679456710815 2681.99992179871 9 11 6
-774.17927980423 -311.94531917572 2667.00005531311 8 10 5
-766.951322555542 -311.965763568878 2667.00005531311 8 10 5
-752.031743526459 -308.827936649323 2640.00010490417 11 14 7
-724.843204021454 -300.542265176773 2569.00000572205 14 17 10
-721.232652664185 -301.966428756714 2581.00008964539 14 17 10
-717.556238174438 -303.390860557556 2592.99993515015 14 17 10
-712.718069553375 -304.347574710846 2601.0000705719 15 18 9
-703.766405582428 -303.549259901047 2594.00010108948 16 19 10
-690.823018550873 -300.995528697968 2572.00002670288 18 21 12
-682.518124580383 -300.431102514267 2566.99991226196 18 21 12
-674.239754676819 -299.866765737534 2562.00003623962 12 15 8
-670.415461063385 -301.292330026627 2573.99988174438 11 14 7
-687.144637107849 -312.082946300507 2665.99988937378 10 13 6
-665.629386901855 -305.549055337906 2609.99989509583 11 14 7
-654.257535934448 -303.58025431633 2592.99993515015 12 15 8
-650.21550655365 -305.006742477417 2605.00001907349 16 19 12
-643.885433673859 -305.379599332809 2608.00004005432 15 18 11
-630.457103252411 -302.356630563736 2582.00001716614 13 16 9
-617.893397808075 -299.684554338455 2559.00001525879 13 16 9
-614.5259141922 -301.462650299072 2573.99988174438 15 18 11
-615.088403224945 -305.232137441635 2605.99994659424 16 19 12
-608.243525028229 -305.371016263962 2607.00011253357 16 21 14
-597.472012042999 -303.518444299698 2591.00008010864 14 20 10
-586.558520793915 -301.548391580582 2573.99988174438 13 19 9
-590.597033500671 -307.310700416565 2622.99990653992 14 20 8
-587.694704532623 -309.558629989624 2641.99995994568 17 20 9
-578.096449375153 -308.291643857956 2631.00004196167 17 20 9
-573.330998420715 -309.602469205856 2641.99995994568 14 17 6
-569.576025009155 -311.499387025833 2657.99999237061 21 24 15
-567.425489425659 -314.334124326706 2681.99992179871 17 20 13
-856.351435184479 -317.309468984604 2653.00011634827 16 19 12
-864.527881145477 -323.06843996048 2700.99997520447 10 13 6
-857.52809047699 -323.20636510849 2701.99990272522 15 18 11
-842.341661453247 -320.234388113022 2677.00004577637 11 14 7
-840.080499649048 -322.167247533798 2693.00007820129 13 16 9
-842.371106147766 -325.895130634308 2723.99997711182 12 15 8
-828.860402107239 -323.521822690964 2703.9999961853 12 15 8
-814.850270748138 -320.909172296524 2681.99992179871 10 13 6
-808.185815811157 -321.168303489685 2684.00001525879 9 12 5
-808.970212936401 -324.419349431992 2710.99996566772 9 12 5
-800.737082958221 -324.080795049667 2707.99994468689 9 12 5
-784.609258174896 -320.510983467102 2677.99997329712 12 14 9
-774.158835411072 -319.215059280396 2667.00005531311 10 12 7
-765.492856502533 -318.637251853943 2661.99994087219 10 12 7
-744.6049451828 -312.912255525589 2614.00008201599 12 15 8
-732.722938060761 -310.897797346115 2596.99988365173 14 17 10
-730.433344841003 -312.953799962997 2614.00008201599 15 18 11
-726.66722536087 -314.411520957947 2625.99992752075 15 18 11
-717.629373073578 -313.594579696655 2618.99995803833 16 19 10
-704.830586910248 -311.101227998734 2598.00004959106 16 19 10
-692.950665950775 -308.966845273972 2579.99992370605 15 18 9
-681.43367767334 -306.952118873596 2562.99996376038 15 18 9
-673.16609621048 -306.374460458755 2558.00008773804 11 14 7
-665.185272693634 -305.916547775269 2553.99990081787 11 14 7
-672.689378261566 -312.64591217041 2609.99989509583 10 13 6
-658.212065696716 -309.193670749664 2581.00008964539 12 15 8
-654.23595905304 -310.653001070023 2592.99993515015 13 16 9
-642.955541610718 -308.637976646423 2575.99997520447 14 17 10
-632.507085800171 -306.982189416885 2562.00003623962 14 17 10
-630.191385746002 -309.280604124069 2581.00008964539 14 17 10
-614.491641521454 -304.988265037537 2545.00007629395 15 18 11
-611.878216266632 -307.167023420334 2562.99996376038 16 19 12
-617.662787437439 -313.660949468613 2617.00010299683 16 19 12
-609.1548204422 -312.963932752609 2611.00006103516 15 20 13
-596.06671333313 -309.869378805161 2585.00003814697 15 21 11
-597.702503204346 -314.446717500687 2622.99990653992 15 21 11
-582.919836044312 -310.392737388611 2588.99998664856 15 21 9
-588.562369346619 -317.2487616539 2645.99990844727 18 21 10
-579.832196235657 -316.431790590286 2638.99993896484 18 21 10
-574.610948562622 -317.533254623413 2648.00000190735 12 15 4
-569.768190383911 -318.874657154083 2658.99991989136 19 22 13
-562.748908996582 -319.01690363884 2660.00008583069 21 24 17
-561.570465564728 -322.517365217209 2688.99989128113 22 25 18
-871.504366397858 -330.286681652069 2700.00004768372 8 13 7
-855.227470397949 -326.879501342773 2671.99993133545 10 13 6
-849.892795085907 -327.631950378418 2677.99997329712 15 18 11
-845.154821872711 -328.629463911057 2686.00010871887 10 13 6
-842.868745326996 -330.606162548065 2701.99990272522 17 20 13
-841.114521026611 -332.828164100647 2720.00002861023 12 15 8
-829.760253429413 -331.257194280624 2707.00001716614 12 15 8
-807.235062122345 -325.158298015594 2657.00006484985 10 13 6
-812.682271003723 -330.318361520767 2698.99988174438 9 12 5
-807.457745075226 -331.195592880249 2706.00008964539 9 12 5
-801.307737827301 -331.705898046494 2710.00003814697 9 12 5
-786.053478717804 -328.421890735626 2683.00008773804 12 14 9
-774.428248405457 -326.606601476669 2667.99998283386 10 12 7
-758.283078670502 -322.832524776459 2637.00008392334 10 12 7
-745.438754558563 -320.404917001724 2617.00010299683 12 15 8
-740.037620067596 -321.160495281219 2622.99990653992 13 16 9
-734.0447306633 -321.671575307846 2627.00009346008 14 17 10
-727.199375629425 -321.815431118011 2628.00002098084 15 18 11
-717.333912849426 -320.612370967865 2618.00003051758 16 19 10
-705.623090267181 -318.551927804947 2601.0000705719 16 19 10
-696.420967578888 -317.593693733215 2592.99993515015 14 17 8
-676.626801490784 -311.735868453979 2545.00007629395 14 17 8
-674.197256565094 -313.839673995972 2562.00003623962 13 16 9
-670.63307762146 -315.453886985779 2575.00004768372 12 15 8
-658.492565155029 -313.025385141373 2555.0000667572 11 14 7
-670.175969600677 -321.991264820099 2628.00002098084 12 15 8
-650.429546833038 -315.887093544006 2578.00006866455 14 17 10
-629.456043243408 -309.046864509583 2522.0000743866 13 16 9
-631.63423538208 -317.05629825592 2586.99989318848 16 19 12
-616.401433944702 -312.911331653595 2552.99997329712 16 19 12
-615.675926208496 -316.120237112045 2578.9999961853 16 19 12
-611.976146697998 -317.858636379242 2592.99993515015 16 19 12
-606.099665164948 -318.49393248558 2598.00004959106 16 21 14
-593.738853931427 -315.696507692337 2575.00004768372 16 22 12
-584.91986989975 -314.737796783447 2566.99991226196 16 22 12
-584.924042224884 -318.561047315598 2598.00004959106 14 20 8
-572.525084018707 -315.640330314636 2573.99988174438 16 19 8
-572.559356689453 -319.586753845215 2605.99994659424 20 23 12
-575.890362262726 -325.496017932892 2654.00004386902 15 18 7
-567.817270755768 -325.028121471405 2650.00009536743 20 23 14
-564.630389213562 -327.381253242493 2668.99991035461 20 23 16
-563.42738866806 -330.961346626282 2697.99995422363 15 18 11
-870.840609073639 -337.392032146454 2697.99995422363 11 14 7
-859.369993209839 -335.784703493118 2684.99994277954 11 14 7
-860.029399394989 -338.930070400238 2710.00003814697 14 17 10
-845.450460910797 -336.072564125061 2687.00003623962 13 16 9
-844.721019268036 -338.71853351593 2707.99994468689 12 15 8
-833.364069461823 -337.112128734589 2694.9999332428 10 12 7
-826.675057411194 -337.382197380066 2697.00002670288 10 12 7
-815.721750259399 -335.901170969009 2684.99994277954 9 11 6
-811.758518218994 -337.297767400742 2696.00009918213 9 11 6
-808.928906917572 -339.195251464844 2710.99996566772 9 11 6
-799.512624740601 -338.340431451797 2703.9999961853 10 12 7
-789.841055870056 -337.360620498657 2696.00009918213 11 13 8
-766.570270061493 -330.499172210693 2641.00003242493 11 13 8
-757.686853408813 -329.769402742386 2634.99999046326 10 12 7
-745.987236499786 -327.788203954697 2618.99995803833 10 13 6
-735.502362251282 -326.307535171509 2607.00011253357 12 15 8
-735.699713230133 -329.583436250687 2632.99989700317 12 15 8
-722.473800182343 -326.851218938828 2611.00006103516 14 17 10
-708.27043056488 -323.618024587631 2585.00003814697 16 19 10
-705.330014228821 -325.517624616623 2599.99990463257 14 17 8
-691.83349609375 -322.534620761871 2575.99997520447 11 14 5
-686.442017555237 -323.307722806931 2582.00001716614 11 14 5
-679.438471794128 -323.329746723175 2582.00001716614 8 14 4
-672.95503616333 -323.602288961411 2584.00011062622 10 16 6
-673.418343067169 -327.256500720978 2612.99991607666 11 17 7
-659.698128700256 -324.022531509399 2586.99989318848 13 19 9
-646.370708942413 -320.913463830948 2562.00003623962 15 18 9
-638.169467449188 -320.309370756149 2556.99992179871 13 16 7
-629.902780056 -323.23545217514 2579.99992370605 17 20 11
-629.175245761871 -326.51561498642 2605.99994659424 18 21 12
-613.982617855072 -322.278141975403 2572.00002670288 18 19 11
-607.705593109131 -322.676569223404 2575.00004768372 18 19 11
-602.577805519104 -323.701649904251 2582.99994468689 19 20 12
-596.022129058838 -323.974937200546 2585.00003814697 15 18 9
-589.22678232193 -324.122875928879 2585.99996566772 15 18 9
-583.550631999969 -324.897587299347 2592.00000762939 15 18 9
-573.614954948425 -323.290646076202 2578.9999961853 13 16 7
-581.764161586761 -331.963211297989 2648.00000190735 11 14 5
-577.603340148926 -333.741515874863 2661.99994087219 8 11 4
-570.151269435883 -333.63926410675 2661.00001335144 15 20 13
-567.992150783539 -336.671680212021 2684.99994277954 13 18 12
-560.063123703003 -336.318641901016 2681.99992179871 21 26 22
-900.915622711182 -353.667229413986 2767.99988746643 26 31 24
-881.796360015869 -349.086105823517 2732.00011253357 12 15 8
-866.712749004364 -346.038162708282 2707.99994468689 12 15 8
-859.693050384521 -346.185028553009 2709.00011062622 15 18 11
-853.611648082733 -346.715599298477 2713.00005912781 12 15 8
-829.416871070862 -339.833825826645 2658.99991989136 11 14 7
-835.508584976196 -345.349341630936 2701.99990272522 10 12 7
-821.75076007843 -342.685371637344 2680.99999427795 10 12 7
-814.182460308075 -342.577904462814 2680.0000667572 9 11 6
-812.641084194183 -345.027357339859 2698.99988174438 9 11 6
-805.327236652374 -345.04833817482 2698.99988174438 10 12 7
-800.674021244049 -346.220195293427 2707.99994468689 11 13 8
-788.940787315369 -344.323933124542 2693.00007820129 11 13 8
-769.741714000702 -339.102953672409 2651.99995040894 11 13 8
-755.365252494812 -335.92763543129 2627.00009346008 10 12 7
-744.256854057312 -334.158778190613 2612.99991607666 10 13 6
-729.83855009079 -330.855160951614 2586.99989318848 12 15 8
-730.089664459229 -334.202080965042 2612.99991607666 12 15 8
-716.364622116089 -331.154227256775 2588.99998664856 14 17 10
-712.084472179413 -332.45524764061 2598.99997711182 15 18 9
-703.680455684662 -331.837713718414 2594.00010108948 13 16 7
-699.599802494049 -333.267152309418 2605.00001907349 11 14 5
-682.69807100296 -328.555732965469 2568.00007820129 11 14 5
-676.258683204651 -328.833818435669 2569.9999332428 9 15 5
-671.8909740448 -330.135703086853 2579.99992370605 10 16 6
-667.983829975128 -331.693828105927 2592.00000762939 12 18 8
-656.870663166046 -329.66884970665 2575.99997520447 13 19 9
-649.12337064743 -329.307556152344 2572.99995422363 15 18 9
-639.394998550415 -327.922284603119 2562.00003623962 14 17 8
-631.206452846527 -327.304869890213 2556.99992179871 15 18 9
-631.589114665985 -331.167876720428 2586.99989318848 17 20 11
-620.219647884369 -328.886449337006 2569.00000572205 17 20 11
-615.39214849472 -330.061495304108 2578.00006866455 17 18 10
-608.626842498779 -330.212444067001 2578.9999961853 17 18 10
-605.354368686676 -332.284152507782 2595.00002861023 19 20 12
-603.146731853485 -334.996372461319 2615.9999370575 15 18 9
-592.621684074402 -333.098649978638 2601.0000705719 15 18 9
-583.978116512299 -332.225233316422 2594.00010108948 15 18 9
-591.162502765656 -340.445548295975 2657.99999237061 14 17 8
-586.134731769562 -341.749995946884 2667.99998283386 12 15 6
-575.41024684906 -339.723974466324 2651.99995040894 19 22 15
-570.985019207001 -341.412842273712 2664.99996185303 16 21 15
-565.21874666214 -342.333108186722 2671.99993133545 22 27 23
-891.458332538605 -357.422649860382 2739.00008201599 0 2 0
-859.332621097565 -350.413143634796 2684.99994277954 14 17 10
-846.027970314026 -347.952455282211 2665.99988937378 15 18 11
-839.433610439301 -348.23277592659 2667.99998283386 12 15 8
-844.681322574615 -353.473573923111 2707.99994468689 12 15 8
-820.955574512482 -346.575349569321 2654.99997138977 12 14 9
-826.940953731537 -352.208852767944 2697.99995422363 12 14 9
-816.896021366119 -351.054579019547 2688.99989128113 11 13 8
-797.565996646881 -345.853090286255 2648.9999294281 11 13 8
-801.725506782532 -350.835531949997 2687.00003623962 12 14 9
-792.373955249786 -349.942892789841 2680.0000667572 13 15 10
-775.736272335052 -345.785796642303 2648.00000190735 10 12 7
-768.849492073059 -345.937937498093 2648.9999294281 10 12 7
-759.369134902954 -344.914883375168 2641.00003242493 9 11 6
-735.975503921509 -337.492108345032 2584.00011062622 10 13 6
-725.30323266983 -335.815727710724 2571.00009918213 14 17 10
-723.641574382782 -338.319271802902 2589.99991416931 14 17 10
-725.473284721375 -342.521548271179 2621.99997901917 14 17 10
-715.07602930069 -340.976268053055 2609.99989509583 12 15 6
-710.982322692871 -342.435956001282 2621.00005149841 11 14 5
-700.651466846466 -340.890765190125 2608.99996757507 12 15 6
-687.460899353027 -337.908089160919 2585.99996566772 13 16 7
-673.868119716644 -334.663897752762 2561.00010871887 12 18 8
-667.441308498383 -334.947764873505 2562.99996376038 13 19 9
-662.806928157806 -336.146652698517 2572.00002670288 13 19 9
-655.828058719635 -336.169511079788 2572.00002670288 13 19 9
-646.577894687653 -335.016012191772 2562.99996376038 15 18 9
-637.37565279007 -333.862394094467 2553.99990081787 16 19 10
-626.246690750122 -331.662833690643 2536.99994087219 16 19 10
