ply
format ascii 1.0
comment KinectMotionCapture
element vertex 751
property float x
property float y
property float z
property uchar red
property uchar green
property uchar blue
end_header
-680.179119110107 434.652388095856 2483.99996757507 141 141 139
-672.626972198486 434.151887893677 2480.99994659424 147 147 145
-666.164338588715 434.351533651352 2482.00011253357 166 166 164
-658.63299369812 433.851301670074 2479.00009155273 135 135 133
-651.117384433746 433.351218700409 2476.0000705719 133 133 131
-643.617510795593 432.851254940033 2473.00004959106 149 149 147
-636.906147003174 432.876527309418 2473.00004959106 130 130 128
-629.174768924713 432.201683521271 2469.00010108948 125 125 123
-620.960295200348 431.17681145668 2463.00005912781 173 173 171
-612.278938293457 429.801732301712 2454.99992370605 180 180 178
-606.107294559479 430.177509784698 2457.00001716614 183 183 181
-599.680125713348 430.378288030624 2457.99994468689 197 197 195
-593.005537986755 430.404037237167 2457.99994468689 198 198 196
-585.137665271759 429.554343223572 2453.00006866455 188 188 186
-579.182803630829 430.105566978455 2456.00008964539 192 192 190
-573.677003383636 431.007146835327 2460.99996566772 197 195 198
-567.912995815277 431.733757257462 2464.99991416931 199 197 200
-560.988068580627 431.584745645523 2463.99998664856 201 201 203
-554.742693901062 431.96114897728 2466.00008010864 202 202 204
-548.930048942566 432.688027620316 2470.00002861023 203 203 205
-543.53392124176 433.765321969986 2476.0000705719 208 208 210
-538.537919521332 435.193121433258 2483.99996757507 207 207 209
-533.069431781769 436.270713806152 2490.00000953674 205 205 207
-529.047012329102 438.574850559235 2503.00002098084 203 204 206
-524.535715579987 440.528750419617 2513.99993896484 199 200 202
-518.934071063995 441.606670618057 2519.99998092651 185 186 188
-861.55366897583 455.707043409348 2648.00000190735 183 187 188
-847.919464111328 452.284306287766 2628.00002098084 185 189 190
-838.232934474945 450.92698931694 2619.99988555908 170 174 175
-827.638745307922 449.053764343262 2608.99996757507 175 179 180
-817.41863489151 447.352856397629 2598.99997711182 170 174 175
-805.694043636322 444.791615009308 2584.00011062622 164 166 165
-794.978082180023 442.746877670288 2572.00002670288 168 170 169
-784.940004348755 441.046744585037 2562.00003623962 170 172 171
-775.867164134979 439.863264560699 2555.0000667572 171 173 172
-766.53128862381 438.507795333862 2546.99993133545 168 170 167
-755.151093006134 435.947388410568 2532.00006484985 162 162 160
-743.556439876556 433.214843273163 2516.00003242493 161 161 159
-733.51263999939 431.34331703186 2505.00011444092 153 153 151
-725.558876991272 430.677235126495 2500.99992752075 146 146 144
-718.488931655884 430.528074502945 2500 150 150 148
-710.854709148407 430.034697055817 2496.99997901917 156 156 154
-704.082429409027 430.058270692825 2496.99997901917 160 160 158
-696.192681789398 429.393112659454 2493.00003051758 145 145 143
-688.324332237244 428.728133440018 2489.00008201599 145 145 143
-680.203497409821 427.89101600647 2483.99996757507 148 148 146
-673.736035823822 428.087621927261 2484.99989509583 138 138 136
-667.262613773346 428.284496068954 2486.00006103516 173 173 171
-660.251915454865 428.136914968491 2484.99989509583 140 140 138
-652.457237243652 427.472680807114 2480.99994659424 135 135 133
-644.94401216507 426.980793476105 2477.9999256134 143 143 141
-637.961626052856 426.833719015121 2476.99999809265 123 123 121
-629.964590072632 425.997287034988 2471.99988365173 119 119 117
-621.489942073822 424.816340208054 2464.99991416931 166 166 164
-612.553894519806 423.29066991806 2456.00008964539 172 172 170
-606.872975826263 424.005538225174 2460.00003814697 193 193 191
-600.193738937378 424.03107881546 2460.00003814697 198 198 196
-593.272626399994 423.88442158699 2459.00011062622 181 181 179
-585.163474082947 422.875761985779 2453.00006866455 192 192 190
-579.208672046661 423.418700695038 2456.00008964539 187 187 185
-573.702991008759 424.30654168129 2460.99996566772 196 194 197
-567.938983440399 425.022035837173 2464.99991416931 198 196 199
-561.01405620575 424.87558722496 2463.99998664856 202 202 204
-554.543733596802 425.073981285095 2464.99991416931 202 202 204
-548.511624336243 425.617307424545 2467.99993515015 203 203 205
-542.901456356049 426.505655050278 2473.00004959106 208 208 210
-538.130521774292 428.083956241608 2482.00011253357 209 209 211
-532.881617546082 429.317474365234 2489.00008201599 203 203 205
-528.861999511719 431.586027145386 2502.00009346008 201 202 204
-524.144768714905 433.337271213531 2512.00008392334 200 201 203
-518.754541873932 434.571176767349 2519.00005340576 180 181 183
-853.438556194305 444.265156984329 2622.99990653992 184 188 189
-845.357537269592 443.776160478592 2619.99988555908 179 183 184
-836.653053760529 442.948818206787 2615.00000953674 177 181 182
-828.610479831696 442.460596561432 2611.99998855591 170 174 175
-818.697273731232 440.956354141235 2602.9999256134 161 165 164
-806.962013244629 438.435971736908 2588.00005912781 170 172 171
-795.617401599884 436.085104942322 2573.99988174438 172 174 173
-785.26782989502 434.242725372314 2562.99996376038 169 171 170
-775.585234165192 432.739347219467 2553.99990081787 161 163 160
-765.650391578674 431.066811084747 2543.99991035461 158 160 157
-755.173206329346 429.055482149124 2532.00006484985 154 154 152
-744.760930538177 427.044272422791 2519.99998092651 153 153 151
-735.292136669159 425.541549921036 2510.99991798401 150 150 148
-726.742267608643 424.547493457794 2505.00011444092 148 148 146
-719.661712646484 424.400985240936 2503.99994850159 134 134 132
-711.447536945343 423.576772212982 2499.00007247925 136 136 134
-704.670011997223 423.600226640701 2499.00007247925 157 157 155
-696.495831012726 422.776430845261 2493.99995803833 170 170 168
-689.454615116119 422.63075709343 2493.00003051758 144 144 142
-681.596875190735 421.976745128632 2489.00008201599 130 130 128
-674.57377910614 421.831518411636 2487.99991607666 127 127 125
-667.018830776215 421.347320079803 2484.99989509583 142 142 140
-659.745335578918 421.032816171646 2483.00004005432 166 166 164
-652.482151985168 420.718431472778 2480.99994659424 132 132 130
-645.489633083344 420.573800802231 2480.00001907349 121 121 119
-638.501942157745 420.429289340973 2479.00009155273 122 122 120
-630.499660968781 419.606447219849 2473.99997711182 106 106 104
-622.271656990051 418.614000082016 2467.99993515015 156 156 154
-613.826215267181 417.45188832283 2460.99996566772 168 168 166
-607.885241508484 417.986184358597 2463.99998664856 181 181 179
-600.707232952118 417.672336101532 2461.99989318848 163 163 161
-593.539535999298 417.358577251434 2460.00003814697 163 163 161
-585.666179656982 416.535764932632 2454.99992370605 184 184 182
-579.705953598022 417.070388793945 2457.99994468689 194 194 192
-573.728740215302 417.605131864548 2460.99996566772 192 190 193
-567.964792251587 418.309599161148 2464.99991416931 196 194 197
-561.495363712311 418.505132198334 2466.00008010864 202 202 204
-555.244565010071 418.870329856873 2467.99993515015 202 202 204
-548.982083797455 419.235616922379 2470.00002861023 202 202 204
-542.707800865173 419.600933790207 2471.99988365173 203 203 205
-537.506103515625 420.815110206604 2479.00009155273 207 207 209
-532.265305519104 422.029256820679 2486.00006103516 202 202 204
-528.253972530365 424.262255430222 2499.00007247925 202 203 205
-523.962318897247 426.325649023056 2510.99991798401 205 206 208
-519.604504108429 428.389191627502 2523.00000190735 186 187 189
-854.759037494659 437.792032957077 2627.00009346008 186 190 191
-844.408988952637 436.14462018013 2617.00010299683 179 183 184
-837.312817573547 436.164170503616 2617.00010299683 175 179 180
-827.361762523651 434.684067964554 2608.00004005432 169 173 174
-817.145228385925 433.037608861923 2598.00004959106 178 182 181
-806.04749917984 430.891364812851 2585.00003814697 180 182 181
-795.329391956329 428.911924362183 2572.99995422363 168 170 169
-786.514759063721 427.932977676392 2566.99991226196 165 167 166
-775.60693025589 425.787270069122 2553.99990081787 155 157 154
-765.371441841125 423.975139856339 2542.99998283386 152 154 151
-755.195379257202 422.163128852844 2532.00006484985 150 150 148
-745.078921318054 420.351266860962 2520.99990844727 150 150 148
-737.071752548218 419.706791639328 2516.99995994568 145 145 143
-728.505849838257 418.728977441788 2510.99991798401 141 141 139
-721.121847629547 418.418407440186 2509.0000629425 138 138 136
-712.609648704529 417.440980672836 2503.00002098084 137 137 135
-705.257534980774 417.130798101425 2500.99992752075 133 133 131
-696.798741817474 416.1536693573 2494.99988555908 157 157 155
-690.031707286835 416.177481412888 2494.99988555908 162 162 160
-682.716369628906 415.867894887924 2493.00003051758 138 138 136
-676.224946975708 416.058927774429 2493.99995803833 131 131 129
-668.922364711761 415.749728679657 2492.00010299683 124 124 122
-661.629974842072 415.440589189529 2490.00000953674 145 145 143
-653.558909893036 414.631009101868 2484.99989509583 140 140 138
-646.295428276062 414.322167634964 2483.00004005432 122 122 120
-639.0420794487 414.01332616806 2480.99994659424 124 124 122
-630.779564380646 413.037091493607 2474.99990463257 107 107 105
-622.296869754791 411.893993616104 2467.99993515015 163 163 161
-614.350318908691 411.084592342377 2463.00005912781 174 174 172
-608.157277107239 411.443650722504 2464.99991416931 163 163 161
-600.488662719727 410.801291465759 2460.99996566772 154 154 152
-593.323707580566 410.492777824402 2459.00011062622 175 175 173
-586.40730381012 410.351186990738 2457.99994468689 182 182 180
-580.674946308136 411.04444861412 2461.99989318848 185 185 183
-573.987424373627 411.069929599762 2461.99989318848 191 189 192
-567.529737949371 411.262542009354 2463.00005912781 195 193 196
-561.293363571167 411.622077226639 2464.99991416931 202 202 204
-555.045306682587 411.981642246246 2467.00000762939 202 202 204
-549.230098724365 412.675321102142 2470.99995613098 201 201 203
-542.733609676361 412.867993116379 2471.99988365173 204 204 206
-537.315011024475 413.895756006241 2477.9999256134 207 207 209
-531.648814678192 414.756715297699 2483.00004005432 204 204 206
-527.011513710022 416.45285487175 2493.00003051758 203 204 206
-522.944927215576 418.650358915329 2506.00004196167 196 197 199
-519.218623638153 421.182215213776 2520.99990844727 188 189 191
-853.151023387909 429.821342229843 2621.99997901917 187 191 192
-846.686899662018 430.168360471725 2624.00007247925 184 188 187
-838.932275772095 429.860055446625 2621.99997901917 175 179 178
-828.016340732574 427.912652492523 2609.99989509583 165 169 168
-816.222131252289 425.473630428314 2595.00002861023 155 159 158
-805.444538593292 423.526644706726 2582.99994468689 155 157 156
-795.35049200058 421.907812356949 2572.99995422363 152 154 151
-786.53609752655 420.945078134537 2566.99991226196 150 152 149
-776.23587846756 419.162720441818 2555.99999427795 146 148 145
-765.995264053345 417.380481958389 2545.00007629395 146 148 145
-756.112337112427 415.762394666672 2535.00008583069 145 145 143
-746.579051017761 414.308458566666 2526.00002288818 143 143 141
-738.265633583069 413.510710000992 2520.99990844727 141 141 139
-729.979336261749 412.713289260864 2516.00003242493 139 139 137
-722.007155418396 412.080019712448 2512.00008392334 135 135 133
-713.77170085907 411.282867193222 2506.99996948242 134 134 132
-705.845057964325 410.650014877319 2503.00002098084 136 136 134
-698.218941688538 410.181313753128 2500 132 132 130
-691.161930561066 410.040974617004 2499.00007247925 130 130 128
-683.835923671722 409.736722707748 2496.99997901917 161 161 159
-677.333772182465 409.924924373627 2497.99990653992 151 151 149
-669.75200176239 409.456938505173 2494.99988555908 140 140 138
-662.717461585999 409.317255020142 2493.99995803833 126 126 124
-654.635727405548 408.521264791489 2489.00008201599 134 134 132
-647.361397743225 408.217698335648 2486.99998855591 130 130 128
-639.839708805084 407.75004029274 2483.99996757507 124 124 122
-631.82407617569 406.954228878021 2479.00009155273 116 116 114
-623.582661151886 405.994176864624 2473.00004959106 163 163 161
-615.622580051422 405.198305845261 2467.99993515015 162 162 160
-607.689023017883 404.402434825897 2463.00005912781 151 151 149
-600.025951862335 403.770804405212 2459.00011062622 160 160 158
-592.86630153656 403.46747636795 2457.00001716614 160 160 158
-586.432635784149 403.656899929047 2457.99994468689 180 180 178
-580.228626728058 404.010623693466 2460.00003814697 175 175 173
-573.779761791229 404.20013666153 2460.99996566772 189 187 190
-566.863894462585 404.061317443848 2460.00003814697 194 192 195
-560.863435268402 404.579430818558 2463.00005912781 202 202 204
-554.845869541168 405.097633600235 2466.00008010864 202 202 204
-549.033403396606 405.78019618988 2470.00002861023 201 201 203
-542.978763580322 406.298518180847 2473.00004959106 200 200 202
-536.906957626343 406.816899776459 2476.0000705719 201 201 203
-531.460344791412 407.828271389008 2482.00011253357 207 207 209
-525.980114936829 408.839643001556 2487.99991607666 203 204 206
-522.553265094757 411.494493484497 2503.99994850159 193 194 196
-518.832504749298 413.985252380371 2519.00005340576 194 195 197
-847.674429416656 423.508822917938 2627.00009346008 185 189 188
-838.952124118805 422.722280025482 2621.99997901917 173 177 176
-827.084720134735 420.323818922043 2607.00011253357 165 169 168
-816.556990146637 418.57048869133 2595.99995613098 154 158 157
-806.712567806244 417.139828205109 2586.99989318848 152 154 151
-797.226190567017 415.870755910873 2578.9999961853 143 145 142
-788.089454174042 414.76309299469 2572.00002670288 144 146 143
-776.86482667923 412.526816129684 2558.00008773804 142 144 141
-768.123865127563 411.580830812454 2552.00004577637 140 142 137
-757.625639438629 409.667372703552 2539.99996185303 141 142 137
-749.261379241943 408.88312458992 2535.00008583069 143 144 139
-740.338265895844 407.776415348053 2528.00011634827 139 139 137
-731.742978096008 406.831175088882 2522.0000743866 139 139 137
-723.179936408997 405.886113643646 2516.00003242493 136 136 134
-714.364349842072 404.779851436615 2509.0000629425 134 134 132
-706.15029335022 403.99631857872 2503.99994850159 134 134 132
-698.521733283997 403.535723686218 2500.99992752075 134 134 132
-691.738724708557 403.559327125549 2500.99992752075 127 127 125
-684.681534767151 403.421819210052 2500 130 130 128
-678.713798522949 403.929948806763 2503.00002098084 140 140 138
-671.387016773224 403.63135933876 2500.99992752075 140 140 138
-664.336323738098 403.494358062744 2500 129 129 127
-656.501471996307 402.873247861862 2496.00005149841 121 121 119
-649.208307266235 402.575016021729 2493.99995803833 123 123 121
-641.667664051056 402.115434408188 2490.9999370575 118 118 116
-632.613599300385 400.687396526337 2482.00011253357 123 123 121
-624.111890792847 399.582058191299 2474.99990463257 141 141 139
-615.647554397583 398.476749658585 2467.99993515015 152 152 150
-607.713997364044 397.694319486618 2463.00005912781 148 148 146
-600.050985813141 397.073417901993 2459.00011062622 153 153 151
-592.891395092011 396.775364875793 2457.00001716614 161 161 159
-586.696445941925 397.123396396637 2459.00011062622 172 172 170
-580.017983913422 397.148430347443 2459.00011062622 173 173 171
-573.805093765259 397.496581077576 2460.99996566772 184 182 185
-566.428244113922 397.037118673325 2457.99994468689 188 186 189
-560.433268547058 397.546857595444 2460.99996566772 199 199 201
-553.971111774445 397.73353934288 2461.99989318848 201 201 203
-548.836469650269 398.889690637589 2469.00010108948 201 201 203
-543.004155158997 399.56122636795 2473.00004959106 200 200 202
-537.14919090271 400.232791900635 2476.99999809265 199 199 201
-531.913995742798 401.389181613922 2483.99996757507 206 206 208
-526.005506515503 402.060836553574 2487.99991607666 204 205 207
-521.744012832642 404.025435447693 2500 196 197 199
-517.416298389435 405.990183353424 2512.00008392334 196 197 199
-846.725702285767 415.881633758545 2624.00007247925 189 193 192
-839.611887931824 415.901184082031 2624.00007247925 171 175 174
-827.739357948303 413.543492555618 2608.99996757507 160 164 163
-819.408357143402 412.929683923721 2605.00001907349 146 151 147
-809.228003025055 411.365032196045 2595.00002861023 144 146 143
-800.029337406158 410.276263952255 2588.00005912781 141 143 140
-789.030075073242 408.236384391785 2575.00004768372 141 143 140
-778.708636760712 406.513839960098 2563.99989128113 140 142 137
-769.349694252014 405.267030000687 2555.99999427795 138 140 135
-759.735584259033 403.861850500107 2546.99993133545 139 140 135
-751.057028770447 402.932554483414 2540.99988937378 140 141 136
-741.53208732605 401.52770280838 2532.00006484985 139 139 137
-732.345938682556 400.281548500061 2523.9999294281 139 139 137
-722.915291786194 398.876935243607 2515.00010490417 136 136 134
-714.672088623047 398.106753826141 2509.99999046326 135 135 133
-706.737637519836 397.495418787003 2506.00004196167 136 136 134
-699.662446975708 397.360116243362 2505.00011444092 131 131 129
-692.868828773499 397.383630275726 2505.00011444092 133 133 131
-686.074733734131 397.407293319702 2505.00011444092 130 130 128
-679.280161857605 397.431224584579 2505.00011444092 128 128 126
-671.948075294495 397.13791012764 2503.00002098084 128 128 126
-664.892196655273 397.003442049026 2502.00009346008 127 127 125
-657.577991485596 396.710455417633 2500 127 127 125
-651.055037975311 396.893620491028 2500.99992752075 122 122 120
-644.010841846466 396.759539842606 2500 114 114 112
-635.187149047852 395.514577627182 2492.00010299683 109 109 107
-625.901937484741 393.952161073685 2482.00011253357 138 138 136
-616.919636726379 392.54829287529 2473.00004959106 146 146 144
-608.725786209106 391.620576381683 2467.00000762939 141 141 139
-601.53990983963 391.327828168869 2464.99991416931 146 146 144
-594.36422586441 391.035169363022 2463.00005912781 153 153 151
-587.198495864868 390.74245095253 2460.99996566772 164 164 162
-579.807043075562 390.291005373001 2457.99994468689 168 168 166
-573.130548000336 390.315890312195 2457.99994468689 181 179 182
-566.453278064728 390.340805053711 2457.99994468689 183 181 184
-560.00292301178 390.524595975876 2459.00011062622 197 197 199
-553.771197795868 390.867084264755 2460.99996566772 202 202 204
-548.416972160339 391.845136880875 2467.00000762939 202 202 204
-542.809665203094 392.6642537117 2471.99988365173 201 201 203
-536.957502365112 393.324762582779 2476.0000705719 199 199 201
-531.296730041504 394.144058227539 2480.99994659424 205 205 207
-525.396406650543 394.804537296295 2484.99989509583 204 205 207
-521.351873874664 396.89514040947 2497.99990653992 196 197 199
-516.823589801788 398.668050765991 2509.0000629425 196 197 199
-851.262629032135 410.918533802032 2638.00001144409 188 192 191
-840.271532535553 409.068763256073 2625.99992752075 170 174 173
-828.711152076721 406.907707452774 2611.99998855591 160 164 163
-820.686936378479 406.460553407669 2608.99996757507 148 153 149
-809.872329235077 404.611498117447 2596.99988365173 147 149 146
-801.28675699234 403.853267431259 2592.00000762939 142 144 141
-789.357662200928 401.381343603134 2575.99997520447 141 143 140
-779.641091823578 400.000214576721 2566.99991226196 140 142 137
-770.27440071106 398.775190114975 2559.00001525879 139 141 136
-760.652422904968 397.394418716431 2549.99995231628 140 141 136
-752.852618694305 396.948873996735 2546.99993133545 140 141 136
-743.311762809753 395.568490028381 2538.00010681152 140 140 138
-733.529090881348 394.032269716263 2528.00011634827 140 140 138
-724.375247955322 392.807871103287 2519.99998092651 136 136 134
-715.833961963654 391.89538359642 2513.99993896484 136 136 134
-708.73498916626 391.762554645538 2513.00001144409 137 137 135
-701.082348823547 391.318023204803 2509.99999046326 144 144 142
-693.722188472748 391.029596328735 2507.99989700317 140 140 138
-687.193989753723 391.209036111832 2509.0000629425 128 128 126
-680.659949779511 391.388744115829 2509.99999046326 126 126 124
-673.582971096039 391.256779432297 2509.0000629425 127 127 125
-665.979325771332 390.812963247299 2506.00004196167 126 126 124
-658.917546272278 390.68129658699 2505.00011444092 130 130 128
-652.381241321564 390.861600637436 2506.00004196167 123 123 121
-645.323514938354 390.730082988739 2505.00011444092 117 117 115
-636.741101741791 389.662683010101 2497.99990653992 106 106 104
-626.430928707123 387.503385543823 2483.99996757507 134 134 132
-616.944313049316 385.81183552742 2473.00004959106 142 142 140
-608.997166156769 385.056287050247 2467.99993515015 138 138 136
-602.052688598633 384.924829006195 2467.00000762939 144 144 142
-594.871580600739 384.637415409088 2464.99991416931 150 150 148
-587.223291397095 384.037852287292 2460.99996566772 161 161 159
-579.831779003143 383.594363927841 2457.99994468689 168 168 166
-573.388576507568 383.775144815445 2459.00011062622 177 175 178
-567.169427871704 384.111940860748 2460.99996566772 178 176 179
-560.48321723938 384.136736392975 2460.99996566772 194 194 196
-554.021120071411 384.317547082901 2461.99989318848 200 200 202
-547.997176647186 384.810566902161 2464.99991416931 200 200 202
-542.615056037903 385.772079229355 2470.99995613098 200 200 202
-536.548614501953 386.265218257904 2473.99997711182 199 199 201
-530.679166316986 386.914551258087 2477.9999256134 203 203 205
-525.209903717041 387.876182794571 2483.99996757507 203 204 206
-520.959436893463 389.774918556213 2496.00005149841 197 198 200
-516.436636447906 391.517549753189 2506.99996948242 195 196 198
-853.218197822571 404.654443264008 2644.00005340576 191 195 194
-842.531085014343 402.990430593491 2632.99989700317 173 178 174
-829.365730285645 400.10216832161 2614.00008201599 162 167 163
-821.021795272827 399.509996175766 2609.99989509583 151 156 152
-810.204744338989 397.693514823914 2598.00004959106 150 152 149
-800.689399242401 396.489590406418 2589.99991416931 146 148 143
-788.153052330017 393.754929304123 2572.00002670288 145 147 142
-779.966294765472 393.163710832596 2568.00007820129 143 145 140
-770.596981048584 391.960263252258 2559.99994277954 143 145 140
-762.464106082916 391.369462013245 2555.99999427795 143 144 139
-753.761529922485 390.472650527954 2549.99995231628 143 144 139
-744.505524635315 389.269798994064 2542.00005531311 142 142 140
-734.131872653961 387.454390525818 2529.99997138977 141 141 139
-724.97284412384 386.251747608185 2522.0000743866 137 137 135
-716.995716094971 385.661721229553 2517.99988746643 136 136 134
-710.168123245239 385.684609413147 2517.99988746643 137 137 135
-702.22282409668 385.094970464706 2513.99993896484 133 133 131
-694.851994514465 384.811878204346 2512.00008392334 137 137 135
-687.76535987854 384.682059288025 2510.99991798401 144 144 142
-681.226134300232 384.858876466751 2512.00008392334 135 135 133
-674.412310123444 384.882658720016 2512.00008392334 127 127 125
-667.06645488739 384.600102901459 2509.99999046326 130 130 128
-659.993946552277 384.47093963623 2509.0000629425 129 129 127
-653.446853160858 384.648352861404 2509.99999046326 124 124 122
-646.893680095673 384.825944900513 2510.99991798401 119 119 117
-639.059841632843 384.237319231033 2506.99996948242 106 106 104
-629.229485988617 382.422506809235 2494.99988555908 106 106 104
-618.964493274689 380.300998687744 2480.99994659424 139 139 137
-610.502243041992 379.252374172211 2473.99997711182 135 135 133
-603.053390979767 378.816843032837 2470.99995613098 143 143 141
-595.378756523132 378.228038549423 2467.00000762939 148 148 146
-587.247848510742 377.33256816864 2460.99996566772 160 160 158
-579.856336116791 376.897007226944 2457.99994468689 169 169 167
-573.646306991577 377.228140830994 2460.00003814697 173 171 174
-567.655026912689 377.712696790695 2463.00005912781 174 172 175
-560.963332653046 377.73722410202 2463.00005912781 192 192 194
-554.27074432373 377.761721611023 2463.00005912781 198 198 200
-547.799527645111 377.939611673355 2463.99998664856 199 199 201
-542.20050573349 378.731071949005 2469.00010108948 198 198 200
-536.356449127197 379.369229078293 2473.00004959106 198 198 200
-530.703842639923 380.160808563232 2477.9999256134 200 200 202
-525.234580039978 381.105840206146 2483.99996757507 202 203 205
-520.775377750397 382.818162441254 2494.99988555908 198 199 201
-515.843391418457 384.223699569702 2503.99994850159 194 195 197
-854.205667972565 397.906422615051 2647.0000743866 191 195 194
-839.990735054016 394.618660211563 2625 174 179 175
-828.750908374786 392.683923244476 2611.99998855591 164 169 165
-819.783747196198 391.80189371109 2605.99994659424 153 158 154
-810.848951339722 390.920072793961 2599.99990463257 153 155 152
-800.710141658783 389.437109231949 2589.99991416931 148 150 145
-789.706230163574 387.503176927567 2576.99990272522 146 148 143
-780.291259288788 386.321246623993 2569.00000572205 144 146 141
-771.822512149811 385.590612888336 2563.99989128113 144 146 141
-763.380825519562 384.860247373581 2559.00001525879 145 146 141
-755.557119846344 384.430855512619 2555.99999427795 143 144 139
-745.992064476013 383.099228143692 2546.99993133545 144 144 142
-735.314905643463 381.165981292725 2533.99991989136 142 142 140
-725.857734680176 379.834532737732 2525.00009536743 137 137 135
-718.157470226288 379.40576672554 2522.0000743866 135 135 133
-711.037158966064 379.278033971787 2520.99990844727 137 137 135
-703.363239765167 378.849595785141 2517.99988746643 141 141 139
-695.70517539978 378.421366214752 2515.00010490417 134 134 132
-688.884377479553 378.44455242157 2515.00010490417 134 134 132
-682.063221931458 378.468006849289 2515.00010490417 140 140 138
-674.973011016846 378.341108560562 2513.99993896484 137 137 135
-667.887687683105 378.214359283447 2513.00001144409 136 136 134
-661.070168018341 378.23823094368 2513.00001144409 124 124 122
-654.512345790863 378.41272354126 2513.99993896484 123 123 121
-647.948503494263 378.587484359741 2515.00010490417 116 116 114
-640.103816986084 378.009498119354 2510.99991798401 113 113 111
-631.019294261932 376.678884029388 2502.00009346008 110 110 108
-620.984792709351 374.745935201645 2489.00008201599 132 132 130
-612.007200717926 373.4150826931 2480.00001907349 130 130 128
-603.56593132019 372.385263442993 2473.00004959106 143 143 141
-595.16179561615 371.355354785919 2466.00008010864 145 145 143
-587.272107601166 370.62656879425 2460.99996566772 151 151 149
-580.352544784546 370.500177145004 2460.00003814697 162 162 160
-574.60343837738 371.126860380173 2463.99998664856 168 166 169
-568.140387535095 371.301740407944 2464.99991416931 173 171 174
-561.443269252777 371.326059103012 2464.99991416931 190 190 192
-554.295122623444 371.049046516418 2463.00005912781 195 195 197
-547.601640224457 371.073335409164 2463.00005912781 197 197 199
-542.005300521851 371.850907802582 2467.99993515015 194 194 196
-536.163926124573 372.477859258652 2471.99988365173 194 194 196
-531.156659126282 373.70765209198 2480.00001907349 195 195 197
-526.104867458344 374.937504529953 2487.99991607666 199 200 202
-520.799815654755 376.016765832901 2494.99988555908 200 201 203
-515.455842018127 377.096116542816 2502.00009346008 194 195 197
-839.050233364105 387.02803850174 2621.99997901917 176 181 177
-827.818810939789 385.128647089005 2608.99996757507 164 169 165
-819.489181041718 384.55805182457 2605.00001907349 147 152 148
-809.93378162384 383.397191762924 2596.99988365173 144 146 143
-800.112545490265 382.088899612427 2588.00005912781 148 150 147
-790.033519268036 380.6332051754 2578.00006866455 146 148 143
-781.527280807495 379.915833473206 2572.99995422363 144 146 141
-772.746980190277 379.051089286804 2566.99991226196 145 147 142
-764.595687389374 378.481835126877 2562.99996376038 145 146 141
-755.579054355621 377.469807863235 2555.99999427795 144 145 140
-746.01411819458 376.162499189377 2546.99993133545 144 144 142
-735.917508602142 374.559938907623 2536.00001335144 142 142 140
-726.742506027222 373.400539159775 2528.00011634827 137 137 135
-719.319045543671 373.127460479736 2526.00002288818 135 135 133
-711.624085903168 372.706860303879 2523.00000190735 137 137 135
-704.503536224365 372.58192896843 2522.0000743866 139 139 137
-696.558117866516 372.013866901398 2517.99988746643 141 141 139
-689.729392528534 372.036933898926 2517.99988746643 144 144 142
-682.62904882431 371.912449598312 2516.99995994568 136 136 134
-675.533533096313 371.788054704666 2516.00003242493 124 124 122
-668.177127838135 371.516078710556 2513.99993896484 128 128 126
-661.094069480896 371.391952037811 2513.00001144409 125 125 123
-655.057013034821 371.859133243561 2516.00003242493 125 125 123
-649.003148078918 372.326493263245 2519.00005340576 115 115 113
-642.167508602142 372.350573539734 2519.00005340576 117 117 115
-634.069919586182 371.635556221008 2513.99993896484 115 115 113
-624.252438545227 369.88577246666 2502.00009346008 131 131 129
-614.992737770081 368.431448936462 2492.00010299683 129 129 127
-605.542480945587 366.829127073288 2480.99994659424 142 142 140
-596.633911132813 365.522444248199 2471.99988365173 143 143 141
-588.250756263733 364.511370658875 2464.99991416931 147 147 145
-581.320285797119 364.387482404709 2463.99998664856 158 158 156
-575.094044208527 364.707291126251 2466.00008010864 165 163 164
-568.164527416229 364.583402872086 2464.99991416931 172 170 173
-561.239659786224 364.45951461792 2463.99998664856 188 188 190
-554.54432964325 364.483565092087 2463.99998664856 193 193 195
-547.848045825958 364.507555961609 2463.99998664856 195 195 197
-542.02938079834 365.123331546783 2467.99993515015 192 192 194
-535.754263401031 365.443229675293 2470.00002861023 193 193 195
-530.75236082077 366.650879383087 2477.9999256134 194 194 196
-525.706112384796 367.858707904816 2486.00006103516 198 199 201
-520.406603813171 368.918627500534 2493.00003051758 201 202 204
-514.655888080597 369.682520627975 2497.99990653992 194 195 197
-508.063793182373 369.854539632797 2499.00007247925 186 187 189
-837.469577789307 379.163682460785 2617.00010299683 185 189 188
-828.473031520844 378.31375002861 2611.00006103516 173 177 176
-818.250894546509 376.884549856186 2601.0000705719 151 155 154
-809.33028459549 376.035124063492 2595.00002861023 148 150 149
-800.132989883423 375.041037797928 2588.00005912781 144 146 143
-791.893064975739 374.481946229935 2584.00011062622 143 145 142
-783.674538135529 373.923003673553 2579.99992370605 143 145 142
-775.176525115967 373.219430446625 2575.00004768372 143 145 142
-766.108870506287 372.226178646088 2568.00007820129 145 145 143
-755.896270275116 370.653182268143 2556.99992179871 145 145 143
-746.036052703857 369.225323200226 2546.99993133545 143 143 141
-735.939502716064 367.652505636215 2536.00001335144 141 141 139
-727.05215215683 366.659700870514 2529.00004386902 138 138 136
-719.626247882843 366.391867399216 2526.99995040894 137 137 135
-711.646616458893 365.834265947342 2523.00000190735 138 138 136
-704.805552959442 365.856796503067 2523.00000190735 141 141 139
-697.410821914673 365.589499473572 2520.99990844727 141 141 139
-691.122174263 365.902483463287 2523.00000190735 142 142 140
-684.008359909058 365.780532360077 2522.0000743866 141 141 139
-676.362454891205 365.368604660034 2519.00005340576 133 133 131
-668.732285499573 364.956796169281 2516.00003242493 129 129 127
-661.906838417053 364.980220794678 2516.00003242493 126 126 124
-656.38256072998 365.729153156281 2520.99990844727 124 124 122
-649.800002574921 365.898013114929 2522.0000743866 122 122 120
-643.211245536804 366.066962480545 2523.00000190735 116 116 114
-635.102868080139 365.365386009216 2517.99988746643 112 112 110
-626.272439956665 364.228487014771 2509.99999046326 107 107 105
-616.74427986145 362.65617609024 2499.00007247925 131 131 129
-607.030928134918 360.938549041748 2486.99998855591 135 135 133
-598.347425460815 359.801322221756 2479.00009155273 135 135 133
-589.945137500763 358.809053897858 2471.99988365173 145 145 143
-582.051932811737 358.107089996338 2467.00000762939 155 155 153
-575.351119041443 358.130872249603 2467.00000762939 159 159 157
-567.727506160736 357.573986053467 2463.00005912781 163 163 161
-560.807943344116 357.452511787415 2461.99989318848 165 165 165
-554.568231105804 357.766658067703 2463.99998664856 190 190 190
-548.316657543182 358.080834150314 2466.00008010864 193 193 193
-542.272984981537 358.540236949921 2469.00010108948 189 189 189
-535.778164863586 358.709186315537 2470.00002861023 189 189 189
-530.133724212646 359.459042549133 2474.99990463257 193 193 193
-524.884164333344 360.499501228333 2482.00011253357 196 196 198
-519.804239273071 361.685216426849 2490.00000953674 200 200 202
-515.297949314117 363.306850194931 2500.99992752075 201 201 203
-509.104192256927 363.766372203827 2503.99994850159 193 194 196
-830.396413803101 372.056245803833 2617.00010299683 178 182 181
-820.158183574677 370.654165744781 2607.00011253357 160 164 163
-810.285985469818 369.394451379776 2598.00004959106 162 164 163
-801.390051841736 368.561446666718 2592.00000762939 153 155 152
-792.220115661621 367.586523294449 2585.00003814697 151 153 150
-783.087909221649 366.611748933792 2578.00006866455 147 149 146
-774.294674396515 365.779399871826 2572.00002670288 145 147 144
-764.936745166779 364.662736654282 2563.99989128113 145 145 143
-754.735350608826 363.119542598724 2552.99997329712 145 145 143
-745.178937911987 361.860871315002 2543.99991035461 142 142 140
-736.831963062286 361.171334981918 2539.00003433228 140 140 138
-728.511571884155 360.481888055801 2533.99991989136 137 137 135
-721.072316169739 360.219389200211 2532.00006484985 136 136 134
-712.797224521637 359.530210494995 2526.99995040894 137 137 135
-705.666244029999 359.410315752029 2526.00002288818 139 139 137
-698.540151119232 359.290570020676 2525.00009536743 139 139 137
-691.69294834137 359.313249588013 2525.00009536743 140 140 138
-684.845209121704 359.336167573929 2525.00009536743 140 140 138
-677.45965719223 359.074503183365 2523.00000190735 133 133 131
-670.084416866302 358.81295800209 2520.99990844727 130 130 128
-663.245618343353 358.836203813553 2520.99990844727 126 126 124
-657.187283039093 359.286665916443 2523.9999294281 123 123 121
-650.854349136353 359.594941139221 2526.00002288818 121 121 119
-644.254744052887 359.760880470276 2526.99995040894 115 115 113
-637.396812438965 359.784662723541 2526.99995040894 111 111 109
-629.290580749512 359.096497297287 2522.0000743866 105 105 103
-619.23611164093 357.26922750473 2509.0000629425 121 121 119
-608.519196510315 355.014503002167 2493.00003051758 136 136 134
-599.336624145508 353.614062070847 2483.00004005432 129 129 127
-591.162145137787 352.783113718033 2476.99999809265 145 145 143
-583.255290985107 352.094501256943 2471.99988365173 149 149 147
-575.841248035431 351.690769195557 2469.00010108948 155 155 153
-567.981600761414 351.002067327499 2463.99998664856 154 154 152
-561.059415340424 350.883066654205 2463.00005912781 147 147 147
-555.042028427124 351.333945989609 2466.00008010864 183 183 183
-549.00735616684 351.784914731979 2469.00010108948 191 191 191
-542.735874652863 352.09333896637 2470.99995613098 186 186 186
-536.01861000061 352.116823196411 2470.99995613098 187 187 187
-529.943108558655 352.567762136459 2473.99997711182 192 192 192
-524.484753608704 353.446334600449 2480.00001907349 195 195 197
-519.201517105103 354.467421770096 2486.99998855591 200 200 202
-514.703392982483 356.058716773987 2497.99990653992 202 202 204
-509.331166744232 357.080012559891 2505.00011444092 194 195 197
-833.906352519989 366.462886333466 2628.00002098084 183 187 186
-821.75087928772 364.251255989075 2611.99998855591 150 154 153
-813.736736774445 363.852649927139 2608.99996757507 146 148 147
-803.883731365204 362.617522478104 2599.99990463257 156 158 155
-794.69233751297 361.661583185196 2592.99993515015 157 159 156
-783.716142177582 359.868884086609 2579.99992370605 157 159 156
-774.315476417542 358.773678541183 2572.00002670288 156 158 155
-765.554666519165 357.957631349564 2565.99998474121 152 152 150
-755.939185619354 356.723219156265 2556.99992179871 150 150 148
-746.665060520172 355.628430843353 2549.00002479553 145 145 143
-737.433969974518 354.533731937408 2540.99988937378 142 142 140
-729.395925998688 353.997260332108 2536.99994087219 137 137 135
-720.524728298187 353.042304515839 2529.99997138977 136 136 134
-712.255239486694 352.366507053375 2525.00009536743 135 135 133
-704.850435256958 352.109491825104 2523.00000190735 139 139 137
-698.839366436005 352.550536394119 2526.00002288818 139 139 137
-692.537426948547 352.852195501328 2528.00011634827 139 139 137
-685.95290184021 353.014409542084 2529.00004386902 139 139 137
-678.288221359253 352.618396282196 2526.00002288818 133 133 131
-671.702444553375 352.780938148499 2526.99995040894 130 130 128
-665.110647678375 352.943658828735 2528.00011634827 128 128 126
-658.772945404053 353.246033191681 2529.99997138977 126 126 124
-651.393115520477 352.990090847015 2528.00011634827 124 124 122
-645.043194293976 353.292763233185 2529.99997138977 118 118 116
-638.429462909698 353.455871343613 2530.99989891052 114 114 112
-631.310403347015 353.33976149559 2529.99997138977 108 108 106
-621.48106098175 351.687401533127 2517.99988746643 97 97 95
-610.739588737488 349.476128816605 2502.00009346008 139 139 137
-600.808382034302 347.683668136597 2489.00008201599 129 129 127
-591.662883758545 346.310049295425 2479.00009155273 141 141 139
-583.278656005859 345.355421304703 2471.99988365173 149 149 147
-575.631439685822 344.819843769073 2467.99993515015 149 149 147
-568.235456943512 344.423919916153 2464.99991416931 150 150 148
-561.082720756531 344.167679548264 2463.00005912781 147 147 147
-554.840266704559 344.470351934433 2464.99991416931 181 181 181
-548.808336257935 344.912827014923 2467.99993515015 185 185 185
-542.75918006897 345.355331897736 2470.99995613098 182 182 182
-536.692798137665 345.797806978226 2473.99997711182 185 185 185
-530.394852161407 346.100568771362 2476.0000705719 191 191 191
-524.719536304474 346.822649240494 2480.99994659424 194 194 196
-519.016087055206 347.544759511948 2486.00006103516 201 201 203
-514.72669839859 349.245548248291 2497.99990653992 203 203 205
-509.557723999023 350.387275218964 2506.00004196167 200 201 203
-504.544854164124 351.668864488602 2515.00010490417 200 201 203
-836.781620979309 360.535770654678 2637.00008392334 187 191 190
-824.916541576386 358.504325151443 2621.99997901917 149 153 152
-815.316259860992 357.430189847946 2614.00008201599 141 143 142
-805.449843406677 356.219381093979 2605.00001907349 141 143 140
-795.632123947144 355.008840560913 2595.99995613098 143 145 142
-783.432900905609 352.704346179962 2578.9999961853 149 151 148
-773.432970046997 351.357191801071 2569.00000572205 151 153 150
-764.978766441345 350.694000720978 2563.99989128113 153 153 151
-756.255984306335 349.894285202026 2558.00008773804 152 152 150
-747.565150260925 349.094659090042 2552.00004577637 145 145 143
-738.035798072815 347.884714603424 2542.99998283386 142 142 140
-730.567514896393 347.632586956024 2540.99988937378 137 137 135
-721.685707569122 346.696525812149 2533.99991989136 136 136 134
-713.969647884369 346.307784318924 2530.99989891052 135 135 133
-706.269502639771 345.919251441956 2528.00011634827 139 139 137
-700.244903564453 346.351832151413 2530.99989891052 138 138 136
-693.381786346436 346.374124288559 2530.99989891052 138 138 136
-686.246693134308 346.25968337059 2529.99997138977 138 138 136
-678.310930728912 345.734745264053 2526.00002288818 132 132 130
-671.991109848022 346.031188964844 2528.00011634827 130 130 128
-665.396630764008 346.190840005875 2529.00004386902 125 125 123
-659.316897392273 346.624493598938 2532.00006484985 123 123 121
-651.674032211304 346.236824989319 2529.00004386902 122 122 120
-645.321488380432 346.533745527267 2530.99989891052 117 117 115
-639.209628105164 346.967756748199 2533.99991989136 113 113 111
-633.080661296844 347.401887178421 2536.99994087219 108 108 106
-624.219536781311 346.329718828201 2529.00004386902 94 94 92
-613.448143005371 344.161868095398 2513.00001144409 135 135 133
-602.762758731842 341.993778944016 2496.99997901917 129 129 127
-592.879414558411 340.236335992813 2483.99996757507 138 138 136
-583.773791790009 338.889628648758 2473.99997711182 145 145 143
-575.887799263 338.227689266205 2469.00010108948 148 148 146
-568.950116634369 338.113635778427 2467.99993515015 149 149 147
-561.789214611053 337.862581014633 2466.00008010864 156 156 156
-555.313467979431 338.022500276566 2467.00000762939 180 180 180
-549.276173114777 338.45654129982 2470.00002861023 183 183 183
-543.221592903137 338.890552520752 2473.00004959106 180 180 180
-536.715805530548 339.050501585007 2473.99997711182 183 183 183
-531.060516834259 339.758634567261 2479.00009155273 190 190 190
-525.377094745636 340.466856956482 2483.99996757507 192 192 194
-519.456565380096 341.037929058075 2487.99991607666 199 199 201
-514.131546020508 342.020332813263 2494.99988555908 203 203 205
-509.174108505249 343.277007341385 2503.99994850159 201 202 204
-503.163456916809 343.848168849945 2507.99989700317 194 195 197
-836.166143417358 353.085219860077 2634.99999046326 192 196 195
-824.621438980103 351.228475570679 2621.00005149841 157 161 160
-814.400136470795 349.907875061035 2611.00006103516 147 149 148
-805.160701274872 348.989486694336 2604.00009155273 143 145 142
-796.571791172028 348.339289426804 2598.99997711182 141 143 140
-785.579681396484 346.617072820663 2585.99996566772 136 138 135
-776.765286922455 345.8331823349 2579.99992370605 136 138 135
-768.281579017639 345.183551311493 2575.00004768372 139 139 137
-759.824633598328 344.534039497375 2569.9999332428 140 140 138
-749.636769294739 343.080312013626 2559.00001525879 140 140 138
-738.927781581879 341.358453035355 2546.0000038147 139 139 137
-731.16409778595 340.977430343628 2542.99998283386 136 136 134
-722.846567630768 340.328395366669 2538.00010681152 136 136 134
-715.683937072754 340.21583199501 2536.99994087219 137 137 135
-707.688271999359 339.701116085052 2532.99999237061 134 134 132
-701.097011566162 339.857131242752 2533.99991989136 134 134 132
-693.403959274292 339.476764202118 2530.99989891052 135 135 133
-686.269104480743 339.364767074585 2529.99997138977 136 136 134
-678.064942359924 338.716387748718 2525.00009536743 133 133 131
-672.013700008392 339.141190052032 2528.00011634827 131 131 129
-665.945589542389 339.566230773926 2530.99989891052 128 128 126
-659.860491752625 339.991390705109 2533.99991989136 126 126 124
-652.469992637634 339.745819568634 2532.00006484985 125 125 123
-645.854532718658 339.902877807617 2532.99999237061 121 121 119
-639.737248420715 340.328395366669 2536.00001335144 118 118 116
-633.602976799011 340.754061937332 2539.00003433228 109 109 107
-625.970542430878 340.374529361725 2536.00001335144 109 109 107
-616.15651845932 338.786959648132 2523.9999294281 123 123 121
-605.682671070099 336.796551942825 2509.0000629425 128 128 126
-594.095885753632 334.134697914124 2489.00008201599 141 141 139
-584.268629550934 332.41218328476 2476.0000705719 134 134 132
-575.910568237305 331.495046615601 2469.00010108948 140 140 138
-569.203495979309 331.51775598526 2469.00010108948 148 148 146
-562.267601490021 331.406086683273 2467.99993515015 169 169 169
-555.561363697052 331.428736448288 2467.99993515015 177 177 177
-549.966096878052 332.122892141342 2473.00004959106 177 177 177
-543.683648109436 332.414090633392 2474.99990463257 178 178 178
-537.172496318817 332.571059465408 2476.0000705719 182 182 182
-530.44056892395 332.593649625778 2476.0000705719 189 189 189
-524.553716182709 333.153516054153 2480.00001907349 190 190 192
-519.061744213104 333.982110023499 2486.00006103516 197 197 199
-513.948202133179 335.079401731491 2493.99995803833 201 201 203
-508.99338722229 336.311131715775 2503.00002098084 203 204 206
-502.98547744751 336.871117353439 2506.99996948242 192 193 195
-835.867881774902 345.776468515396 2634.0000629425 191 195 194
-823.696851730347 343.695074319839 2618.00003051758 162 166 165
-812.548160552979 342.007577419281 2605.00001907349 148 150 149
-803.943514823914 341.370612382889 2599.99990463257 144 146 143
-795.978724956512 340.996414422989 2596.99988365173 143 145 142
-786.511242389679 339.965999126434 2588.99998664856 139 141 138
-777.688920497894 339.19820189476 2582.99994468689 137 139 136
-768.302142620087 338.167995214462 2575.00004768372 137 137 135
-759.845376014709 337.531924247742 2569.9999332428 137 137 135
-749.6577501297 336.107909679413 2559.00001525879 138 138 136
-740.690171718597 335.209310054779 2552.00004577637 136 136 134
-732.335269451141 334.573566913605 2546.99993133545 137 137 135
-724.291920661926 334.069281816483 2542.99998283386 137 137 135
-717.116057872772 333.95928144455 2542.00005531311 136 136 134
-709.106922149658 333.455264568329 2538.00010681152 135 135 133
-701.948940753937 333.345502614975 2536.99994087219 135 135 133
-693.973779678345 332.841634750366 2532.99999237061 134 134 132
-686.019897460938 332.337945699692 2529.00004386902 133 133 131
-678.355574607849 331.965684890747 2526.00002288818 131 131 129
-671.770095825195 332.119166851044 2526.99995040894 131 131 129
-666.231155395508 332.798600196838 2532.00006484985 127 127 125
-660.403847694397 333.346754312515 2536.00001335144 125 125 123
-654.038846492767 333.632171154022 2538.00010681152 123 123 121
-647.152185440063 333.654791116714 2538.00010681152 119 119 117
-640.769243240356 333.940446376801 2539.99996185303 116 116 114
-634.125053882599 334.094673395157 2540.99988937378 109 109 107
-627.474665641785 334.249049425125 2542.00005531311 106 106 104
-619.109034538269 333.482921123505 2536.00001335144 104 104 102
-609.085261821747 331.796199083328 2523.00000190735 118 118 116
-596.266746520996 328.53102684021 2497.99990653992 138 138 136
-584.999084472656 326.054662466049 2479.00009155273 133 133 131
-576.399624347687 325.02481341362 2470.99995613098 134 134 132
-569.687068462372 325.047165155411 2470.99995613098 145 145 143
-563.201427459717 325.201094150543 2471.99988365173 171 171 171
-556.484282016754 325.223445892334 2471.99988365173 180 180 180
-550.655841827393 325.772106647491 2476.0000705719 170 170 170
-543.925881385803 325.794488191605 2476.0000705719 180 180 180
-537.194907665253 325.816750526428 2476.0000705719 179 179 179
-530.677199363709 325.970619916916 2476.99999809265 192 192 192
-524.576127529144 326.387673616409 2480.00001907349 195 195 197
-519.501686096191 327.462822198868 2487.99991607666 193 193 195
-513.558387756348 328.011512756348 2492.00010299683 197 197 199
-509.422540664673 329.744935035706 2505.00011444092 203 204 206
-504.011034965515 330.688565969467 2512.00008392334 198 199 201
-832.395911216736 337.187200784683 2622.99990653992 192 196 195
-820.884108543396 335.406243801117 2608.99996757507 164 168 167
-811.319708824158 334.396749734879 2601.0000705719 149 151 150
-803.963005542755 334.287464618683 2599.99990463257 147 149 146
-796.918094158173 334.306955337524 2599.99990463257 147 149 146
-788.050174713135 333.55525135994 2594.00010108948 146 148 145
-778.913378715515 332.675039768219 2586.99989318848 145 147 144
-768.620848655701 331.280618906021 2575.99997520447 144 144 142
-759.865939617157 330.529272556305 2569.9999332428 143 143 141
-750.557243824005 329.520851373672 2562.00003623962 140 140 138
-741.581857204437 328.641176223755 2555.0000667572 138 138 136
-732.643842697144 327.761501073837 2548.00009727478 137 137 135
-724.313080310822 327.139228582382 2542.99998283386 137 137 135
-717.137336730957 327.031672000885 2542.00005531311 136 136 134
-709.687113761902 326.795548200607 2539.99996185303 135 135 133
-702.52388715744 326.688259840012 2539.00003433228 134 134 132
-694.269478321075 326.06640458107 2533.99991989136 134 134 132
-686.584234237671 325.701981782913 2530.99989891052 133 133 131
