ply
format ascii 1.0
comment KinectMotionCapture
element vertex 799
property float x
property float y
property float z
property uchar red
property uchar green
property uchar blue
end_header
154.374659061432 344.110608100891 2877.00009346008 14 17 10
162.21484541893 344.101905822754 2877.00009346008 3 6 0
170.231759548187 344.451606273651 2880.00011444092 5 8 1
177.893400192261 344.083309173584 2877.00009346008 15 18 11
185.796245932579 344.192981719971 2878.00002098084 21 24 17
194.443985819817 345.617771148682 2890.00010490417 20 23 16
203.576445579529 347.759604454041 2907.99999237061 15 18 11
212.660774588585 349.661707878113 2924.00002479553 14 17 10
221.378728747368 350.845813751221 2934.00001525879 15 18 11
227.179691195488 347.485601902008 2905.99989891052 14 15 9
234.445348381996 346.516638994217 2898.00000190735 9 12 5
241.666585206985 345.547378063202 2890.00010490417 21 24 17
251.347362995148 348.04505109787 2911.00001335144 18 21 14
259.538441896439 348.390161991119 2914.00003433228 23 25 20
268.203854560852 349.332630634308 2921.99993133545 28 30 25
277.857005596161 351.470142602921 2940.00005722046 31 33 28
-132.842496037483 348.934978246689 2984.99989509583 196 201 197
-124.203860759735 347.539186477661 2973.00004959106 180 185 178
-115.708284080029 346.376717090607 2963.00005912781 178 179 173
-107.484742999077 345.915168523788 2959.00011062622 173 170 161
-99.450595676899 346.037715673447 2960.00003814697 179 175 166
-91.5341004729271 346.627444028854 2964.99991416931 179 170 161
-83.4774151444435 346.749126911163 2966.00008010864 182 173 164
-75.4912123084068 347.221106290817 2970.00002861023 180 173 165
-67.3921406269073 347.225040197372 2970.00002861023 210 207 198
-58.8136836886406 344.42263841629 2946.00009918213 25 26 20
-50.2452291548252 340.801298618317 2914.99996185303 25 28 21
-42.6291972398758 343.492835760117 2937.99996376038 19 22 15
-34.5458574593067 342.793464660645 2931.99992179871 26 29 20
-26.4498386532068 341.509103775024 2921.0000038147 23 26 17
-18.3947347104549 339.873492717743 2907.00006484985 25 28 19
-10.5203380808234 341.628015041351 2921.99993133545 21 24 15
-2.55185784772038 341.745316982269 2923.00009727478 12 15 6
28.8946591317654 336.598128080368 2878.99994850159 16 19 10
37.0272845029831 339.168459177017 2901.00002288818 16 19 10
44.7995476424694 338.113963603973 2891.99995994568 17 20 11
52.7047291398048 338.228225708008 2892.99988746643 8 11 4
60.6570579111576 338.575839996338 2895.99990844727 10 13 6
68.5308277606964 338.455379009247 2894.99998092651 63 66 59
76.3460695743561 338.100671768188 2891.99995994568 87 90 83
84.1446816921234 337.745606899261 2888.99993896484 142 145 138
92.0540168881416 337.857693433762 2890.00010490417 121 124 117
99.691815674305 337.0341360569 2882.99989700317 69 72 65
107.402972877026 336.560845375061 2878.99994850159 63 66 59
115.252062678337 336.554795503616 2878.99994850159 60 63 56
123.442776501179 337.483555078506 2887.00008392334 38 41 34
131.403729319572 337.710410356522 2888.99993896484 17 20 13
139.230459928513 337.586224079132 2888.00001144409 9 12 5
146.69468998909 336.643368005753 2880.00011444092 2 5 0
154.168397188187 335.817039012909 2872.99990653992 12 15 8
161.885321140289 335.574775934219 2871.00005149841 17 20 13
170.004531741142 336.150258779526 2875.99992752075 13 16 9
177.903011441231 336.257815361023 2877.00009346008 15 18 11
186.387315392494 337.416857481003 2887.00008392334 16 19 12
195.194587111473 339.042872190475 2901.00002288818 18 21 14
203.867420554161 340.317815542221 2911.99994087219 14 17 10
212.81760931015 341.942876577377 2926.00011825562 12 15 8
219.730466604233 340.295344591141 2911.99994087219 16 19 12
227.739065885544 340.40042757988 2913.00010681152 38 39 33
236.075848340988 340.972483158112 2917.99998283386 27 30 23
246.278762817383 344.114750623703 2944.9999332428 21 24 17
252.310425043106 341.414272785187 2921.99993133545 25 28 21
255.098551511765 334.624350070953 2864.00008201599 28 31 24
266.290277242661 338.933676481247 2901.00002288818 26 28 23
-133.072167634964 341.38435125351 2990.00000953674 196 201 195
-124.544784426689 340.363621711731 2980.99994659424 193 194 186
-116.065986454487 339.342385530472 2971.99988365173 195 192 183
-107.708491384983 338.549107313156 2964.99991416931 173 167 155
-99.5567515492439 338.326275348663 2963.00005912781 134 126 115
-91.5699228644371 338.673949241638 2966.00008010864 116 104 92
-83.4537819027901 338.564395904541 2964.99991416931 119 107 95
-75.4444599151611 338.911265134811 2967.99993515015 105 95 85
-67.2596395015717 338.458329439163 2963.99998664856 36 30 18
-59.4357773661613 339.946180582047 2976.99999809265 7 3 0
-50.8340410888195 336.751818656921 2948.99988174438 16 16 8
-42.3267930746078 333.100169897079 2917.00005531311 24 27 18
-34.3709886074066 333.102226257324 2917.00005531311 21 24 15
-26.3969451189041 332.875490188599 2914.99996185303 18 21 12
-18.3577686548233 331.277966499329 2901.00002288818 16 19 10
-10.4669025167823 331.963896751404 2907.00006484985 17 20 11
-2.54850438795984 333.334594964981 2918.99991035461 18 21 12
5.4483450949192 335.504204034805 2937.99996376038 11 14 5
29.4081121683121 334.587842226028 2930.0000667572 18 21 12
36.8250645697117 329.447358846664 2884.99999046326 16 19 10
44.7400137782097 329.787731170654 2888.00001144409 12 15 6
52.8351217508316 331.15541934967 2900.00009536743 13 14 8
60.8907528221607 331.951707601547 2907.00006484985 15 16 10
68.652905523777 331.148892641068 2900.00009536743 5 6 0
76.1654078960419 329.432159662247 2884.99999046326 9 10 4
84.032729268074 329.427897930145 2884.99999046326 17 18 12
92.0908376574516 330.108284950256 2891.00003242493 13 14 8
99.6971875429153 329.189658164978 2882.99989700317 11 12 6
107.110306620598 327.813982963562 2871.00005149841 13 14 8
114.37751352787 326.20957493782 2857.00011253357 18 19 13
123.449400067329 329.628556966782 2887.00008392334 15 16 10
131.911128759384 331.106066703796 2900.00009536743 11 12 6
139.671847224236 330.756366252899 2897.0000743866 8 11 4
146.600648760796 328.579515218735 2878.00002098084 4 7 0
153.85465323925 327.315717935562 2867.00010299683 5 8 1
161.555603146553 327.079057693481 2865.00000953674 15 18 11
169.658854603767 327.641129493713 2869.99988555908 18 21 14
178.159788250923 328.887760639191 2881.00004196167 10 13 6
186.268031597137 329.334825277328 2884.99999046326 15 18 11
194.464728236198 329.89564538002 2890.00010490417 27 30 23
202.967971563339 330.912590026855 2898.9999294281 21 24 17
211.446762084961 331.814974546433 2907.00006484985 13 16 9
219.440132379532 331.91791176796 2907.99999237061 21 24 17
227.516368031502 332.134634256363 2910.00008583069 51 52 46
236.573576927185 333.720535039902 2924.00002479553 41 44 37
245.873391628265 335.534185171127 2940.00005722046 26 29 22
252.927958965302 334.266006946564 2928.99990081787 32 35 28
255.111694335938 326.835185289383 2864.00008201599 32 35 28
265.018790960312 329.446583986282 2887.00008392334 29 31 26
281.09934926033 339.360445737839 2973.99997711182 32 34 29
-133.791297674179 335.031300783157 3006.00004196167 197 199 194
-125.010937452316 333.477646112442 2992.00010299683 123 120 111
-116.462662816048 332.369387149811 2982.00011253357 84 77 67
-108.004823327065 331.372112035751 2973.00004959106 98 88 76
-99.7300371527672 330.820232629776 2967.99993515015 112 98 85
-91.5130227804184 330.379396677017 2963.99998664856 128 112 97
-83.2330361008644 329.603731632233 2957.00001716614 136 120 105
-75.1942619681358 329.719364643097 2957.99994468689 137 123 110
-67.1270489692688 329.723089933395 2957.99994468689 91 81 69
-59.4189800322056 331.732898950577 2976.0000705719 18 10 0
-50.8712194859982 328.949004411697 2950.99997520447 17 14 5
-42.5176918506622 326.610565185547 2930.0000667572 31 31 21
-34.3139059841633 324.606150388718 2911.99994087219 21 24 15
-26.4889094978571 326.056867837906 2924.99995231628 20 23 14
-18.415704369545 324.38600063324 2910.00008583069 19 22 13
-10.460258461535 323.829352855682 2904.99997138977 17 20 11
-2.56173685193062 327.062427997589 2934.00001525879 13 16 7
5.40598062798381 324.944347143173 2914.99996185303 17 20 11
13.2379503920674 322.045594453812 2888.99993896484 7 10 1
21.0376810282469 320.818454027176 2878.00002098084 17 20 11
29.2691513895988 325.053066015244 2915.99988937378 18 21 12
37.0695628225803 323.713690042496 2904.00004386902 28 31 22
44.293113052845 318.695336580276 2858.99996757507 21 22 16
52.2913336753845 319.91896033287 2869.99988555908 11 12 6
60.663565993309 322.814166545868 2895.99990844727 12 13 7
68.1593790650368 320.915848016739 2878.99994850159 24 25 19
75.4566043615341 318.571269512177 2858.00004005432 12 13 7
83.7458893656731 320.461988449097 2875 15 16 10
91.6178673505783 320.568829774857 2875.99992752075 9 10 4
99.3912220001221 320.340931415558 2874.00007247925 26 27 21
106.817491352558 319.109469652176 2862.99991607666 21 22 16
113.823033869267 316.874504089355 2842.99993515015 8 9 3
122.643426060677 319.654792547226 2868.00003051758 11 12 6
131.9180727005 323.214709758759 2900.00009536743 16 17 11
139.004155993462 321.312963962555 2882.99989700317 11 14 7
146.455526351929 320.413947105408 2875 19 22 15
153.487011790276 318.734437227249 2859.99989509583 8 11 4
160.492599010468 317.166119813919 2845.99995613098 12 15 8
173.037424683571 326.184272766113 2927.00004577637 15 18 11
178.787484765053 322.163432836533 2891.00003242493 8 11 4
186.084002256393 321.15113735199 2881.99996948242 24 27 20
193.599984049797 320.584237575531 2877.00009346008 27 30 23
201.438069343567 320.574134588242 2877.00009346008 21 24 17
209.493666887283 320.897966623306 2880.00011444092 14 17 10
217.26293861866 320.775657892227 2878.99994850159 18 21 14
227.137088775635 323.661237955093 2904.99997138977 35 36 30
236.262008547783 325.320720672607 2920.00007629395 31 34 27
242.875084280968 323.526084423065 2904.00004386902 27 30 23
252.768099308014 326.075911521912 2927.00004577637 28 31 24
258.776873350143 323.61227273941 2904.99997138977 33 36 29
277.427047491074 326.927363872528 2934.99994277954 32 34 29
-135.088995099068 330.003440380096 3035.00008583069 200 199 194
-125.644162297249 326.965510845184 3006.99996948242 131 121 109
-116.624921560287 324.688285589218 2986.00006103516 110 98 84
-107.90142416954 322.95423746109 2970.00002861023 153 136 120
-99.7015982866287 322.633296251297 2967.00000762939 156 135 118
-91.3016349077225 321.550816297531 2957.00001716614 163 138 118
-83.0966010689735 321.011573076248 2951.99990272522 152 130 109
-74.9948024749756 320.798188447952 2950.00004768372 138 119 102
-67.0397654175758 321.236789226532 2953.9999961853 135 118 102
-58.9029267430305 320.805042982101 2950.00004768372 23 14 0
-50.5290813744068 318.741649389267 2930.99999427795 32 24 11
-42.2877185046673 316.895306110382 2914.00003433228 23 25 14
-26.4450088143349 317.551344633102 2920.00007629395 20 23 14
-18.4483081102371 317.008763551712 2914.99996185303 20 23 14
-10.4175927117467 314.61700797081 2892.99988746643 20 23 14
-2.52519780769944 314.508587121964 2891.99995994568 17 20 11
5.36360638216138 314.508497714996 2891.99995994568 17 20 11
13.2569717243314 314.616769552231 2892.99988746643 40 43 34
21.0095383226871 312.549620866776 2874.00007247925 31 34 25
36.4204458892345 310.262888669968 2852.9999256134 10 13 4
53.4237585961819 318.849444389343 2931.99992179871 12 11 6
60.9600096940994 316.45405292511 2910.00008583069 13 12 7
67.8314715623856 311.55714392662 2865.00000953674 24 23 18
75.2228945493698 309.813559055328 2848.99997711182 20 19 14
82.4684947729111 307.85208940506 2831.00008964539 19 18 13
90.7943248748779 309.913694858551 2849.99990463257 15 14 9
98.8084450364113 310.670077800751 2857.00011253357 24 23 18
106.337957084179 309.903591871262 2849.99990463257 21 20 15
114.029109477997 309.680491685867 2848.00004959106 19 18 13
122.307613492012 310.979276895523 2859.99989509583 18 17 12
130.651116371155 312.277644872665 2871.99997901917 15 16 10
138.722017407417 312.814444303513 2877.00009346008 12 15 8
145.495101809502 310.523897409439 2855.99994659424 8 11 4
153.119206428528 310.190141201019 2852.9999256134 16 19 12
170.977026224136 314.413905143738 2891.99995994568 12 15 8
178.796589374542 314.296364784241 2891.00003242493 13 16 9
185.964316129684 313.091337680817 2880.00011444092 19 22 15
193.206027150154 312.103390693665 2871.00005149841 18 21 14
200.047865509987 310.571640729904 2857.00011253357 19 22 15
207.685619592667 310.344070196152 2855.00001907349 18 21 14
218.556821346283 314.79012966156 2895.99990844727 11 14 7
227.695822715759 316.518187522888 2911.99994087219 19 20 12
235.464662313461 316.289335489273 2910.00008583069 20 23 14
246.149107813835 319.864153862 2943.00007820129 27 30 21
255.63058257103 321.699410676956 2960.00003814697 18 21 14
265.381932258606 323.751538991928 2979.00009155273 30 33 26
267.156809568405 316.239923238754 2910.00008583069 33 36 29
280.955016613007 313.93113732338 2888.99993896484 35 40 34
-125.817656517029 319.204449653625 3010.99991798401 153 141 129
-116.396471858025 315.924078226089 2980.00001907349 148 132 119
-107.616230845451 314.021408557892 2961.99989318848 158 137 120
-99.4378328323364 313.708573579788 2959.00011062622 170 145 125
-91.1210104823112 312.865167856216 2950.99997520447 171 144 123
-82.9600840806961 312.445461750031 2947.00002670288 162 135 114
-74.8714953660965 312.23738193512 2944.9999332428 142 120 99
-66.8843165040016 312.453001737595 2947.00002670288 131 112 95
-58.8460229337215 312.456160783768 2947.00002670288 63 51 37
-50.393745303154 309.914350509644 2923.00009727478 11 3 0
-42.2898791730404 308.962434530258 2914.00003433228 25 27 16
-34.4824343919754 310.236722230911 2926.00011825562 22 25 16
-26.5459883958101 310.768395662308 2930.99999427795 18 21 12
-18.3100085705519 306.740403175354 2892.99988746643 15 18 9
-10.4001192376018 306.210994720459 2888.00001144409 16 19 10
-2.50436970964074 304.090768098831 2868.00003051758 20 23 14
5.38613740354776 307.907700538635 2904.00004386902 19 22 13
13.2439006119967 306.422829627991 2890.00010490417 33 36 27
21.1056526750326 306.10391497612 2887.00008392334 28 31 22
29.0914867073298 307.2689473629 2898.00000190735 10 13 4
36.8180647492409 305.78288435936 2884.0000629425 8 11 2
45.4132594168186 310.764074325562 2930.99999427795 7 10 1
53.3171519637108 310.231447219849 2926.00011825562 13 12 7
61.5916028618813 311.712920665741 2940.00005722046 14 13 8
67.905955016613 304.07589673996 2868.00003051758 14 13 8
74.9890804290771 301.103621721268 2839.99991416931 15 14 9
82.5309455394745 300.357520580292 2832.99994468689 15 14 9
90.2573317289352 300.353199243546 2832.99994468689 17 16 11
98.467580974102 301.832735538483 2846.99988365173 16 15 10
106.119476258755 301.509529352188 2844.00010108948 16 15 10
114.034883677959 301.928073167801 2848.00004959106 23 22 17
121.971659362316 302.346229553223 2851.99999809265 23 22 17
130.020797252655 302.976012229919 2858.00004005432 16 17 11
137.427046895027 302.121251821518 2849.99990463257 14 17 10
145.706191658974 303.174257278442 2859.99989509583 14 17 10
161.862388253212 304.219037294388 2869.99988555908 15 18 11
169.921338558197 304.634809494019 2874.00007247925 10 13 6
178.37256193161 305.686175823212 2884.0000629425 14 17 10
185.456991195679 304.405301809311 2871.99997901917 18 21 14
192.609906196594 303.336143493652 2861.99998855591 18 21 14
198.447212576866 300.358951091766 2834.00011062622 28 31 24
206.67739212513 301.090896129608 2841.00008010864 21 24 17
217.586442828178 305.531650781631 2882.99989700317 9 12 5
225.51754117012 305.626899003983 2884.0000629425 17 18 10
232.805848121643 304.87397313118 2877.00009346008 19 22 13
241.058871150017 305.392324924469 2881.99996948242 17 20 11
251.324743032455 308.347433805466 2910.00008583069 18 21 12
258.26770067215 307.169646024704 2898.9999294281 24 27 20
272.538334131241 305.448979139328 2882.99989700317 22 25 18
-126.116380095482 311.730235815048 3017.99988746643 145 131 118
-116.402231156826 307.811141014099 2980.00001907349 149 131 117
-107.367232441902 305.234253406525 2954.99992370605 165 139 122
-99.1403087973595 304.722875356674 2950.00004768372 179 151 130
-90.9093841910362 304.10772562027 2944.00000572205 170 140 116
-82.936055958271 304.318606853485 2946.00009918213 160 128 105
-74.8752281069756 304.219216108322 2944.9999332428 135 108 87
-66.842257976532 304.222702980042 2944.9999332428 127 106 87
-58.7690845131874 304.019182920456 2943.00007820129 98 85 69
-50.6721176207066 303.608655929565 2938.99989128113 26 17 2
-42.5967760384083 303.197741508484 2934.99994277954 24 20 8
-34.6962958574295 304.129421710968 2944.00000572205 18 21 12
-26.511088013649 302.374750375748 2927.00004577637 18 21 12
-18.3425731956959 299.379974603653 2898.00000190735 16 19 10
-10.2998027577996 295.455038547516 2859.99989509583 13 16 7
-2.51060794107616 297.004967927933 2875 13 16 7
5.35487476736307 298.244565725327 2887.00008392334 19 22 13
13.2353994995356 298.347443342209 2888.00001144409 25 28 19
21.1871266365051 299.379646778107 2898.00000190735 22 25 16
29.2033683508635 300.514757633209 2908.99991989136 15 18 9
37.2539795935154 301.442861557007 2917.99998283386 13 16 7
45.1211221516132 300.820976495743 2911.99994087219 11 14 5
53.3198192715645 302.264839410782 2926.00011825562 10 11 5
60.8404576778412 299.989342689514 2904.00004386902 11 12 6
68.0987685918808 297.093719244003 2875.99992752075 13 14 8
90.5804187059402 293.673127889633 2842.99993515015 13 14 8
98.5070690512657 294.184982776642 2848.00004959106 18 19 13
106.535196304321 294.902980327606 2855.00001907349 18 19 13
114.160664379597 294.484436511993 2851.0000705719 19 20 14
121.977686882019 294.581919908524 2851.99999809265 19 20 14
129.617750644684 294.265896081924 2848.99997711182 13 16 9
137.916028499603 295.395523309708 2859.99989509583 11 14 7
162.99831867218 298.472076654434 2890.00010490417 11 14 7
171.644330024719 299.80656504631 2903.00011634827 9 12 5
177.206069231033 295.873731374741 2865.00000953674 12 15 8
184.691086411476 295.348674058914 2859.99989509583 19 22 15
190.330997109413 292.035132646561 2828.00006866455 18 21 14
198.876976966858 293.264925479889 2839.99991416931 23 26 19
207.924157381058 295.113921165466 2858.00004005432 20 23 16
218.125283718109 298.408001661301 2890.00010490417 13 16 9
223.416954278946 294.990122318268 2857.00011253357 18 19 11
231.117591261864 294.87606883049 2855.99994659424 19 22 13
238.811925053596 294.761717319489 2855.00001907349 17 20 11
248.054638504982 296.505361795425 2871.99997901917 18 21 12
259.25999879837 300.416469573975 2910.00008583069 22 25 18
262.040674686432 294.623166322708 2854.00009155273 32 35 28
284.094005823135 301.513940095901 2921.0000038147 17 22 15
-126.415029168129 304.216831922531 3025.00009536743 141 125 112
-116.564109921455 300.099313259125 2983.99996757507 149 131 117
-107.481434941292 297.489851713181 2957.99994468689 165 138 121
-99.1451069712639 296.690225601196 2950.00004768372 175 144 124
-90.9446775913239 296.191930770874 2944.9999332428 154 122 99
-83.0245539546013 296.59840464592 2948.99988174438 145 113 90
-74.9805718660355 296.602189540863 2948.99988174438 126 99 78
-66.8682083487511 296.303898096085 2946.00009918213 121 98 80
-58.7519779801369 295.904606580734 2941.99991226196 103 90 74
-50.5711399018765 295.002043247223 2933.00008773804 30 20 8
-42.7730232477188 296.412408351898 2947.00002670288 29 25 13
-34.2972688376904 292.69278049469 2910.00008583069 19 22 13
-26.5757888555527 295.108199119568 2934.00001525879 17 20 11
-18.3434709906578 291.488319635391 2898.00000190735 15 18 9
-10.3219160810113 288.270354270935 2865.9999370575 17 20 11
-2.51684384420514 289.880007505417 2881.99996948242 20 23 14
5.35142701119184 290.181666612625 2884.99999046326 15 18 9
13.2543770596385 290.885299444199 2891.99995994568 18 21 12
21.1662258952856 291.186213493347 2894.99998092651 16 19 10
29.3453484773636 294.001311063766 2923.00009727478 15 18 9
37.255797535181 293.496787548065 2917.99998283386 13 16 7
44.8599010705948 291.181415319443 2894.99998092651 9 10 4
52.4659007787704 289.569795131683 2878.99994850159 10 11 5
60.3196248412132 289.567053318024 2878.99994850159 12 13 7
67.4864202737808 286.647230386734 2849.99990463257 13 14 8
75.4453912377357 287.347823381424 2857.00011253357 12 13 7
83.7918743491173 289.25496339798 2875.99992752075 9 10 4
90.584821999073 285.931766033173 2842.99993515015 9 10 4
98.8923236727715 287.536412477493 2858.99996757507 19 20 14
106.838896870613 287.933766841888 2862.99991607666 18 19 13
114.40646648407 287.325084209442 2857.00011253357 18 19 13
122.111901640892 287.118285894394 2855.00001907349 18 19 13
153.893247246742 288.298755884171 2867.00010299683 8 11 4
164.359837770462 293.017357587814 2914.00003433228 9 12 5
172.125577926636 292.707771062851 2911.00001335144 10 13 6
178.822755813599 290.688455104828 2891.00003242493 14 17 10
184.376940131187 287.060171365738 2855.00001907349 21 24 17
191.013097763062 285.34209728241 2838.00005912781 18 21 14
199.236571788788 286.036729812622 2845.00002861023 18 21 14
208.152234554291 287.635833024979 2861.00006103516 19 22 15
217.305257916451 289.435535669327 2878.99994850159 18 21 14
226.008161902428 290.531098842621 2890.00010490417 19 20 12
231.452107429504 287.504613399506 2859.99989509583 20 23 14
239.157691597939 287.393271923065 2858.99996757507 19 22 13
249.62092936039 290.498107671738 2890.00010490417 20 23 14
261.41032576561 294.909089803696 2934.00001525879 23 26 17
265.63373208046 290.776014328003 2892.99988746643 30 33 26
-125.919491052628 294.805109500885 3013.00001144409 139 122 112
-116.374313831329 291.484028100967 2979.00009155273 149 129 118
-107.341192662716 289.043039083481 2953.9999961853 162 135 118
-99.0489795804024 288.362920284271 2947.00002670288 157 126 106
-91.0107642412186 288.367420434952 2947.00002670288 124 89 67
-83.1129625439644 288.860738277435 2951.99990272522 114 82 59
-75.136698782444 289.158016443253 2954.99992370605 105 78 57
-67.0075863599777 288.867771625519 2951.99990272522 112 91 72
-58.9145496487617 288.675040006638 2950.00004768372 74 62 48
-50.7114939391613 287.796914577484 2940.99998474121 18 10 0
-42.2380156815052 284.765511751175 2910.00008583069 22 24 13
-34.169252961874 283.690899610519 2898.9999294281 21 24 15
-26.4683552086353 285.943061113358 2921.99993133545 22 25 16
-18.4899363666773 285.846263170242 2921.0000038147 21 24 15
-10.3980442509055 282.51975774765 2887.00008392334 19 22 13
-2.5195840280503 282.324314117432 2884.99999046326 15 18 9
5.36466762423515 283.009260892868 2891.99995994568 14 17 8
13.2045950740576 281.932383775711 2881.00004196167 13 16 7
21.2037973105907 283.79088640213 2900.00009536743 12 15 6
29.276467859745 285.355448722839 2915.99988937378 16 19 10
37.4107994139194 286.723911762238 2930.0000667572 14 17 8
44.5986092090607 281.633377075195 2878.00002098084 13 16 9
52.541296929121 282.120317220688 2882.99989700317 13 16 9
59.3586787581444 277.224898338318 2832.99994468689 12 15 8
67.8922012448311 280.548989772797 2867.00010299683 11 14 7
76.1091858148575 282.013416290283 2881.99996948242 10 13 6
84.0289443731308 282.205373048782 2884.0000629425 7 10 3
91.5450379252434 281.124889850616 2872.99990653992 6 9 2
107.030563056469 280.626356601715 2868.00003051758 17 20 13
114.331766963005 279.349148273468 2855.00001907349 17 20 13
121.091119945049 276.995420455933 2831.00008964539 17 20 13
128.993093967438 277.38094329834 2835.00003814697 12 15 8
144.911959767342 278.248757123947 2844.00010108948 10 13 6
153.524681925774 279.807209968567 2859.99989509583 8 11 4
162.731736898422 282.245755195618 2884.99999046326 9 12 5
172.902330756187 286.053419113159 2924.00002479553 12 15 8
178.707361221313 282.621294260025 2888.99993896484 15 18 11
185.548037290573 281.047731637955 2872.99990653992 14 17 10
192.57003068924 279.865205287933 2861.00006103516 12 15 8
200.296267867088 279.758363962173 2859.99989509583 14 17 10
208.743885159492 280.629396438599 2868.99995803833 13 16 9
218.59847009182 283.260613679886 2895.99990844727 12 15 8
227.66087949276 284.717619419098 2911.00001335144 18 20 9
233.728796243668 282.457649707794 2888.00001144409 20 23 12
240.256115794182 280.882149934769 2871.99997901917 22 25 16
251.618981361389 284.880787134171 2913.00010681152 23 26 17
263.115108013153 288.781046867371 2953.00006866455 25 28 19
270.145148038864 287.693411111832 2941.99991226196 34 37 28
273.899704217911 283.280909061432 2897.0000743866 31 34 25
-125.298380851746 285.172253847122 2997.99990653992 138 121 113
-116.02808535099 282.514303922653 2970.00002861023 144 126 116
-107.309803366661 280.902326107025 2953.00006866455 159 132 115
-99.1880148649216 280.716776847839 2950.99997520447 151 120 100
-91.2002846598625 280.911415815353 2953.00006866455 122 87 65
-83.2857564091682 281.391024589539 2957.99994468689 103 71 48
-75.2673372626305 281.584918498993 2960.00003814697 90 65 43
-67.1015083789825 281.207680702209 2956.00008964539 112 91 72
-59.0171441435814 281.115412712097 2954.99992370605 68 56 42
-50.9207807481289 280.927687883377 2953.00006866455 17 11 0
-42.3561036586761 277.600169181824 2917.99998283386 19 21 10
-33.9233167469502 273.796558380127 2878.00002098084 19 22 13
-26.2521803379059 275.700628757477 2898.00000190735 19 22 13
-18.4085033833981 276.652991771698 2907.99999237061 18 21 12
-10.4777682572603 276.748776435852 2908.99991989136 15 18 9
-2.53280205652118 275.8928835392 2900.00009536743 11 14 5
5.3723375312984 275.512248277664 2895.99990844727 14 17 8
13.2143758237362 274.275064468384 2882.99989700317 15 18 9
20.9927372634411 273.132652044296 2871.00005149841 14 17 8
28.9264190942049 274.082869291306 2881.00004196167 16 19 10
36.6847179830074 273.320287466049 2872.99990653992 15 18 9
45.0810864567757 276.743203401566 2908.99991989136 12 15 6
52.2339157760143 272.650271654129 2865.9999370575 11 16 9
60.073871165514 272.742837667465 2867.00010299683 10 15 8
67.3033148050308 270.361602306366 2842.00000762939 10 15 8
77.1427005529404 277.873605489731 2921.0000038147 10 15 8
85.6062769889832 279.487073421478 2937.99996376038 11 16 9
91.7723402380943 273.96559715271 2880.00011444092 8 13 6
107.072807848454 272.910118103027 2868.99995803833 12 17 10
114.096753299236 271.002650260925 2848.99997711182 14 19 12
121.182233095169 269.475340843201 2832.99994468689 13 18 11
138.610735535622 273.363411426544 2874.00007247925 12 15 8
146.803975105286 274.022728204727 2881.00004196167 12 15 8
156.698971986771 277.630120515823 2918.99991035461 10 13 6
164.939105510712 278.098434209824 2924.00002479553 10 13 6
170.958742499352 274.952322244644 2891.00003242493 14 17 10
177.601993083954 273.042380809784 2871.00005149841 19 22 15
186.912775039673 275.221586227417 2894.00005340576 13 16 9
192.444115877151 271.884590387344 2858.99996757507 14 17 10
199.044644832611 270.259201526642 2842.00000762939 17 20 13
208.025693893433 271.866768598557 2858.99996757507 16 19 12
218.306347727776 274.995267391205 2891.99995994568 15 18 9
227.201789617538 276.221483945847 2904.99997138977 17 19 8
232.444271445274 273.073613643646 2871.99997901917 19 22 11
240.685105323792 273.538619279861 2877.00009346008 23 26 17
251.370996236801 276.665329933167 2910.00008583069 23 26 17
261.968404054642 279.506266117096 2940.00005722046 24 27 18
268.228650093079 277.688384056091 2921.0000038147 24 27 18
291.622191667557 284.98387336731 2997.99990653992 25 31 21
-125.136822462082 276.636391878128 2993.99995803833 139 125 114
-116.033308207989 274.424225091934 2970.00002861023 143 125 113
-107.387311756611 273.043155670166 2954.99992370605 143 115 101
-99.1252586245537 272.493362426758 2948.99988174438 139 108 90
-91.1426320672035 272.682398557663 2950.99997520447 115 80 60
-83.2895189523697 273.333132266998 2957.99994468689 88 55 36
-75.3215998411179 273.706287145615 2961.99989318848 158 131 114
-67.1499371528625 273.339837789536 2957.99994468689 110 88 74
-59.0997189283371 273.435086011887 2959.00011062622 69 57 45
-51.1472672224045 274.08441901207 2966.00008010864 22 15 5
-43.0838316679001 274.271309375763 2967.99993515015 20 17 8
-34.3256331980228 269.09813284874 2911.99994087219 20 23 14
-25.7641803473234 262.815564870834 2844.00010108948 17 20 11
-18.3713585138321 268.176376819611 2901.99995040894 16 19 10
-10.4818483814597 268.916338682175 2910.00008583069 16 19 10
-2.54863873124123 269.655883312225 2917.99998283386 17 20 11
5.3707268089056 267.530381679535 2894.99998092651 13 16 7
13.15997261554 265.312105417252 2871.00005149841 16 19 10
20.9790654480457 265.126496553421 2868.99995803833 14 17 8
28.8474019616842 265.495002269745 2872.99990653992 16 19 10
36.8651561439037 266.787320375443 2887.00008392334 14 17 8
44.6491986513138 266.231000423431 2881.00004196167 12 18 8
53.2569512724876 270.017594099045 2921.99993133545 11 17 7
68.44312697649 267.055094242096 2890.00010490417 10 15 8
76.9613161683083 269.269615411758 2914.00003433228 11 17 7
85.4644477367401 271.021664142609 2933.00008773804 14 20 10
93.9752981066704 272.49613404274 2948.99988174438 11 16 9
101.327665150166 270.643711090088 2928.99990081787 11 16 9
107.152298092842 265.279859304428 2871.00005149841 11 17 7
114.181980490685 263.426959514618 2851.0000705719 14 20 10
121.829345822334 263.144552707672 2848.00004959106 11 16 9
127.958223223686 259.812772274017 2812.00003623962 10 13 6
137.507602572441 263.410240411758 2851.0000705719 11 14 7
147.472977638245 267.376750707626 2894.00005340576 12 15 8
156.544908881187 269.402593374252 2915.99988937378 10 13 6
162.295117974281 265.792548656464 2877.00009346008 10 13 6
166.885852813721 260.704159736633 2822.00002670288 13 16 9
177.85732448101 265.592843294144 2875 16 19 12
185.62924861908 265.492528676987 2874.00007247925 13 16 9
191.712155938148 263.082534074783 2848.00004959106 15 18 11
198.42304289341 261.688441038132 2832.99994468689 16 19 12
206.870570778847 262.603342533112 2842.99993515015 17 20 13
217.108070850372 265.642285346985 2875.99992752075 18 21 12
226.116731762886 267.018169164658 2891.00003242493 17 19 8
234.073162078857 267.100661993027 2891.99995994568 19 22 11
240.862861275673 265.889763832092 2878.99994850159 22 25 16
252.1593272686 269.573390483856 2918.99991035461 22 25 16
262.247025966644 271.778792142868 2943.00007820129 21 24 15
267.689168453217 269.181847572327 2914.99996185303 25 28 19
283.000648021698 276.372849941254 2993.00003051758 23 26 17
293.482899665833 278.576791286469 3016.99995994568 18 24 14
-125.058710575104 268.30068230629 2992.00010299683 110 96 83
-116.468153893948 267.31950044632 2980.99994659424 119 101 89
-107.719115912914 265.799850225449 2963.99998664856 111 83 69
-99.3985459208488 265.176624059677 2957.00001716614 117 88 70
-91.3319662213326 265.180736780167 2957.00001716614 120 87 68
-83.4621414542198 265.812307596207 2963.99998664856 92 59 40
-75.3249228000641 265.636384487152 2961.99989318848 103 75 61
-67.1529099345207 265.2807533741 2957.99994468689 94 72 58
-59.1223053634167 265.462875366211 2960.00003814697 56 43 34
-51.1322803795338 265.91369509697 2964.99991416931 23 14 5
-43.3325208723545 267.70943403244 2984.99989509583 23 19 10
-26.1277034878731 258.65426659584 2884.0000629425 17 20 11
-18.5114499181509 262.242645025253 2924.00002479553 16 19 10
-10.5651617050171 263.050466775894 2933.00008773804 15 18 9
-2.55923322401941 262.781709432602 2930.0000667572 17 20 11
5.35426754504442 258.835405111313 2885.99991798401 16 19 10
13.2201462984085 258.65563750267 2884.0000629425 16 19 10
20.8483673632145 255.695253610611 2851.0000705719 16 19 10
28.6177303642035 255.60450553894 2849.99990463257 16 19 10
36.5219935774803 256.499916315079 2859.99989509583 16 19 10
45.1161228120327 261.072069406509 2911.00001335144 15 18 9
52.8765358030796 260.173112154007 2901.00002288818 11 14 3
59.9744617938995 256.672978401184 2861.99998855591 11 14 3
67.4751177430153 255.504339933395 2848.99997711182 12 15 4
76.1987566947937 258.729755878448 2884.99999046326 13 16 5
83.719789981842 257.650107145309 2872.99990653992 15 18 7
92.2266840934753 259.529560804367 2894.00005340576 13 16 5
101.193748414516 262.305378913879 2924.99995231628 12 15 4
106.783755123615 256.561607122421 2861.00006103516 13 16 5
114.627547562122 256.646454334259 2861.99998855591 13 16 5
121.834672987461 255.385935306549 2848.00004959106 11 14 3
128.373384475708 252.959430217743 2821.00009918213 10 13 6
136.114835739136 253.043413162231 2822.00002670288 11 13 8
153.598934412003 256.527960300446 2861.00006103516 11 14 7
158.522441983223 251.948446035385 2809.99994277954 13 16 9
165.769413113594 251.313924789429 2802.99997329712 14 17 10
176.751419901848 256.148129701614 2857.00011253357 15 18 11
186.4123493433 258.740365505219 2885.99991798401 12 15 6
193.672612309456 257.925450801849 2877.00009346008 13 16 7
197.731122374535 253.076076507568 2822.99995422363 18 21 12
208.771392703056 257.191240787506 2868.99995803833 19 22 13
217.947766184807 258.795857429504 2887.00008392334 19 22 13
226.908504962921 260.041445493698 2901.00002288818 20 21 13
233.273670077324 258.328706026077 2881.99996948242 20 21 13
241.542398929596 258.766949176788 2887.00008392334 21 22 16
252.083599567413 261.535197496414 2917.99998283386 21 22 16
263.238281011581 264.751046895981 2953.9999961853 20 23 16
272.659510374069 266.084313392639 2969.00010108948 23 28 21
280.553966760635 265.893667936325 2967.00000762939 17 22 15
289.312034845352 266.509264707565 2973.99997711182 30 35 29
-125.900030136108 261.887669563293 3012.00008392334 116 104 90
-116.9029250741 260.1538002491 2992.00010299683 110 94 81
-107.941776514053 258.24561715126 2970.00002861023 113 87 72
-99.4700193405151 257.293522357941 2959.00011062622 133 104 86
-91.3667604327202 257.210552692413 2957.99994468689 112 79 60
-83.4938734769821 257.822930812836 2964.99991416931 108 75 58
-75.5570381879807 258.348047733307 2970.99995613098 83 57 42
-67.3601180315018 258.003234863281 2967.00000762939 91 69 56
-59.3445599079132 258.353739976883 2970.99995613098 50 37 28
-51.3414330780506 258.877873420715 2976.99999809265 20 11 2
-43.1892164051533 258.705943822861 2974.99990463257 14 10 1
-34.7412340342999 256.272703409195 2947.00002670288 17 20 11
-26.7630200833082 256.882727146149 2953.9999961853 18 21 12
-10.5331959202886 254.275500774384 2924.00002479553 14 17 8
-2.52265646122396 251.145124435425 2888.00001144409 13 16 7
5.40644768625498 253.406077623367 2914.00003433228 14 17 8
13.2115464657545 250.622898340225 2881.99996948242 15 18 9
21.0540276020765 250.361323356628 2878.99994850159 15 18 9
28.7093389779329 248.62103164196 2858.99996757507 16 19 10
36.9322225451469 251.489341259003 2891.99995994568 16 19 10
44.5600934326649 250.009268522263 2875 13 16 7
52.4048842489719 250.007212162018 2875 12 15 6
59.1806955635548 245.569974184036 2823.99988174438 11 14 5
67.1464204788208 246.523842215538 2835.00003814697 11 14 5
75.3832161426544 248.173013329506 2854.00009155273 13 16 7
84.1896384954453 251.213073730469 2888.99993896484 15 18 9
91.6251018643379 249.9920129776 2875 13 16 7
100.333131849766 252.161800861359 2900.00009536743 12 15 6
107.796095311642 251.113951206207 2888.00001144409 13 16 7
114.912807941437 249.457225203514 2868.99995803833 13 16 7
122.481562197208 248.930558562279 2862.99991607666 11 14 5
128.788381814957 246.05605006218 2829.99992370605 10 13 6
135.011196136475 243.355259299278 2799.00002479553 10 12 7
144.733682274818 246.91404402256 2839.99991416931 12 14 9
159.093275666237 245.162591338158 2819.9999332428 14 17 10
179.357334971428 252.016395330429 2898.9999294281 13 16 9
187.389075756073 252.18266248703 2901.00002288818 12 15 6
192.738205194473 248.87153506279 2862.99991607666 13 16 7
202.22233235836 250.949651002884 2887.00008392334 16 19 10
211.108759045601 252.158045768738 2901.00002288818 19 22 13
219.013750553131 252.149254083633 2901.00002288818 20 23 14
225.744590163231 250.836372375488 2885.99991798401 21 22 14
233.526110649109 250.740110874176 2884.99999046326 21 22 14
240.715637803078 250.03519654274 2877.00009346008 20 23 16
252.525866031647 254.022926092148 2923.00009727478 20 23 16
261.644959449768 255.14230132103 2936.00010871887 20 23 16
271.476715803146 256.869524717331 2956.00008964539 15 18 11
280.470788478851 257.727414369583 2966.00008010864 32 35 28
283.583968877792 253.284633159637 2914.99996185303 19 24 17
-126.532256603241 254.943579435349 3026.99995040894 96 86 74
-117.181278765202 252.590239048004 2999.00007247925 106 92 79
-108.273379504681 250.910371541977 2979.00009155273 108 86 72
-99.6422469615936 249.651193618774 2963.99998664856 132 106 91
-91.4014577865601 249.233976006508 2959.00011062622 127 98 82
-83.4691971540451 249.658703804016 2963.99998664856 97 68 52
-75.7890790700912 251.009672880173 2980.00001907349 64 41 27
-67.5445646047592 250.591456890106 2974.99990463257 80 61 47
-59.3869909644127 250.425606966019 2973.00004959106 47 37 27
-51.1538609862328 249.838247895241 2966.00008010864 19 12 2
-43.3942750096321 251.777619123459 2989.00008201599 21 18 9
-34.5776416361332 247.062042355537 2933.00008773804 14 17 8
-26.5376344323158 246.726348996162 2928.99990081787 15 18 9
-18.8169293105602 250.349402427673 2971.99988365173 17 20 11
-10.3030782192945 240.915581583977 2859.99989509583 15 18 9
5.4660476744175 248.160123825073 2946.00009918213 14 17 8
13.3817214518785 245.885342359543 2918.99991035461 14 17 8
21.2084874510765 244.284138083458 2900.00009536743 14 17 8
29.1021838784218 244.114622473717 2898.00000190735 13 16 7
36.7677472531796 242.512807250023 2878.99994850159 13 16 7
44.5464588701725 242.089956998825 2874.00007247925 17 20 11
51.9331321120262 239.982113242149 2848.99997711182 17 20 11
59.4346560537815 238.884791731834 2835.99996566772 15 18 9
67.2439634799957 239.13486301899 2838.99998664856 15 18 9
75.6505057215691 241.237744688988 2864.00008201599 16 19 10
83.9017257094383 242.497906088829 2878.99994850159 19 22 13
92.0432284474373 243.252366781235 2888.00001144409 16 19 10
98.884142935276 240.721628069878 2858.00004005432 16 19 10
107.949875295162 243.581086397171 2891.99995994568 17 20 11
115.75872451067 243.408054113388 2890.00010490417 17 20 11
123.385079205036 242.897853255272 2884.0000629425 14 17 8
134.389668703079 234.633699059486 2786.00001335144 12 14 9
143.006831407547 236.312419176102 2805.99999427795 14 16 11
187.784299254417 244.784414768219 2907.00006484985 14 17 8
193.755894899368 242.334827780724 2878.00002098084 14 17 8
201.179787516594 241.821736097336 2871.99997901917 15 18 9
208.8613063097 241.64517223835 2869.99988555908 17 20 11
216.304615139961 241.215720772743 2865.00000953674 18 21 12
225.75369477272 242.974981665611 2885.99991798401 18 19 11
233.373582363129 242.713302373886 2882.99989700317 18 21 12
242.063999176025 243.545785546303 2892.99988746643 19 22 13
251.326382160187 244.883015751839 2908.99991989136 20 23 14
257.110267877579 242.852732539177 2884.99999046326 20 23 16
269.926130771637 247.387900948524 2938.99989128113 23 26 19
276.320993900299 245.94634771347 2921.99993133545 26 29 22
286.02734208107 247.450470924377 2940.00005722046 19 24 17
-117.615826427937 245.313584804535 3009.99999046326 98 86 74
-108.568519353867 243.443578481674 2986.99998855591 105 86 72
-99.8143628239632 241.980716586113 2969.00010108948 122 99 85
-91.4051532745361 241.16949737072 2959.00011062622 109 82 65
-83.3880826830864 241.335958242416 2960.99996566772 104 76 62
-75.843021273613 243.050768971443 2982.00011253357 46 24 11
-67.7062422037125 243.053629994392 2982.00011253357 94 76 64
-59.4493225216866 242.567092180252 2976.0000705719 38 28 18
-50.9662106633186 240.857645869255 2954.99992370605 25 18 10
-42.7426993846893 239.962890744209 2944.00000572205 14 15 7
-34.4847291707993 238.415792584419 2924.99995231628 13 16 7
-26.4028031378984 237.520396709442 2914.00003433228 16 19 10
-18.2415116578341 234.831422567368 2881.00004196167 18 21 12
-10.3791523724794 234.832033514977 2881.00004196167 18 21 12
-2.54470412619412 237.440630793571 2913.00010681152 17 20 11
5.44957024976611 239.396825432777 2937.00003623962 16 19 10
13.4968794882298 239.96701836586 2944.00000572205 15 18 9
21.1727805435658 235.972285270691 2894.99998092651 14 17 8
29.0732383728027 235.97127199173 2894.99998092651 12 15 6
37.1523834764957 237.11109161377 2908.99991989136 12 15 6
44.7032749652863 235.071748495102 2884.0000629425 16 19 10
52.0263910293579 232.62457549572 2854.00009155273 16 19 10
59.4789832830429 231.318190693855 2838.00005912781 16 19 10
67.8151696920395 233.353316783905 2862.99991607666 16 19 10
75.75923204422 233.758017420769 2868.00003051758 17 20 11
84.0216800570488 234.9773645401 2882.99989700317 18 21 12
91.4095044136047 233.751341700554 2868.00003051758 17 20 11
99.5109304785728 234.399542212486 2875.99992752075 18 21 12
106.909029185772 233.417466282845 2864.00008201599 19 22 13
115.963667631149 235.939532518387 2894.99998092651 19 22 13
124.202936887741 236.586764454842 2903.00011634827 16 19 10
129.162982106209 231.284469366074 2838.00005912781 14 16 11
136.758789420128 231.034770607948 2835.00003814697 14 16 11
142.757728695869 228.258475661278 2801.00011825562 15 17 12
151.684880256653 230.208456516266 2825.00004768372 16 19 12
161.645084619522 233.461856842041 2865.00000953674 16 19 12
171.113029122353 235.736951231956 2892.99988746643 15 18 11
177.948668599129 234.344884753227 2875.99992752075 14 17 10
187.727138400078 236.782222986221 2905.99989891052 14 17 8
193.157613277435 233.760058879852 2868.99995803833 14 17 8
199.926793575287 232.530280947685 2854.00009155273 14 17 8
208.578392863274 233.500048518181 2865.9999370575 16 19 10
216.237589716911 233.32890868187 2864.00008201599 18 21 12
235.163614153862 236.651688814163 2904.99997138977 17 20 11
244.248986244202 237.782970070839 2918.99991035461 19 22 13
249.003365635872 234.75955426693 2881.99996948242 19 22 13
260.239481925964 237.845167517662 2920.00007629395 19 22 15
268.766045570374 231.471985578537 2842.00000762939 21 26 19
-118.011184036732 237.897261977196 3019.99998092651 95 86 77
-109.045296907425 236.326158046722 3000 98 84 73
-100.154474377632 234.675869345665 2979.00009155273 95 77 65
-91.6558653116226 233.734235167503 2967.00000762939 97 75 61
-83.5040062665939 233.580052852631 2964.99991416931 106 84 71
-75.7951214909554 234.764814376831 2980.00001907349 35 17 5
-67.7543058991432 235.082730650902 2983.99996757507 37 23 12
-59.4117119908333 234.297379851341 2973.99997711182 20 11 2
-50.8302338421345 232.172384858131 2947.00002670288 12 8 0
-42.3088073730469 229.574352502823 2914.00003433228 16 17 9
-33.8847897946835 226.424485445023 2874.00007247925 13 16 7
-26.2135583907366 227.922528982162 2892.99988746643 13 16 7
-18.375201150775 228.632479906082 2901.99995040894 16 19 10
-10.4552200064063 228.633031249046 2901.99995040894 18 21 12
-2.54130992107093 229.18476164341 2908.99991989136 17 20 11
5.4609184153378 231.863409280777 2943.00007820129 19 22 13
13.3827924728394 229.972198605537 2918.99991035461 18 21 12
21.2174989283085 228.553414344788 2901.00002288818 17 20 11
29.0442556142807 227.843374013901 2891.99995994568 16 19 10
37.3071096837521 230.126813054085 2921.0000038147 15 18 9
45.2630743384361 230.046451091766 2920.00007629395 15 18 9
52.5935664772987 227.287143468857 2884.99999046326 15 18 9
60.2567940950394 226.497128605843 2875 18 21 12
68.1731551885605 226.730987429619 2878.00002098084 19 22 13
76.7924413084984 229.012817144394 2907.00006484985 19 22 13
84.2290073633194 227.67049074173 2890.00010490417 18 21 12
92.5286635756493 228.691175580025 2903.00011634827 18 21 12
99.2726162075996 226.00907087326 2868.99995803833 19 22 13
106.689222157001 225.138559937477 2858.00004005432 21 24 15
114.966735243797 226.07958316803 2869.99988555908 20 23 14
122.453540563583 225.444853305817 2861.99998855591 17 20 11
133.082196116447 230.323776602745 2924.00002479553 15 18 9
138.066619634628 225.434884428978 2861.99998855591 15 17 12
145.005881786346 224.090442061424 2845.00002861023 13 15 10
152.227714657784 223.297119140625 2835.00003814697 13 16 9
164.077505469322 229.040831327438 2907.99999237061 13 16 9
172.598376870155 229.822039604187 2917.99998283386 15 18 11
178.883671760559 227.688893675804 2891.00003242493 12 15 8
192.761033773422 225.469663739204 2862.99991607666 14 17 8
200.074538588524 224.911034107208 2855.99994659424 14 17 8
208.877474069595 226.005837321281 2869.99988555908 17 20 11
218.888476490974 228.281468153 2898.9999294281 19 22 13
226.709812879562 228.194400668144 2898.00000190735 17 20 11
235.820159316063 229.366898536682 2913.00010681152 18 21 12
244.341880083084 229.909151792526 2920.00007629395 19 22 13
251.259177923203 228.955149650574 2907.99999237061 19 22 13
261.675238609314 231.150150299072 2936.00010871887 19 22 13
269.487380981445 230.982914566994 2934.00001525879 19 22 15
-118.992604315281 231.566220521927 3045.00007629395 98 91 81
-109.558328986168 229.212939739227 3013.99993896484 84 71 62
-100.595332682133 227.543741464615 2992.00010299683 83 69 58
-91.9991657137871 226.48261487484 2977.9999256134 83 64 50
-83.5353434085846 225.573271512985 2966.00008010864 90 70 59
-75.4927843809128 225.72834789753 2967.99993515015 53 37 24
-67.8023025393486 227.100029587746 2986.00006103516 22 10 0
-59.5937743782997 226.874232292175 2983.00004005432 24 17 7
-50.7459230720997 223.757982254028 2941.99991226196 29 25 16
-42.1507060527802 220.793545246124 2903.00011634827 16 17 9
-34.0039916336536 219.349905848503 2884.0000629425 14 17 8
-26.1058267205954 219.122841954231 2881.00004196167 13 16 7
-18.508879467845 222.31812775135 2923.00009727478 14 17 8
-10.5637051165104 223.003163933754 2931.99992179871 16 19 10
-2.52830260433257 220.113217830658 2894.00005340576 19 22 13
5.38690201938152 220.797702670097 2903.00011634827 18 21 12
13.3970584720373 222.242429852486 2921.99993133545 17 20 11
21.1744252592325 220.188230276108 2894.99998092651 17 20 11
29.266320168972 221.632391214371 2914.00003433228 16 19 10
37.1680371463299 221.326872706413 2910.00008583069 16 19 10
45.3578121960163 222.542271018028 2926.00011825562 15 18 9
53.2154142856598 222.008004784584 2918.99991035461 14 17 8
60.5315677821636 219.648152589798 2888.00001144409 14 17 8
68.2705044746399 219.189405441284 2881.99996948242 15 18 9
76.5575990080833 220.40356695652 2898.00000190735 16 19 10
85.2814689278603 222.530037164688 2926.00011825562 18 21 12
91.9902995228767 219.484627246857 2885.99991798401 16 19 10
100.245267152786 220.317602157593 2897.0000743866 20 23 14
107.215903699398 218.412488698959 2871.99997901917 21 24 15
115.411750972271 219.092786312103 2881.00004196167 18 21 12
124.383613467216 221.065551042557 2907.00006484985 17 20 11
132.859617471695 221.973299980164 2918.99991035461 17 20 11
140.387490391731 221.283882856369 2910.00008583069 14 16 11
154.166549444199 218.30740571022 2871.00005149841 10 13 6
163.124427199364 219.822317361832 2891.00003242493 11 14 7
173.373773694038 222.857534885406 2930.99999427795 12 15 8
183.964356780052 226.044416427612 2973.00004959106 13 16 9
189.162626862526 222.616150975227 2927.99997329712 13 16 9
192.768201231956 217.667296528816 2862.99991607666 13 16 7
200.782492756844 217.888206243515 2865.9999370575 13 16 7
209.321871399879 218.640998005867 2875.99992752075 16 19 10
217.990458011627 219.469487667084 2887.00008392334 18 21 12
227.265790104866 220.829769968987 2904.99997138977 15 21 9
233.642935752869 219.377160072327 2885.99991798401 15 21 9
241.924002766609 219.748675823212 2891.00003242493 19 22 13
251.527547836304 221.260026097298 2911.00001335144 20 23 14
259.723901748657 221.478909254074 2914.00003433228 18 21 12
269.95638012886 223.369568586349 2938.99989128113 21 24 15
-110.107608139515 222.095832228661 3029.00004386902 92 83 74
-101.036131381989 220.339864492416 3005.00011444092 76 66 56
-92.4350693821907 219.390153884888 2992.00010299683 64 50 39
-83.9608982205391 218.586727976799 2980.99994659424 75 61 52
-75.7499262690544 218.369632959366 2977.9999256134 78 65 56
