ply
format ascii 1.0
comment KinectMotionCapture
element vertex 761
property float x
property float y
property float z
property uchar red
property uchar green
property uchar blue
end_header
137.815058231354 692.724943161011 2868.00003051758 159 158 153
145.556926727295 692.472040653229 2867.00010299683 151 150 145
153.292953968048 692.218601703644 2865.9999370575 147 146 141
161.079347133636 692.206025123596 2865.9999370575 145 144 139
168.983161449432 692.675948143005 2868.00003051758 145 144 139
176.835745573044 692.903757095337 2868.99995803833 142 143 138
184.693306684494 693.130910396576 2869.99988555908 148 149 144
192.488759756088 693.116009235382 2869.99988555908 147 148 143
200.423300266266 693.58366727829 2871.99997901917 164 165 160
208.513185381889 694.53352689743 2875.99992752075 155 156 151
216.699481010437 695.724487304688 2881.00004196167 158 159 154
225.068226456642 697.397649288177 2888.00001144409 166 165 161
233.151808381081 698.104321956635 2891.00003242493 152 151 147
241.667911410332 700.017750263214 2898.9999294281 161 160 156
249.968662858009 701.206147670746 2904.00004386902 147 144 139
258.207112550735 702.152490615845 2907.99999237061 150 147 140
266.28366112709 702.615439891815 2910.00008583069 165 162 155
274.653047323227 703.802108764648 2914.99996185303 146 143 136
282.855063676834 704.505324363709 2917.99998283386 146 145 140
290.773719549179 704.4837474823 2917.99998283386 143 144 139
299.510627985001 706.39306306839 2926.00011825562 173 174 169
-132.596001029015 713.899254798889 2989.00008201599 212 214 211
-124.556377530098 714.387238025665 2990.9999370575 185 186 181
-116.233073174953 713.202774524689 2986.00006103516 193 194 189
-107.646971940994 710.106730461121 2973.00004959106 188 189 184
-99.2316827178001 707.726538181305 2963.00005912781 173 174 169
-91.1166816949844 707.256495952606 2960.99996566772 139 140 135
-83.1525772809982 707.980215549469 2963.99998664856 145 144 139
-75.0705748796463 707.74781703949 2963.00005912781 142 141 136
-67.0390427112579 707.992434501648 2963.99998664856 130 129 124
-58.8625892996788 706.564366817474 2957.99994468689 119 118 113
-50.735779106617 705.374479293823 2953.00006866455 138 137 132
-42.5636991858482 702.989637851715 2943.00007820129 170 169 164
-34.4693511724472 701.081871986389 2934.99994277954 173 174 169
-26.3642482459545 697.740077972412 2921.0000038147 176 175 171
-18.3351952582598 694.397807121277 2907.00006484985 164 163 159
-10.3893829509616 691.532492637634 2894.99998092651 169 168 164
-2.51139770261943 689.383149147034 2885.99991798401 164 163 159
5.32875023782253 688.66640329361 2882.99989700317 163 162 157
13.1617058068514 688.426852226257 2881.99996948242 145 144 139
20.989190787077 688.186585903168 2881.00004196167 165 162 157
28.7811663001776 687.229096889496 2877.00009346008 173 170 165
36.589477211237 686.987459659576 2875.99992752075 151 148 143
44.438574463129 687.461912631989 2878.00002098084 141 138 133
52.2621013224125 687.457978725433 2878.00002098084 146 146 138
60.0228570401669 686.736822128296 2875 147 147 139
67.7435323596001 685.776114463806 2871.00005149841 146 146 138
75.4685923457146 685.053706169128 2868.00003051758 142 142 134
83.3513289690018 685.763835906982 2871.00005149841 163 162 157
91.1231264472008 685.517907142639 2869.99988555908 145 144 139
98.9237427711487 685.510218143463 2869.99988555908 145 144 139
106.575310230255 684.54647064209 2865.9999370575 148 147 142
114.44429308176 685.015320777893 2868.00003051758 147 146 142
122.23856151104 685.005724430084 2868.00003051758 178 177 173
130.168542265892 685.712099075317 2871.00005149841 179 178 174
137.82611489296 684.984862804413 2868.00003051758 155 154 149
145.619347691536 684.973478317261 2868.00003051758 148 147 142
153.251692652702 684.244990348816 2865.00000953674 145 144 139
160.979762673378 683.993756771088 2864.00008201599 143 142 137
168.937683105469 684.697091579437 2867.00010299683 143 142 137
176.788136363029 684.922158718109 2868.00003051758 144 145 140
184.643551707268 685.146629810333 2868.99995803833 149 150 145
192.503929138184 685.370564460754 2869.99988555908 168 169 164
200.648412108421 686.549127101898 2875 165 166 161
208.819523453712 687.727153301239 2880.00011444092 157 158 153
216.942012310028 688.665688037872 2884.0000629425 162 163 158
224.85189139843 688.887298107147 2884.99999046326 163 163 161
232.927903532982 689.58580493927 2888.00001144409 154 153 149
241.26972258091 691.00022315979 2894.00005340576 164 163 159
249.729618430138 692.652702331543 2901.00002288818 150 147 142
258.138090372086 694.065809249878 2907.00006484985 151 148 141
266.578495502472 695.47826051712 2913.00010681152 165 162 155
274.956554174423 696.65139913559 2917.99998283386 150 147 140
283.3611369133 697.824060916901 2923.00009727478 148 147 142
291.393488645554 698.041081428528 2924.00002479553 149 150 145
-132.828488945961 707.011997699738 2993.99995803833 213 215 212
-124.649710953236 706.786215305328 2993.00003051758 182 183 178
-116.320304572582 705.615162849426 2987.99991607666 192 193 188
-107.800506055355 703.026533126831 2976.99999809265 190 191 186
-99.4071885943413 700.909554958344 2967.99993515015 185 186 181
-91.2779569625854 700.444996356964 2966.00008010864 139 140 135
-83.2434967160225 700.688183307648 2967.00000762939 142 141 136
-75.2033665776253 700.930714607239 2967.99993515015 141 140 135
-67.1576038002968 701.172769069672 2969.00010108948 127 126 121
-58.9867904782295 699.997007846832 2963.99998664856 116 115 110
-50.7742799818516 697.875916957855 2954.99992370605 142 141 136
-42.5671674311161 695.04576921463 2943.00007820129 166 165 160
-34.4486758112907 692.687153816223 2933.00008773804 174 175 170
-26.3393260538578 689.147174358368 2917.99998283386 175 174 170
-18.3366928249598 686.551094055176 2907.00006484985 156 155 151
-10.4009984061122 684.426665306091 2898.00000190735 167 166 162
-2.51682498492301 683.010220527649 2891.99995994568 161 160 156
5.34027675166726 682.30152130127 2888.99993896484 156 155 150
13.1856175139546 681.828498840332 2887.00008392334 142 141 136
21.0200492292643 681.354701519012 2884.99999046326 180 177 172
28.823534026742 680.40806055069 2881.00004196167 154 151 146
36.6560779511929 680.40531873703 2881.00004196167 145 142 137
44.4885268807411 680.401980876923 2881.00004196167 143 140 135
52.3026846349239 680.161952972412 2880.00011444092 145 145 137
60.0277408957481 678.976476192474 2875 149 149 141
67.7962377667427 678.498923778534 2872.99990653992 144 144 136
75.5010396242142 677.548468112946 2868.99995803833 141 141 133
83.3000242710114 677.54203081131 2868.99995803833 174 173 168
91.0352692008018 677.062690258026 2867.00010299683 146 145 140
98.8283306360245 677.054941654205 2867.00010299683 147 146 141
106.546729803085 676.574349403381 2865.00000953674 146 145 140
114.373698830605 676.80162191391 2865.9999370575 146 145 141
122.120536863804 676.555991172791 2865.00000953674 184 183 179
130.17900288105 677.96266078949 2871.00005149841 169 168 164
138.077467679977 678.424179553986 2872.99990653992 153 152 147
145.986437797546 678.885042667389 2875 147 146 141
153.477907180786 677.456319332123 2868.99995803833 144 143 138
161.161214113235 676.971554756165 2867.00010299683 144 143 138
168.951079249382 676.958501338959 2867.00010299683 144 143 138
176.740482449532 676.944732666016 2867.00010299683 145 146 141
184.529393911362 676.93042755127 2867.00010299683 149 150 145
192.586168646812 677.860021591187 2871.00005149841 172 173 168
200.803771615028 679.261207580566 2877.00009346008 165 166 161
209.05339717865 680.661737918854 2882.99989700317 158 159 154
217.109367251396 681.353390216827 2885.99991798401 164 165 160
225.259065628052 682.280540466309 2890.00010490417 163 163 161
233.268573880196 682.734906673431 2891.99995994568 155 154 150
241.538465023041 683.896958827972 2897.0000743866 166 165 161
249.662712216377 684.5862865448 2900.00009536743 151 148 143
258.157849311829 686.219274997711 2907.00006484985 152 149 142
266.507267951965 687.379479408264 2911.99994087219 167 164 157
274.977385997772 688.775181770325 2917.99998283386 149 149 141
283.09166431427 689.22621011734 2920.00007629395 149 148 143
291.415423154831 690.148770809174 2924.00002479553 152 153 148
-132.883504033089 699.162602424622 2994.99988555908 212 214 211
-124.534793198109 698.005735874176 2990.00000953674 178 179 174
-116.251818835735 697.081685066223 2986.00006103516 186 187 182
-107.881657779217 695.456564426422 2979.00009155273 187 188 183
-99.6496975421906 694.53102350235 2974.99990463257 191 192 187
-91.4700031280518 693.83841753006 2971.99988365173 151 152 147
-83.4466591477394 694.312453269959 2973.99997711182 140 139 134
-75.3868520259857 694.552302360535 2974.99990463257 137 136 131
-67.3440173268318 695.025026798248 2976.99999809265 129 128 123
-59.1508112847805 693.862855434418 2971.99988365173 113 112 107
-50.8643314242363 691.065788269043 2960.00003814697 145 144 139
-42.5995662808418 687.567532062531 2944.9999332428 165 164 159
-34.4749726355076 685.235917568207 2934.99994277954 174 175 170
-26.3775810599327 682.20329284668 2921.99993133545 176 175 171
-18.3634199202061 679.636895656586 2911.00001335144 151 150 146
-10.4197952896357 677.770376205444 2903.00011634827 166 165 161
-2.52312235534191 676.836907863617 2898.9999294281 164 163 159
5.34995598718524 675.669491291046 2894.00005340576 148 147 142
13.2095320150256 675.201833248138 2891.99995994568 148 147 142
21.0290476679802 673.799514770508 2885.99991798401 152 149 144
28.8659054785967 673.56413602829 2884.99999046326 141 138 133
36.6717912256718 672.86092042923 2881.99996948242 140 137 132
44.4921515882015 672.624230384827 2881.00004196167 141 138 133
52.2706210613251 671.919882297516 2878.00002098084 145 145 137
60.0326247513294 671.214878559113 2875 147 147 139
67.8017437458038 670.742750167847 2872.99990653992 141 141 133
75.5334869027138 670.036554336548 2869.99988555908 156 156 148
83.3067819476128 669.796645641327 2868.99995803833 170 169 164
91.1378934979439 670.023024082184 2869.99988555908 148 147 142
98.9052727818489 669.781982898712 2868.99995803833 146 145 140
106.666907668114 669.540166854858 2868.00003051758 144 143 138
114.382907748222 669.064342975616 2865.9999370575 150 149 145
122.215606272221 669.288277626038 2867.00010299683 177 176 172
130.189463496208 670.211970806122 2871.00005149841 157 156 152
138.088524341583 670.668065547943 2872.99990653992 151 150 145
145.947322249413 670.890152454376 2874.00007247925 147 146 141
153.704151511192 670.644760131836 2872.99990653992 146 145 140
161.28645837307 669.698536396027 2868.99995803833 146 145 140
169.023409485817 669.452011585236 2868.00003051758 146 145 140
176.569506525993 668.504655361176 2864.00008201599 147 148 143
184.415221214294 668.723821640015 2865.00000953674 149 150 145
192.467138171196 669.642567634583 2868.99995803833 179 180 175
200.679868459702 671.027600765228 2875 164 165 160
208.852186799049 672.178566455841 2880.00011444092 158 159 154
216.975823044777 673.095524311066 2884.0000629425 168 169 164
225.276544690132 674.478650093079 2890.00010490417 164 164 162
233.528628945351 675.627827644348 2894.99998092651 158 157 153
241.723820567131 676.542937755585 2898.9999294281 168 167 163
249.854058027267 677.224159240723 2901.99995040894 150 149 144
258.355170488358 678.838193416595 2908.99991989136 155 152 145
266.802132129669 680.218398571014 2914.99996185303 171 168 161
275.186717510223 681.3645362854 2920.00007629395 151 151 143
283.016055822372 681.110084056854 2918.99991035461 147 148 142
291.536957025528 682.48850107193 2924.99995231628 159 161 156
-132.672309875488 689.921975135803 2990.00000953674 211 213 210
-124.336525797844 688.778579235077 2984.99989509583 175 176 171
-116.144388914108 688.326776027679 2983.00004005432 181 182 177
-107.926562428474 687.643587589264 2980.00001907349 183 184 179
-99.7582376003265 687.190413475037 2977.9999256134 188 189 184
-91.6313081979752 686.967432498932 2976.99999809265 161 162 157
-83.5375934839249 686.974465847015 2976.99999809265 141 140 135
-75.5196809768677 687.673151493073 2980.00001907349 136 135 130
-67.4626156687737 688.140511512756 2982.00011253357 130 129 124
-59.2949502170086 687.453329563141 2979.00009155273 111 110 105
-50.9543940424919 684.227049350739 2964.99991416931 142 141 136
-42.6753647625446 680.769383907318 2950.00004768372 163 162 157
-34.5130227506161 678.003251552582 2937.99996376038 170 171 166
-26.4248680323362 675.467252731323 2927.00004577637 176 175 171
-18.3901526033878 672.699868679047 2914.99996185303 151 150 146
-10.4350028559566 670.854866504669 2907.00006484985 163 162 158
-2.52768024802208 670.163035392761 2904.00004386902 167 166 162
5.35593880340457 668.547570705414 2897.0000743866 148 147 142
13.2151758298278 667.62363910675 2892.99988746643 162 161 156
21.0526250302792 666.699230670929 2888.99993896484 138 135 130
28.9082806557417 666.697144508362 2888.99993896484 144 141 136
36.7384068667889 666.233003139496 2887.00008392334 141 138 133
44.5421040058136 665.537297725677 2884.0000629425 140 137 132
52.274864166975 664.14874792099 2878.00002098084 147 147 139
60.0166246294975 663.22124004364 2874.00007247925 145 145 137
67.8308606147766 663.2159948349 2874.00007247925 141 141 133
75.6185725331306 662.979364395142 2872.99990653992 167 167 159
83.3425596356392 662.280678749084 2869.99988555908 160 159 154
91.1135077476501 662.042856216431 2868.99995803833 146 145 140
98.8098308444023 661.342978477478 2865.9999370575 146 145 140
106.638319790363 661.56542301178 2867.00010299683 146 145 140
114.352211356163 661.095023155212 2865.00000953674 151 150 146
122.268058359623 661.777794361115 2868.00003051758 166 165 161
130.154520273209 662.229120731354 2869.99988555908 157 156 152
138.099566102028 662.910640239716 2872.99990653992 150 149 144
145.958960056305 663.129985332489 2874.00007247925 146 145 140
153.716385364532 662.887334823608 2872.99990653992 146 145 140
161.411732435226 662.413418292999 2871.00005149841 147 146 141
169.213637709618 662.400305271149 2871.00005149841 147 146 141
176.645115017891 661.002278327942 2865.00000953674 148 149 144
184.494122862816 661.218702793121 2865.9999370575 148 149 144
192.549332976341 662.126660346985 2869.99988555908 181 182 177
200.905025005341 663.956940174103 2878.00002098084 163 164 159
209.086045622826 665.094375610352 2882.99989700317 158 159 154
217.067942023277 665.539264678955 2884.99999046326 169 170 165
225.449934601784 667.13684797287 2891.99995994568 165 165 163
233.546659350395 667.811155319214 2894.99998092651 158 159 154
241.825833916664 668.946206569672 2900.00009536743 167 168 163
249.787092208862 669.157981872559 2901.00002288818 148 147 142
258.019626140594 670.061230659485 2904.99997138977 156 153 148
266.45627617836 671.425223350525 2911.00001335144 173 170 165
274.92481470108 672.788500785828 2917.00005531311 152 151 146
282.843440771103 672.767460346222 2917.00005531311 148 149 143
291.758179664612 675.052225589752 2927.00004577637 163 165 160
-132.416680455208 680.478990077972 2983.99996757507 201 203 200
-124.096564948559 679.349005222321 2979.00009155273 174 175 170
-115.842208266258 678.446471691132 2974.99990463257 181 182 177
-107.717946171761 678.227484226227 2973.99997711182 183 184 179
-99.5987802743912 678.00772190094 2973.00004959106 179 180 175
-91.546356678009 678.243458271027 2973.99997711182 177 178 173
-83.5443586111069 678.934752941132 2976.99999809265 141 140 135
-75.500451028347 679.397284984589 2979.00009155273 137 136 131
-67.4907043576241 680.315315723419 2983.00004005432 131 130 125
-59.3793839216232 680.320501327515 2983.00004005432 111 110 105
-51.078837364912 677.816152572632 2971.99988365173 136 135 130
-42.8090430796146 674.855172634125 2959.00011062622 157 156 151
-34.6098132431507 671.893358230591 2946.00009918213 168 169 164
-26.4992490410805 669.38704252243 2934.99994277954 183 182 178
-18.4295047074556 666.195869445801 2921.0000038147 148 147 143
-10.4538006708026 664.144396781921 2911.99994087219 166 165 161
-2.52962694503367 662.776529788971 2905.99989891052 161 160 156
5.3582233376801 660.951793193817 2898.00000190735 156 155 150
13.2208215072751 660.038828849792 2894.00005340576 192 191 186
21.068911999464 659.353196620941 2891.00003242493 141 138 133
28.9406552910805 659.579217433929 2891.99995994568 138 135 130
36.7541201412678 658.664286136627 2888.00001144409 139 136 131
44.5766150951386 658.204853534698 2885.99991798401 150 147 142
52.2972755134106 656.604409217834 2878.99994850159 145 145 137
60.0632540881634 655.915677547455 2875.99992752075 148 148 140
67.7655413746834 654.770195484161 2871.00005149841 168 168 160
75.5457282066345 654.536366462708 2869.99988555908 165 165 157
83.3202600479126 654.301822185516 2868.99995803833 146 145 140
91.0890996456146 654.066741466522 2868.00003051758 148 147 142
98.7488403916359 653.146922588348 2864.00008201599 153 152 147
106.572493910789 653.36662530899 2865.00000953674 144 143 138
114.321492612362 653.129756450653 2864.00008201599 191 190 186
122.320502996445 654.260516166687 2868.99995803833 154 153 149
130.028888583183 653.794348239899 2867.00010299683 156 155 151
137.966379523277 654.467761516571 2869.99988555908 149 148 143
145.665869116783 654.000341892242 2868.00003051758 146 145 140
153.568089008331 654.444515705109 2869.99988555908 145 144 139
161.368295550346 654.431998729706 2869.99988555908 147 146 141
169.28593814373 654.874920845032 2871.99997901917 146 145 140
176.720708608627 653.493225574493 2865.9999370575 148 149 144
184.637397527695 653.935015201569 2868.00003051758 148 149 144
192.631557583809 654.604196548462 2871.00005149841 182 183 178
200.920730829239 656.184792518616 2878.00002098084 163 164 159
209.102347493172 657.30881690979 2882.99989700317 157 158 153
217.160061001778 657.976269721985 2885.99991798401 169 170 165
225.311473011971 658.870995044708 2890.00010490417 166 166 164
233.403295278549 659.537255764008 2892.99988746643 158 159 154
241.594240069389 660.430908203125 2897.0000743866 167 168 163
249.892324209213 661.551833152771 2901.99995040894 148 147 142
258.128106594086 662.444233894348 2905.99989891052 157 154 149
266.751140356064 664.248049259186 2914.00003433228 175 172 167
275.322645902634 665.823101997375 2921.0000038147 152 151 146
283.446609973907 666.257917881012 2923.00009727478 148 149 143
291.979432106018 667.603850364685 2928.99990081787 165 167 162
-132.382899522781 672.193706035614 2983.00004005432 198 200 197
-124.148167669773 671.527862548828 2980.00001907349 170 171 166
-115.929387509823 670.861482620239 2976.99999809265 179 180 175
-107.726596295834 670.194447040558 2973.99997711182 183 184 179
-99.5732918381691 669.75200176239 2971.99988365173 178 179 174
-91.5537327528 670.210421085358 2973.99997711182 182 183 178
-83.5511013865471 670.893609523773 2976.99999809265 137 136 131
-75.531892478466 671.576082706451 2980.00001907349 135 134 129
-67.5187855958939 672.483205795288 2983.99996757507 126 125 120
-59.4439208507538 672.93918132782 2986.00006103516 111 110 105
-51.2204840779305 671.591401100159 2980.00001907349 129 128 123
-42.9282635450363 668.66546869278 2967.00000762939 156 155 150
-34.6596166491508 664.837300777435 2950.00004768372 168 169 164
-26.5465471893549 662.586152553558 2940.00005722046 180 179 175
-18.4688605368137 659.658133983612 2927.00004577637 150 149 145
-10.4726012796164 657.405614852905 2917.00005531311 168 167 163
-2.53244419582188 655.603170394897 2908.99991989136 158 157 153
5.36235654726624 653.574705123901 2900.00009536743 174 173 168
13.2264625281096 652.447164058685 2894.99998092651 184 183 178
21.0851989686489 651.995003223419 2892.99988746643 144 141 136
28.9530083537102 651.992917060852 2892.99988746643 141 138 133
36.7571003735065 650.863468647003 2888.00001144409 144 141 136
44.5493347942829 649.958670139313 2884.0000629425 155 152 147
52.2833503782749 648.602604866028 2878.00002098084 140 140 132
60.1098872721195 648.597955703735 2878.00002098084 148 148 140
67.8654387593269 647.916734218597 2875 176 176 168
75.6571292877197 647.685587406158 2874.00007247925 157 157 149
83.2979455590248 646.327078342438 2868.00003051758 148 147 142
91.0011604428291 645.643949508667 2865.00000953674 146 145 140
98.6878126859665 644.960224628448 2861.99998855591 148 147 142
106.543868780136 645.402789115906 2864.00008201599 151 150 145
114.250801503658 644.943118095398 2861.99998855591 189 188 184
122.20237404108 645.835101604462 2865.9999370575 152 151 147
129.9939006567 645.82496881485 2865.9999370575 151 150 146
137.929305434227 646.490335464478 2868.99995803833 146 145 140
145.626664161682 646.028399467468 2867.00010299683 146 145 140
153.366222977638 645.791172981262 2865.9999370575 147 146 141
161.324843764305 646.454751491547 2868.99995803833 144 143 138
169.181421399117 646.667003631592 2869.99988555908 145 144 139
176.919624209404 646.427989006042 2868.99995803833 145 146 141
184.716284275055 646.413803100586 2868.99995803833 153 154 149
192.847937345505 647.525548934937 2874.00007247925 175 176 171
201.00624859333 648.636698722839 2878.99994850159 164 165 160
209.191188216209 649.747252464294 2884.0000629425 157 158 153
217.327415943146 650.631904602051 2888.00001144409 169 170 165
225.328892469406 651.065289974213 2890.00010490417 166 166 164
233.501970767975 651.948750019073 2894.00005340576 163 163 161
241.779536008835 653.056800365448 2898.9999294281 165 165 163
250.083684921265 654.164373874664 2904.00004386902 145 144 140
258.147776126862 654.59543466568 2905.99989891052 153 152 147
266.771376132965 656.377553939819 2914.00003433228 172 171 166
275.43768286705 658.159017562866 2921.99993133545 150 151 145
283.758878707886 659.038960933685 2926.00011825562 150 151 146
292.200654745102 660.143494606018 2930.99999427795 170 172 169
-140.786081552505 665.459990501404 2989.00008201599 209 211 208
-132.526621222496 664.802968502045 2986.00006103516 189 191 188
-124.199748039246 663.699865341187 2980.99994659424 161 162 157
-115.899726748466 662.596344947815 2976.0000705719 174 175 170
-107.66277462244 661.714613437653 2971.99988365173 159 160 155
-99.6148064732552 661.945641040802 2973.00004959106 161 162 157
-91.6226729750633 662.621259689331 2976.0000705719 179 180 175
-83.5578292608261 662.850975990295 2976.99999809265 136 135 130
-75.4872858524323 663.080036640167 2977.9999256134 140 139 134
-67.5468593835831 664.644360542297 2984.99989509583 121 120 115
-59.5283508300781 665.762841701508 2990.00000953674 115 114 109
-51.3105690479279 664.654016494751 2984.99989509583 107 106 101
-43.0040806531906 661.7631316185 2971.99988365173 158 157 152
-34.6859209239483 657.31292963028 2951.99990272522 171 172 167
-26.5396647155285 654.420733451843 2938.99989128113 171 170 166
-18.464045599103 651.527881622314 2926.00011825562 155 154 150
-10.4698585346341 649.302303791046 2915.99988937378 167 166 162
-2.53264931961894 647.744178771973 2908.99991989136 155 154 150
5.36648975685239 646.185398101807 2901.99995040894 191 190 185
13.2366726174951 645.07132768631 2897.0000743866 168 167 162
21.0869070142508 644.179224967957 2892.99988746643 146 143 138
28.9353355765343 643.731892108917 2891.00003242493 144 141 136
36.6964340209961 641.94792509079 2882.99989700317 153 150 145
44.4448031485081 640.608668327332 2877.00009346008 160 157 152
52.1967262029648 639.714062213898 2872.99990653992 137 137 129
60.0729659199715 640.377521514893 2875.99992752075 148 148 140
67.8709223866463 640.149712562561 2875 180 180 172
75.6369009613991 639.698624610901 2872.99990653992 149 149 141
83.3046361804008 638.57889175415 2868.00003051758 151 150 145
91.04023873806 638.126611709595 2865.9999370575 147 146 141
98.7991988658905 637.896358966827 2865.00000953674 147 146 141
106.55239969492 637.665510177612 2864.00008201599 169 168 163
114.220030605793 636.988699436188 2861.00006103516 185 184 180
122.12685495615 637.647271156311 2864.00008201599 153 152 148
130.049645900726 638.305127620697 2867.00010299683 149 148 144
137.892201542854 638.517081737518 2868.00003051758 147 146 141
145.435035228729 637.392640113831 2862.99991607666 146 145 140
153.21783721447 637.380838394165 2862.99991607666 147 146 141
161.112651228905 637.813746929169 2865.00000953674 145 144 139
169.076859951019 638.468503952026 2868.00003051758 146 145 140
176.933526992798 638.677477836609 2868.99995803833 146 147 142
184.92391705513 639.331161975861 2871.99997901917 155 156 151
192.997246980667 640.206813812256 2875.99992752075 175 176 171
201.161563396454 641.304492950439 2881.00004196167 164 165 160
209.207400679588 641.956269741058 2884.0000629425 158 159 154
217.419505119324 643.052697181702 2888.99993896484 169 170 165
225.346282124519 643.258273601532 2890.00010490417 165 167 164
233.439236879349 643.908262252808 2892.99988746643 163 163 161
241.79807305336 645.225524902344 2898.9999294281 165 165 163
250.361144542694 646.98725938797 2907.00006484985 146 147 142
258.700460195541 648.080706596375 2911.99994087219 155 154 149
267.157793045044 649.396061897278 2917.99998283386 173 172 167
275.741249322891 650.93332529068 2924.99995231628 150 151 145
284.071087837219 651.802480220795 2928.99990081787 150 151 146
292.721033096313 653.338670730591 2936.00010871887 170 172 169
-140.891462564468 657.82356262207 2990.9999370575 206 208 205
-132.537171244621 656.734704971313 2986.00006103516 183 185 182
-124.167993664742 655.425310134888 2980.00001907349 160 161 156
-115.908980369568 654.555082321167 2976.0000705719 171 172 167
-107.743859291077 654.124140739441 2973.99997711182 158 159 154
-99.7568145394325 654.792249202728 2976.99999809265 155 156 151
-91.7223989963531 655.239820480347 2979.00009155273 174 175 170
-83.6206823587418 655.24685382843 2979.00009155273 136 135 130
-75.6201073527336 656.133055686951 2983.00004005432 138 137 132
-67.6880851387978 657.898426055908 2990.9999370575 118 117 112
-59.6924275159836 659.443259239197 2997.99990653992 111 110 105
-51.4178574085236 657.908082008362 2990.9999370575 93 92 87
-43.0509559810162 654.39236164093 2974.99990463257 152 151 146
-34.66522321105 648.896455764771 2950.00004768372 173 174 169
-26.5147183090448 645.819425582886 2936.00010871887 168 167 163
-18.4718500822783 643.841564655304 2927.00004577637 158 157 153
-10.4850688949227 642.302930355072 2920.00007629395 163 162 158
-2.53459555096924 640.32381772995 2911.00001335144 157 156 152
5.37432031705976 639.223754405975 2905.99989891052 185 184 179
13.2560189813375 638.123214244843 2901.00002288818 145 144 139
21.1323481053114 637.681901454926 2898.9999294281 143 140 135
28.9376731961966 635.920166969299 2891.00003242493 147 144 139
36.6866625845432 633.937776088715 2881.99996948242 168 165 160
44.3865843117237 631.954848766327 2872.99990653992 154 151 146
52.1464236080647 631.291091442108 2869.99988555908 154 154 146
59.9733591079712 631.506621837616 2871.00005149841 161 161 153
67.8291469812393 631.941318511963 2872.99990653992 156 156 148
75.5903273820877 631.495714187622 2871.00005149841 149 149 141
83.3113342523575 630.829513072968 2868.00003051758 151 150 145
91.0475254058838 630.382537841797 2865.9999370575 147 146 141
98.8415777683258 630.37496805191 2865.9999370575 152 151 146
106.635324656963 630.366683006287 2865.9999370575 197 196 191
114.348918199539 629.918038845062 2864.00008201599 162 161 157
122.13658541441 629.908680915833 2864.00008201599 146 145 141
130.01461327076 630.338490009308 2865.9999370575 148 147 143
137.758910655975 630.107998847961 2865.00000953674 147 146 141
145.446553826332 629.656851291656 2862.99991607666 146 145 140
153.176411986351 629.42510843277 2861.99998855591 147 146 141
161.069095134735 629.852592945099 2864.00008201599 145 144 139
169.031202793121 630.499422550201 2867.00010299683 147 146 141
176.947414875031 630.92565536499 2868.99995803833 149 150 145
185.002774000168 631.791114807129 2872.99990653992 160 161 156
193.07941198349 632.656037807465 2877.00009346008 174 175 170
201.247036457062 633.740186691284 2881.99996948242 163 164 159
209.223628044128 634.164035320282 2884.0000629425 163 164 159
217.361032962799 635.027170181274 2888.00001144409 167 168 163
225.285619497299 635.229885578156 2888.99993896484 163 165 164
233.53785276413 636.311709880829 2894.00005340576 164 164 162
242.06680059433 638.052523136139 2901.99995040894 166 166 164
250.294059514999 638.913154602051 2905.99989891052 151 152 147
258.808940649033 640.432953834534 2913.00010681152 158 157 153
266.994833946228 641.072511672974 2915.99988937378 172 171 167
275.667726993561 642.810881137848 2924.00002479553 151 152 147
284.092366695404 643.889009952545 2928.99990081787 151 153 148
293.241381645203 646.50547504425 2940.99998474121 168 173 169
-140.99682867527 650.174856185913 2993.00003051758 202 204 201
-132.592067122459 648.882329463959 2986.99998855591 173 175 172
-124.136194586754 647.154569625854 2979.00009155273 160 161 156
-115.879252552986 646.295130252838 2974.99990463257 168 169 164
-107.788674533367 646.30401134491 2974.99990463257 161 162 157
-99.7647792100906 646.746814250946 2976.99999809265 152 153 148
-91.7297303676605 647.18896150589 2979.00009155273 167 168 163
-83.6835131049156 647.630453109741 2980.99994659424 144 143 138
-75.7275819778442 648.940324783325 2986.99998855591 137 136 131
-67.829318344593 651.118695735931 2996.99997901917 119 118 113
-59.8565265536308 653.079092502594 3006.00004196167 110 109 104
-51.5595190227032 651.562690734863 2999.00007247925 85 84 79
-43.1123152375221 647.221386432648 2979.00009155273 146 145 140
-34.6680134534836 640.923917293549 2950.00004768372 175 176 171
-26.4897588640451 637.232899665833 2933.00008773804 165 164 160
-18.4480920433998 635.062098503113 2923.00009727478 165 164 160
-10.4823214933276 634.194135665894 2918.99991035461 161 160 156
-2.53479974344373 632.456541061401 2911.00001335144 160 159 155
5.37660345435143 631.587386131287 2907.00006484985 172 171 166
13.2570872083306 630.283057689667 2901.00002288818 146 145 140
21.1413390934467 630.064427852631 2900.00009536743 143 140 135
28.9299916476011 627.889752388 2890.00010490417 150 147 142
36.7023460566998 626.366257667542 2882.99989700317 164 161 156
44.3747043609619 623.97313117981 2871.99997901917 148 145 140
52.0961135625839 622.883021831512 2867.00010299683 163 163 155
59.8737150430679 622.661232948303 2865.9999370575 170 170 162
67.787379026413 623.742401599884 2871.00005149841 146 146 138
75.5700394511223 623.519361019135 2869.99988555908 151 151 143
83.3180025219917 623.078584671021 2868.00003051758 150 149 144
91.1183506250381 623.071551322937 2868.00003051758 149 148 143
98.8839641213417 622.846782207489 2867.00010299683 153 152 147
106.606617569923 622.404038906097 2865.00000953674 192 191 186
114.318072795868 621.960759162903 2862.99991607666 156 155 151
122.103616595268 621.951401233673 2862.99991607666 147 146 142
129.888817667961 621.941387653351 2862.99991607666 149 148 144
137.625530362129 621.713638305664 2861.99998855591 147 146 141
145.508840680122 622.136950492859 2864.00008201599 147 146 141
153.349041938782 622.342348098755 2865.00000953674 148 147 142
161.08176112175 622.112810611725 2864.00008201599 146 145 140
168.985471129417 622.534275054932 2865.9999370575 148 147 142
176.837876439095 622.738003730774 2867.00010299683 151 152 147
185.210421681404 624.678730964661 2875.99992752075 163 164 159
193.228647112846 625.31566619873 2878.99994850159 173 174 169
201.541975140572 626.820743083954 2885.99991798401 163 164 159
209.239780902863 626.370489597321 2884.0000629425 165 166 161
217.377752065659 627.222716808319 2888.00001144409 166 167 162
225.458920001984 627.857327461243 2891.00003242493 163 165 164
233.636423945427 628.70842218399 2894.99998092651 165 165 163
242.252096533775 630.644798278809 2904.00004386902 166 166 164
250.485360622406 631.494700908661 2907.99999237061 152 153 148
259.095042943954 633.212625980377 2915.99988937378 159 158 154
267.28966832161 633.844196796417 2918.99991035461 171 170 166
275.87702870369 635.343909263611 2926.00011825562 151 152 147
284.307599067688 636.408567428589 2930.99999427795 153 155 150
293.562352657318 639.209747314453 2944.00000572205 168 173 169
-140.866622328758 641.441345214844 2990.00000953674 201 203 200
-132.424980401993 639.950454235077 2983.00004005432 171 173 170
-124.146029353142 639.102399349213 2979.00009155273 164 165 159
-115.927398204803 638.468265533447 2976.0000705719 162 163 158
-107.869699597359 638.691663742065 2976.99999809265 163 164 159
-99.8397544026375 639.129042625427 2979.00009155273 141 142 136
-91.7678400874138 639.35124874115 2980.00001907349 146 147 142
-83.7744101881981 640.21635055542 2983.99996757507 157 156 151
-75.8604109287262 641.939163208008 2992.00010299683 129 128 123
-67.9931789636612 644.519507884979 3003.99994850159 117 116 111
-60.0206293165684 646.670162677765 3013.99993896484 111 110 105
-51.7011992633343 645.172715187073 3006.99996948242 77 76 71
-43.1881360709667 640.241742134094 2983.99996757507 133 132 127
-34.7060486674309 633.593559265137 2953.00006866455 179 180 175
-26.5099462121725 629.733920097351 2934.99994277954 161 160 156
-18.4748191386461 628.019213676453 2927.00004577637 169 168 164
-10.5011202394962 627.376675605774 2924.00002479553 164 163 159
-2.53848638385534 625.446140766144 2914.99996185303 164 163 159
5.38258440792561 624.373257160187 2910.00008583069 145 144 139
13.2764326408505 623.299717903137 2904.99997138977 144 143 138
21.1649090051651 622.869253158569 2903.00011634827 141 138 133
28.9323143661022 620.077967643738 2890.00010490417 155 152 147
36.7307551205158 619.002461433411 2884.99999046326 148 145 140
44.424619525671 616.853654384613 2875 151 148 143
52.1911382675171 616.206109523773 2871.99997901917 163 163 155
59.9202960729599 615.343451499939 2868.00003051758 182 181 176
67.7691772580147 615.767359733582 2869.99988555908 152 151 146
75.5497440695763 615.547180175781 2868.99995803833 145 144 139
83.3246409893036 615.326225757599 2868.00003051758 147 146 141
91.0620614886284 614.890217781067 2865.9999370575 151 150 145
98.788358271122 614.453613758087 2864.00008201599 146 145 140
106.466241180897 613.801836967468 2861.00006103516 157 156 151
114.287219941616 614.007592201233 2861.99998855591 159 158 154
121.985331177711 613.56920003891 2859.99989509583 153 152 148
129.717603325844 613.344728946686 2858.99996757507 146 145 141
137.347832322121 612.690627574921 2855.99994659424 147 146 141
145.418673753738 613.966703414917 2861.99998855591 148 147 142
153.468161821365 615.027606487274 2867.00010299683 150 149 144
161.375626921654 615.444242954254 2868.99995803833 147 146 141
169.175580143929 615.431308746338 2868.99995803833 148 147 142
177.036717534065 615.632355213165 2869.99988555908 152 153 148
185.160413384438 616.690814495087 2875 166 167 162
193.243607878685 617.534101009369 2878.99994850159 173 174 169
201.487705111504 618.805885314941 2884.99999046326 163 164 159
209.401026368141 619.004487991333 2885.99991798401 167 168 163
217.394456267357 619.417071342468 2888.00001144409 165 166 161
225.632146000862 620.472490787506 2892.99988746643 163 165 162
233.896359801292 621.527314186096 2898.00000190735 164 166 163
242.604210972786 623.653888702393 2907.99999237061 165 167 164
250.762760639191 624.278604984283 2911.00001335144 153 153 151
259.292334318161 625.760555267334 2917.99998283386 157 158 153
267.584472894669 626.598477363586 2921.99993133545 166 167 162
275.991916656494 627.650320529938 2927.00004577637 153 154 149
284.619837999344 629.130482673645 2934.00001525879 155 157 154
-141.01904630661 633.993446826935 2993.00003051758 198 198 196
-132.568582892418 632.521450519562 2986.00006103516 171 172 167
-124.322533607483 631.896078586578 2983.00004005432 156 157 149
-116.053439676762 631.058216094971 2979.00009155273 160 161 155
-107.950732111931 631.067037582397 2979.00009155273 164 163 158
-99.9147072434425 631.49893283844 2980.99994659424 143 143 135
-91.8983146548271 632.142066955566 2983.99996757507 144 143 138
-83.8653147220612 632.784605026245 2986.99998855591 163 162 157
-75.9425088763237 634.48566198349 2994.99988555908 134 133 128
-68.0665001273155 637.033641338348 3006.99996948242 127 126 121
-60.1050741970539 639.369010925293 3017.99988746643 98 97 92
-51.7913065850735 638.102412223816 3012.00008392334 83 82 77
-43.2639569044113 633.233547210693 2989.00008201599 135 134 129
-34.7440876066685 626.245498657227 2956.00008964539 174 173 169
-26.5030320733786 621.587097644806 2934.00001525879 162 161 157
-18.4510480612516 619.258463382721 2923.00009727478 162 161 157
-10.4875946417451 618.624031543732 2920.00007629395 163 162 158
-2.53868964500725 617.565274238586 2914.99996185303 184 183 179
5.38486428558826 616.71769618988 2911.00001335144 143 142 138
13.272924348712 615.233957767487 2904.00004386902 145 144 140
21.1447272449732 614.385187625885 2900.00009536743 146 145 141
28.9446413516998 612.476468086243 2891.00003242493 164 163 159
36.7464236915112 611.414551734924 2885.99991798401 141 140 136
44.4590710103512 609.504580497742 2877.00009346008 163 162 158
52.213478833437 608.653366565704 2872.99990653992 166 165 160
59.9877573549747 608.225166797638 2871.00005149841 187 186 182
67.8454264998436 608.643770217896 2872.99990653992 149 148 144
75.5820944905281 608.002483844757 2869.99988555908 147 146 142
83.3022221922874 607.360780239105 2867.00010299683 152 151 147
91.0057500004768 606.718301773071 2864.00008201599 145 144 140
98.7271964550018 606.287121772766 2861.99998855591 173 172 168
106.400236487389 605.643451213837 2858.99996757507 160 159 155
114.136524498463 605.422914028168 2858.00004005432 152 151 147
121.952302753925 605.62539100647 2858.99996757507 156 155 151
129.682451486588 605.40372133255 2858.00004005432 146 145 141
137.454822659492 605.39323091507 2858.00004005432 149 148 143
145.379260182381 606.017649173737 2861.00006103516 149 148 143
153.426632285118 607.06502199173 2865.9999370575 149 148 143
161.331966519356 607.47629404068 2868.00003051758 150 149 144
169.12978887558 607.463479042053 2868.00003051758 150 149 144
176.927104592323 607.450067996979 2868.00003051758 154 155 150
185.045927762985 608.495056629181 2872.99990653992 169 170 165
193.124294281006 609.327673912048 2877.00009346008 169 170 165
201.43336057663 610.794961452484 2884.0000629425 161 162 157
209.634810686111 611.838102340698 2888.99993896484 163 164 159
217.712223529816 612.457096576691 2891.99995994568 165 166 161
225.883364677429 613.287329673767 2895.99990844727 161 161 159
233.914166688919 613.693416118622 2898.00000190735 168 168 166
242.622584104538 615.79293012619 2907.99999237061 166 166 164
251.040130853653 617.044866085052 2914.00003433228 153 153 151
259.489566087723 618.296146392822 2920.00007629395 155 155 153
267.879277467728 619.335055351257 2924.99995231628 167 167 165
276.106804609299 619.949996471405 2927.99997329712 146 148 145
285.125970840454 622.258126735687 2938.99989128113 153 155 152
-140.747383236885 624.645888805389 2986.99998855591 192 192 190
-132.312595844269 623.192667961121 2980.00001907349 165 166 161
-124.290630221367 623.621046543121 2982.00011253357 153 154 146
-116.062581539154 623.003005981445 2979.00009155273 155 156 148
-108.0317273736 623.430132865906 2980.99994659424 159 159 151
-100.023165345192 624.065697193146 2983.99996757507 143 143 135
-91.9671803712845 624.491572380066 2986.00006103516 140 139 134
-83.9000344276428 624.916791915894 2987.99991607666 157 156 151
-75.948528945446 626.387119293213 2994.99988555908 153 152 147
-68.1398138403893 629.52995300293 3009.99999046326 109 108 103
-60.18952652812 632.044851779938 3022.0000743866 103 102 97
-51.829818636179 630.376100540161 3013.99993896484 108 107 102
-43.2384461164474 624.732851982117 2986.99998855591 126 125 121
-34.7233414649963 617.833971977234 2953.9999961853 166 165 161
-26.532243937254 614.280760288239 2937.00003623962 172 171 167
-18.4840820729733 612.40017414093 2927.99997329712 169 168 164
-10.4884300380945 610.728144645691 2920.00007629395 166 165 161
-2.53715016879141 609.264612197876 2913.00010681152 184 183 179
5.38344355300069 608.636975288391 2910.00008583069 148 147 143
13.2785523310304 607.59049654007 2904.99997138977 144 143 139
21.1391188204288 606.334149837494 2898.9999294281 153 152 148
28.936930000782 604.449808597565 2890.00010490417 162 161 157
36.7493480443954 603.610575199127 2885.99991798401 158 157 153
44.5089712738991 602.352499961853 2880.00011444092 165 164 160
52.2903352975845 601.721167564392 2877.00009346008 178 177 173
60.0343085825443 600.880146026611 2872.99990653992 166 165 161
67.8271949291229 600.665986537933 2871.99997901917 146 145 141
75.5090713500977 599.614560604095 2867.00010299683 147 146 142
83.2797437906265 599.399089813232 2865.9999370575 152 151 147
90.9176170825958 598.346590995789 2861.00006103516 164 163 159
98.7349897623062 598.548173904419 2861.99998855591 199 198 194
106.445841491222 598.121821880341 2859.99989509583 155 154 150
114.265322685242 598.322331905365 2861.00006103516 155 154 150
121.961884200573 597.894787788391 2858.99996757507 145 144 140
129.647240042686 597.466707229614 2857.00011253357 150 149 145
137.369379401207 597.247123718262 2855.99994659424 148 147 142
145.238161087036 597.654402256012 2858.00004005432 149 148 143
153.170898556709 598.270058631897 2861.00006103516 150 149 144
161.175742745399 599.094271659851 2865.00000953674 152 151 146
169.02494430542 599.290549755096 2865.9999370575 152 151 146
176.879107952118 599.486351013184 2867.00010299683 157 158 153
184.866964817047 600.099623203278 2869.99988555908 170 171 166
193.00489127636 601.130604743958 2875 170 171 166
201.378971338272 602.788150310516 2882.99989700317 163 164 159
209.941104054451 604.863166809082 2892.99988746643 165 166 161
218.029960989952 605.47411441803 2895.99990844727 166 167 162
226.134553551674 606.08446598053 2898.9999294281 163 163 161
233.931869268417 605.858027935028 2898.00000190735 168 168 166
242.390602827072 607.303440570831 2904.99997138977 166 166 164
250.972867012024 608.957350254059 2913.00010681152 154 154 152
259.59786772728 610.610544681549 2921.0000038147 156 156 154
268.265634775162 612.263143062592 2928.99990081787 169 169 167
276.410222053528 612.660944461823 2930.99999427795 147 149 146
285.535216331482 615.148544311523 2943.00007820129 155 157 154
-140.664100646973 616.154849529266 2984.99989509583 192 192 190
-132.322937250137 615.13340473175 2980.00001907349 166 167 162
-124.300368130207 615.556240081787 2982.00011253357 153 154 146
-116.188585758209 615.565717220306 2982.00011253357 152 153 145
-108.221434056759 616.400182247162 2986.00006103516 159 160 152
-100.19863396883 617.027640342712 2989.00008201599 144 144 136
-92.097632586956 617.241561412811 2990.00000953674 139 138 133
-83.9628130197525 617.248594760895 2990.00000953674 161 160 155
-76.005257666111 618.699908256531 2996.99997901917 151 150 145
-68.2357624173164 622.215092182159 3013.99993896484 114 113 108
-60.3337176144123 625.316798686981 3029.00004386902 104 103 98
-51.9371032714844 623.463273048401 3019.99998092651 91 90 85
-43.1984439492226 616.034984588623 2983.99996757507 150 149 145
-34.714337438345 609.638214111328 2953.00006866455 167 166 162
-26.525316759944 606.131076812744 2936.00010871887 176 175 171
-18.4855479747057 604.481220245361 2927.99997329712 168 167 163
-10.4856695979834 602.624297142029 2918.99991035461 174 173 169
-2.53822235390544 601.592600345612 2914.00003433228 179 178 174
5.38572063669562 600.973069667816 2911.00001335144 148 147 143
13.2841765880585 599.940121173859 2905.99989891052 147 146 142
21.1189202964306 597.874283790588 2895.99990844727 164 163 159
28.939226642251 596.633613109589 2890.00010490417 155 154 150
36.7395244538784 595.598816871643 2884.99999046326 161 160 156
44.52795535326 594.769835472107 2881.00004196167 164 163 159
52.276287227869 593.733668327332 2875.99992752075 185 184 180
60.0808598101139 593.522906303406 2875 155 154 150
67.8797885775566 593.311429023743 2874.00007247925 149 148 144
75.567714869976 592.273533344269 2868.99995803833 148 147 143
83.3153799176216 591.854393482208 2867.00010299683 146 145 141
90.9883230924606 591.021776199341 2862.99991607666 184 183 179
98.8117530941963 591.220796108246 2864.00008201599 190 189 185
106.491424143314 590.593457221985 2861.00006103516 151 150 146
114.274270832539 590.584754943848 2861.00006103516 153 152 148
121.971443295479 590.162754058838 2858.99996757507 144 143 139
129.74813580513 590.15291929245 2858.99996757507 150 149 145
137.476295232773 589.936077594757 2858.00004005432 149 148 143
145.300284028053 590.131521224976 2858.99996757507 149 148 143
153.129234910011 590.326368808746 2859.99989509583 149 148 143
160.963177680969 590.520620346069 2861.00006103516 151 150 145
168.743118643761 590.507924556732 2861.00006103516 152 151 146
176.645904779434 590.907335281372 2862.99991607666 161 162 157
184.816762804985 592.131853103638 2868.99995803833 169 170 165
193.019673228264 593.355655670166 2875 168 169 164
201.324507594109 594.785332679749 2881.99996948242 163 164 159
209.666818380356 596.214354038239 2888.99993896484 165 166 161
217.820644378662 597.023606300354 2892.99988746643 166 167 162
225.839614868164 597.419500350952 2894.99998092651 166 166 164
233.788043260574 597.60856628418 2895.99990844727 168 168 166
242.325365543365 599.241554737091 2904.00004386902 166 166 164
251.077800989151 601.28653049469 2914.00003433228 156 156 154
259.706109762192 602.918148040771 2921.99993133545 158 158 156
268.560349941254 604.961931705475 2931.99992179871 170 170 168
276.525020599365 604.941725730896 2931.99992179871 153 155 152
285.653293132782 607.396900653839 2944.00000572205 159 161 158
-149.043589830399 609.087944030762 2990.00000953674 208 210 207
-140.439391136169 607.062041759491 2980.00001907349 186 186 184
-132.111191749573 606.054067611694 2974.99990463257 163 164 159
-124.226659536362 607.082605361938 2980.00001907349 156 156 148
-116.197653114796 607.499420642853 2982.00011253357 153 153 145
-108.229883015156 608.323097229004 2986.00006103516 151 150 145
-100.172966718674 608.738660812378 2987.99991607666 146 145 140
-92.1356528997421 609.357297420502 2990.9999370575 143 142 137
-83.9974880218506 609.364211559296 2990.9999370575 146 147 141
-76.061949133873 611.00035905838 2999.00007247925 155 156 150
-68.3543458580971 615.080773830414 3019.00005340576 99 100 94
-60.5376698076725 619.160592556 3039.00003433228 100 101 96
-52.0443879067898 616.516351699829 3026.00002288818 160 161 156
-43.0860295891762 606.333136558533 2976.0000705719 178 179 174
-34.7288325428963 601.853787899017 2953.9999961853 171 170 166
-26.5454780310392 598.596334457397 2937.99996376038 175 174 170
-18.4996351599693 596.968233585358 2930.0000667572 162 161 157
-10.4900896549225 594.931900501251 2920.00007629395 182 181 177
-2.53842282108963 593.709945678711 2914.00003433228 156 155 151
5.38614625111222 593.098640441895 2911.00001335144 146 145 141
13.2852243259549 592.079102993011 2905.99989891052 154 153 149
21.1351718753576 590.447843074799 2898.00000190735 172 171 167
28.9214793592691 588.408410549164 2888.00001144409 147 146 142
36.7169491946697 587.387144565582 2882.99989700317 160 159 155
44.500544667244 586.569011211395 2878.99994850159 164 163 159
52.2622354328632 585.750281810761 2875 183 182 178
60.0437819957733 585.338354110718 2872.99990653992 146 145 141
67.7906423807144 584.722101688385 2869.99988555908 150 149 145
75.5209699273109 584.105312824249 2867.00010299683 150 149 145
83.2056552171707 583.284080028534 2862.99991607666 147 146 142
90.9001082181931 582.666099071503 2859.99989509583 198 197 193
98.7504795193672 583.066165447235 2861.99998855591 167 166 162
106.499738991261 582.854449748993 2861.00006103516 148 147 143
114.363074302673 583.253264427185 2862.99991607666 149 148 144
121.895618736744 582.021832466125 2857.00011253357 147 146 142
