ply
format ascii 1.0
comment KinectMotionCapture
element vertex 763
property float x
property float y
property float z
property uchar red
property uchar green
property uchar blue
end_header
541.603267192841 533.564448356628 2433.00008773804 160 158 161
547.292470932007 532.66042470932 2428.99990081787 160 158 161
553.415536880493 532.195210456848 2427.00004577637 166 164 167
559.296369552612 531.510829925537 2424.00002479553 165 163 166
565.393805503845 531.045794487 2421.99993133545 161 159 162
571.716129779816 530.800223350525 2421.0000038147 159 157 160
577.554702758789 530.116260051727 2417.99998283386 156 154 157
583.859741687775 529.871046543121 2417.00005531311 152 150 153
590.158760547638 529.625833034515 2415.99988937378 152 150 153
596.451938152313 529.380917549133 2414.99996185303 154 152 155
602.739274501801 529.136121273041 2414.00003433228 153 151 154
609.525561332703 529.32995557785 2414.99996185303 153 151 154
616.061866283417 529.3048620224 2414.99996185303 153 151 154
622.855365276337 529.498994350433 2415.99988937378 153 151 154
629.13304567337 529.255092144012 2414.99996185303 153 151 154
635.668158531189 529.23059463501 2414.99996185303 153 151 154
642.468988895416 529.425442218781 2415.99988937378 150 148 149
649.543583393097 529.839754104614 2417.99998283386 150 148 149
657.171249389648 530.692398548126 2421.99993133545 150 150 150
664.820432662964 531.545400619507 2426.00011825562 151 151 151
672.214448451996 532.179474830627 2428.99990081787 152 152 152
680.183351039886 533.252000808716 2434.00001525879 151 151 151
688.743472099304 534.762918949127 2440.99998474121 149 149 149
697.911202907562 536.712288856506 2450.00004768372 155 155 155
706.264793872833 538.004636764526 2456.00008964539 157 159 158
716.6827917099 540.830612182617 2469.00010108948 153 155 154
726.292014122009 542.999625205994 2479.00009155273 169 171 170
736.842632293701 545.826017856598 2492.00010299683 165 167 166
745.374858379364 547.119438648224 2497.99990653992 152 154 153
754.541993141174 548.851370811462 2506.00004196167 151 153 152
762.5373005867 549.707472324371 2509.99999046326 153 155 154
772.393584251404 551.878213882446 2519.99998092651 152 154 153
781.376421451569 553.392171859741 2526.99995040894 148 150 149
790.397524833679 554.906606674194 2533.99991989136 146 148 145
800.400733947754 557.07848072052 2543.99991035461 144 146 143
818.391799926758 564.72510099411 2578.9999961853 168 170 167
838.81276845932 573.904514312744 2621.00005149841 164 166 163
848.165810108185 575.420439243317 2628.00002098084 176 178 175
842.912018299103 567.08425283432 2589.99991416931 171 172 167
469.335466623306 535.096526145935 2469.00010108948 178 180 177
474.489480257034 533.335864543915 2460.99996566772 176 178 177
480.185866355896 532.225370407104 2456.00008964539 177 179 178
485.457897186279 530.681550502777 2448.99988174438 177 179 178
491.495072841644 530.004620552063 2446.00009918213 176 176 176
497.515171766281 529.327571392059 2443.00007820129 172 170 173
504.756510257721 529.950559139252 2446.00009918213 171 169 172
510.967969894409 529.490232467651 2444.00000572205 173 171 174
517.591536045074 529.463171958923 2444.00000572205 164 162 165
523.785352706909 529.002785682678 2441.99991226196 157 155 158
529.967725276947 528.542578220367 2440.00005722046 173 171 174
535.258948802948 527.215957641602 2434.00001525879 175 173 176
541.63008928299 526.972472667694 2433.00008773804 162 160 163
547.544598579407 526.295959949493 2430.0000667572 158 156 159
553.898215293884 526.052594184875 2428.99990081787 164 162 165
559.322953224182 524.943172931671 2424.00002479553 166 164 167
565.653741359711 524.700105190277 2423.00009727478 165 163 166
571.742475032806 524.240612983704 2421.0000038147 163 161 164
578.53639125824 524.430811405182 2421.99993133545 160 158 161
584.852039813995 524.188101291656 2421.0000038147 156 154 157
591.161787509918 523.945689201355 2420.00007629395 156 154 157
596.971690654755 523.270308971405 2417.00005531311 157 155 158
603.264212608337 523.028135299683 2415.99988937378 156 154 157
609.803318977356 523.002624511719 2415.99988937378 155 153 156
616.852283477783 523.410320281982 2417.99998283386 155 153 156
623.138129711151 523.168802261353 2417.00005531311 154 152 155
629.678726196289 523.143887519836 2417.00005531311 154 152 155
636.219143867493 523.119330406189 2417.00005531311 154 152 155
643.290996551514 523.52774143219 2418.99991035461 151 149 150
649.83606338501 523.503541946411 2418.99991035461 151 149 150
657.466411590576 524.345397949219 2423.00009727478 150 150 150
664.843857288361 524.970889091492 2426.00011825562 151 151 151
672.514319419861 525.813162326813 2430.0000667572 151 151 151
680.206179618835 526.655554771423 2434.00001525879 147 147 147
689.048171043396 528.363704681396 2441.99991226196 147 147 147
697.933495044708 530.072152614594 2450.00004768372 159 159 159
706.861853599548 531.780660152435 2457.99994468689 162 164 163
716.414153575897 533.922255039215 2467.99993515015 159 161 160
726.606428623199 536.496639251709 2480.00001907349 150 152 151
737.454950809479 539.503872394562 2493.99995803833 148 150 149
745.992302894592 540.780901908875 2500 148 150 149
754.562199115753 542.058169841766 2506.00004196167 149 151 150
762.253224849701 542.686998844147 2509.0000629425 150 152 151
772.719323635101 545.26287317276 2520.99990844727 148 150 147
783.250689506531 547.839105129242 2532.99999237061 146 148 145
792.599260807037 549.550473690033 2540.99988937378 144 146 143
803.5649061203 552.343726158142 2553.99990081787 155 157 154
823.486685752869 561.192631721497 2595.00002861023 163 165 162
840.4301404953 567.878901958466 2625.99992752075 144 146 143
848.827838897705 568.726897239685 2630.00011444092 165 167 162
477.726876735687 537.823140621185 2513.00001144409 179 181 178
474.516361951828 526.667475700378 2460.99996566772 177 179 178
480.212807655334 525.570571422577 2456.00008964539 176 178 177
485.683113336563 524.259746074677 2450.00004768372 177 179 178
491.722971200943 523.590862751007 2447.00002670288 178 178 178
498.153179883957 523.349940776825 2446.00009918213 174 172 175
505.196213722229 523.750722408295 2447.99995422363 174 172 175
511.622309684753 523.509800434113 2447.00002670288 173 171 174
518.042147159576 523.268759250641 2446.00009918213 170 168 171
523.812413215637 522.385954856873 2441.99991226196 165 163 166
529.99472618103 521.931111812592 2440.00005722046 158 156 159
535.725712776184 521.048545837402 2436.00010871887 169 167 170
541.879653930664 520.593881607056 2434.00001525879 173 171 174
548.247396945953 520.353198051453 2433.00008773804 166 164 167
554.609060287476 520.112454891205 2431.99992179871 159 157 160
560.041785240173 519.01650428772 2427.00004577637 161 159 162
566.380560398102 518.776059150696 2426.00011825562 167 165 168
572.477281093597 518.321931362152 2424.00002479553 167 165 168
579.279243946075 518.509387969971 2424.99995231628 166 164 167
585.119664669037 517.841637134552 2421.99993133545 164 162 165
591.43203496933 517.601847648621 2421.0000038147 163 161 164
597.244441509247 516.93457365036 2417.99998283386 163 161 164
603.539526462555 516.695022583008 2417.00005531311 158 156 159
610.586047172546 517.097055912018 2418.99991035461 157 155 158
617.132604122162 517.071604728699 2418.99991035461 157 155 158
623.678743839264 517.046391963959 2418.99991035461 155 153 156
629.964113235474 516.807734966278 2417.99998283386 155 153 156
637.296617031097 517.424166202545 2421.0000038147 155 153 156
644.379079341888 517.827093601227 2423.00009727478 152 150 151
651.47203207016 518.230199813843 2424.99995231628 152 150 151
658.846974372864 518.847227096558 2427.99997329712 149 149 149
666.237771511078 519.464492797852 2430.99999427795 149 149 149
673.921346664429 520.295679569244 2434.99994277954 149 149 149
681.347072124481 520.913422107697 2437.99996376038 149 149 149
690.199673175812 522.599756717682 2446.00009918213 147 147 147
698.240697383881 523.645281791687 2450.99997520447 155 155 155
707.171678543091 525.332093238831 2459.00011062622 156 158 157
716.145634651184 527.019023895264 2467.00000762939 153 155 154
726.627826690674 529.77442741394 2480.00001907349 144 146 145
735.701978206635 531.461834907532 2487.99991607666 143 145 144
745.416283607483 533.576846122742 2497.99990653992 148 150 149
753.679215908051 534.624099731445 2503.00002098084 150 152 151
762.880802154541 536.312520503998 2510.99991798401 149 151 150
773.351967334747 538.855612277985 2523.00000190735 146 148 145
783.888280391693 541.39906167984 2535.00008583069 145 147 144
794.801533222198 544.156312942505 2548.00009727478 143 145 142
807.988107204437 548.40886592865 2568.00007820129 152 154 151
827.312588691711 556.719124317169 2607.00011253357 154 156 153
839.807689189911 560.331523418427 2624.00007247925 153 155 152
846.908330917358 560.314178466797 2624.00007247925 170 172 167
472.431033849716 525.096416473389 2484.99989509583 180 182 179
476.664304733276 522.322475910187 2471.99988365173 177 179 178
481.999486684799 520.816445350647 2464.99991416931 177 179 178
486.701190471649 518.676698207855 2454.99992370605 178 180 179
492.35275387764 517.593383789063 2450.00004768372 179 179 181
498.180150985718 516.721427440643 2446.00009918213 177 175 178
505.223274230957 517.116904258728 2447.99995422363 175 173 176
511.858403682709 517.08984375 2447.99995422363 172 170 173
518.281042575836 516.851484775543 2447.00002670288 171 169 172
524.053990840912 515.979647636414 2443.00007820129 168 166 169
530.021727085114 515.318930149078 2440.00005722046 155 153 156
536.192536354065 514.869570732117 2437.99996376038 164 162 165
542.35178232193 514.420330524445 2436.00010871887 178 176 179
548.499584197998 513.971090316772 2434.00001525879 171 169 172
554.63582277298 513.52196931839 2431.99992179871 159 157 160
560.529947280884 512.861788272858 2428.99990081787 160 158 161
566.640615463257 512.412905693054 2427.00004577637 167 165 168
572.976112365723 512.175261974335 2426.00011825562 166 164 167
579.544484615326 512.148916721344 2426.00011825562 166 164 167
585.387527942657 511.489272117615 2423.00009727478 165 163 166
591.458082199097 511.040985584259 2421.0000038147 165 163 166
597.270250320435 510.381758213043 2417.99998283386 164 162 165
603.814959526062 510.3560090065 2417.99998283386 166 164 167
610.359132289886 510.330379009247 2417.99998283386 165 163 166
617.413103580475 510.726988315582 2420.00007629395 163 161 164
624.219536781311 510.912716388702 2421.0000038147 161 159 162
631.031155586243 511.098682880402 2421.99993133545 160 158 161
638.637602329254 511.917948722839 2426.00011825562 159 157 160
645.733296871185 512.315273284912 2427.99997329712 154 152 153
652.839541435242 512.712836265564 2430.0000667572 152 150 151
659.684956073761 512.899577617645 2430.99999427795 148 148 148
667.357683181763 513.71955871582 2434.99994277954 147 147 147
675.32867193222 514.750719070435 2440.00005722046 146 146 146
682.488143444061 515.149235725403 2441.99991226196 149 149 149
690.786898136139 516.391813755035 2447.99995422363 145 145 145
698.833107948303 517.423689365387 2453.00006866455 143 143 143
708.344221115112 519.510447978973 2463.00005912781 143 145 144
716.748237609863 520.753741264343 2469.00010108948 143 145 144
726.942539215088 523.262679576874 2480.99994659424 144 146 145
735.723316669464 524.717450141907 2487.99991607666 149 151 150
745.735764503479 527.016043663025 2499.00007247925 146 148 147
753.699839115143 527.838706970215 2503.00002098084 146 148 147
763.81242275238 530.137777328491 2513.99993896484 146 148 147
774.597823619843 532.858967781067 2526.99995040894 143 145 142
785.144507884979 535.369634628296 2539.00003433228 141 143 140
796.380162239075 538.302302360535 2552.99997329712 146 148 145
811.46764755249 543.765366077423 2578.9999961853 157 159 156
831.773817539215 552.602112293243 2621.00005149841 149 151 148
841.10563993454 554.059743881226 2628.00002098084 160 162 157
472.838282585144 518.778502941132 2486.99998855591 181 181 183
477.269798517227 516.248404979706 2474.99990463257 181 181 183
482.613146305084 514.761328697205 2467.99993515015 181 181 183
487.322956323624 512.648701667786 2457.99994468689 176 175 180
492.580711841583 511.161863803864 2450.99997520447 177 176 181
498.818129301071 510.717809200287 2448.99988174438 179 177 180
505.456686019897 510.690748691559 2448.99988174438 174 172 175
512.094557285309 510.663688182831 2448.99988174438 171 169 172
518.308162689209 510.219693183899 2447.00002670288 173 171 174
524.08105134964 509.358644485474 2443.00007820129 172 170 173
530.48312664032 509.123086929321 2441.99991226196 160 158 161
537.099182605743 509.096026420593 2441.99991226196 156 154 157
543.046653270721 508.443713188171 2438.99989128113 177 175 178
548.977136611938 507.791459560394 2436.00010871887 180 178 181
554.890692234039 507.139325141907 2433.00008773804 157 155 158
561.248898506165 506.904065608978 2431.99992179871 161 159 162
567.601144313812 506.668984889984 2430.99999427795 162 160 163
573.947370052338 506.43402338028 2430.0000667572 163 161 164
580.287516117096 506.19912147522 2428.99990081787 165 163 166
586.138546466827 505.547642707825 2426.00011825562 169 167 170
591.972768306732 504.896342754364 2423.00009727478 168 166 169
598.03718328476 504.453539848328 2421.0000038147 164 162 165
604.589760303497 504.427671432495 2421.0000038147 167 165 168
611.646831035614 504.818677902222 2423.00009727478 165 163 166
618.459105491638 505.001485347748 2424.00002479553 163 161 164
625.534057617188 505.392849445343 2426.00011825562 159 157 160
631.837844848633 505.159258842468 2424.99995231628 157 155 158
639.188826084137 505.759179592133 2427.99997329712 156 154 157
646.023869514465 505.942761898041 2428.99990081787 152 150 153
653.93853187561 506.959617137909 2434.00001525879 149 147 150
660.7945561409 507.143616676331 2434.99994277954 146 146 146
668.203830718994 507.744371891022 2437.99996376038 146 146 146
675.352394580841 508.137106895447 2440.00005722046 145 145 145
682.511389255524 508.530020713806 2441.99991226196 145 145 145
691.092073917389 509.964466094971 2448.99988174438 146 146 146
699.995458126068 511.607348918915 2457.00001716614 145 145 145
709.804654121399 513.875007629395 2467.99993515015 142 144 141
718.512177467346 515.310049057007 2474.99990463257 142 144 141
726.96441411972 516.537189483643 2480.99994659424 146 148 145
735.153436660767 517.556369304657 2486.00006103516 149 151 150
745.458424091339 520.033180713654 2497.99990653992 148 150 149
754.925131797791 521.885633468628 2506.99996948242 149 151 150
766.263544559479 524.987459182739 2522.0000743866 147 149 148
776.457071304321 527.256846427917 2532.99999237061 143 145 144
787.019550800323 529.734671115875 2545.00007629395 145 147 146
799.830734729767 533.669769763947 2563.99989128113 150 152 149
819.352865219116 541.975975036621 2604.00009155273 154 156 153
836.870133876801 548.825204372406 2637.00008392334 138 140 137
844.64430809021 549.222826957703 2638.99993896484 155 157 154
473.055392503738 512.243032455444 2487.99991607666 181 181 181
477.875262498856 510.157287120819 2477.9999256134 181 181 183
482.835739850998 508.277595043182 2469.00010108948 181 181 183
487.349897623062 505.986154079437 2457.99994468689 175 174 179
492.80858039856 504.724085330963 2451.99990272522 177 176 181
498.641401529312 503.873884677887 2447.99995422363 179 177 180
505.690157413483 504.258573055267 2450.00004768372 177 175 178
512.330770492554 504.231512546539 2450.00004768372 174 172 175
518.758773803711 503.998637199402 2448.99988174438 173 171 174
524.537086486816 503.148436546326 2444.9999332428 170 168 171
530.727446079254 502.709925174713 2443.00007820129 169 167 170
537.346243858337 502.68292427063 2443.00007820129 163 161 164
543.07359457016 501.832902431488 2438.99989128113 156 154 157
549.229383468628 501.394510269165 2437.00003623962 171 169 172
554.917454719543 500.544786453247 2433.00008773804 171 169 172
561.506450176239 500.518023967743 2433.00008773804 160 158 161
567.627727985382 500.079929828644 2430.99999427795 162 160 163
574.210047721863 500.053346157074 2430.99999427795 161 159 162
580.791711807251 500.026881694794 2430.99999427795 161 159 162
586.889624595642 499.589115381241 2428.99990081787 164 162 165
592.976152896881 499.151557683945 2427.00004577637 165 163 166
598.804295063019 498.508542776108 2424.00002479553 166 164 167
604.865372180939 498.071283102036 2421.99993133545 162 160 163
611.924886703491 498.456805944443 2424.00002479553 162 160 163
618.994832038879 498.842537403107 2426.00011825562 161 159 162
626.59078836441 499.639540910721 2430.0000667572 155 153 156
632.905125617981 499.408632516861 2428.99990081787 152 150 153
640.003561973572 499.794781208038 2430.99999427795 150 148 151
647.112488746643 500.181138515472 2433.00008773804 146 144 147
654.500544071198 500.773251056671 2436.00010871887 145 143 146
661.090314388275 500.748813152313 2436.00010871887 145 145 145
667.953789234161 500.93024969101 2437.00003623962 146 146 146
675.652801990509 501.728534698486 2440.99998474121 145 145 145
683.652877807617 502.732634544373 2446.00009918213 144 144 144
692.244112491608 504.147946834564 2453.00006866455 145 145 145
701.442897319794 505.974411964417 2461.99989318848 147 147 147
711.55309677124 508.417665958405 2473.99997711182 145 147 144
720.8571434021 510.24454832077 2483.00004005432 145 147 144
728.451609611511 510.838747024536 2486.00006103516 146 148 145
736.949503421783 512.049734592438 2492.00010299683 147 149 148
746.076703071594 513.671875 2500 145 147 146
756.150662899017 515.910685062408 2510.99991798401 145 147 146
766.588032245636 518.355250358582 2523.00000190735 144 146 145
777.703583240509 521.210968494415 2536.99994087219 142 144 143
788.585722446442 523.861527442932 2549.99995231628 144 146 145
805.777370929718 530.620872974396 2582.99994468689 142 144 141
827.867925167084 540.461659431458 2631.00004196167 137 139 136
839.745342731476 543.523490428925 2645.99990844727 135 137 134
477.323591709137 502.83008813858 2474.99990463257 181 181 183
482.862621545792 501.58429145813 2469.00010108948 181 181 183
487.178474664688 499.119639396667 2457.00001716614 175 174 179
492.634534835815 497.874021530151 2450.99997520447 176 175 180
498.668283224106 497.237741947174 2447.99995422363 179 177 180
505.717098712921 497.617036104202 2450.00004768372 178 176 179
512.357771396637 497.590094804764 2450.00004768372 174 172 175
518.785834312439 497.359961271286 2448.99988174438 172 170 173
524.993240833282 496.926844120026 2447.00002670288 172 170 173
531.188905239105 496.49366736412 2444.9999332428 173 171 174
537.593126296997 496.263653039932 2444.00000572205 167 165 168
543.545842170715 495.627582073212 2440.99998474121 150 148 151
549.932360649109 495.397657155991 2440.00005722046 161 159 162
555.856585502625 494.761735200882 2437.00003623962 180 178 181
561.994671821594 494.328916072845 2434.99994277954 164 162 165
568.354904651642 494.099259376526 2434.00001525879 161 159 162
574.472725391388 493.666648864746 2431.99992179871 160 158 161
580.818176269531 493.437200784683 2430.99999427795 160 158 161
586.432695388794 492.599010467529 2427.00004577637 163 161 164
593.002319335938 492.572814226151 2427.00004577637 164 162 165
599.571347236633 492.546677589417 2427.00004577637 164 162 165
606.139898300171 492.520719766617 2427.00004577637 161 159 162
612.960457801819 492.697864770889 2427.99997329712 159 157 160
619.785785675049 492.875069379807 2428.99990081787 157 155 158
626.873970031738 493.255436420441 2430.99999427795 152 150 153
633.711993694305 493.433028459549 2431.99992179871 150 148 151
641.081631183624 494.0165579319 2434.99994277954 149 147 150
648.467063903809 494.600236415863 2437.99996376038 146 144 147
655.59983253479 494.981288909912 2440.00005722046 146 144 147
661.928653717041 494.753837585449 2438.99989128113 146 146 146
667.977809906006 494.324028491974 2437.00003623962 147 147 147
675.676643848419 495.111405849457 2440.99998474121 146 146 146
683.955907821655 496.304661035538 2447.00002670288 147 147 147
693.114161491394 498.10653924942 2456.00008964539 147 147 147
702.320694923401 499.908536672592 2464.99991416931 146 146 146
711.575865745544 501.710712909698 2473.99997711182 144 146 143
720.879673957825 503.513157367706 2483.00004005432 144 146 143
728.180706501007 503.896236419678 2484.99989509583 145 147 144
737.858414649963 505.901873111725 2494.99988555908 147 149 148
747.590363025665 507.907748222351 2505.00011444092 144 146 145
757.978618144989 510.319292545319 2516.99995994568 145 147 146
767.824172973633 512.325644493103 2526.99995040894 143 145 144
778.643667697906 514.940500259399 2539.99996185303 143 145 144
792.316913604736 519.38009262085 2562.00003623962 146 148 147
813.284397125244 528.4823179245 2607.00011253357 151 153 150
831.348896026611 535.557270050049 2641.99995994568 131 133 130
840.081930160522 536.551237106323 2647.0000743866 135 137 134
473.299324512482 498.952925205231 2489.00008201599 183 183 183
477.543294429779 496.320128440857 2476.0000705719 182 182 184
482.889473438263 494.890213012695 2469.00010108948 181 181 183
487.998455762863 493.259876966476 2460.99996566772 174 174 176
493.06333065033 491.629719734192 2453.00006866455 175 174 179
499.102592468262 491.001605987549 2450.00004768372 179 177 180
505.950450897217 491.175144910812 2450.99997520447 178 176 179
513.221263885498 491.749405860901 2453.9999961853 174 172 175
519.660234451294 491.522073745728 2453.00006866455 172 170 173
525.878369808197 491.094261407852 2450.99997520447 172 170 173
531.650424003601 490.265876054764 2447.00002670288 173 171 174
537.840008735657 489.8382127285 2444.9999332428 171 169 172
544.240772724152 489.610970020294 2444.00000572205 160 158 161
550.86076259613 489.5840883255 2444.00000572205 150 148 151
556.567668914795 488.756030797958 2440.00005722046 175 173 176
562.252342700958 487.928092479706 2436.00010871887 176 174 177
568.381488323212 487.500816583633 2434.00001525879 161 159 162
574.263095855713 486.873388290405 2430.99999427795 161 159 162
580.605685710907 486.646682024002 2430.0000667572 162 160 163
586.45898103714 486.019551753998 2427.00004577637 162 160 163
593.272805213928 486.193597316742 2427.99997329712 161 159 162
599.5973944664 485.967308282852 2427.00004577637 156 154 157
606.665313243866 486.341774463654 2428.99990081787 157 155 158
612.986147403717 486.115723848343 2427.99997329712 153 151 154
619.811415672302 486.290276050568 2428.99990081787 150 148 151
626.899421215057 486.665189266205 2430.99999427795 147 145 148
634.258389472961 487.24040389061 2434.00001525879 147 145 148
641.633272171021 487.815737724304 2437.00003623962 147 145 148
649.02400970459 488.391309976578 2440.00005722046 144 142 145
656.43048286438 488.966941833496 2443.00007820129 144 142 145
662.767291069031 488.742232322693 2441.99991226196 146 146 146
669.098317623138 488.517850637436 2440.99998474121 146 146 146
676.53089761734 489.094138145447 2444.00000572205 144 144 144
685.377061367035 490.671217441559 2451.99990272522 144 144 144
694.266378879547 492.248505353928 2460.00003814697 142 142 142
702.913761138916 493.62587928772 2467.00000762939 142 142 142
711.886405944824 495.203405618668 2474.99990463257 143 145 142
721.192598342896 496.981292963028 2483.99996757507 147 149 146
729.961216449738 498.359262943268 2490.9999370575 148 150 147
740.246415138245 500.737726688385 2503.00002098084 146 148 147
749.701142311096 502.516269683838 2512.00008392334 143 145 144
759.806871414185 504.695057868958 2523.00000190735 144 146 145
769.060671329498 506.274044513702 2530.99989891052 143 145 144
780.503690242767 509.25350189209 2546.0000038147 145 147 146
798.213243484497 516.233444213867 2581.00008964539 149 151 150
821.415722370148 526.613354682922 2632.99989700317 160 162 159
833.571553230286 529.79302406311 2648.9999294281 128 130 127
840.736150741577 529.77329492569 2648.9999294281 137 139 136
473.326116800308 492.203623056412 2489.00008201599 184 184 184
477.95581817627 490.001678466797 2477.9999256134 183 183 185
483.894199132919 489.183962345123 2473.99997711182 182 182 184
488.818466663361 487.377643585205 2464.99991416931 174 174 176
493.492126464844 485.373735427856 2454.99992370605 174 174 176
499.129384756088 484.358459711075 2450.00004768372 180 178 181
505.770921707153 484.331727027893 2450.00004768372 179 177 180
512.829899787903 484.700202941895 2451.99990272522 175 173 176
519.687175750732 484.871000051498 2453.00006866455 174 172 175
526.334524154663 484.84405875206 2453.00006866455 173 171 174
532.54646062851 484.421819448471 2450.99997520447 172 170 173
538.526892662048 483.801931142807 2447.99995422363 173 171 174
544.713079929352 483.37984085083 2446.00009918213 169 167 170
551.33843421936 483.352959156036 2446.00009918213 157 155 158
557.735025882721 483.128547668457 2444.9999332428 163 161 164
563.663840293884 482.508987188339 2441.99991226196 175 173 176
569.575667381287 481.889545917511 2438.99989128113 165 163 166
575.234472751617 481.072694063187 2434.99994277954 164 162 165
581.348896026611 480.651170015335 2433.00008773804 160 158 161
587.451815605164 480.229705572128 2430.99999427795 160 158 161
594.031989574432 480.20350933075 2430.99999427795 158 156 159
600.364625453949 479.979872703552 2430.0000667572 155 153 156
607.190728187561 480.151414871216 2430.99999427795 153 151 154
613.264322280884 479.730576276779 2428.99990081787 152 150 153
620.602548122406 480.297386646271 2431.99992179871 151 149 152
627.440631389618 480.469346046448 2433.00008773804 148 146 149
634.804904460907 481.036454439163 2436.00010871887 146 144 147
641.658425331116 481.208741664886 2437.00003623962 145 143 146
649.048864841461 481.776088476181 2440.00005722046 147 145 148
656.992614269257 482.738465070724 2444.9999332428 147 145 148
663.605928421021 482.71381855011 2444.9999332428 150 150 150
669.944822788239 482.492089271545 2444.00000572205 151 151 151
676.831662654877 482.665359973907 2444.9999332428 150 150 150
684.841752052307 483.628571033478 2450.00004768372 147 147 147
694.007694721222 485.381484031677 2459.00011062622 147 147 147
702.651977539063 486.739784479141 2466.00008010864 149 149 149
711.621761322021 488.295644521713 2473.99997711182 150 152 149
721.505701541901 490.443736314774 2484.99989509583 149 151 148
731.741964817047 492.78935790062 2496.99997901917 148 150 147
742.63459444046 495.52983045578 2510.99991798401 145 147 146
751.812279224396 497.086524963379 2519.00005340576 142 144 143
761.033058166504 498.643338680267 2526.99995040894 143 145 144
769.689559936523 499.805867671967 2532.99999237061 144 146 145
781.137704849243 502.744495868683 2548.00009727478 149 151 150
801.635921001434 511.405050754547 2592.00000762939 154 156 155
823.932111263275 521.05188369751 2641.00003242493 145 147 144
835.479855537415 523.793399333954 2654.99997138977 130 132 129
475.064337253571 487.208783626556 2497.99990653992 184 184 184
478.561133146286 483.866512775421 2480.99994659424 185 185 185
484.312146902084 482.864737510681 2476.0000705719 184 184 184
489.638447761536 481.472909450531 2469.00010108948 171 171 173
494.322925806046 479.4961810112 2459.00011062622 171 171 173
499.971061944962 478.49452495575 2453.9999961853 177 175 178
506.210505962372 478.07776927948 2451.99990272522 179 177 180
513.484239578247 478.635936975479 2454.99992370605 176 174 177
520.137786865234 478.609025478363 2454.99992370605 175 173 176
526.790499687195 478.582143783569 2454.99992370605 174 172 175
533.225238323212 478.36035490036 2453.9999961853 171 169 172
538.993775844574 477.553755044937 2450.00004768372 174 172 175
544.962644577026 476.942211389542 2447.00002670288 173 171 174
551.365256309509 476.720541715622 2446.00009918213 176 174 177
558.218002319336 476.888626813889 2447.00002670288 147 145 148
564.383029937744 476.472169160843 2444.9999332428 155 153 156
570.069372653961 475.666016340256 2440.99998474121 181 179 182
575.733482837677 474.860042333603 2437.00003623962 162 160 163
581.853151321411 474.443912506104 2434.99994277954 165 163 166
587.961435317993 474.027961492538 2433.00008773804 156 154 157
594.302535057068 473.806917667389 2431.99992179871 154 152 155
600.637674331665 473.586022853851 2430.99999427795 154 152 155
607.216596603394 473.560035228729 2430.99999427795 152 150 153
613.795042037964 473.534256219864 2430.99999427795 148 146 149
621.138513088226 474.092990159988 2434.00001525879 149 147 150
627.981841564178 474.262207746506 2434.99994277954 157 155 158
634.830176830292 474.431604146957 2436.00010871887 158 156 159
641.420185565948 474.406450986862 2436.00010871887 143 141 144
648.27573299408 474.576145410538 2437.00003623962 147 145 148
656.748652458191 475.914478302002 2444.00000572205 148 146 149
663.901925086975 476.279318332672 2446.00009918213 152 152 152
671.065628528595 476.644337177277 2447.99995422363 154 154 154
677.686154842377 476.620137691498 2447.99995422363 153 153 153
685.983717441559 477.764397859573 2453.9999961853 154 154 154
694.877862930298 479.298204183578 2461.99989318848 154 154 154
703.815042972565 480.832099914551 2470.00002861023 157 157 157
713.370740413666 482.755541801453 2480.00001907349 156 158 155
722.980320453644 484.679043292999 2490.00000953674 150 152 149
733.522832393646 487.186670303345 2503.00002098084 146 148 145
742.952704429626 488.915890455246 2512.00008392334 143 145 144
752.431094646454 490.645349025726 2520.99990844727 141 143 142
761.054694652557 491.791129112244 2526.99995040894 142 144 143
770.318627357483 493.326544761658 2535.00008583069 143 145 144
782.691538333893 496.808171272278 2552.99997329712 150 152 151
807.533144950867 508.073508739471 2611.00006103516 155 157 156
827.072739601135 515.835881233215 2651.00002288818 134 136 133
838.647067546844 518.539249897003 2664.99996185303 133 135 132
476.802736520767 482.164323329926 2506.99996948242 184 184 184
479.745149612427 478.291183710098 2486.99998855591 185 185 185
485.121220350266 476.918399333954 2480.00001907349 184 184 184
490.260094404221 475.353300571442 2471.99988365173 172 172 174
494.751662015915 473.211467266083 2460.99996566772 172 172 174
499.997735023499 471.83895111084 2453.9999961853 178 176 179
506.443738937378 471.619993448257 2453.00006866455 180 178 181
513.301849365234 471.785604953766 2453.9999961853 177 175 178
520.164549350739 471.951007843018 2454.99992370605 176 174 177
527.246594429016 472.308725118637 2457.00001716614 175 173 176
533.903956413269 472.281903028488 2457.00001716614 172 170 173
539.680600166321 471.486210823059 2453.00006866455 174 172 175
545.212149620056 470.498442649841 2447.99995422363 174 172 175
551.392018795013 470.087349414825 2446.00009918213 177 175 178
558.24476480484 470.252811908722 2447.00002670288 154 152 155
564.871370792389 470.226138830185 2447.00002670288 154 152 155
570.796608924866 469.623029232025 2444.00000572205 180 178 181
576.232433319092 468.635827302933 2438.99989128113 175 173 176
582.596361637115 468.417286872864 2437.99996376038 161 159 162
589.195966720581 468.391001224518 2437.99996376038 159 157 160
595.306158065796 467.980593442917 2436.00010871887 153 151 154
601.404905319214 467.570275068283 2434.00001525879 154 152 155
607.742071151733 467.352271080017 2433.00008773804 154 152 155
614.578247070313 467.51856803894 2434.00001525879 149 147 150
621.92976474762 468.069136142731 2437.00003623962 147 145 148
629.03892993927 468.427687883377 2438.99989128113 149 147 150
636.158525943756 468.786388635635 2440.99998474121 153 151 154
642.761886119843 468.761175870895 2440.99998474121 156 154 157
649.098694324493 468.544155359268 2440.00005722046 162 160 163
656.773328781128 469.287395477295 2444.00000572205 156 154 157
664.197862148285 469.838827848434 2447.00002670288 148 148 148
671.638131141663 470.390409231186 2450.00004768372 146 146 146
679.09437417984 470.942199230194 2453.00006866455 144 144 144
687.405228614807 472.070097923279 2459.00011062622 141 141 141
696.594953536987 473.774015903473 2467.99993515015 142 142 142
705.548226833344 475.286215543747 2476.0000705719 144 144 144
714.256823062897 476.606547832489 2483.00004005432 143 145 142
723.003089427948 477.927058935165 2490.00000953674 141 143 140
733.545541763306 480.399399995804 2503.00002098084 141 143 140
742.975115776062 482.104182243347 2512.00008392334 139 141 140
753.348588943481 484.384834766388 2523.9999294281 141 143 142
760.775327682495 484.746694564819 2526.00002288818 146 148 147
770.340025424957 486.4521920681 2535.00008583069 151 153 152
786.08500957489 491.995632648468 2563.99989128113 156 158 157
813.430726528168 504.63855266571 2630.00011444092 155 157 156
829.277694225311 509.989798069 2657.99999237061 132 134 131
839.611828327179 511.887550354004 2667.99998283386 142 144 141
481.584370136261 480.10390996933 2532.00006484985 183 183 181
480.543375015259 472.303211688995 2490.9999370575 186 186 186
485.147804021835 470.191091299057 2480.00001907349 184 184 184
490.683346986771 469.027012586594 2473.99997711182 175 175 175
496.185541152954 467.862993478775 2467.99993515015 174 174 176
501.246869564056 466.319918632507 2460.00003814697 178 176 179
507.089793682098 465.53510427475 2456.00008964539 180 178 181
513.746917247772 465.508460998535 2456.00008964539 179 177 180
520.61516046524 465.671330690384 2457.00001716614 178 176 179
527.702569961548 466.023653745651 2459.00011062622 176 174 177
534.148097038269 465.807348489761 2457.99994468689 173 171 174
540.367484092712 465.40167927742 2456.00008964539 174 172 175
546.129703521729 464.61695432663 2451.99990272522 174 172 175
552.09493637085 464.021801948547 2448.99988174438 177 175 178
558.72768163681 463.995218276978 2448.99988174438 165 163 166
565.128862857819 463.779151439667 2447.99995422363 156 154 157
571.29031419754 463.373750448227 2446.00009918213 168 166 169
576.967597007751 462.589502334595 2441.99991226196 186 184 187
583.339631557465 462.373703718185 2440.99998474121 156 154 157
589.222192764282 461.779236793518 2437.99996376038 158 156 159
595.821022987366 461.753100156784 2437.99996376038 157 155 158
602.172195911407 461.537718772888 2437.00003623962 152 150 153
609.016895294189 461.701154708862 2437.99996376038 153 151 154
615.61393737793 461.675345897675 2437.99996376038 152 150 153
622.465670108795 461.83905005455 2438.99989128113 149 147 150
629.58025932312 462.192267179489 2440.99998474121 144 142 145
636.444389820099 462.356209754944 2441.99991226196 147 145 148
643.050253391266 462.331026792526 2441.99991226196 150 148 151
649.123549461365 461.927384138107 2440.00005722046 158 156 159
656.79806470871 462.65983581543 2444.00000572205 161 159 162
663.95092010498 463.013857603073 2446.00009918213 161 161 161
672.210693359375 464.125156402588 2451.99990272522 156 156 156
679.395318031311 464.4795358181 2453.9999961853 143 143 143
688.826858997345 466.348230838776 2463.99998664856 138 138 138
698.312282562256 468.216985464096 2473.99997711182 139 139 139
707.566440105438 469.896554946899 2483.00004005432 140 140 140
716.00604057312 471.008569002151 2489.00008201599 139 141 138
723.316490650177 471.363931894302 2490.9999370575 140 142 139
732.982099056244 473.233312368393 2500.99992752075 140 142 139
742.701709270477 475.102812051773 2510.99991798401 142 144 143
753.072321414948 477.350950241089 2523.00000190735 142 144 143
761.098265647888 478.085696697235 2526.99995040894 147 149 148
773.09638261795 481.280118227005 2543.99991035461 151 153 152
792.544841766357 489.014953374863 2585.00003814697 158 160 159
819.638192653656 501.289427280426 2650.00009536743 146 148 147
833.042919635773 505.05119562149 2670.00007629395 135 137 134
841.835498809814 505.975842475891 2674.99995231628 147 149 146
480.850338935852 472.486853599548 2528.00011634827 183 183 181
481.727421283722 466.666489839554 2496.99997901917 186 186 186
485.565543174744 463.836759328842 2482.00011253357 184 184 184
491.106569766998 462.689071893692 2476.0000705719 177 177 177
496.614217758179 461.541384458542 2470.00002861023 175 175 175
501.680850982666 460.020035505295 2461.99989318848 177 175 178
507.116258144379 458.872586488724 2456.00008964539 179 177 180
513.56428861618 458.65923166275 2454.99992370605 179 177 180
520.853698253632 459.193140268326 2457.99994468689 178 176 179
527.943909168243 459.540158510208 2460.00003814697 176 174 177
534.392118453979 459.326684474945 2459.00011062622 173 171 174
540.614128112793 458.926409482956 2457.00001716614 173 171 174
546.60177230835 458.33945274353 2453.9999961853 167 165 168
552.797853946686 457.939356565475 2451.99990272522 169 167 170
559.210598468781 457.726031541824 2450.99997520447 181 179 182
565.617084503174 457.512766122818 2450.00004768372 170 168 171
572.017371654511 457.299500703812 2448.99988174438 149 147 150
578.17542552948 456.899732351303 2447.00002670288 159 157 160
584.321856498718 456.499993801117 2444.9999332428 178 176 179
590.215146541595 455.913662910461 2441.99991226196 162 160 163
596.580266952515 455.700844526291 2440.99998474121 158 156 159
602.939486503601 455.488234758377 2440.00005722046 153 151 154
609.292566776276 455.275624990463 2438.99989128113 151 149 152
615.892231464386 455.249935388565 2438.99989128113 152 150 153
623.001754283905 455.59760928154 2440.99998474121 155 153 156
630.121529102325 455.945432186127 2443.00007820129 156 154 157
636.990964412689 456.106662750244 2444.00000572205 153 151 154
643.338680267334 455.89491724968 2443.00007820129 150 148 151
650.212705135345 456.05656504631 2444.00000572205 146 144 147
657.897770404816 456.778109073639 2447.99995422363 143 141 144
664.518356323242 456.753522157669 2447.99995422363 142 142 142
672.235071659088 457.475394010544 2451.99990272522 145 145 145
679.696261882782 458.010911941528 2454.99992370605 147 147 147
689.689517021179 460.225582122803 2467.00000762939 146 146 146
699.464976787567 462.253719568253 2477.9999256134 145 145 145
709.299802780151 464.282006025314 2489.00008201599 142 142 142
717.180073261261 465.004652738571 2493.00003051758 140 142 139
724.500954151154 465.354472398758 2494.99988555908 140 142 139
733.591020107269 466.823667287827 2503.00002098084 141 143 140
743.907451629639 469.039082527161 2515.00010490417 146 148 147
754.288494586945 471.254527568817 2526.99995040894 145 147 146
763.529777526855 472.724288702011 2535.00008583069 149 151 150
777.372717857361 476.991355419159 2558.00008773804 153 155 154
802.377700805664 487.971067428589 2617.00010299683 154 156 155
822.13419675827 495.594024658203 2657.99999237061 131 133 132
834.624230861664 498.742043972015 2674.99995231628 137 139 136
843.429982662201 499.653071165085 2680.0000667572 156 158 155
486.768752336502 478.1793653965 2595.99995613098 185 187 182
480.496495962143 465.258985757828 2526.00002288818 183 183 181
481.946706771851 460.075408220291 2497.99990653992 187 187 187
485.200613737106 456.73406124115 2480.00001907349 184 184 184
490.736216306686 455.602765083313 2473.99997711182 179 179 179
496.841639280319 455.023944377899 2470.99995613098 177 177 177
502.318620681763 453.892767429352 2464.99991416931 176 174 177
507.76219367981 452.761620283127 2459.00011062622 179 177 180
513.590753078461 451.998740434647 2454.99992370605 179 177 180
520.668268203735 452.340543270111 2457.00001716614 179 177 180
527.541220188141 452.498197555542 2457.99994468689 177 175 178
534.201383590698 452.471643686295 2457.99994468689 173 171 174
541.080832481384 452.629178762436 2459.00011062622 173 171 174
547.296583652496 452.234476804733 2457.00001716614 166 164 167
553.726255893707 452.023953199387 2456.00008964539 166 164 167
559.921562671661 451.629400253296 2453.9999961853 180 178 181
566.336154937744 451.418876647949 2453.00006866455 175 173 176
572.277426719666 450.840473175049 2450.00004768372 160 158 161
578.91058921814 450.814127922058 2450.00004768372 143 141 144
585.304021835327 450.603812932968 2448.99988174438 185 183 186
590.9663438797 449.841737747192 2444.9999332428 173 171 174
596.850693225861 449.263751506805 2441.99991226196 155 153 156
602.965354919434 448.869943618774 2440.00005722046 158 156 159
609.568178653717 448.844164609909 2440.00005722046 156 154 157
616.170406341553 448.818475008011 2440.00005722046 150 148 151
623.282492160797 449.160814285278 2441.99991226196 151 149 152
630.146920681 449.319332838058 2443.00007820129 157 155 158
636.755585670471 449.294060468674 2443.00007820129 158 156 159
643.100321292877 449.085026979446 2441.99991226196 158 156 159
650.503575801849 449.611812829971 2444.9999332428 151 149 152
657.922506332397 450.138717889786 2447.99995422363 146 144 147
664.5427942276 450.114130973816 2447.99995422363 142 142 142
671.98520898819 450.641363859177 2450.99997520447 143 143 143
679.166615009308 450.984925031662 2453.00006866455 145 145 145
688.874661922455 452.983230352402 2463.99998664856 145 145 145
698.641955852509 454.981625080109 2474.99990463257 144 144 144
709.038376808167 457.347691059113 2487.99991607666 143 143 143
717.778742313385 458.610951900482 2494.99988555908 142 144 141
725.685656070709 459.323018789291 2499.00007247925 144 146 143
734.200000762939 460.402846336365 2505.00011444092 144 146 143
744.225740432739 462.401837110519 2516.00003242493 146 148 147
754.609405994415 464.584797620773 2528.00011634827 146 148 147
765.961289405823 467.3191010952 2542.99998283386 149 151 150
784.080445766449 474.096328020096 2579.99992370605 155 157 156
808.225095272064 484.364479780197 2635.99991798401 145 147 146
824.939846992493 490.03866314888 2667.00005531311 129 131 130
837.453842163086 493.140459060669 2684.00001525879 135 137 134
480.3327023983 458.222538232803 2525.00009536743 183 183 181
481.972992420197 453.296571969986 2497.99990653992 187 187 185
485.226839780808 450.00422000885 2480.00001907349 184 184 184
490.564107894897 448.707938194275 2473.00004959106 181 181 181
496.465861797333 447.956025600433 2469.00010108948 178 178 178
502.141177654266 447.022646665573 2463.99998664856 178 176 179
507.788479328156 446.089327335358 2459.00011062622 181 179 182
513.617038726807 445.337474346161 2454.99992370605 181 179 182
520.482778549194 445.492625236511 2456.00008964539 181 179 182
527.35298871994 445.64762711525 2457.00001716614 179 177 180
534.010529518127 445.621281862259 2457.00001716614 175 173 176
540.667176246643 445.594847202301 2457.00001716614 176 174 177
547.100305557251 445.387095212936 2456.00008964539 171 169 172
553.527176380157 445.179343223572 2454.99992370605 167 165 168
559.947967529297 444.971710443497 2453.9999961853 169 167 170
566.362500190735 444.764047861099 2453.00006866455 175 173 176
572.070121765137 444.012552499771 2448.99988174438 164 162 165
578.464210033417 443.80509853363 2447.99995422363 164 162 165
584.85221862793 443.597674369812 2447.00002670288 145 143 146
591.47584438324 443.571597337723 2447.00002670288 173 171 174
597.365498542786 443.001866340637 2444.00000572205 185 183 186
603.238224983215 442.432254552841 2440.99998474121 154 152 155
609.843730926514 442.406564950943 2440.99998474121 156 154 157
616.700947284698 442.562162876129 2441.99991226196 155 153 156
624.073624610901 443.080365657806 2444.9999332428 152 150 153
630.946040153503 443.236231803894 2446.00009918213 148 146 149
637.562692165375 443.210989236832 2446.00009918213 150 148 151
644.178807735443 443.185955286026 2446.00009918213 153 151 154
651.060461997986 443.342238664627 2447.00002670288 155 153 156
658.215820789337 443.679839372635 2448.99988174438 150 148 151
665.381610393524 444.017648696899 2450.99997520447 145 145 145
673.380374908447 444.89911198616 2456.00008964539 144 144 144
680.851995944977 445.418357849121 2459.00011062622 144 144 144
689.737319946289 446.843415498734 2467.00000762939 147 147 147
698.94802570343 448.44976067543 2476.0000705719 147 147 147
709.061920642853 450.5994617939 2487.99991607666 147 147 147
718.089818954468 452.024847269058 2496.00005149841 146 148 147
726.870238780975 453.269273042679 2503.00002098084 146 148 147
735.688328742981 454.513937234879 2509.99999046326 146 148 147
745.431482791901 456.301957368851 2519.99998092651 146 148 147
755.825698375702 458.452343940735 2532.00006484985 149 149 149
768.694341182709 462.051212787628 2552.00004577637 148 150 149
788.661181926727 469.814240932465 2595.00002861023 159 161 160
812.846481800079 479.930371046066 2651.00002288818 129 131 130
828.054904937744 484.615087509155 2677.00004577637 132 134 133
839.971601963043 487.308621406555 2691.99991226196 132 134 131
479.598045349121 450.654327869415 2520.99990844727 183 183 183
482.192099094391 446.695655584335 2499.00007247925 185 185 185
485.057204961777 443.094730377197 2479.00009155273 185 185 187
490.193426609039 441.638857126236 2470.99995613098 180 180 182
496.290802955627 441.076666116714 2467.99993515015 176 176 178
501.963496208191 440.157115459442 2463.00005912781 174 174 176
508.021175861359 439.594924449921 2460.00003814697 177 177 179
513.852536678314 438.854098320007 2456.00008964539 181 181 183
520.720899105072 439.006596803665 2457.00001716614 180 180 182
527.164697647095 438.801765441895 2456.00008964539 177 177 179
533.819496631622 438.775569200516 2456.00008964539 177 177 179
540.473461151123 438.74928355217 2456.00008964539 175 173 176
547.349393367767 438.901633024216 2457.00001716614 172 170 173
553.779065608978 438.696801662445 2456.00008964539 169 167 170
560.430645942688 438.670545816422 2456.00008964539 161 159 162
566.850483417511 438.465684652328 2454.99992370605 169 167 170
572.563409805298 437.725156545639 2450.99997520447 178 176 179
578.490257263184 437.163293361664 2447.99995422363 169 167 170
584.878265857697 436.958760023117 2447.00002670288 150 148 151
591.743469238281 437.111347913742 2447.99995422363 144 142 145
597.391307353973 436.371326446533 2444.00000572205 166 164 167
603.511095046997 435.988485813141 2441.99991226196 170 168 171
610.368967056274 436.141431331635 2443.00007820129 154 152 155
617.484092712402 436.472922563553 2444.9999332428 158 156 159
625.120103359222 437.161535024643 2448.99988174438 155 153 156
631.745159626007 437.136262655258 2448.99988174438 152 150 153
638.369739055634 437.111079692841 2448.99988174438 151 149 152
644.993841648102 437.086075544357 2448.99988174438 150 148 151
651.35133266449 436.882764101028 2447.99995422363 149 149 151
658.509314060211 437.215089797974 2450.00004768372 150 150 152
665.949046611786 437.725961208344 2453.00006866455 149 149 151
674.501359462738 438.950717449188 2460.00003814697 147 147 149
682.814240455627 439.997136592865 2466.00008010864 145 145 147
691.159129142761 441.043615341187 2471.99988365173 143 143 145
699.536204338074 442.090302705765 2477.9999256134 144 144 146
709.085464477539 443.850725889206 2487.99991607666 146 146 148
719.263911247253 445.96803188324 2500 147 147 149
729.216575622559 447.907000780106 2510.99991798401 146 146 148
737.469851970673 448.775857686996 2516.00003242493 145 145 145
746.341526508331 450.001627206802 2523.00000190735 144 144 144
756.743609905243 452.119410037994 2535.00008583069 144 142 143
771.427571773529 456.734120845795 2561.00010871887 150 150 150
795.673549175262 466.877013444901 2618.00003051758 167 167 167
820.227682590485 477.019369602203 2674.99995231628 135 135 135
832.407534122467 479.850232601166 2690.99998474121 135 135 135
843.113720417023 481.78967833519 2701.99990272522 139 139 137
479.43389415741 443.635135889053 2519.99998092651 183 183 183
482.025057077408 439.736276865005 2497.99990653992 185 185 187
485.670149326324 436.893999576569 2482.00011253357 183 183 185
490.616142749786 435.284018516541 2473.00004959106 181 181 183
496.517896652222 434.554100036621 2469.00010108948 178 177 182
502.397060394287 433.824151754379 2464.99991416931 174 174 176
508.460164070129 433.270275592804 2461.99989318848 177 177 179
514.087736606598 432.364463806152 2457.00001716614 181 181 183
520.747005939484 432.338446378708 2457.00001716614 180 180 182
