ply
format ascii 1.0
comment KinectMotionCapture
element vertex 781
property float x
property float y
property float z
property uchar red
property uchar green
property uchar blue
end_header
669.761657714844 1194.56315040588 2608.99996757507 128 129 123
586.640477180481 1176.84161663055 2586.99989318848 97 70 53
588.623404502869 1166.87512397766 2565.00005722046 96 69 52
596.292912960052 1168.2825088501 2568.00007820129 97 68 52
606.329083442688 1174.24082756042 2581.00008964539 102 70 55
615.248918533325 1177.92594432831 2588.99998664856 102 70 55
626.136481761932 1185.25278568268 2605.00001907349 98 69 55
635.410904884338 1189.39661979675 2614.00008201599 98 70 59
642.523288726807 1189.44668769836 2614.00008201599 97 79 69
648.145973682404 1186.76805496216 2608.00004005432 100 86 77
655.496060848236 1187.27600574493 2608.99996757507 117 113 104
663.615107536316 1189.15092945099 2612.99991607666 124 121 114
681.254863739014 1207.86666870117 2654.00004386902 130 131 123
582.518815994263 1161.61203384399 2569.00000572205 106 78 64
588.811814785004 1160.29524803162 2565.99998474121 101 73 59
598.572373390198 1165.76242446899 2578.00006866455 101 73 59
606.755018234253 1168.06578636169 2582.99994468689 101 74 57
617.342293262482 1174.89290237427 2598.00004959106 99 72 55
626.089572906494 1178.10380458832 2605.00001907349 102 76 61
635.60539484024 1182.6730966568 2615.00000953674 98 76 62
642.473340034485 1182.2692155838 2614.00008201599 98 81 71
649.088680744171 1181.41412734985 2611.99998855591 99 89 80
657.201945781708 1183.27462673187 2615.9999370575 110 107 102
667.369961738586 1188.75539302826 2628.00002098084 106 107 102
580.439984798431 1150.53033828735 2559.99994277954 106 78 64
588.084101676941 1151.91638469696 2562.99996376038 102 74 60
597.370743751526 1156.45003318787 2572.99995422363 103 75 61
608.357071876526 1164.13152217865 2589.99991416931 103 76 59
617.536246776581 1168.21885108948 2598.99997711182 100 73 56
626.284718513489 1171.40877246857 2605.99994659424 96 73 57
635.558724403381 1175.4994392395 2615.00000953674 109 87 73
642.67110824585 1175.54581165314 2615.00000953674 108 94 83
650.530159473419 1176.94222927094 2618.00003051758 107 97 88
659.914314746857 1181.03778362274 2627.00009346008 106 105 101
577.034175395966 1150.63393115997 2575.99997520447 115 87 75
581.08377456665 1144.86229419708 2562.99996376038 126 98 84
588.046491146088 1144.89841461182 2562.99996376038 119 91 77
597.563922405243 1149.84953403473 2573.99988174438 101 73 59
607.142329216003 1154.80256080627 2585.00003814697 99 72 55
617.494344711304 1161.09704971313 2598.99997711182 98 72 55
625.280261039734 1162.47892379761 2601.99999809265 101 78 62
634.05579328537 1165.6494140625 2608.99996757507 102 80 66
641.641914844513 1166.58747196198 2611.00006103516 135 123 111
650.731086730957 1170.20785808563 2618.99995803833 143 134 125
662.628054618835 1178.74503135681 2638.00001144409 141 136 130
577.000379562378 1143.5878276825 2575.99997520447 109 83 70
581.275701522827 1138.29398155212 2563.99989128113 134 106 92
588.698863983154 1139.21642303467 2565.99998474121 127 99 85
597.062468528748 1141.91603660583 2572.00002670288 106 78 64
609.452247619629 1152.16493606567 2595.00002861023 100 74 57
618.642151355743 1156.19969367981 2604.00009155273 100 74 57
626.440346240997 1157.57167339325 2607.00011253357 102 81 64
634.498953819275 1159.38901901245 2611.00006103516 109 90 75
642.089128494263 1160.31968593597 2612.99991607666 136 124 112
652.424454689026 1166.13674163818 2625.99992752075 139 130 121
577.054798603058 1150.63297748566 2608.00004005432 99 77 63
578.088104724884 1138.751745224 2581.00008964539 99 76 60
581.922709941864 1132.60662555695 2566.99991226196 125 97 83
589.123368263245 1133.08084011078 2568.00007820129 129 101 87
598.651766777039 1137.96854019165 2578.9999961853 116 90 75
610.824167728424 1147.71163463593 2601.0000705719 107 81 66
619.078755378723 1149.95491504669 2605.99994659424 105 79 64
626.400530338287 1150.43449401855 2607.00011253357 104 85 70
633.728861808777 1150.91526508331 2608.00004005432 115 99 84
642.292439937592 1153.60403060913 2614.00008201599 138 128 116
652.380406856537 1158.94210338593 2625.99992752075 142 133 124
575.918614864349 1141.31653308868 2602.9999256134 92 73 58
577.385485172272 1130.38432598114 2578.00006866455 91 70 53
581.891059875488 1125.59139728546 2566.99991226196 122 96 81
588.631868362427 1125.18417835236 2565.99998474121 127 99 85
598.385632038116 1130.47885894775 2578.00006866455 112 86 71
610.084235668182 1139.28294181824 2598.00004959106 103 77 62
619.754612445831 1144.14203166962 2608.99996757507 101 78 62
626.60276889801 1143.74005794525 2608.00004005432 110 91 77
633.932650089264 1144.2164182663 2608.99996757507 105 89 76
642.497479915619 1146.88694477081 2615.00000953674 95 85 75
653.828740119934 1154.38342094421 2631.99996948242 84 77 67
581.282198429108 1159.0188741684 2660.00008583069 101 85 70
574.784100055695 1132.03120231628 2598.00004959106 91 72 57
578.252196311951 1125.08726119995 2582.00001716614 89 68 51
583.674430847168 1122.06590175629 2575.00004768372 123 97 82
590.206444263458 1121.22416496277 2572.99995422363 123 95 81
598.585367202759 1123.86989593506 2578.9999961853 114 88 73
609.580814838409 1131.31034374237 2595.99995613098 108 85 71
619.244575500488 1136.13784313202 2607.00011253357 105 82 68
626.566529273987 1136.60848140717 2608.00004005432 112 94 80
633.409142494202 1136.20865345001 2607.00011253357 109 95 82
642.212927341461 1139.29677009583 2614.00008201599 95 87 76
659.253120422363 1156.76975250244 2654.00004386902 86 82 71
581.037282943726 1151.32892131805 2658.99991989136 93 77 61
574.75733757019 1124.94170665741 2598.00004959106 84 65 50
578.448593616486 1118.47317218781 2582.99994468689 91 70 53
584.099113941193 1115.90218544006 2576.99990272522 120 94 79
590.864956378937 1115.49758911133 2575.99997520447 123 95 81
599.715054035187 1118.99137496948 2584.00011062622 112 86 71
609.54874753952 1124.21858310699 2595.99995613098 108 85 71
619.923651218414 1130.31339645386 2609.99989509583 109 90 75
627.252638339996 1130.77986240387 2611.00006103516 109 96 80
635.074019432068 1132.11345672607 2614.00008201599 108 96 82
643.649697303772 1134.74762439728 2619.99988555908 97 91 79
570.524096488953 1123.42536449432 2611.00006103516 88 69 54
576.501846313477 1121.29819393158 2605.99994659424 81 59 45
580.213963985443 1114.86899852753 2591.00008010864 94 71 55
585.205376148224 1111.02223396301 2582.00001716614 116 88 74
592.442393302917 1111.47928237915 2582.99994468689 121 93 79
602.006614208221 1116.24085903168 2594.00010108948 109 86 70
610.692262649536 1119.28224563599 2601.0000705719 107 85 71
618.941843509674 1121.46425247192 2605.99994659424 113 94 79
626.979470252991 1123.21710586548 2609.99989509583 110 96 83
636.254489421844 1127.1231174469 2618.99995803833 108 96 84
571.812152862549 1118.87431144714 2617.00010299683 92 73 58
577.584087848663 1116.3318157196 2611.00006103516 80 59 42
580.637097358704 1108.65938663483 2592.99993515015 91 68 52
586.086273193359 1105.69083690643 2585.99996566772 103 75 61
593.333184719086 1106.14383220673 2586.99989318848 107 81 66
603.371143341064 1111.72890663147 2599.99990463257 109 87 73
612.071990966797 1114.74978923798 2607.00011253357 113 91 78
618.674278259277 1113.92331123352 2605.00001907349 116 98 84
627.428531646729 1116.94645881653 2611.99998855591 111 99 85
641.323387622833 1128.95131111145 2640.00010490417 109 99 87
575.266301631927 1132.54034519196 2665.99988937378 116 97 82
576.160490512848 1120.24140357971 2637.00008392334 97 75 61
579.331278800964 1112.61594295502 2618.99995803833 85 62 46
581.957399845123 1104.14159297943 2598.99997711182 92 66 51
588.781714439392 1103.73973846436 2598.00004959106 97 69 55
595.601439476013 1103.3388376236 2596.99988365173 100 74 59
605.201303958893 1108.03747177124 2608.00004005432 106 80 67
612.748801708221 1108.91330242157 2609.99989509583 116 94 81
619.358241558075 1108.09087753296 2608.00004005432 116 98 84
629.320442676544 1113.21783065796 2619.99988555908 110 101 86
577.188670635223 1129.08101081848 2674.99995231628 108 86 72
578.325033187866 1117.28191375732 2647.0000743866 101 80 63
580.637395381927 1108.01565647125 2625 91 66 46
583.950757980347 1100.8608341217 2608.00004005432 96 69 52
591.025114059448 1100.88241100311 2608.00004005432 86 63 49
598.329663276672 1101.32718086243 2608.99996757507 91 69 56
606.800675392151 1103.88350486755 2615.00000953674 98 79 65
614.131450653076 1104.33042049408 2615.9999370575 108 94 81
624.080657958984 1109.42208766937 2628.00002098084 110 101 86
557.828545570374 1112.12337017059 2651.99995040894 169 157 143
566.722333431244 1115.4944896698 2660.00008583069 138 122 107
572.4236369133 1112.57588863373 2653.00011634827 99 80 65
575.684309005737 1105.04496097565 2634.99999046326 93 72 55
580.175340175629 1100.03101825714 2622.99990653992 97 72 52
585.049748420715 1095.85654735565 2612.99991607666 98 73 53
593.043267726898 1097.55456447601 2617.00010299683 84 62 48
600.141882896423 1097.57566452026 2617.00010299683 89 70 56
607.24139213562 1097.59795665741 2617.00010299683 99 81 69
615.750193595886 1100.13771057129 2622.99990653992 113 104 89
629.51672077179 1111.90605163574 2651.00002288818 115 109 93
542.320609092712 1088.23335170746 2611.99998855591 158 152 140
557.603180408478 1104.49588298798 2651.00002288818 91 83 70
563.297629356384 1101.59420967102 2644.00005340576 101 89 77
570.033550262451 1100.7764339447 2641.99995994568 98 82 67
573.919177055359 1094.54309940338 2627.00009346008 101 84 68
580.820620059967 1094.14339065552 2625.99992752075 95 76 59
587.493479251862 1093.32835674286 2624.00007247925 101 80 63
596.195578575134 1096.26388549805 2631.00004196167 102 84 72
602.414071559906 1094.61712837219 2627.00009346008 106 92 81
609.075605869293 1093.80459785461 2625 114 102 90
619.013547897339 1098.8267660141 2637.00008392334 122 116 104
540.352404117584 1091.47119522095 2637.00008392334 188 188 180
550.19736289978 1096.86386585236 2650.00009536743 183 180 171
556.32746219635 1094.80702877045 2644.99998092651 114 108 96
562.004864215851 1091.92299842834 2638.00001144409 86 78 67
568.723678588867 1091.10939502716 2635.99991798401 99 87 75
573.903143405914 1087.39912509918 2627.00009346008 89 75 62
581.46721124649 1088.24276924133 2628.99994850159 99 81 67
588.819086551666 1088.67347240448 2630.00011444092 103 85 71
597.309827804565 1091.17460250854 2635.99991798401 105 93 81
604.687452316284 1091.60721302032 2637.00008392334 112 102 92
612.535297870636 1092.86868572235 2640.00010490417 121 113 102
543.104529380798 1104.44760322571 2686.00010871887 197 199 194
545.464158058167 1094.58899497986 2661.99994087219 154 155 149
548.940002918243 1087.19825744629 2644.00005340576 142 142 134
555.052995681763 1085.1536989212 2638.99993896484 152 149 140
561.352610588074 1083.52112770081 2634.99999046326 144 141 132
568.70973110199 1083.94515514374 2635.99991798401 85 78 68
574.54377412796 1081.49170875549 2630.00011444092 91 82 73
582.115113735199 1082.32855796814 2631.99996948242 94 84 74
588.802576065063 1081.52151107788 2630.00011444092 130 120 110
597.745597362518 1084.82754230499 2638.00001144409 191 182 173
606.732845306396 1088.13452720642 2645.99990844727 166 163 154
542.286515235901 1095.52264213562 2681.99992179871 184 186 181
545.454382896423 1087.36193180084 2661.99994087219 142 143 138
549.552440643311 1081.24446868896 2647.0000743866 144 145 139
555.041909217834 1077.98671722412 2638.99993896484 128 128 120
561.340689659119 1076.36368274689 2634.99999046326 136 136 128
568.265616893768 1075.96671581268 2634.0000629425 127 122 116
574.967205524445 1075.1621723175 2631.99996948242 110 106 97
582.322001457214 1075.58393478394 2632.99989700317 106 99 91
589.235126972198 1075.18947124481 2631.99996948242 138 131 123
597.503006458282 1077.24690437317 2637.00008392334 181 181 173
609.926044940948 1086.65859699249 2660.00008583069 172 173 165
534.814178943634 1087.83233165741 2680.99999427795 171 176 172
540.458798408508 1084.59341526031 2673.00009727478 149 154 150
544.831097126007 1078.92024517059 2658.99991989136 137 139 134
549.750745296478 1074.46527481079 2648.00000190735 133 135 130
555.242359638214 1071.22814655304 2640.00010490417 123 125 120
561.543107032776 1069.61476802826 2635.99991798401 119 121 116
568.254232406616 1068.81356239319 2634.0000629425 123 124 119
574.736595153809 1067.60728359222 2631.00004196167 130 131 125
582.530200481415 1068.83656978607 2634.0000629425 141 142 136
589.892983436584 1069.25511360168 2634.99999046326 159 158 153
599.754154682159 1074.13828372955 2647.0000743866 175 176 170
610.36890745163 1080.23977279663 2661.99994087219 166 171 164
529.317915439606 1084.18345451355 2690.00005722046 210 215 211
535.60596704483 1082.17346668243 2684.99994277954 163 168 164
539.84546661377 1076.13372802734 2670.00007629395 144 149 145
545.233488082886 1072.51274585724 2661.00001335144 134 139 135
550.780832767487 1069.29564476013 2653.00011634827 132 137 133
556.705832481384 1066.88511371613 2647.0000743866 120 125 121
562.598824501038 1064.47517871857 2641.00003242493 113 118 114
569.106996059418 1063.27521800995 2638.00001144409 114 116 113
576.473236083984 1063.68815898895 2638.99993896484 119 121 116
584.730088710785 1065.71424007416 2644.00005340576 132 134 129
592.119157314301 1066.12861156464 2644.99998092651 149 150 145
601.553380489349 1070.17183303833 2654.99997138977 163 165 160
613.564550876617 1078.6497592926 2676.00011825562 164 171 164
522.805154323578 1078.48930358887 2694.00000572205 206 211 207
530.100584030151 1078.49287986755 2694.00000572205 182 187 183
535.202026367188 1074.09346103668 2683.00008773804 153 155 150
539.233326911926 1067.69275665283 2667.00005531311 146 148 143
544.817507266998 1064.49544429779 2658.99991989136 135 140 136
550.358712673187 1061.2987279892 2651.00002288818 132 137 133
557.118892669678 1060.5046749115 2648.9999294281 120 125 121
563.65567445755 1059.31091308594 2645.99990844727 116 121 117
571.03967666626 1059.71932411194 2647.0000743866 111 116 112
578.2111287117 1059.72802639008 2647.0000743866 114 119 115
585.604190826416 1060.13774871826 2648.00000190735 128 133 127
593.227207660675 1060.94884872437 2650.00009536743 144 146 141
603.353798389435 1066.16461277008 2663.00010681152 154 159 153
525.713384151459 1077.15427875519 2709.00011062622 194 199 195
529.506921768188 1069.99969482422 2690.99998474121 169 174 170
534.998595714569 1066.42401218414 2681.99992179871 148 150 145
539.633214473724 1061.25867366791 2668.99991035461 146 148 143
545.427083969116 1058.47942829132 2661.99994087219 131 133 128
550.975799560547 1055.30321598053 2654.00004386902 127 129 124
557.533144950867 1054.11577224731 2651.00002288818 120 125 121
564.713716506958 1054.12197113037 2651.00002288818 119 124 120
572.110533714294 1054.52632904053 2651.99995040894 117 123 119
579.950153827667 1055.72700500488 2654.99997138977 123 129 125
586.921870708466 1055.33754825592 2654.00004386902 145 151 147
595.455706119537 1057.73234367371 2660.00008583069 155 161 159
609.007060527802 1068.87638568878 2687.99996376038 160 166 162
518.377006053925 1069.81563568115 2709.00011062622 201 206 200
523.770987987518 1065.86742401123 2698.99988174438 179 184 178
529.11114692688 1061.91980838776 2688.99989128113 152 154 149
535.195291042328 1059.55231189728 2683.00008773804 146 147 142
540.236353874207 1055.21070957184 2671.99993133545 143 145 140
545.832931995392 1052.05464363098 2664.00003433228 130 132 127
551.801562309265 1049.68881607056 2657.99999237061 130 132 127
558.158874511719 1048.11346530914 2654.00004386902 125 130 126
565.985977649689 1049.30329322815 2657.00006484985 125 131 127
572.966873645782 1048.91395568848 2655.99989891052 124 130 126
580.598115921021 1049.71015453339 2657.99999237061 130 136 132
587.577283382416 1049.32236671448 2657.00006484985 149 158 155
598.133087158203 1055.25410175323 2671.99993133545 154 163 160
517.802774906158 1061.30456924438 2706.00008964539 174 177 170
522.994041442871 1056.99014663696 2694.9999332428 157 160 153
528.716385364532 1053.85291576385 2687.00003623962 145 147 142
534.994065761566 1051.89287662506 2681.99992179871 141 143 138
541.042804718018 1049.54123497009 2676.00011825562 134 136 131
546.854436397552 1046.79763317108 2668.99991035461 124 126 121
553.043723106384 1044.83938217163 2664.00003433228 124 126 121
559.416651725769 1043.27380657196 2660.00008583069 121 126 120
566.833317279816 1043.66981983185 2661.00001335144 131 136 130
573.608636856079 1042.88983345032 2658.99991989136 141 146 140
581.247329711914 1043.67959499359 2661.00001335144 146 153 146
589.118421077728 1044.86203193665 2664.00003433228 162 169 162
605.064809322357 1060.16516685486 2703.00006866455 165 171 167
512.364864349365 1057.87694454193 2716.00008010864 205 207 202
517.420887947083 1053.20131778717 2703.9999961853 160 163 156
522.800385951996 1049.30520057678 2694.00000572205 150 153 146
528.716206550598 1046.57804965973 2687.00003623962 144 146 141
534.993410110474 1044.63040828705 2681.99992179871 140 142 137
541.041612625122 1042.29402542114 2676.00011825562 134 136 131
547.672271728516 1041.12648963928 2673.00009727478 122 124 119
554.079294204712 1039.56985473633 2668.99991035461 120 122 117
561.09607219696 1039.18266296387 2667.99998283386 116 121 115
567.894697189331 1038.40625286102 2665.99988937378 121 126 120
575.330138206482 1038.79928588867 2667.00005531311 140 145 139
582.989752292633 1039.58225250244 2668.99991035461 149 154 148
593.535482883453 1045.4295873642 2684.00001525879 157 164 157
503.893792629242 1063.68577480316 2750 213 215 210
506.31707906723 1053.23898792267 2723.00004959106 199 201 196
511.235237121582 1048.20775985718 2710.00003814697 173 175 170
516.848683357239 1044.72398757935 2700.99997520447 140 143 136
523.189842700958 1042.78790950775 2696.00009918213 140 143 136
529.307425022125 1040.46559333801 2690.00005722046 134 136 131
535.193264484406 1037.75703907013 2683.00008773804 131 133 128
541.445791721344 1035.82239151001 2677.99997329712 129 131 126
547.876358032227 1034.27517414093 2674.00002479553 124 126 121
555.11599779129 1034.27565097809 2674.00002479553 121 123 118
562.355995178223 1034.2766046524 2674.00002479553 120 125 119
569.383382797241 1033.89167785645 2673.00009727478 123 128 122
577.268481254578 1035.05420684814 2676.00011825562 152 157 151
586.480796337128 1038.53821754456 2684.99994277954 162 167 161
116.911485791206 1057.78503417969 2753.00002098084 11 14 7
499.16285276413 1062.01541423798 2765.00010490417 217 219 214
500.41651725769 1048.95150661469 2730.99994659424 206 208 203
505.391001701355 1043.95401477814 2717.99993515015 186 188 183
510.295212268829 1038.95688056946 2704.99992370605 157 159 154
516.086101531982 1035.8806848526 2697.00002670288 143 144 138
522.610068321228 1034.34133529663 2693.00007820129 143 144 138
529.11251783371 1032.80234336853 2688.99989128113 130 132 127
535.394012928009 1030.87985515594 2684.00001525879 127 129 124
541.648805141449 1028.95772457123 2678.99990081787 126 128 123
548.696219921112 1028.57255935669 2677.99997329712 123 125 120
556.56898021698 1029.72435951233 2680.99999427795 121 123 118
563.827335834503 1029.72435951233 2680.99999427795 125 130 124
571.298956871033 1030.10892868042 2681.99992179871 134 139 133
580.070734024048 1032.79864788055 2688.99989128113 160 165 159
594.341456890106 1045.09127140045 2720.99995613098 166 171 165
112.711697816849 1012.59815692902 2654.00004386902 7 8 0
132.881179451942 1058.75408649445 2775.00009536743 6 11 5
139.030382037163 1048.44737052917 2747.99990653992 6 11 5
157.610878348351 1073.61650466919 2813.99989128113 9 12 5
495.738238096237 1047.29473590851 2746.00005149841 207 209 204
500.055074691772 1040.80545902252 2729.00009155273 202 204 199
504.837810993195 1035.46071052551 2714.99991416931 152 153 148
509.92214679718 1030.87937831879 2703.00006866455 140 141 136
515.7071352005 1027.82380580902 2694.9999332428 142 143 137
522.613286972046 1027.05693244934 2693.00007820129 137 138 132
529.508888721466 1026.29065513611 2690.99998474121 127 129 124
535.795390605927 1024.38080310822 2686.00010871887 122 124 119
542.257189750671 1022.85254001617 2681.99992179871 120 122 117
548.902451992035 1021.70634269714 2678.99990081787 120 122 117
557.19256401062 1023.61166477203 2684.00001525879 120 122 117
564.248144626617 1023.22924137115 2683.00008773804 137 142 136
573.428690433502 1026.66115760803 2691.99991226196 153 158 152
584.815621376038 1033.90729427338 2710.99996566772 167 172 166
103.56455296278 1058.87734889984 2795.00007629395 15 12 5
134.035840630531 1060.37282943726 2799.00002479553 10 13 6
150.955736637115 1072.86286354065 2832.00001716614 11 14 7
158.12124311924 1069.44692134857 2822.99995422363 13 16 9
165.061742067337 1064.89443778992 2811.00010871887 18 21 14
489.024341106415 1041.39494895935 2750 217 219 216
494.119703769684 1036.46504878998 2736.99998855591 204 206 201
499.694496393204 1032.67180919647 2726.99999809265 194 196 191
505.029261112213 1028.50008010864 2716.00008010864 138 139 134
510.493218898773 1024.70755577087 2706.00008964539 140 141 136
516.094505786896 1021.29399776459 2697.00002670288 140 141 135
522.229433059692 1019.01698112488 2690.99998474121 130 131 125
528.922379016876 1017.87650585175 2687.99996376038 125 127 122
535.599231719971 1016.73638820648 2684.99994277954 120 122 117
542.866587638855 1016.7328119278 2684.99994277954 118 120 115
550.134181976318 1016.72971248627 2684.99994277954 121 123 118
558.439970016479 1018.62049102783 2690.00005722046 124 126 121
566.142141819 1019.37568187714 2691.99991226196 145 150 144
576.624691486359 1025.05433559418 2707.00001716614 161 166 160
88.1431922316551 1047.97494411469 2786.00001335144 17 14 5
96.0672199726105 1052.10864543915 2796.99993133545 19 15 4
103.976599872112 1055.4895401001 2805.99999427795 19 15 6
112.332321703434 1062.63184547424 2825.00004768372 17 13 2
118.03013086319 1045.32384872437 2779.00004386902 19 13 1
127.047941088676 1057.73150920868 2812.00003623962 18 14 3
134.99927520752 1060.35888195038 2819.00000572205 16 13 6
143.241405487061 1064.86666202545 2831.00008964539 14 14 6
150.109142065048 1059.21828746796 2815.99998474121 14 14 4
157.959744334221 1060.71639060974 2819.9999332428 15 15 7
164.716184139252 1055.06753921509 2805.0000667572 18 18 8
173.356980085373 1061.45477294922 2822.00002670288 19 19 9
181.833177804947 1066.33722782135 2835.00003814697 18 18 8
190.37963449955 1071.21920585632 2848.00004959106 19 19 7
481.765002012253 1034.34920310974 2750.99992752075 210 212 209
487.075746059418 1029.82938289642 2739.00008201599 205 207 204
492.863118648529 1026.4378786087 2730.00001907349 191 193 188
498.785048723221 1023.42247962952 2721.99988365173 158 159 154
504.477858543396 1020.03180980682 2713.00005912781 137 138 133
510.499179363251 1017.39323139191 2706.00008964539 140 141 136
516.482830047607 1014.75501060486 2698.99988174438 131 132 126
522.816836833954 1012.86935806274 2694.00000572205 128 129 123
529.910981655121 1012.48800754547 2693.00007820129 122 124 119
537.398815155029 1012.85898685455 2694.00000572205 118 120 115
544.690072536469 1012.85433769226 2694.00000572205 117 119 114
551.776707172394 1012.47441768646 2693.00007820129 123 125 120
559.895932674408 1013.97466659546 2697.00002670288 130 132 127
569.088757038116 1017.35520362854 2706.00008964539 163 168 162
67.1294927597046 1066.25509262085 2855.00001907349 19 16 7
74.0502774715424 1054.67426776886 2823.99988174438 19 15 4
81.2080800533295 1048.32172393799 2806.99992179871 28 24 15
88.4635448455811 1044.20971870422 2796.0000038147 23 19 8
95.9684625267982 1043.45858097076 2793.99991035461 26 20 8
104.055352509022 1048.68257045746 2808.00008773804 26 19 9
111.860111355782 1050.54497718811 2812.99996376038 22 16 4
119.479462504387 1050.53973197937 2812.99996376038 22 14 1
126.827612519264 1048.29335212708 2806.99992179871 24 16 5
134.813606739044 1051.2752532959 2815.00005722046 21 14 4
141.98262989521 1047.90806770325 2805.99999427795 15 11 2
149.635836482048 1048.27511310577 2806.99992179871 16 12 1
156.790181994438 1045.28081417084 2799.00002479553 21 19 7
165.251716971397 1050.87542533875 2813.99989128113 22 20 8
173.67148399353 1055.72283267975 2826.99990272522 22 20 8
181.520089507103 1056.83553218842 2829.99992370605 17 15 3
189.251124858856 1057.20126628876 2831.00008964539 16 14 2
227.663338184357 1057.53123760223 2832.00001716614 25 30 23
478.294998407364 1035.51399707794 2773.9999294281 223 225 222
481.59858584404 1026.54600143433 2750 200 202 199
486.906230449677 1022.05765247345 2737.99991607666 203 205 202
492.329478263855 1017.94302463531 2726.99999809265 171 172 167
498.975962400436 1016.44158363342 2723.00004959106 140 141 136
505.042970180511 1013.82088661194 2716.00008010864 140 141 136
511.072099208832 1011.20042800903 2709.00011062622 139 140 135
517.063438892365 1008.580327034 2701.99990272522 127 126 121
523.599207401276 1007.08031654358 2697.99995422363 123 122 117
530.900537967682 1007.07411766052 2697.99995422363 115 117 112
538.601040840149 1007.8147649765 2700.00004768372 119 121 116
545.908033847809 1007.80928134918 2700.00004768372 119 121 116
553.624987602234 1008.55052471161 2701.99990272522 136 138 133
562.598645687103 1011.53218746185 2710.00003814697 159 161 156
577.294051647186 1024.5920419693 2744.99988555908 174 179 173
66.8269470334053 1053.75063419342 2842.00000762939 50 44 32
74.1061866283417 1047.81484603882 2825.99997520447 45 37 26
81.5590471029282 1045.21572589874 2819.00000572205 27 19 8
88.8789892196655 1041.50402545929 2809.00001525879 31 21 9
95.9728956222534 1035.93790531158 2793.99991035461 35 26 11
103.948973119259 1040.01176357269 2805.0000667572 41 32 17
111.586876213551 1040.37749767303 2805.99999427795 46 34 20
119.527392089367 1043.33817958832 2813.99989128113 45 33 17
126.878574490547 1041.1080121994 2808.00008773804 44 32 18
134.436562657356 1040.73119163513 2806.99992179871 43 31 17
141.685426235199 1038.12956809998 2799.99995231628 27 17 5
148.896172642708 1035.52746772766 2792.99998283386 24 14 2
156.853169202805 1038.11597824097 2799.99995231628 28 20 9
165.082857012749 1042.18697547913 2811.00010871887 31 23 12
173.986285924911 1049.96514320374 2832.00001716614 30 24 12
181.335583329201 1048.10345172882 2826.99990272522 27 23 12
186.518371105194 1034.37781333923 2789.99996185303 24 20 11
219.926133751869 1049.54290390015 2831.00008964539 21 24 15
471.477329730988 1029.51693534851 2778.00011634827 227 229 226
476.408094167709 1023.94771575928 2763.00001144409 209 211 208
481.432914733887 1018.74959468842 2749.00007247925 197 199 196
487.271010875702 1015.40446281433 2740.00000953674 208 210 207
491.97718501091 1009.8363161087 2724.99990463257 148 149 144
497.884929180145 1006.86264038086 2717.00000762939 134 135 130
504.12130355835 1004.63056564331 2710.99996566772 141 142 137
511.079847812653 1003.8810968399 2709.00011062622 136 137 132
517.453610897064 1002.02012062073 2703.9999961853 125 124 119
524.382472038269 1001.27136707306 2701.99990272522 122 121 116
531.891047954559 1001.63471698761 2703.00006866455 117 118 113
539.804100990295 1002.73954868317 2706.00008964539 119 121 116
547.531306743622 1003.47411632538 2707.99994468689 123 125 120
556.089103221893 1005.69152832031 2713.99998664856 150 152 147
568.416297435761 1014.57917690277 2737.99991607666 169 171 166
66.900722682476 1047.20652103424 2845.00002861023 77 71 59
74.5293498039246 1046.09870910645 2842.00000762939 88 80 67
81.7365795373917 1039.83747959137 2825.00004768372 57 47 35
89.0730917453766 1036.15248203278 2815.00005722046 39 30 15
96.3210016489029 1032.09900856018 2803.99990081787 44 32 16
104.065097868443 1033.56647491455 2808.00008773804 49 37 21
111.751236021519 1034.29746627808 2809.99994277954 58 45 29
119.745425879955 1037.60457038879 2819.00000572205 58 45 28
127.110451459885 1035.39025783539 2812.99996376038 54 41 25
134.826004505157 1036.12005710602 2815.00005722046 52 36 21
141.995623707771 1032.80103206635 2805.99999427795 36 22 9
150.075972080231 1036.10682487488 2815.00005722046 30 18 6
157.812744379044 1036.83567047119 2816.99991226196 29 17 5
165.971338748932 1040.14050960541 2825.99997520447 31 21 11
173.809871077538 1041.23687744141 2828.9999961853 31 23 12
180.189117789268 1033.86759757996 2809.00001525879 24 17 7
186.459854245186 1026.49807929993 2789.00003433228 22 15 7
195.195928215981 1032.74643421173 2805.99999427795 18 15 6
209.11979675293 1026.47149562836 2789.00003433228 19 19 11
466.142177581787 1026.81219577789 2790.99988937378 232 237 231
469.451397657394 1017.60339736938 2766.00003242493 194 196 193
474.866777658463 1013.1778717041 2753.99994850159 197 199 196
481.092810630798 1010.59174537659 2746.99997901917 202 202 200
487.458765506744 1008.37397575378 2740.9999370575 185 185 183
492.528408765793 1003.58140468597 2727.9999256134 136 137 132
498.443961143494 1000.6285905838 2720.00002861023 141 142 137
504.688084125519 998.41171503067 2713.99998664856 134 133 129
512.031733989716 998.40247631073 2713.99998664856 127 126 122
518.80145072937 997.290015220642 2710.99996566772 121 120 115
525.942981243134 996.913611888886 2710.00003814697 120 119 114
532.882452011108 996.169686317444 2707.99994468689 120 121 116
540.409684181213 996.529817581177 2709.00011062622 125 127 122
548.953294754028 998.729586601257 2714.99991416931 141 143 138
560.808002948761 1006.8154335022 2736.99998855591 177 179 174
59.2795386910439 1041.01538658142 2848.99997711182 76 67 52
67.0686736702919 1042.10841655731 2851.99999809265 90 81 66
74.7428610920906 1041.37408733368 2849.99990463257 80 68 52
82.0010453462601 1035.52389144897 2834.00011062622 72 59 43
89.3306434154511 1031.50022029877 2822.99995422363 67 51 35
96.6349244117737 1027.84168720245 2812.99996376038 64 48 32
104.255512356758 1027.836561203 2812.99996376038 63 46 28
111.955560743809 1028.56206893921 2815.00005722046 70 53 33
119.836218655109 1030.74872493744 2821.00009918213 73 56 36
127.342566847801 1029.64639663696 2818.00007820129 68 51 33
135.024100542068 1030.00521659851 2819.00000572205 64 47 31
142.508506774902 1028.90241146088 2815.99998474121 66 50 35
148.590296506882 1018.29934120178 2786.99994087219 67 51 36
156.08349442482 1017.92669296265 2786.00001335144 70 54 39
163.571119308472 1017.55368709564 2785.00008583069 70 56 43
172.712087631226 1027.04524993896 2811.00010871887 71 59 45
180.389970541 1027.40216255188 2812.00003623962 53 43 33
188.073083758354 1027.75883674622 2812.99996376038 31 22 13
195.4136043787 1026.28839015961 2809.00001525879 19 16 7
203.888684511185 1030.66337108612 2821.00009918213 20 17 8
206.954747438431 1008.36753845215 2759.99999046326 13 14 6
216.993242502213 1020.41435241699 2792.99998283386 16 19 10
462.052524089813 1026.96216106415 2812.00003623962 222 227 221
463.982760906219 1014.53292369843 2778.00011634827 224 229 223
468.614220619202 1008.31246376038 2760.99991798401 191 193 190
474.533170461655 1005.01418113708 2752.00009346008 198 198 196
481.103777885437 1003.17656993866 2746.99997901917 193 193 191
487.291634082794 1000.60904026031 2740.00000953674 157 157 155
492.538779973984 996.215879917145 2727.9999256134 137 138 133
498.087525367737 992.553532123566 2717.99993515015 139 140 135
504.325926303864 990.352094173431 2711.99989318848 129 128 124
512.229859828949 991.437554359436 2714.99991416931 124 123 119
519.767343997955 991.793036460876 2716.00008010864 119 118 113
526.922106742859 991.418480873108 2714.99991416931 120 119 114
533.677935600281 990.313947200775 2711.99989318848 121 122 116
541.614532470703 991.40077829361 2714.99991416931 139 141 136
553.004801273346 998.69567155838 2734.99989509583 160 162 157
59.4490505754948 1036.25130653381 2857.00011253357 92 81 63
67.0250728726387 1033.70904922485 2849.99990463257 92 79 62
74.6417716145515 1032.25457668304 2845.99995613098 68 53 34
82.149900496006 1029.71172332764 2838.99998664856 68 51 31
89.6199941635132 1027.16827392578 2832.00001716614 41 23 1
97.0177128911018 1024.26183223724 2823.99988174438 51 33 11
104.446105659008 1022.08054065704 2818.00007820129 71 50 29
112.080499529839 1022.07493782043 2818.00007820129 66 48 26
119.799740612507 1022.79448509216 2819.9999332428 80 62 40
127.394109964371 1022.425532341 2819.00000572205 67 49 29
135.126620531082 1023.14436435699 2821.00009918213 71 54 38
142.717972397804 1022.77457714081 2819.9999332428 63 46 30
148.810863494873 1012.24946975708 2790.99988937378 72 55 39
156.259194016457 1011.51645183563 2789.00003433228 78 61 45
163.872748613358 1011.87121868134 2789.99996185303 92 75 59
173.273414373398 1022.74322509766 2819.9999332428 91 75 59
181.425094604492 1025.63607692719 2828.00006866455 81 69 55
189.619868993759 1028.52845191956 2835.99996566772 38 28 16
197.301268577576 1028.51903438568 2835.99996566772 16 14 1
212.288483977318 1026.68619155884 2831.00008964539 19 21 8
217.158675193787 1013.6204957962 2795.00007629395 26 29 18
458.121627569199 1010.67554950714 2788.00010681152 212 214 211
462.65897154808 1004.13739681244 2769.99998092651 196 198 193
468.286991119385 1000.13720989227 2759.0000629425 191 190 185
474.545121192932 997.587442398071 2752.00009346008 204 203 199
481.46578669548 996.487677097321 2749.00007247925 160 159 155
487.658828496933 993.938207626343 2742.00010299683 135 134 130
493.272215127945 990.301728248596 2732.00011253357 136 137 132
499.197989702225 987.390458583832 2723.99997711182 132 133 128
505.26636838913 984.84194278717 2717.00000762939 117 117 115
512.617528438568 984.831094741821 2717.00000762939 121 121 119
520.734250545502 986.270487308502 2720.99995613098 115 116 111
528.096258640289 986.260175704956 2720.99995613098 120 120 118
536.048650741577 987.337648868561 2723.99997711182 130 132 129
544.815301895142 989.865243434906 2730.99994659424 165 170 166
52.3807518184185 1041.88823699951 2894.00005340576 31 15 0
59.5978498458862 1031.08489513397 2864.00008201599 162 143 126
66.9580399990082 1024.96111392975 2846.99988365173 130 112 92
74.4096264243126 1021.35717868805 2836.99989318848 115 93 72
82.0963233709335 1021.3531255722 2836.99989318848 92 67 45
89.6563231945038 1019.90854740143 2832.99994468689 67 42 20
97.1601977944374 1018.10359954834 2828.00006866455 68 43 21
104.414463043213 1014.13810253143 2816.99991226196 72 47 25
111.847653985023 1012.3325586319 2812.00003623962 95 70 50
119.593493640423 1013.40639591217 2815.00005722046 85 60 40
127.355441451073 1014.47999477386 2818.00007820129 68 47 28
135.133519768715 1015.55323600769 2821.00009918213 66 49 31
142.775848507881 1015.54608345032 2821.00009918213 62 45 27
148.871719837189 1005.09870052338 2792.00005531311 53 34 17
156.491190195084 1005.45084476471 2792.99998283386 60 41 24
164.23337161541 1006.52265548706 2796.0000038147 74 53 36
173.527836799622 1016.59369468689 2823.99988174438 89 70 53
181.626513600349 1019.10483837128 2831.00008964539 99 83 67
189.629197120667 1020.89536190033 2835.99996566772 67 55 39
197.241321206093 1020.52569389343 2835.00003814697 24 21 6
204.124972224236 1016.55614376068 2823.99988174438 17 18 4
452.207237482071 1006.76679611206 2798.00009727478 221 223 220
456.984609365463 1000.63598155975 2780.99989891052 194 196 193
462.170988321304 995.585322380066 2766.99995994568 184 183 179
468.299865722656 992.693543434143 2759.0000629425 196 195 190
475.075125694275 991.241216659546 2755.00011444092 199 198 193
481.653392314911 989.429235458374 2750 144 143 139
487.49315738678 986.178338527679 2740.9999370575 131 130 126
493.825763463974 984.007120132446 2734.99989509583 136 137 132
499.942630529404 981.476545333862 2727.9999256134 127 128 123
506.393551826477 979.665756225586 2723.00004959106 117 117 115
513.005971908569 978.215098381042 2719.00010108948 119 119 117
521.319150924683 980.002522468567 2723.99997711182 117 117 115
528.689026832581 979.991555213928 2723.99997711182 125 127 124
538.223505020142 983.938038349152 2734.99989509583 139 141 138
550.4110455513 992.5616979599 2759.0000629425 173 178 174
45.0496412813663 1045.8972454071 2927.00004577637 49 33 20
52.2749908268452 1031.95881843567 2888.00001144409 64 45 30
59.4762079417706 1021.23594284058 2858.00004005432 164 141 123
66.8911039829254 1016.23010635376 2844.00010108948 134 112 91
74.3611827492714 1013.0101442337 2835.00003814697 104 79 59
81.9560438394547 1011.93404197693 2832.00001716614 90 63 42
89.5978361368179 1011.57200336456 2831.00008964539 92 64 43
97.027949988842 1009.06574726105 2823.99988174438 92 64 43
104.345880448818 1005.84447383881 2815.00005722046 102 74 53
111.734248697758 1003.69477272034 2809.00001525879 111 84 65
119.514837861061 1005.1177740097 2812.99996376038 99 72 53
127.452552318573 1007.61234760284 2819.9999332428 84 58 41
135.284304618835 1009.03451442719 2823.99988174438 83 62 45
142.935141921043 1009.02712345123 2823.99988174438 83 62 45
150.905728340149 1011.16323471069 2829.99992370605 73 50 32
158.852621912956 1012.9417181015 2835.00003814697 72 49 31
166.650235652924 1013.64779472351 2836.99989318848 88 62 45
174.335554242134 1013.63885402679 2836.99989318848 91 68 52
182.21315741539 1014.70148563385 2839.99991416931 132 113 98
189.839377999306 1014.33479785919 2838.99998664856 110 92 78
197.807818651199 1015.75398445129 2842.99993515015 39 27 13
221.233531832695 1053.9618730545 2950.00004768372 26 18 7
445.286124944687 1000.6639957428 2802.00004577637 231 233 230
450.928449630737 996.363997459412 2789.99996185303 169 171 168
456.505656242371 992.064118385315 2778.00011634827 169 171 168
462.35179901123 988.478779792786 2767.99988746643 192 191 187
468.652963638306 985.965013504028 2760.99991798401 199 198 193
475.260972976685 984.165668487549 2756.00004196167 175 174 169
481.316298246384 981.295168399811 2747.99990653992 133 132 128
487.328261137009 978.425025939941 2740.00000953674 136 135 131
494.560807943344 978.054761886597 2739.00008201599 125 126 121
501.237988471985 976.613461971283 2734.99989509583 118 119 114
508.451461791992 976.243734359741 2733.99996757507 116 116 114
514.338612556458 973.374724388123 2726.0000705719 116 116 114
522.479057312012 974.790751934052 2730.00001907349 127 129 126
530.641138553619 976.207137107849 2733.99996757507 151 153 150
542.760789394379 984.764933586121 2757.99989700317 172 174 171
45.2214553952217 1041.92447662354 2937.99996376038 82 64 52
52.3865036666393 1026.31783485413 2894.00005340576 100 77 63
59.5835633575916 1015.32089710236 2862.99991607666 157 130 113
66.9888854026794 1009.99784469604 2848.00004959106 134 107 88
74.4177475571632 1006.09290599823 2836.99989318848 100 72 51
81.9605514407158 1004.31537628174 2832.00001716614 104 73 53
89.6027535200119 1003.95607948303 2831.00008964539 103 72 52
96.9301834702492 1000.40447711945 2821.00009918213 105 74 54
104.203298687935 996.852695941925 2811.00010871887 125 94 76
111.581213772297 994.719088077545 2805.0000667572 108 79 63
119.393847882748 996.485829353333 2809.99994277954 102 73 57
127.27864086628 998.606741428375 2815.99998474121 91 63 49
135.147869586945 1000.37276744843 2821.00009918213 95 72 54
143.044039607048 1002.13825702667 2825.99997520447 84 61 43
151.340410113335 1006.38568401337 2838.00005912781 84 59 39
159.19728577137 1007.44116306305 2841.00008010864 83 58 38
166.894003748894 1007.43234157562 2841.00008010864 105 78 59
174.037426710129 1004.23192977905 2832.00001716614 104 77 60
181.901857256889 1005.28633594513 2835.00003814697 139 116 100
189.849212765694 1006.69491291046 2838.99998664856 134 112 98
198.235467076302 1010.23054122925 2848.99997711182 60 42 30
207.904651761055 1019.79398727417 2875.99992752075 42 26 13
219.594791531563 1038.22147846222 2927.99997329712 28 14 3
438.031613826752 993.833005428314 2803.99990081787 238 240 237
443.711847066879 989.564657211304 2792.00005531311 198 200 197
449.81187582016 986.359596252441 2782.99999237061 169 169 167
455.862909555435 983.154773712158 2773.9999294281 166 166 164
462.366223335266 981.013417243958 2767.99988746643 198 197 193
468.497455120087 978.163421154022 2759.99999046326 184 183 178
474.757701158524 975.668132305145 2753.00002098084 151 150 145
480.804711580276 972.818553447723 2744.99988555908 133 134 129
487.164080142975 970.678150653839 2739.00008201599 133 134 129
494.935363531113 971.372961997986 2740.9999370575 117 118 113
502.350866794586 971.359252929688 2740.9999370575 118 119 114
510.138154029846 972.054600715637 2743.00003051758 116 118 115
516.615450382233 970.269441604614 2737.99991607666 116 118 115
524.78814125061 971.673965454102 2742.00010299683 141 143 140
535.505592823029 977.685391902924 2759.0000629425 166 168 165
45.5934554338455 1042.46842861176 2961.99989318848 127 113 102
52.4799898266792 1020.29299736023 2898.9999294281 106 80 65
59.5453158020973 1006.915807724 2861.00006103516 150 119 101
66.9926777482033 1002.33697891235 2848.00004959106 143 112 92
74.4481831789017 998.813390731812 2838.00005912781 132 101 81
82.0519998669624 997.753143310547 2835.00003814697 136 103 84
89.6710827946663 997.044324874878 2832.99994468689 115 84 64
97.10743278265 994.575440883636 2825.99997520447 130 99 79
104.320339858532 990.346550941467 2813.99989128113 127 96 78
111.865900456905 989.636600017548 2812.00003623962 107 78 64
119.527943432331 989.982008934021 2812.99996376038 105 77 63
127.421274781227 992.086708545685 2819.00000572205 116 90 75
135.011583566666 991.727471351624 2818.00007820129 98 71 54
142.900004982948 993.479311466217 2822.99995422363 97 70 51
150.868684053421 995.582699775696 2828.9999961853 105 77 56
158.813655376434 997.333884239197 2834.00011062622 102 74 53
166.374281048775 996.621072292328 2832.00001716614 101 70 50
174.169689416885 997.315585613251 2834.00011062622 106 75 57
182.296574115753 999.769270420074 2841.00008010864 142 110 95
190.728679299355 1003.63028049469 2851.99999809265 147 118 104
199.150547385216 1007.13872909546 2861.99998855591 74 46 35
209.361419081688 1019.09244060516 2895.99990844727 36 9 0
219.156205654144 1028.23030948639 2921.99993133545 54 27 18
227.925986051559 1032.08947181702 2933.00008773804 75 50 45
429.999202489853 985.23473739624 2801.00011825562 221 223 218
436.48499250412 982.756614685059 2793.99991035461 189 190 185
442.773759365082 979.926884174347 2786.00001335144 156 157 152
449.180692434311 977.449059486389 2779.00004386902 162 163 158
455.549508333206 974.971413612366 2772.0000743866 171 171 169
462.381303310394 973.548889160156 2767.99988746643 198 197 192
468.512386083603 970.719993114471 2759.99999046326 167 166 161
474.944919347763 968.594610691071 2753.99994850159 134 133 128
481.169611215591 966.11762046814 2746.99997901917 133 134 129
488.245606422424 965.399444103241 2744.99988555908 129 130 125
496.032953262329 966.088175773621 2746.99997901917 118 119 114
503.831028938293 966.777145862579 2749.00007247925 118 119 114
511.639773845673 967.466115951538 2750.99992752075 118 120 117
519.081830978394 967.452108860016 2750.99992752075 123 125 122
528.629243373871 971.306800842285 2762.00008392334 137 139 136
45.4575642943382 1031.35800361633 2953.00006866455 59 41 27
52.5373406708241 1013.543009758 2901.99995040894 113 87 70
59.548769146204 999.220371246338 2861.00006103516 147 119 98
66.9024512171745 993.279218673706 2844.00010108948 145 117 96
74.4262412190437 990.830302238464 2836.99989318848 124 93 73
82.0567235350609 990.127265453339 2835.00003814697 112 81 61
89.67624604702 989.423751831055 2832.99994468689 108 77 57
97.2160845994949 988.021314144135 2828.9999961853 125 97 76
104.54872995615 984.872281551361 2819.9999332428 102 73 57
112.110979855061 984.167695045471 2818.00007820129 99 71 57
119.704701006413 983.811676502228 2816.99991226196 94 68 53
127.564087510109 985.550820827484 2822.00002670288 116 90 75
135.16291975975 985.194146633148 2821.00009918213 116 89 72
142.908021807671 985.884666442871 2822.99995422363 96 68 47
150.503784418106 985.527157783508 2822.00002670288 97 69 48
158.486217260361 987.61385679245 2828.00006866455 105 74 54
166.207209229469 987.953841686249 2828.9999961853 105 72 53
174.42512512207 991.087436676025 2838.00005912781 117 84 65
182.69157409668 994.220495223999 2846.99988365173 139 106 91
191.20717048645 998.400747776031 2858.99996757507 148 114 102
199.926778674126 1003.27897071838 2872.99990653992 97 65 54
210.963204503059 1018.98217201233 2917.99998283386 52 19 10
219.542965292931 1022.11344242096 2927.00004577637 71 41 33
228.404343128204 1026.29160881042 2938.99989128113 90 61 57
418.262511491776 985.746681690216 2823.99988174438 228 230 225
423.340737819672 979.796051979065 2806.99992179871 217 219 214
429.708361625671 976.987183094025 2799.00002479553 223 225 220
435.876250267029 973.82926940918 2789.99996185303 146 147 142
442.471981048584 971.718549728394 2783.99991989136 142 143 138
449.035048484802 969.608068466187 2778.00011634827 162 163 158
456.058412790298 968.544661998749 2775.00009536743 186 187 182
462.564140558243 966.434419155121 2769.00005340576 160 161 155
468.697726726532 963.626265525818 2760.99991798401 134 135 129
474.960297346115 961.167395114899 2753.99994850159 128 129 123
481.885492801666 960.104703903198 2750.99992752075 128 129 124
489.150106906891 959.740281105042 2750 116 117 112
496.950775384903 960.422873497009 2752.00009346008 114 115 110
504.762172698975 961.105704307556 2753.99994850159 116 118 113
513.328194618225 963.184595108032 2759.99999046326 123 125 122
522.681295871735 966.659486293793 2769.99998092651 139 141 138
535.342216491699 976.067066192627 2796.99993133545 165 167 164
45.2601350843906 1018.91028881073 2940.00005722046 121 105 92
52.5404550135136 1005.73766231537 2901.99995040894 114 95 78
59.4898462295532 990.485429763794 2858.00004005432 140 118 97
66.9064074754715 985.629796981812 2844.00010108948 132 110 87
74.5618119835854 984.932363033295 2842.00000762939 101 76 54
82.235224545002 984.581112861633 2841.00008010864 91 66 44
89.8081362247467 983.189821243286 2836.99989318848 76 51 29
97.2905084490776 981.104969978333 2831.00008964539 77 55 32
104.740224778652 979.019641876221 2825.00004768372 66 44 23
112.475551664829 979.706227779388 2826.99990272522 64 43 26
119.924135506153 977.966845035553 2822.00002670288 62 41 24
127.707079052925 978.999197483063 2825.00004768372 49 28 11
135.170683264732 977.60534286499 2821.00009918213 82 55 36
142.865583300591 977.943778038025 2822.00002670288 90 62 41
150.352358818054 976.895689964294 2819.00000572205 98 70 49
158.327087759972 978.965997695923 2825.00004768372 114 83 63
166.334137320518 981.035947799683 2831.00008964539 121 88 69
174.742236733437 985.184550285339 2842.99993515015 131 98 79
183.21518599987 989.332914352417 2855.00001907349 148 112 98
192.020401358604 994.866549968719 2871.00005149841 145 109 97
202.095195651054 1006.29079341888 2904.00004386902 141 105 93
211.553230881691 1013.90266418457 2926.00011825562 101 64 56
220.155000686646 1017.00925827026 2934.99994277954 60 23 17
228.805333375931 1020.11549472809 2944.00000572205 130 100 98
410.491675138474 977.807760238647 2822.99995422363 221 223 218
416.353940963745 973.634243011475 2811.00010871887 238 240 235
422.754257917404 970.846116542816 2802.99997329712 218 220 215
429.264545440674 968.404531478882 2796.0000038147 216 217 212
435.736745595932 965.963065624237 2789.00003433228 138 139 134
442.329734563828 963.868141174316 2782.99999237061 156 157 152
449.213236570358 962.465763092041 2779.00004386902 170 171 166
456.896662712097 962.795257568359 2779.99997138977 193 194 189
463.582873344421 961.046993732452 2775.00009536743 132 133 127
469.732522964478 958.259701728821 2766.99995994568 135 136 130
475.838750600815 955.472648143768 2759.0000629425 134 135 129
483.302861452103 955.456376075745 2759.0000629425 120 121 116
490.588843822479 955.093801021576 2757.99989700317 118 119 114
498.230487108231 955.424129962921 2759.0000629425 116 118 113
506.060540676117 956.100702285767 2760.99991798401 119 121 116
