ply
format ascii 1.0
comment KinectMotionCapture
element vertex 798
property float x
property float y
property float z
property uchar red
property uchar green
property uchar blue
end_header
613.661408424377 -265.096664428711 2536.00001335144 15 18 9
625.907003879547 -267.376929521561 2558.00008773804 12 15 8
628.622233867645 -265.580624341965 2540.99988937378 15 18 11
637.247145175934 -266.292899847031 2548.00009727478 12 15 8
663.604915142059 -274.320304393768 2625 7 10 3
673.514902591705 -275.449872016907 2635.99991798401 8 10 5
683.741748332977 -276.683837175369 2648.00000190735 9 11 6
689.336121082306 -276.037067174912 2641.99995994568 11 13 8
692.524671554565 -274.450153112412 2627.00009346008 13 14 9
703.887104988098 -276.10194683075 2642.99988746643 14 17 10
710.761964321136 -275.97787976265 2641.99995994568 14 17 10
709.478795528412 -272.720366716385 2611.00006103516 13 16 9
712.41819858551 -271.134495735168 2595.99995613098 14 17 8
720.54123878479 -271.533221006393 2599.99990463257 16 19 12
738.479495048523 -275.587022304535 2638.99993896484 13 16 9
750.129520893097 -277.238696813583 2654.99997138977 16 21 15
762.150466442108 -278.994679450989 2671.99993133545 18 23 19
787.220060825348 -285.44893860817 2733.99996757507 17 22 18
477.105319499969 -289.755195379257 2697.00002670288 50 52 49
470.959961414337 -281.678646802902 2621.99997901917 16 18 13
477.534145116806 -281.337410211563 2618.99995803833 11 13 8
483.535677194595 -280.673831701279 2612.99991607666 16 19 12
485.372573137283 -277.647286653519 2585.00003814697 9 12 3
485.913425683975 -273.976624011993 2551.00011825562 9 12 5
498.43966960907 -277.072012424469 2579.99992370605 9 12 5
505.832731723785 -277.26748585701 2582.00001716614 10 13 6
502.112627029419 -271.449744701386 2528.00011634827 11 13 8
505.145132541656 -269.390642642975 2509.0000629425 14 17 10
510.5220079422 -268.620073795319 2502.00009346008 16 19 10
517.100155353546 -268.493622541428 2500.99992752075 23 26 17
521.57723903656 -267.293721437454 2490.00000953674 24 27 18
529.600620269775 -267.918646335602 2496.00005149841 19 22 13
545.39155960083 -272.407352924347 2538.00010681152 16 19 10
549.223244190216 -270.885229110718 2523.9999294281 16 19 10
550.114095211029 -267.96817779541 2496.99997901917 15 18 9
557.994186878204 -268.485367298126 2502.00009346008 14 17 8
569.737553596497 -270.826548337936 2523.9999294281 13 16 7
579.086422920227 -271.987169981003 2535.00008583069 12 15 6
585.026502609253 -271.538257598877 2530.99989891052 11 14 5
591.177821159363 -271.196752786636 2528.00011634827 13 16 7
594.709753990173 -269.675254821777 2513.99993896484 15 18 9
602.710962295532 -270.191997289658 2519.00005340576 16 19 10
611.464142799377 -271.030426025391 2526.99995040894 15 18 9
622.46173620224 -272.833943367004 2543.99991035461 12 15 8
626.871049404144 -271.741777658463 2533.99991989136 15 18 11
637.727737426758 -273.437857627869 2549.99995231628 12 15 8
656.506597995758 -278.457581996918 2596.99988365173 7 10 3
673.494815826416 -282.618880271912 2635.99991798401 8 10 5
680.623114109039 -282.598584890366 2635.99991798401 9 11 6
684.09788608551 -281.077563762665 2621.99997901917 11 13 8
690.132319927216 -280.628770589828 2618.00003051758 12 13 8
696.943163871765 -280.501663684845 2617.00010299683 13 16 9
707.514047622681 -281.875103712082 2630.00011444092 14 17 10
709.731161594391 -279.926210641861 2611.99998855591 14 17 10
714.045464992523 -278.834968805313 2601.99999809265 14 17 8
722.184836864471 -279.244154691696 2605.99994659424 19 22 15
735.102355480194 -281.474947929382 2627.00009346008 12 15 8
751.240313053131 -284.884005784988 2658.99991989136 16 21 15
750.722169876099 -281.972020864487 2631.99996948242 17 22 18
766.469538211823 -285.166651010513 2661.99994087219 11 16 12
473.27584028244 -290.252268314362 2634.99999046326 16 18 13
474.780023097992 -286.818325519562 2604.00009155273 10 12 7
483.331352472305 -287.68002986908 2611.99998855591 0 2 0
483.100205659866 -283.365368843079 2572.99995422363 10 13 4
490.465670824051 -283.566266298294 2575.00004768372 11 14 7
494.363367557526 -281.784862279892 2559.00001525879 12 15 8
501.111567020416 -281.65528178215 2558.00008773804 11 14 7
506.860077381134 -280.975043773651 2552.00004577637 9 11 6
511.165738105774 -279.524207115173 2539.00003433228 11 14 7
522.745013237 -282.036513090134 2562.00003623962 12 15 6
523.283362388611 -278.604179620743 2530.99989891052 16 19 10
523.024201393127 -274.842113256454 2496.99997901917 19 22 13
529.581308364868 -274.71250295639 2496.00005149841 20 23 14
532.478809356689 -272.711932659149 2477.9999256134 20 23 14
542.458176612854 -274.343132972717 2493.00003051758 17 20 11
547.45090007782 -273.443162441254 2484.99989509583 17 20 11
557.08247423172 -274.853885173798 2497.99990653992 17 20 11
566.33198261261 -276.044338941574 2509.0000629425 16 19 10
579.523324966431 -279.104828834534 2536.99994087219 15 18 9
584.775507450104 -278.314620256424 2529.99997138977 13 16 7
590.456485748291 -277.744561433792 2525.00009536743 13 16 7
592.561066150665 -275.524735450745 2505.00011444092 16 19 10
595.752716064453 -273.855090141296 2490.00000953674 19 22 13
609.992504119873 -277.244478464127 2520.99990844727 21 24 15
619.016408920288 -278.214186429977 2529.99997138977 21 24 17
628.582835197449 -279.403656721115 2540.99988937378 22 25 18
640.958845615387 -281.802505254745 2562.99996376038 18 21 14
660.025298595428 -287.059485912323 2611.00006103516 8 11 4
675.518274307251 -290.666788816452 2644.00005340576 7 9 4
679.569900035858 -289.326906204224 2631.99996948242 8 10 5
682.773113250732 -287.657529115677 2617.00010299683 10 12 7
687.476098537445 -286.647945642471 2608.00004005432 14 15 10
698.52089881897 -288.276225328445 2622.99990653992 13 16 9
707.22484588623 -288.915306329727 2628.99994850159 14 17 10
714.058697223663 -288.785248994827 2628.00002098084 14 17 10
710.18397808075 -284.369915723801 2588.00005912781 13 16 7
723.273754119873 -286.767423152924 2609.99989509583 14 17 10
734.523057937622 -288.395643234253 2625 13 16 9
747.830450534821 -290.792852640152 2647.0000743866 11 16 10
762.96728849411 -293.848901987076 2674.99995231628 12 17 13
765.586316585541 -292.071640491486 2658.99991989136 11 16 12
461.761653423309 -290.204465389252 2571.00009918213 8 10 5
476.401388645172 -294.925570487976 2612.99991607666 0 1 0
483.496695756912 -294.905751943588 2612.99991607666 16 19 12
491.341710090637 -295.337200164795 2617.00010299683 11 14 5
489.874541759491 -290.239006280899 2572.00002670288 14 17 10
496.854990720749 -290.219128131866 2572.00002670288 15 18 11
509.024977684021 -289.163619279861 2562.99996376038 9 11 6
515.172302722931 -288.692265748978 2559.00001525879 12 15 8
522.929012775421 -289.123296737671 2562.99996376038 10 13 4
531.119704246521 -289.779752492905 2569.00000572205 9 12 3
528.240919113159 -284.458190202713 2522.0000743866 16 19 10
529.137194156647 -281.280130147934 2493.99995803833 20 23 14
528.161644935608 -277.200281620026 2457.99994468689 19 22 13
536.563634872437 -278.082698583603 2466.00008010864 18 21 12
546.990513801575 -279.979705810547 2483.00004005432 19 22 13
555.501520633698 -280.861705541611 2490.9999370575 19 22 13
566.311895847321 -282.870948314667 2509.0000629425 17 20 11
574.706137180328 -283.639818429947 2516.00003242493 17 20 11
581.750571727753 -283.732175827026 2516.99995994568 14 17 8
587.630093097687 -283.260941505432 2513.00001144409 14 17 8
591.121733188629 -281.662672758102 2499.00007247925 15 18 9
597.646653652191 -281.529694795609 2497.99990653992 19 22 13
603.681445121765 -281.171441078186 2494.99988555908 22 25 16
620.708823204041 -285.884082317352 2536.99994087219 25 28 21
629.304647445679 -286.652326583862 2543.99991035461 26 29 22
645.439803600311 -290.800631046295 2581.00008964539 21 24 17
672.137916088104 -299.567490816116 2658.99991989136 14 17 10
678.81852388382 -299.320846796036 2657.00006484985 6 8 3
684.454619884491 -298.623710870743 2651.00002288818 6 8 3
681.448042392731 -294.209718704224 2611.99998855591 8 10 5
690.882325172424 -295.202642679214 2621.00005149841 11 12 7
702.49480009079 -297.096490859985 2638.00001144409 13 16 9
712.853491306305 -298.427104949951 2650.00009536743 15 18 11
720.01576423645 -298.406332731247 2650.00009536743 16 19 12
714.005708694458 -292.980939149857 2601.99999809265 16 19 10
726.301968097687 -295.100063085556 2621.00005149841 16 19 12
737.301170825958 -296.656042337418 2634.99999046326 16 19 12
748.940467834473 -298.437088727951 2651.00002288818 10 15 9
763.517677783966 -301.343768835068 2677.00004577637 10 15 11
779.098629951477 -304.587870836258 2706.00008964539 16 21 17
472.188234329224 -299.382030963898 2589.99991416931 12 14 9
490.758240222931 -302.115708589554 2614.00008201599 14 17 8
499.186903238297 -302.904188632965 2621.00005149841 15 18 11
515.186071395874 -308.199316263199 2667.00005531311 15 18 11
524.276912212372 -292.959451675415 2536.00001335144 14 17 8
524.869441986084 -289.473533630371 2506.00004196167 13 16 7
527.844130992889 -287.374079227448 2487.99991607666 18 21 12
537.595868110657 -288.970738649368 2502.00009346008 21 24 15
542.63573884964 -288.026392459869 2493.99995803833 19 22 13
546.750068664551 -286.620199680328 2482.00011253357 19 22 13
555.258214473724 -287.523597478867 2490.00000953674 19 22 13
563.808679580688 -288.42681646347 2497.99990653992 18 21 12
571.031033992767 -288.637161254883 2500 17 20 11
576.414227485657 -287.923872470856 2493.99995803833 16 19 10
585.27135848999 -288.942277431488 2503.00002098084 14 17 8
589.208900928497 -287.536442279816 2490.9999370575 12 15 6
593.798458576202 -286.477118730545 2482.00011253357 15 18 9
599.06405210495 -285.764187574387 2476.0000705719 20 23 16
617.262959480286 -291.167855262756 2523.00000190735 21 24 17
634.231090545654 -295.878380537033 2563.99989128113 24 27 20
653.921008110046 -301.742225885391 2615.00000953674 19 22 15
674.896836280823 -308.066755533218 2670.00007629395 14 17 10
691.059827804565 -312.082976102829 2704.99992370605 6 8 3
683.142364025116 -305.254459381104 2645.99990844727 6 8 3
691.340684890747 -305.694460868835 2650.00009536743 8 10 5
700.350522994995 -306.480497121811 2657.00006484985 9 10 5
709.397375583649 -307.266473770142 2664.00003433228 11 14 7
713.908493518829 -306.091815233231 2654.00004386902 13 16 9
717.549681663513 -304.571449756622 2641.00003242493 16 19 12
725.235641002655 -304.781079292297 2642.99988746643 16 19 10
725.450277328491 -301.877588033676 2618.00003051758 14 17 10
737.28084564209 -303.817212581635 2634.99999046326 19 22 15
748.920142650604 -305.641412734985 2651.00002288818 16 21 15
760.074853897095 -307.234942913055 2664.99996185303 6 11 7
767.561793327332 -307.329803705215 2665.99988937378 12 17 13
460.105955600739 -303.140938282013 2562.00003623962 12 14 9
466.881364583969 -303.002595901489 2561.00010871887 17 20 13
470.874845981598 -301.089555025101 2545.00007629395 7 10 3
486.044257879257 -306.274473667145 2588.99998664856 15 18 9
496.30942940712 -308.264791965485 2605.99994659424 15 18 11
510.903894901276 -300.138920545578 2538.00010681152 20 23 14
508.198618888855 -294.560372829437 2490.9999370575 21 24 15
513.506472110748 -293.712228536606 2483.99996757507 18 21 12
521.079063415527 -294.164657592773 2487.99991607666 15 18 9
526.762962341309 -293.552964925766 2483.00004005432 18 21 12
534.352362155914 -294.005185365677 2486.99998855591 21 24 15
540.439426898956 -293.629854917526 2483.99996757507 19 22 13
545.187592506409 -292.545318603516 2474.99990463257 19 22 13
552.338778972626 -292.76105761528 2476.99999809265 18 21 12
563.110828399658 -294.867604970932 2494.99988555908 18 21 12
567.355811595917 -293.546766042709 2483.99996757507 17 20 11
570.615649223328 -291.753441095352 2469.00010108948 17 20 11
583.146095275879 -294.686675071716 2493.99995803833 16 19 10
590.13432264328 -294.783890247345 2494.99988555908 14 17 8
590.906977653503 -291.809409856796 2470.00002861023 15 18 9
599.285483360291 -292.615652084351 2476.99999809265 17 20 13
620.422422885895 -299.564272165298 2536.00001335144 17 20 13
641.877830028534 -306.51193857193 2595.00002861023 19 22 15
660.400807857513 -311.923235654831 2641.00003242493 16 19 12
682.710468769073 -318.987220525742 2700.99997520447 11 14 7
688.482999801636 -318.256258964539 2694.9999332428 7 9 4
690.607607364655 -315.872251987457 2674.99995231628 9 11 6
691.058158874512 -312.780261039734 2648.9999294281 11 13 8
702.437520027161 -314.647525548935 2664.99996185303 12 13 8
713.369965553284 -316.278517246246 2678.99990081787 9 12 5
709.852278232574 -311.534702777863 2638.99993896484 9 12 5
717.800199985504 -311.867445707321 2641.99995994568 11 14 7
723.019480705261 -311.019897460938 2634.99999046326 13 16 7
727.092206478119 -309.700548648834 2624.00007247925 18 21 14
732.503592967987 -308.971554040909 2618.00003051758 17 20 13
739.576995372772 -308.950841426849 2618.00003051758 15 20 14
750.927746295929 -310.700327157974 2632.99989700317 25 30 26
450.474262237549 -308.320283889771 2546.99993133545 13 15 12
462.959140539169 -312.052577733994 2578.00006866455 23 25 20
469.595462083817 -311.789959669113 2575.99997520447 21 24 17
479.920089244843 -313.947856426239 2594.00010108948 15 18 11
489.051640033722 -310.759574174881 2568.00007820129 19 22 15
498.145580291748 -312.069624662399 2578.9999961853 21 24 17
499.431163072586 -304.283976554871 2515.00010490417 21 24 17
507.662296295166 -305.109977722168 2522.0000743866 24 27 18
506.750047206879 -300.49204826355 2483.99996757507 22 25 14
513.279139995575 -300.350308418274 2483.00004005432 21 24 13
522.943139076233 -302.022814750671 2496.99997901917 22 25 14
525.045037269592 -299.34099316597 2474.99990463257 19 22 11
532.183051109314 -299.561947584152 2476.99999809265 17 20 9
536.284863948822 -298.08983206749 2464.99991416931 20 23 12
542.082905769348 -297.585219144821 2460.99996566772 20 23 12
550.088047981262 -298.289805650711 2467.00000762939 19 22 11
559.930145740509 -299.961417913437 2480.99994659424 19 22 11
565.279185771942 -299.214899539948 2474.99990463257 18 21 10
565.74159860611 -295.929878950119 2447.99995422363 18 21 12
577.981173992157 -298.810034990311 2471.99988365173 17 20 11
590.113162994385 -301.568925380707 2494.99988555908 17 20 11
596.627473831177 -301.42679810524 2493.99995803833 17 20 11
601.683795452118 -300.559550523758 2486.99998855591 16 19 12
617.465317249298 -305.009603500366 2523.9999294281 15 18 11
643.587410449982 -314.41330909729 2601.99999809265 16 19 12
667.630016803741 -322.607427835464 2670.00007629395 13 16 9
676.116168498993 -323.188900947571 2674.99995231628 10 13 6
679.263889789581 -321.23339176178 2658.99991989136 8 10 5
668.899655342102 -312.996536493301 2591.00008010864 10 12 7
700.688242912292 -324.450135231018 2686.00010871887 11 13 8
699.516177177429 -320.562571287155 2654.00004386902 14 15 10
701.631903648376 -318.245738744736 2634.99999046326 12 15 8
710.63756942749 -319.069296121597 2641.99995994568 12 15 8
719.680309295654 -319.892853498459 2648.9999294281 11 14 7
726.565182209015 -319.750428199768 2648.00000190735 11 14 5
727.902233600616 -317.193269729614 2627.00009346008 18 21 14
734.161376953125 -316.809803247452 2624.00007247925 15 18 11
737.578809261322 -315.219312906265 2611.00006103516 13 18 12
748.625516891479 -316.888600587845 2625 19 24 20
739.307105541229 -309.987306594849 2568.00007820129 17 22 18
468.146175146103 -322.659432888031 2607.00011253357 29 31 26
475.954860448837 -323.13334941864 2611.00006103516 26 28 23
481.934100389481 -322.369575500488 2605.00001907349 15 18 11
486.1900806427 -320.492029190063 2589.99991416931 18 21 12
488.649636507034 -317.501038312912 2565.99998474121 20 23 14
495.42024731636 -317.356050014496 2565.00005722046 20 23 14
495.916724205017 -313.251972198486 2532.00006484985 21 24 15
502.388715744019 -312.983274459839 2529.99997138977 21 24 15
501.602649688721 -308.26136469841 2492.00010299683 19 22 13
511.013090610504 -309.848248958588 2505.00011444092 19 22 13
516.772210597992 -309.208512306213 2500 22 25 16
518.105328083038 -305.971592664719 2473.99997711182 22 25 16
529.054522514343 -308.423757553101 2493.99995803833 18 21 12
533.450961112976 -307.042151689529 2483.00004005432 15 18 9
535.39365530014 -304.300457239151 2460.99996566772 18 21 12
540.960609912872 -303.661048412323 2456.00008964539 19 22 13
548.060119152069 -303.887039422989 2457.99994468689 21 24 15
559.231758117676 -306.338220834732 2477.9999256134 20 23 14
566.17146730423 -306.440383195877 2479.00009155273 19 22 13
572.19123840332 -306.048095226288 2476.0000705719 20 23 14
581.233143806458 -307.262569665909 2486.00006103516 21 24 15
591.747403144836 -309.218466281891 2502.00009346008 20 23 14
598.998248577118 -309.443891048431 2503.99994850159 18 21 12
606.742858886719 -309.916496276855 2507.99989700317 15 18 9
619.4007396698 -312.860310077667 2532.00006484985 11 14 7
642.575800418854 -320.993006229401 2598.00004959106 15 18 11
663.106441497803 -327.642023563385 2651.99995040894 12 15 8
669.016599655151 -327.001541852951 2647.0000743866 11 14 7
656.506299972534 -317.467153072357 2569.9999332428 12 14 9
685.141444206238 -327.820837497711 2654.00004386902 11 13 8
693.883240222931 -328.539282083511 2660.00008583069 12 14 9
696.331083774567 -326.293647289276 2641.99995994568 16 17 12
698.947191238403 -324.171930551529 2625 12 15 8
711.153566837311 -326.496124267578 2644.00005340576 10 13 6
723.73354434967 -328.9435505867 2664.00003433228 10 13 6
724.897146224976 -326.205104589462 2641.99995994568 10 13 4
726.772546768188 -323.837518692017 2622.99990653992 12 15 8
734.699666500092 -324.186384677887 2625.99992752075 9 12 5
748.009562492371 -326.880782842636 2648.00000190735 7 12 6
741.76025390625 -321.057856082916 2601.0000705719 11 16 12
755.408346652985 -323.87587428093 2624.00007247925 8 13 9
469.022750854492 -330.387562513351 2611.99998855591 16 18 15
473.381549119949 -328.468859195709 2596.99988365173 27 29 24
472.847819328308 -323.261976242065 2555.99999427795 32 35 28
485.042363405228 -326.781660318375 2584.00011062622 21 24 15
488.05695772171 -324.104398488998 2562.99996376038 21 24 15
498.29575419426 -326.232373714447 2579.99992370605 21 24 15
498.833119869232 -322.038024663925 2546.99993133545 22 25 16
499.984443187714 -318.349808454514 2517.99988746643 22 25 16
510.034918785095 -320.350974798203 2533.99991989136 16 19 10
510.99169254303 -316.663235425949 2505.00011444092 15 18 9
518.404304981232 -317.020803689957 2507.99989700317 13 16 7
525.6227850914 -317.251831293106 2509.99999046326 14 17 8
531.366288661957 -316.598057746887 2505.00011444092 16 19 10
534.718453884125 -314.554184675217 2489.00008201599 15 18 9
536.895036697388 -311.878651380539 2467.99993515015 15 18 9
540.718972682953 -310.214340686798 2454.99992370605 16 19 10
554.281651973724 -314.109712839127 2486.00006103516 19 22 13
562.820911407471 -315.098524093628 2493.99995803833 21 24 15
569.575488567352 -315.076619386673 2493.99995803833 22 25 16
578.408896923065 -316.191583871841 2503.00002098084 23 26 17
584.718286991119 -315.916866064072 2500.99992752075 21 24 15
591.48895740509 -315.894842147827 2500.99992752075 16 19 10
602.086007595062 -317.893594503403 2516.99995994568 15 18 9
616.397559642792 -321.786493062973 2548.00009727478 15 18 9
617.177128791809 -318.607062101364 2523.00000190735 17 20 13
636.370003223419 -324.898511171341 2572.99995422363 16 19 12
657.332718372345 -331.946730613709 2628.99994850159 12 15 8
666.971683502197 -333.186358213425 2638.99993896484 10 13 6
674.875855445862 -333.542108535767 2641.99995994568 11 13 8
676.599860191345 -330.86821436882 2621.00005149841 10 12 7
694.121241569519 -335.894703865051 2661.00001335144 12 14 9
701.05254650116 -335.745543241501 2660.00008583069 14 15 10
706.912636756897 -335.091680288315 2654.99997138977 11 14 7
710.593342781067 -333.428412675858 2641.99995994568 10 13 6
721.537888050079 -335.172712802887 2655.99989891052 11 14 7
719.936430454254 -331.11235499382 2624.00007247925 11 14 5
725.365400314331 -330.333322286606 2618.00003051758 10 13 6
736.916184425354 -332.330256700516 2634.0000629425 10 13 6
753.072321414948 -336.345583200455 2665.99988937378 10 15 9
750.864684581757 -332.160741090775 2632.99989700317 12 17 13
463.881760835648 -328.817635774612 2545.00007629395 20 23 16
466.53687953949 -325.824767351151 2522.0000743866 28 31 24
465.124219655991 -320.119291543961 2477.9999256134 23 26 17
484.417319297791 -328.62377166748 2543.99991035461 22 25 16
488.037884235382 -326.40615105629 2526.99995040894 22 25 16
486.864894628525 -321.088850498199 2486.00006103516 22 25 16
500.161409378052 -325.329273939133 2519.00005340576 22 25 16
508.000373840332 -325.953036546707 2523.9999294281 19 22 13
513.213694095612 -324.897944927216 2516.00003242493 17 20 11
515.695452690125 -322.164207696915 2494.99988555908 12 15 6
525.391459465027 -323.949873447418 2509.0000629425 13 16 7
532.404899597168 -324.056833982468 2509.99999046326 15 18 9
534.696519374847 -321.323543787003 2489.00008201599 16 19 10
536.8732213974 -318.590581417084 2467.99993515015 15 18 9
545.542538166046 -319.730341434479 2476.99999809265 14 17 8
555.151462554932 -321.386158466339 2490.00000953674 13 16 7
565.055370330811 -323.170810937881 2503.99994850159 13 16 7
571.380317211151 -322.890341281891 2502.00009346008 14 17 8
579.54204082489 -323.64222407341 2507.99989700317 14 17 8
585.163652896881 -322.974622249603 2503.00002098084 14 17 8
591.939747333527 -322.952210903168 2503.00002098084 14 17 8
599.671721458435 -323.445945978165 2506.99996948242 14 17 8
617.826402187347 -329.486936330795 2553.99990081787 15 18 9
617.399394512177 -325.594216585159 2523.9999294281 15 18 11
635.852694511414 -331.634312868118 2571.00009918213 15 18 11
658.059656620026 -339.479297399521 2631.99996948242 10 13 6
674.024999141693 -343.970060348511 2667.00005531311 6 9 2
674.086451530457 -340.335488319397 2638.99993896484 7 9 4
678.900241851807 -339.151710271835 2630.00011444092 9 11 6
688.620507717133 -340.418100357056 2640.00010490417 11 13 8
705.246329307556 -345.036745071411 2676.00011825562 13 14 9
709.552228450775 -343.595266342163 2664.99996185303 14 17 10
711.377501487732 -340.993851423264 2644.99998092651 15 18 11
709.834098815918 -336.845934391022 2612.99991607666 17 20 13
715.524613857269 -336.179077625275 2608.00004005432 17 20 11
726.728677749634 -338.09033036232 2622.99990653992 18 21 14
736.054956912994 -339.099258184433 2631.00004196167 15 18 11
742.316722869873 -338.690638542175 2628.00002098084 15 20 14
743.713855743408 -336.09139919281 2608.00004005432 13 18 14
761.12312078476 -340.708941221237 2644.00005340576 12 17 13
457.667768001556 -336.29184961319 2549.00002479553 15 17 14
458.210110664368 -331.652879714966 2513.99993896484 17 20 13
462.630867958069 -329.916566610336 2500.99992752075 19 22 15
476.176828145981 -334.643632173538 2536.99994087219 23 26 17
476.207911968231 -329.873412847519 2500.99992752075 23 26 17
485.891699790955 -331.829965114594 2516.00003242493 22 25 16
489.389061927795 -329.56600189209 2499.00007247925 22 25 16
496.565461158752 -329.807758331299 2500.99992752075 21 24 15
505.361795425415 -331.104278564453 2510.99991798401 22 25 16
510.1318359375 -329.763472080231 2500.99992752075 19 22 13
515.880048274994 -329.081982374191 2496.00005149841 13 16 7
524.950385093689 -330.509901046753 2506.99996948242 12 15 6
532.806694507599 -331.146508455276 2512.00008392334 14 17 8
534.889101982117 -328.224003314972 2490.00000953674 14 17 8
539.896547794342 -327.14706659317 2482.00011253357 15 18 9
549.044132232666 -328.574448823929 2493.00003051758 15 18 9
556.466698646545 -328.947275876999 2496.00005149841 15 18 9
561.64813041687 -328.002214431763 2489.00008201599 13 16 7
567.704021930695 -327.584326267242 2486.00006103516 12 15 6
575.360238552094 -328.088819980621 2490.00000953674 11 14 5
582.335829734802 -328.197956085205 2490.9999370575 11 14 5
591.444194316864 -329.492807388306 2500.99992752075 11 14 5
599.170804023743 -329.99712228775 2505.00011444092 12 15 6
618.045389652252 -336.560755968094 2555.0000667572 12 15 6
636.700391769409 -342.860102653503 2602.9999256134 12 15 8
642.754197120667 -342.30974316597 2598.99997711182 13 16 9
668.536722660065 -352.163791656494 2674.00002479553 9 12 5
670.210361480713 -349.242568016052 2651.99995040894 5 8 1
677.383482456207 -349.218815565109 2651.99995040894 6 8 3
680.167555809021 -346.956759691238 2634.99999046326 7 9 4
695.378839969635 -351.014882326126 2665.99988937378 10 12 7
696.526050567627 -347.963184118271 2642.99988746643 13 14 9
704.47039604187 -348.334848880768 2645.99990844727 14 17 10
703.286290168762 -344.230979681015 2615.00000953674 15 18 11
712.527990341187 -345.261186361313 2622.99990653992 17 20 13
717.696964740753 -344.317108392715 2615.9999370575 18 21 12
725.321114063263 -344.557821750641 2618.00003051758 17 20 13
736.871957778931 -346.641093492508 2634.0000629425 13 16 9
740.599870681763 -345.039635896683 2621.99997901917 15 20 14
747.399210929871 -344.885975122452 2621.00005149841 11 16 12
763.979911804199 -349.206209182739 2654.00004386902 13 18 14
464.648097753525 -348.478376865387 2588.00005912781 4 6 3
471.310913562775 -348.186850547791 2585.99996566772 11 14 7
476.112008094788 -346.548795700073 2573.99988174438 16 19 12
474.277943372726 -340.198904275894 2526.99995040894 18 21 12
482.849985361099 -341.388314962387 2536.00001335144 20 23 14
489.731818437576 -341.365933418274 2536.00001335144 21 24 15
488.975316286087 -336.09402179718 2496.99997901917 21 24 15
495.749145746231 -336.071789264679 2496.99997901917 19 22 13
500.710666179657 -334.838181734085 2487.99991607666 20 23 14
505.622327327728 -333.604633808136 2479.00009155273 16 19 10
513.170838356018 -334.120482206345 2483.00004005432 15 18 9
521.577656269073 -335.174411535263 2490.9999370575 14 17 8
531.935572624207 -337.439000606537 2507.99989700317 12 15 6
538.088619709015 -337.012588977814 2505.00011444092 10 13 4
543.571710586548 -336.182504892349 2499.00007247925 12 15 6
551.443874835968 -336.832165718079 2503.99994850159 14 17 8
559.565126895905 -337.616324424744 2509.99999046326 15 18 9
559.594571590424 -333.558261394501 2480.00001907349 17 20 11
564.484417438507 -332.459509372711 2471.99988365173 18 21 12
573.48906993866 -333.781629800797 2482.00011253357 18 21 12
581.144213676453 -334.296643733978 2486.00006103516 16 19 10
590.712010860443 -335.887372493744 2497.99990653992 11 14 5
599.387168884277 -336.940079927444 2506.00004196167 9 12 3
612.700581550598 -340.547055006027 2532.99999237061 10 13 4
634.719967842102 -348.858833312988 2595.00002861023 12 15 8
652.622640132904 -354.749798774719 2638.99993896484 13 16 9
653.762221336365 -351.499706506729 2615.00000953674 9 12 5
667.406678199768 -354.970544576645 2641.00003242493 8 11 4
677.61504650116 -356.559336185455 2653.00011634827 8 10 5
681.692659854889 -354.922652244568 2641.00003242493 7 9 4
689.095318317413 -355.033248662949 2641.99995994568 9 11 6
693.076848983765 -353.397160768509 2630.00011444092 12 13 8
695.395231246948 -350.955098867416 2611.99998855591 11 14 7
705.414652824402 -352.409780025482 2622.99990653992 12 15 8
706.529080867767 -349.431097507477 2601.0000705719 14 17 10
719.320356845856 -352.229326963425 2621.99997901917 15 18 9
731.393456459045 -354.624390602112 2640.00010490417 16 19 12
739.367008209229 -355.004459619522 2642.99988746643 13 16 9
746.791481971741 -355.116128921509 2644.00005340576 19 24 18
750.798881053925 -353.616267442703 2632.99989700317 18 23 19
759.064316749573 -354.131251573563 2637.00008392334 14 19 15
471.652925014496 -355.496227741241 2588.00005912781 9 12 5
477.384209632874 -354.511946439743 2581.00008964539 16 19 12
483.639448881149 -353.939741849899 2576.99990272522 12 15 6
480.352491140366 -346.500635147095 2523.00000190735 17 20 11
488.743662834167 -347.576647996902 2530.99989891052 21 24 15
496.589750051498 -348.240464925766 2536.00001335144 20 23 14
494.932532310486 -342.313200235367 2493.00003051758 18 21 12
501.493155956268 -342.153280973434 2492.00010299683 19 22 13
506.007730960846 -340.620338916779 2480.99994659424 17 20 11
514.181554317474 -341.558575630188 2487.99991607666 17 20 11
523.648619651794 -343.320280313492 2500.99992752075 16 19 10
533.185124397278 -345.081657171249 2513.99993896484 13 16 7
539.998710155487 -345.058411359787 2513.99993896484 11 14 5
545.288741588593 -344.07439827919 2506.99996948242 12 15 6
546.796262264252 -340.757459402084 2483.00004005432 11 14 5
553.300023078918 -340.597152709961 2482.00011253357 13 16 7
569.048285484314 -346.062779426575 2522.0000743866 15 18 9
568.343341350555 -341.511428356171 2489.00008201599 17 20 11
575.545489788055 -341.762602329254 2490.9999370575 17 20 11
583.458840847015 -342.425376176834 2496.00005149841 18 21 12
588.56076002121 -341.441839933395 2489.00008201599 17 20 11
591.949701309204 -339.498281478882 2474.99990463257 15 18 9
608.565270900726 -345.098912715912 2516.00003242493 12 15 6
633.228540420532 -355.087697505951 2588.99998664856 8 11 4
652.598321437836 -361.920833587646 2638.99993896484 14 17 10
656.238257884979 -359.976589679718 2625 10 13 6
657.527089118958 -356.798499822617 2601.99999809265 10 13 6
671.461164951324 -360.476732254028 2628.99994850159 10 12 7
681.926727294922 -362.23503947258 2641.99995994568 9 11 6
690.636277198792 -363.033533096313 2648.00000190735 10 12 7
691.20842218399 -359.582275152206 2622.99990653992 14 15 10
693.508267402649 -357.091188430786 2605.00001907349 11 14 7
700.281858444214 -356.930732727051 2604.00009155273 10 13 6
711.39532327652 -358.963370323181 2618.99995803833 11 14 7
721.217513084412 -360.310643911362 2628.99994850159 12 15 6
732.755541801453 -362.480163574219 2644.99998092651 14 17 10
742.421269416809 -363.690346479416 2654.00004386902 9 12 5
745.074152946472 -361.474871635437 2638.00001144409 14 19 13
748.210191726685 -359.533905982971 2624.00007247925 19 24 20
760.193407535553 -361.840635538101 2641.00003242493 11 16 12
464.243978261948 -362.278074026108 2585.99996566772 6 8 5
474.363625049591 -364.63662981987 2602.9999256134 15 18 11
475.326836109161 -359.990924596787 2569.9999332428 14 17 10
480.050832033157 -358.287155628204 2558.00008773804 14 17 8
488.896906375885 -359.664618968964 2568.00007820129 15 18 9
501.46496295929 -363.702654838562 2596.99988365173 16 19 10
500.091254711151 -357.657372951508 2553.99990081787 20 23 14
504.04167175293 -355.533510446548 2539.00003433228 21 24 15
502.275168895721 -349.4893014431 2496.00005149841 22 25 16
509.044051170349 -349.466264247894 2496.00005149841 22 25 16
516.43180847168 -349.863052368164 2499.00007247925 18 21 12
522.787988185883 -349.559843540192 2496.99997901917 17 20 11
532.737612724304 -351.63626074791 2512.00008392334 15 18 9
541.264057159424 -352.732509374619 2519.99998092651 15 18 9
542.655348777771 -349.209755659103 2494.99988555908 13 16 7
546.112418174744 -347.086995840073 2480.00001907349 12 15 6
551.716327667236 -346.36390209198 2474.99990463257 11 14 5
562.707126140594 -348.999381065369 2493.99995803833 12 15 6
574.256718158722 -351.914316415787 2515.00010490417 13 16 7
579.449772834778 -350.911140441895 2507.99989700317 14 17 8
585.539162158966 -350.467771291733 2505.00011444092 14 17 8
590.19261598587 -349.185079336166 2496.00005149841 15 18 9
596.231400966644 -348.741888999939 2493.00003051758 15 18 9
611.92786693573 -353.893935680389 2529.99997138977 14 17 8
628.312826156616 -359.325081110001 2569.00000572205 15 18 11
640.456974506378 -362.238019704819 2589.99991416931 12 15 8
658.963620662689 -368.646949529648 2635.99991798401 11 14 7
662.556886672974 -366.664558649063 2621.99997901917 9 12 5
662.753403186798 -362.864762544632 2595.00002861023 9 11 6
678.805291652679 -367.734521627426 2630.00011444092 10 12 7
690.351247787476 -370.087087154388 2647.0000743866 11 13 8
693.556189537048 -367.965698242188 2631.99996948242 13 14 9
697.744131088257 -366.403877735138 2621.00005149841 14 17 10
709.67036485672 -368.896216154099 2638.99993896484 15 18 11
714.359700679779 -367.614358663559 2630.00011444092 14 17 10
724.485993385315 -369.128197431564 2641.00003242493 13 16 7
733.563244342804 -370.082974433899 2648.00000190735 11 14 7
741.558790206909 -370.478808879852 2651.00002288818 7 10 3
749.005198478699 -370.595276355743 2651.99995040894 7 12 6
757.882177829742 -371.410608291626 2657.99999237061 8 13 9
761.609971523285 -369.710952043533 2645.99990844727 7 12 8
472.65812754631 -376.023322343826 2632.99989700317 6 8 5
473.064780235291 -370.716035366058 2595.99995613098 14 17 10
478.632688522339 -369.550257921219 2588.00005912781 14 17 10
472.145974636078 -359.246224164963 2516.00003242493 15 18 9
484.875708818436 -363.649278879166 2546.99993133545 15 18 9
494.490206241608 -365.624666213989 2561.00010871887 15 18 9
502.613186836243 -366.457521915436 2566.99991226196 17 20 11
500.246524810791 -359.724551439285 2519.99998092651 21 24 15
507.282555103302 -359.843760728836 2520.99990844727 22 25 16
509.836554527283 -356.82287812233 2500 22 25 16
512.482166290283 -353.945016860962 2480.00001907349 21 24 15
517.739951610565 -352.922648191452 2473.00004959106 20 23 14
530.169129371643 -356.752157211304 2500 17 20 11
542.958498001099 -360.723823308945 2528.00011634827 16 19 10
548.069000244141 -359.558343887329 2519.99998092651 16 19 10
547.850489616394 -354.968845844269 2487.99991607666 14 17 8
555.705189704895 -355.65847158432 2493.00003051758 11 14 5
564.939677715302 -357.203871011734 2503.99994850159 11 14 5
576.516032218933 -360.175490379334 2525.00009536743 11 14 5
579.194962978363 -357.583940029144 2506.99996948242 14 17 8
584.580421447754 -356.704264879227 2500.99992752075 14 17 8
591.587603092194 -356.822967529297 2502.00009346008 17 20 11
601.229965686798 -358.510404825211 2513.99993896484 18 21 12
609.727203845978 -359.484642744064 2520.99990844727 18 21 12
621.440708637238 -362.312346696854 2540.99988937378 19 22 15
655.268967151642 -377.829194068909 2650.00009536743 13 16 9
661.438643932343 -377.23383307457 2645.99990844727 12 15 8
663.795709609985 -374.500244855881 2627.00009346008 9 12 5
667.836964130402 -372.765004634857 2615.00000953674 8 10 5
671.554267406464 -370.887458324432 2601.99999809265 10 12 7
683.806836605072 -373.713761568069 2621.99997901917 11 13 8
694.849371910095 -375.827252864838 2637.00008392334 10 11 6
701.713085174561 -375.660359859467 2635.99991798401 12 15 8
708.570778369904 -375.493615865707 2634.99999046326 14 17 10
717.051982879639 -376.182079315186 2640.00010490417 15 18 11
725.010812282562 -376.585483551025 2642.99988746643 15 18 9
729.661464691162 -375.279486179352 2634.0000629425 15 18 11
739.017903804779 -376.395612955093 2641.99995994568 14 17 10
749.829173088074 -378.22413444519 2654.99997138977 10 15 9
759.854853153229 -379.625290632248 2664.99996185303 13 18 14
763.601958751678 -377.892792224884 2653.00011634827 14 19 15
468.146920204163 -379.545003175735 2608.00004005432 4 6 3
477.961152791977 -381.704121828079 2622.99990653992 17 19 14
478.978991508484 -376.87823176384 2589.99991416931 17 20 13
482.818901538849 -374.380886554718 2572.99995422363 17 20 11
484.619557857513 -365.167558193207 2509.99999046326 17 20 11
494.561910629272 -367.471724748611 2526.00002288818 16 19 10
500.818431377411 -367.011576890945 2523.00000190735 15 18 9
504.84436750412 -364.951401948929 2509.0000629425 13 16 7
507.773697376251 -362.16413974762 2490.00000953674 16 19 10
510.392248630524 -359.231650829315 2470.00002861023 18 21 12
517.297744750977 -359.353512525558 2470.99995613098 20 23 14
528.024792671204 -362.092882394791 2490.00000953674 21 24 15
540.786683559418 -366.140425205231 2517.99988746643 21 24 15
549.784779548645 -367.57019162178 2528.00011634827 19 22 13
553.551554679871 -365.510374307632 2513.99993896484 18 21 12
556.57285451889 -363.014727830887 2496.99997901917 13 16 7
565.366864204407 -364.298969507217 2506.00004196167 12 15 6
571.468830108643 -363.838642835617 2503.00002098084 12 15 6
587.487697601318 -369.628518819809 2542.99998283386 13 16 7
582.219064235687 -362.046152353287 2490.9999370575 13 16 7
592.745721340179 -364.347457885742 2506.99996948242 17 20 11
601.923286914825 -365.776479244232 2516.99995994568 18 21 12
608.251988887787 -365.461647510529 2515.00010490417 18 21 12
626.796722412109 -372.411996126175 2562.99996376038 18 21 14
649.309396743774 -381.540894508362 2625.99992752075 13 16 9
658.913850784302 -382.968604564667 2635.99991798401 12 15 8
664.27618265152 -381.926536560059 2628.99994850159 9 12 5
668.323040008545 -380.158394575119 2617.00010299683 8 10 5
672.304034233093 -378.390520811081 2605.00001907349 10 12 7
679.609775543213 -378.511220216751 2605.99994659424 10 12 7
691.662967205048 -381.246209144592 2625 12 13 8
698.494374752045 -381.076484918594 2624.00007247925 12 15 8
708.54651927948 -382.649540901184 2634.99999046326 13 16 9
715.941429138184 -382.770448923111 2635.99991798401 13 16 9
724.712610244751 -383.617490530014 2641.99995994568 13 16 7
731.853723526001 -383.59346985817 2641.99995994568 12 15 8
738.154947757721 -383.134037256241 2638.99993896484 12 15 8
747.263848781586 -384.126633405685 2645.99990844727 11 16 10
760.116517543793 -387.006372213364 2665.99988937378 15 20 16
760.988533496857 -383.789598941803 2644.00005340576 12 17 13
475.204020738602 -386.612087488174 2608.00004005432 18 21 14
480.249553918839 -384.957402944565 2596.99988365173 20 23 16
481.293916702271 -380.190134048462 2565.00005722046 18 21 12
484.257400035858 -377.053618431091 2543.99991035461 19 22 13
489.036560058594 -375.399470329285 2532.99999237061 18 21 12
494.34232711792 -374.189972877502 2525.00009536743 16 19 10
498.015642166138 -371.795028448105 2509.0000629425 13 16 7
504.216849803925 -371.32653594017 2506.00004196167 14 17 8
508.361637592316 -369.376361370087 2493.00003051758 15 18 9
509.128868579865 -365.055859088898 2463.99998664856 16 19 10
516.017973423004 -365.180194377899 2464.99991416931 17 20 11
530.54541349411 -370.6374168396 2502.00009346008 17 20 11
539.688587188721 -372.242569923401 2513.00001144409 17 20 11
546.71573638916 -372.366189956665 2513.99993896484 19 22 13
552.866637706757 -371.897399425507 2510.99991798401 18 21 12
556.771457195282 -369.947612285614 2497.99990653992 17 20 11
559.477031230927 -367.257714271545 2480.00001907349 16 19 10
567.335069179535 -367.973834276199 2484.99989509583 16 19 10
574.98836517334 -368.541896343231 2489.00008201599 15 18 9
588.739097118378 -372.959345579147 2519.00005340576 15 18 9
591.53938293457 -370.417922735214 2502.00009346008 15 18 9
598.07276725769 -370.245456695557 2500.99992752075 15 18 9
606.534779071808 -371.257305145264 2507.99989700317 17 20 13
623.592913150787 -377.449780702591 2549.99995231628 17 20 13
645.327985286713 -386.305630207062 2609.99989509583 14 17 10
658.888518810272 -390.128433704376 2635.99991798401 13 16 9
666.272342205048 -390.250980854034 2637.00008392334 9 12 5
667.787253856659 -386.970043182373 2615.00000953674 8 10 5
676.408469676971 -387.832909822464 2621.00005149841 9 11 6
683.496654033661 -387.807905673981 2621.00005149841 9 11 6
690.584421157837 -387.783110141754 2621.00005149841 12 13 8
702.196359634399 -390.273422002792 2638.00001144409 12 15 8
705.833077430725 -388.325542211533 2625 14 17 10
711.028397083282 -387.265592813492 2618.00003051758 17 20 13
726.882755756378 -391.974657773972 2650.00009536743 18 21 12
737.923562526703 -394.0210044384 2664.00003433228 18 21 12
738.970339298248 -390.743017196655 2641.99995994568 16 19 12
747.5226521492 -391.458600759506 2647.0000743866 16 21 15
757.241725921631 -392.765760421753 2655.99989891052 17 22 18
458.227396011353 -385.422825813293 2552.99997329712 14 16 13
460.968136787415 -381.927043199539 2529.99997138977 18 21 14
478.191286325455 -390.356630086899 2585.99996566772 18 21 14
477.51721739769 -384.143680334091 2545.00007629395 20 23 14
481.18793964386 -381.553769111633 2528.00011634827 18 21 12
488.433301448822 -381.831526756287 2529.99997138977 16 19 10
491.773247718811 -379.090934991837 2512.00008392334 16 19 10
497.793078422546 -378.46314907074 2507.99989700317 17 20 11
502.985596656799 -377.231806516647 2500 14 17 8
508.541464805603 -376.30233168602 2493.99995803833 14 17 8
512.410819530487 -374.165803194046 2480.00001907349 14 17 8
519.552648067474 -374.443382024765 2482.00011253357 14 17 8
526.280224323273 -374.419063329697 2482.00011253357 14 17 8
535.7985496521 -376.355677843094 2494.99988555908 15 18 9
541.254699230194 -375.426203012466 2489.00008201599 16 19 10
546.457171440125 -374.345868825912 2482.00011253357 16 19 10
550.06068944931 -372.209995985031 2467.99993515015 15 18 9
552.459478378296 -369.320392608643 2448.99988174438 15 18 9
559.092104434967 -369.296193122864 2448.99988174438 14 17 8
571.729898452759 -373.192459344864 2474.99990463257 16 19 10
592.219948768616 -382.063776254654 2533.99991989136 15 18 9
595.770239830017 -379.928052425385 2519.99998092651 14 17 8
599.483072757721 -377.943426370621 2506.99996948242 15 18 9
608.203113079071 -379.124760627747 2515.00010490417 16 19 10
625.524342060089 -385.58167219162 2558.00008773804 20 23 16
647.775053977966 -394.901603460312 2619.99988555908 14 17 10
659.112930297852 -397.438198328018 2637.00008392334 13 16 9
664.730906486511 -396.508306264877 2631.00004196167 9 12 5
675.678193569183 -398.743212223053 2645.99990844727 8 10 5
681.544601917267 -397.964239120483 2641.00003242493 9 11 6
687.122404575348 -397.034734487534 2634.99999046326 9 11 6
695.565402507782 -397.762894630432 2640.00010490417 11 12 7
700.308263301849 -396.381855010986 2631.00004196167 12 15 8
705.001711845398 -395.001113414764 2621.99997901917 13 16 9
711.547076702118 -394.67516541481 2619.99988555908 16 19 12
727.132439613342 -399.320274591446 2651.00002288818 18 21 12
739.838063716888 -402.308166027069 2671.0000038147 18 21 12
747.336983680725 -402.434200048447 2671.99993133545 16 19 12
743.545174598694 -396.536380052567 2632.99989700317 13 18 12
758.928537368774 -400.879770517349 2661.99994087219 14 19 15
458.203613758087 -392.362415790558 2552.99997329712 13 15 12
464.406043291092 -391.72375202179 2549.00002479553 19 22 15
470.215946435928 -390.77764749527 2542.99998283386 19 22 15
487.999826669693 -399.665623903275 2601.0000705719 21 24 15
483.257412910461 -390.114486217499 2539.00003433228 17 20 11
483.003795146942 -384.405463933945 2502.00009346008 16 19 12
489.791423082352 -384.381234645844 2502.00009346008 15 18 11
494.394809007645 -382.66709446907 2490.9999370575 13 16 9
502.156555652618 -383.4108710289 2496.00005149841 15 18 11
509.944379329681 -384.154379367828 2500.99992752075 15 18 11
513.832807540894 -381.979584693909 2486.99998855591 15 18 11
520.365536212921 -381.801426410675 2486.00006103516 15 18 11
527.31591463089 -381.930440664291 2486.99998855591 15 18 11
533.197104930878 -381.291598081589 2483.00004005432 15 18 11
535.358905792236 -378.042280673981 2461.99989318848 14 17 10
542.02938079834 -378.0178129673 2461.99989318848 15 18 11
546.247482299805 -376.304477453232 2450.99997520447 14 17 10
549.953877925873 -374.28429722786 2437.99996376038 13 16 9
555.415272712708 -373.492419719696 2433.00008773804 10 13 6
566.854476928711 -376.691669225693 2453.9999961853 10 13 6
587.988317012787 -386.183708906174 2516.00003242493 11 14 7
598.81865978241 -388.767838478088 2532.99999237061 9 12 5
610.218405723572 -391.65860414505 2552.00004577637 8 11 4
616.400122642517 -391.172885894775 2549.00002479553 10 13 6
630.878627300262 -395.90460062027 2579.99992370605 18 21 14
652.199566364288 -404.778718948364 2638.00001144409 8 10 5
661.336541175842 -405.980169773102 2645.99990844727 8 10 5
665.463149547577 -404.113084077835 2634.0000629425 8 10 5
675.907909870148 -406.081706285477 2647.0000743866 9 11 6
683.583319187164 -406.362652778625 2648.9999294281 10 12 7
691.269278526306 -406.643778085709 2651.00002288818 10 12 7
693.43239068985 -403.70386838913 2631.99996948242 8 10 5
699.218511581421 -402.911782264709 2627.00009346008 11 14 7
703.363716602325 -401.199728250504 2615.9999370575 13 16 9
714.238286018372 -403.321862220764 2630.00011444092 13 16 9
724.639177322388 -405.137270689011 2641.99995994568 14 17 8
737.320363521576 -408.179253339767 2661.99994087219 14 17 10
746.47331237793 -409.227877855301 2668.99991035461 12 15 8
751.71023607254 -408.130139112473 2661.99994087219 6 11 5
755.198419094086 -406.112939119339 2648.9999294281 11 16 12
465.17887711525 -405.400902032852 2592.00000762939 7 9 6
463.106662034988 -397.556513547897 2542.00005531311 17 20 13
478.881776332855 -405.038744211197 2589.99991416931 19 22 15
482.721745967865 -402.355462312698 2572.99995422363 18 21 12
479.426443576813 -393.886804580688 2519.00005340576 16 19 10
480.276942253113 -389.015227556229 2487.99991607666 16 19 12
480.76257109642 -383.987903594971 2456.00008964539 16 19 12
490.401118993759 -386.308789253235 2470.99995613098 14 17 10
502.132058143616 -390.192627906799 2496.00005149841 15 18 11
509.308040142059 -390.480518341064 2497.99990653992 15 18 11
513.808190822601 -388.736397027969 2486.99998855591 15 18 11
519.922256469727 -388.24275135994 2483.99996757507 15 18 11
527.079164981842 -388.530492782593 2486.00006103516 15 18 11
532.957553863525 -387.880504131317 2482.00011253357 15 18 11
535.551786422729 -384.886562824249 2463.00005912781 14 17 10
544.866740703583 -386.736869812012 2474.99990463257 14 17 10
551.794409751892 -386.868298053741 2476.0000705719 14 17 10
555.56857585907 -384.812235832214 2463.00005912781 14 17 10
563.380420207977 -385.568588972092 2467.99993515015 12 15 8
573.990345001221 -388.199478387833 2484.99989509583 11 14 7
584.925174713135 -390.986233949661 2503.00002098084 11 14 7
602.102816104889 -397.833704948425 2546.99993133545 10 13 6
609.714686870575 -398.276716470718 2549.99995231628 9 12 5
620.727241039276 -400.90611577034 2566.99991226196 10 13 6
627.918839454651 -401.03667974472 2568.00007820129 17 20 13
650.442779064178 -410.848915576935 2631.00004196167 8 10 5
661.060452461243 -413.008809089661 2644.99998092651 8 10 5
667.458295822144 -412.514209747314 2641.99995994568 8 10 5
671.030402183533 -410.302311182022 2628.00002098084 8 10 5
683.815598487854 -413.711100816727 2650.00009536743 9 11 6
684.463977813721 -409.782469272614 2625 9 11 6
690.509021282196 -409.132570028305 2621.00005149841 9 11 6
694.402456283569 -407.234072685242 2608.99996757507 12 15 8
707.640469074249 -410.798817873001 2631.99996948242 14 17 10
714.213311672211 -410.46154499054 2630.00011444092 17 20 13
721.597373485565 -410.592675209045 2631.00004196167 15 20 13
728.709578514099 -410.567909479141 2631.00004196167 10 15 8
741.973876953125 -413.976222276688 2653.00011634827 12 17 10
755.356788635254 -417.384386062622 2674.99995231628 12 17 13
759.450554847717 -415.643632411957 2664.00003433228 10 16 14
481.663882732391 -420.693606138229 2644.00005340576 14 16 11
481.075495481491 -413.985759019852 2601.99999809265 21 24 17
477.819204330444 -405.210375785828 2546.99993133545 18 21 12
483.969479799271 -404.549181461334 2542.99998283386 16 19 10
484.692245721817 -399.433851242065 2510.99991798401 16 19 12
480.738371610641 -390.660613775253 2456.00008964539 16 19 12
491.765916347504 -394.135415554047 2477.9999256134 15 18 11
501.302599906921 -396.337360143662 2492.00010299683 15 18 11
508.875489234924 -396.948635578156 2496.00005149841 15 18 11
511.304259300232 -393.584042787552 2474.99990463257 15 18 11
519.478797912598 -394.672334194183 2482.00011253357 15 18 11
524.086058139801 -393.057256937027 2471.99988365173 15 18 11
531.214833259583 -393.350273370743 2473.99997711182 15 18 11
539.005815982819 -394.120156764984 2479.00009155273 15 18 11
547.483384609222 -395.366787910461 2486.99998855591 14 17 10
553.552150726318 -394.864678382874 2483.99996757507 14 17 10
561.85919046402 -395.952075719833 2490.9999370575 14 17 10
568.605601787567 -395.926862955093 2490.9999370575 14 17 10
577.198922634125 -397.173017263412 2499.00007247925 12 15 8
590.508103370667 -401.59747004509 2526.99995040894 12 15 8
599.004089832306 -402.684241533279 2533.99991989136 13 16 9
