ply
format ascii 1.0
comment KinectMotionCapture
element vertex 799
property float x
property float y
property float z
property uchar red
property uchar green
property uchar blue
end_header
533.281683921814 -242.375984787941 2513.00001144409 14 17 8
537.729382514954 -241.29743874073 2502.00009346008 13 16 7
538.851797580719 -238.772466778755 2476.0000705719 12 15 6
548.866152763367 -240.201324224472 2490.9999370575 12 15 6
556.507170200348 -240.569338202477 2494.99988555908 12 15 6
562.362730503082 -240.165933966637 2490.9999370575 14 17 8
568.195641040802 -239.762589335442 2486.99998855591 16 19 10
573.312222957611 -239.070057868958 2480.00001907349 16 19 10
585.172474384308 -241.1729991436 2502.00009346008 15 18 9
592.182338237762 -241.25149846077 2503.00002098084 14 17 8
603.26474905014 -242.968440055847 2520.99990844727 10 13 4
614.44365978241 -244.685128331184 2539.00003433228 11 14 5
629.389464855194 -247.847020626068 2572.00002670288 12 15 8
636.100947856903 -247.732356190681 2571.00009918213 10 13 6
651.810169219971 -251.086264848709 2605.99994659424 9 12 5
662.90420293808 -252.609223127365 2621.99997901917 9 12 5
662.585079669952 -249.796941876411 2592.99993515015 10 12 7
676.827430725098 -252.475798130035 2621.00005149841 10 12 7
688.610911369324 -254.191100597382 2638.99993896484 9 11 6
693.636238574982 -253.402084112167 2631.00004196167 8 13 7
702.879011631012 -254.154086112976 2638.99993896484 11 14 7
715.123653411865 -255.965441465378 2657.99999237061 10 13 6
711.437046527863 -252.095252275467 2618.00003051758 12 13 7
712.199151515961 -249.862641096115 2595.00002861023 15 16 8
716.439187526703 -248.882010579109 2585.00003814697 16 17 11
727.620840072632 -250.308454036713 2599.99990463257 19 20 14
740.295648574829 -252.216160297394 2619.99988555908 16 18 13
751.366436481476 -253.546178340912 2634.0000629425 21 26 22
458.23061466217 -257.090121507645 2589.99991416931 28 30 27
471.206963062286 -256.459683179855 2584.00011062622 16 18 13
478.409260511398 -256.541311740875 2585.00003814697 16 19 12
481.484323740005 -254.43959236145 2563.99989128113 15 18 9
483.491808176041 -251.841932535172 2538.00010681152 17 20 11
486.322969198227 -249.740615487099 2516.99995994568 16 19 10
491.390138864517 -248.830065131187 2507.99989700317 15 18 11
493.824988603592 -246.629878878593 2486.00006103516 17 20 13
496.139317750931 -244.429886341095 2463.99998664856 19 22 13
508.740603923798 -247.288972139359 2493.00003051758 17 20 11
518.189549446106 -248.560637235641 2506.00004196167 16 19 10
525.613009929657 -248.84021282196 2509.0000629425 17 20 11
531.990587711334 -248.623833060265 2506.99996948242 14 17 8
536.20707988739 -247.415751218796 2494.99988555908 12 15 6
542.09840297699 -247.001096606255 2490.9999370575 13 16 7
543.560326099396 -244.60344016552 2467.00000762939 12 15 6
556.489229202271 -247.361496090889 2494.99988555908 11 14 5
562.11906671524 -246.847704052925 2490.00000953674 13 16 7
566.121518611908 -245.639994740486 2477.9999256134 15 18 9
570.289134979248 -244.531571865082 2467.00000762939 16 19 10
581.88009262085 -246.594920754433 2487.99991607666 16 19 10
593.110620975494 -248.459801077843 2506.99996948242 15 18 9
601.810872554779 -249.234303832054 2515.00010490417 11 14 5
607.649385929108 -248.819515109062 2510.99991798401 10 13 4
619.338154792786 -250.782877206802 2530.99989891052 13 16 9
636.329770088196 -254.826635122299 2572.00002670288 11 14 7
656.543612480164 -260.058641433716 2625 10 13 6
661.115705966949 -259.048908948898 2615.00000953674 8 11 4
669.465601444244 -259.525209665298 2619.99988555908 9 11 6
675.775825977325 -259.209156036377 2617.00010299683 10 12 7
686.765611171722 -260.675877332687 2631.99996948242 9 11 6
694.672107696533 -260.954082012177 2634.99999046326 7 12 6
703.393161296844 -261.529415845871 2641.00003242493 11 14 7
707.03387260437 -260.22332906723 2628.00002098084 11 14 7
708.1578373909 -258.026391267776 2605.99994659424 13 14 8
712.45551109314 -257.017970085144 2595.99995613098 15 16 8
716.42130613327 -255.910784006119 2585.00003814697 19 20 14
727.88280248642 -257.476598024368 2601.0000705719 14 15 9
749.31937456131 -262.506783008575 2651.99995040894 12 14 9
763.899505138397 -265.061944723129 2677.99997329712 17 22 18
459.982246160507 -265.167236328125 2599.99990463257 20 22 19
467.224717140198 -265.251368284225 2601.0000705719 16 18 13
476.294994354248 -266.355037689209 2611.99998855591 15 17 12
478.761434555054 -263.787627220154 2586.99989318848 14 17 10
482.780933380127 -262.138098478317 2571.00009918213 12 15 6
483.092963695526 -258.551567792892 2536.00001335144 13 16 7
489.976167678833 -258.533507585526 2536.00001335144 14 17 8
495.290845632553 -257.699877023697 2528.00011634827 15 18 11
494.204491376877 -253.604412078857 2487.99991607666 17 20 13
498.13511967659 -252.159506082535 2473.99997711182 20 23 14
509.947001934052 -254.689425230026 2499.00007247925 20 23 14
512.795329093933 -252.734929323196 2480.00001907349 19 22 13
517.634451389313 -251.799643039703 2470.99995613098 19 22 13
528.577208518982 -253.81937623024 2490.9999370575 15 18 9
538.33794593811 -255.227446556091 2505.00011444092 14 17 8
544.473946094513 -254.903256893158 2502.00009346008 15 18 9
551.03325843811 -254.782825708389 2500.99992752075 11 14 5
551.564157009125 -251.912027597427 2473.00004959106 10 13 4
563.45522403717 -254.236370325089 2496.00005149841 11 14 5
568.844676017761 -253.606647253036 2490.00000953674 13 16 7
574.200630187988 -252.976983785629 2483.99996757507 16 19 10
583.264887332916 -253.976792097092 2493.99995803833 16 19 10
590.48980474472 -254.161834716797 2496.00005149841 14 17 8
597.963750362396 -254.448622465134 2499.00007247925 12 15 6
605.453014373779 -254.735440015793 2502.00009346008 11 14 5
613.936245441437 -255.42938709259 2509.0000629425 12 15 8
629.878401756287 -259.177207946777 2546.0000038147 13 16 9
654.523491859436 -266.385406255722 2617.00010299683 12 15 8
663.118958473206 -266.976654529572 2622.99990653992 9 12 5
670.212924480438 -266.957193613052 2622.99990653992 10 12 7
681.179285049438 -268.464356660843 2638.00001144409 11 13 8
693.269550800323 -270.37838101387 2657.00006484985 10 12 7
696.234822273254 -268.730819225311 2641.00003242493 9 14 8
699.379026889801 -267.185300588608 2625.99992752075 13 16 9
705.400705337524 -266.759216785431 2621.99997901917 13 16 9
711.943507194519 -266.536742448807 2619.99988555908 15 16 10
719.572365283966 -266.721308231354 2621.99997901917 16 17 9
725.27140378952 -266.193926334381 2617.00010299683 18 19 11
739.897668361664 -268.921464681625 2644.00005340576 14 15 9
755.799233913422 -272.055506706238 2674.99995231628 14 16 11
771.5824842453 -275.087624788284 2704.99992370605 14 16 11
776.585340499878 -274.255245923996 2697.00002670288 10 15 11
456.779897212982 -270.366132259369 2582.00001716614 15 17 14
470.439821481705 -274.222075939178 2618.99995803833 16 18 13
476.45890712738 -273.575335741043 2612.99991607666 15 17 12
480.408579111099 -271.776914596558 2595.99995613098 11 14 7
482.387006282806 -268.931835889816 2569.00000572205 12 15 6
488.217949867249 -268.285185098648 2562.99996376038 10 13 4
492.083102464676 -266.591846942902 2546.99993133545 11 14 5
498.798936605453 -266.468554735184 2546.0000038147 14 17 10
500.343799591064 -263.624161481857 2519.00005340576 14 17 10
505.163908004761 -262.559086084366 2509.0000629425 18 21 12
503.194868564606 -258.040934801102 2466.00008010864 19 22 13
510.295867919922 -258.231818675995 2467.99993515015 20 23 14
519.920349121094 -259.678095579147 2482.00011253357 19 22 13
539.823532104492 -262.778997421265 2512.00008392334 17 20 11
545.978486537933 -262.446224689484 2509.0000629425 16 19 10
553.438007831573 -262.74099946022 2512.00008392334 14 17 8
561.358749866486 -263.244837522507 2516.99995994568 13 16 7
565.242230892181 -261.866182088852 2503.99994850159 12 15 6
570.65349817276 -261.219680309296 2497.99990653992 12 15 6
576.262295246124 -260.677814483643 2493.00003051758 12 15 6
585.584700107574 -261.808902025223 2503.99994850159 14 17 8
591.890394687653 -261.580735445023 2502.00009346008 17 20 11
596.269965171814 -260.516196489334 2492.00010299683 15 18 9
603.49828004837 -260.706275701523 2493.99995803833 13 16 7
611.470520496368 -261.209905147552 2499.00007247925 11 14 7
623.674392700195 -263.490259647369 2520.99990844727 15 18 11
646.250605583191 -270.055294036865 2584.00011062622 13 16 9
658.29610824585 -272.125750780106 2604.00009155273 9 12 5
667.63824224472 -273.046463727951 2612.99991607666 9 11 6
679.868578910828 -275.116533041 2632.99989700317 10 12 7
692.727982997894 -277.395308017731 2654.99997138977 11 13 8
698.060631752014 -276.644080877304 2648.00000190735 11 16 10
701.490223407745 -275.161772966385 2634.0000629425 15 18 11
709.685921669006 -275.560051202774 2638.00001144409 15 18 11
716.000258922577 -275.227159261703 2634.99999046326 15 16 10
722.846508026123 -275.103360414505 2634.0000629425 15 16 8
733.566462993622 -276.441723108292 2647.0000743866 16 17 9
745.475351810455 -278.197735548019 2664.00003433228 13 14 8
756.91032409668 -279.744803905487 2678.99990081787 14 16 11
764.432430267334 -279.830008745193 2680.0000667572 13 18 14
775.414645671844 -281.168252229691 2693.00007820129 16 21 17
475.27077794075 -284.256935119629 2645.99990844727 19 20 15
477.169513702393 -281.12256526947 2617.00010299683 11 12 7
482.425391674042 -280.029356479645 2607.00011253357 9 10 4
486.311376094818 -278.184294700623 2589.99991416931 10 11 3
490.675389766693 -276.661604642868 2575.99997520447 11 12 4
497.860074043274 -276.749819517136 2576.99990272522 12 13 5
506.028592586517 -277.374863624573 2582.99994468689 12 13 7
501.119494438171 -270.912855863571 2523.00000190735 12 13 7
505.346477031708 -269.497990608215 2509.99999046326 15 18 9
509.501755237579 -268.083244562149 2496.99997901917 18 21 12
517.306923866272 -268.60100030899 2502.00009346008 21 24 15
525.766611099243 -269.440650939941 2509.99999046326 20 23 14
531.72242641449 -268.992036581039 2506.00004196167 19 22 13
543.242633342743 -271.334052085876 2528.00011634827 20 23 14
550.964117050171 -271.743834018707 2532.00006484985 17 20 11
545.046985149384 -265.499919652939 2473.99997711182 16 19 10
560.893416404724 -269.880384206772 2515.00010490417 15 18 9
568.383157253265 -270.182728767395 2517.99988746643 13 16 7
569.035172462463 -267.266273498535 2490.9999370575 12 15 6
573.007047176361 -265.959471464157 2479.00009155273 11 14 5
582.291424274445 -267.120212316513 2490.00000953674 13 16 7
589.032351970673 -267.100811004639 2490.00000953674 17 20 11
596.011519432068 -267.188668251038 2490.9999370575 16 19 10
604.205012321472 -267.812818288803 2496.99997901917 14 17 8
609.983146190643 -267.364412546158 2493.00003051758 11 14 7
623.655021190643 -270.347684621811 2520.99990844727 14 17 10
639.478385448456 -274.188458919525 2556.99992179871 12 15 8
665.31890630722 -279.18803691864 2604.00009155273 9 11 6
675.200819969177 -280.347228050232 2615.00000953674 10 12 7
685.924232006073 -281.827956438065 2628.99994850159 10 12 7
694.350123405457 -282.343864440918 2634.0000629425 9 14 8
700.405240058899 -281.895041465759 2630.00011444092 13 16 9
709.666192531586 -282.732516527176 2638.00001144409 13 16 9
716.795861721039 -282.712608575821 2638.00001144409 12 13 7
722.278118133545 -282.049834728241 2631.99996948242 13 14 6
733.54697227478 -283.637493848801 2647.0000743866 13 14 6
743.497133255005 -284.689337015152 2657.00006484985 13 14 8
758.708596229553 -284.971743822098 2660.00008583069 14 19 15
776.259183883667 -288.808941841125 2696.00009918213 13 18 14
479.203015565872 -293.887317180634 2667.99998283386 5 6 1
476.967930793762 -288.140028715134 2615.9999370575 22 23 18
481.29591345787 -286.468535661697 2601.0000705719 10 11 5
484.790027141571 -284.356564283371 2582.00001716614 11 12 4
487.989515066147 -282.134652137756 2562.00003623962 12 13 5
498.80662560463 -284.317523241043 2582.00001716614 12 13 5
503.462374210358 -282.976537942886 2569.9999332428 12 13 7
504.278123378754 -279.543727636337 2539.00003433228 12 13 7
511.970996856689 -279.964566230774 2542.99998283386 11 14 5
524.989426136017 -283.247411251068 2572.99995422363 12 15 6
529.072403907776 -281.686335802078 2559.00001525879 16 19 10
530.355334281921 -278.6945104599 2532.00006484985 18 21 12
531.702995300293 -275.81313252449 2506.00004196167 19 22 13
534.197866916656 -273.592382669449 2486.00006103516 19 22 13
537.671148777008 -271.92211151123 2470.99995613098 18 21 12
544.807314872742 -272.122710943222 2473.00004959106 18 21 12
556.190431118011 -274.413764476776 2493.99995803833 18 21 12
564.30047750473 -275.054126977921 2500 17 20 11
568.101942539215 -273.604154586792 2486.99998855591 16 19 10
571.831822395325 -272.154301404953 2473.99997711182 13 16 7
580.635011196136 -273.124665021896 2483.00004005432 13 16 7
589.485883712769 -274.094849824905 2492.00010299683 17 20 11
595.752716064453 -273.855090141296 2490.00000953674 19 22 13
604.427337646484 -274.715065956116 2497.99990653992 20 23 14
614.367663860321 -276.124835014343 2510.99991798401 19 22 15
622.893154621124 -276.874631643295 2517.99988746643 20 23 16
632.956206798553 -278.284102678299 2530.99989891052 14 17 10
673.675715923309 -292.996376752853 2664.99996185303 14 17 10
680.883526802063 -292.975395917892 2664.99996185303 6 8 3
682.410001754761 -290.536105632782 2642.99988746643 9 11 6
684.338450431824 -288.317024707794 2622.99990653992 9 11 6
691.166520118713 -288.186699151993 2621.99997901917 11 16 10
699.586153030396 -288.715869188309 2627.00009346008 13 16 9
706.686913967133 -288.69554400444 2627.00009346008 14 17 10
715.417206287384 -289.334654808044 2632.99989700317 15 16 10
720.337331295013 -288.435459136963 2625 15 16 8
726.322054862976 -287.976026535034 2621.00005149841 16 17 11
734.243214130402 -288.285791873932 2624.00007247925 16 17 11
738.789796829224 -287.277400493622 2615.00000953674 12 14 9
746.709704399109 -287.587463855743 2618.00003051758 11 16 12
472.897052764893 -297.20276594162 2632.99989700317 13 14 9
475.125163793564 -294.135481119156 2605.99994659424 10 11 6
477.575600147247 -291.29421710968 2581.00008964539 13 14 8
490.02742767334 -294.547200202942 2609.99989509583 12 13 5
489.874541759491 -290.239006280899 2572.00002670288 13 14 6
492.025524377823 -287.398159503937 2546.99993133545 13 14 6
500.112354755402 -288.05536031723 2552.99997329712 12 13 7
504.655599594116 -286.68150305748 2540.99988937378 12 13 7
512.152493000031 -287.00003027916 2543.99991035461 13 16 7
525.173306465149 -290.364146232605 2573.99988174438 11 14 5
532.566905021667 -290.569335222244 2575.99997520447 10 13 4
529.288113117218 -285.022109746933 2526.99995040894 16 19 10
530.622363090515 -282.069593667984 2500.99992752075 20 23 14
539.120316505432 -282.951802015305 2509.0000629425 19 22 13
544.396698474884 -282.142281532288 2502.00009346008 19 22 13
545.889019966125 -279.415905475616 2477.9999256134 19 22 13
549.926459789276 -278.04297208786 2466.00008010864 18 21 12
557.057619094849 -278.248488903046 2467.99993515015 18 21 12
570.594549179077 -281.610608100891 2497.99990653992 17 20 11
578.283667564392 -282.041311264038 2502.00009346008 14 17 8
584.122538566589 -281.570166349411 2497.99990653992 13 16 7
591.121733188629 -281.662672758102 2499.00007247925 15 18 9
600.996196269989 -283.107548952103 2512.00008392334 19 22 13
607.552766799927 -282.974541187286 2510.99991798401 21 24 15
611.411690711975 -281.602025032043 2499.00007247925 24 27 20
621.883630752563 -283.271998167038 2513.99993896484 26 29 22
642.188847064972 -289.335936307907 2568.00007820129 22 25 18
661.521255970001 -294.835716485977 2617.00010299683 8 11 4
670.643031597137 -295.715928077698 2625 7 9 4
678.774476051331 -296.145498752594 2628.99994850159 9 11 6
686.92672252655 -296.575099229813 2632.99989700317 7 9 4
692.991018295288 -296.103656291962 2628.99994850159 8 13 7
698.766648769379 -295.519798994064 2624.00007247925 13 16 9
704.783380031586 -295.048654079437 2619.99988555908 15 18 11
712.408006191254 -295.253336429596 2621.99997901917 16 17 11
720.31706571579 -295.570701360703 2625 15 16 8
724.085092544556 -294.19931769371 2612.99991607666 14 15 9
727.227985858917 -292.603045701981 2598.99997711182 10 11 5
732.55467414856 -291.907727718353 2592.99993515015 11 13 8
749.25696849823 -295.715391635895 2627.00009346008 14 19 15
766.71826839447 -299.74776506424 2663.00010681152 9 14 10
464.795261621475 -299.170732498169 2588.00005912781 30 31 26
465.989649295807 -295.451909303665 2555.99999427795 21 22 16
475.705474615097 -297.165930271149 2571.00009918213 16 17 11
487.003415822983 -299.804180860519 2594.00010108948 15 16 8
484.712213277817 -294.121026992798 2545.00007629395 16 17 9
508.106052875519 -291.613876819611 2523.9999294281 17 20 11
515.563726425171 -291.940182447433 2526.99995040894 16 19 10
520.969152450562 -291.111141443253 2519.99998092651 13 16 7
528.220593929291 -291.321724653244 2522.0000743866 12 15 6
533.360183238983 -290.377199649811 2513.99993896484 17 20 11
542.322874069214 -291.511625051498 2523.9999294281 20 23 14
548.075199127197 -290.913611650467 2519.00005340576 17 20 11
552.036881446838 -289.391696453094 2506.00004196167 18 21 12
552.136301994324 -285.907000303268 2476.0000705719 17 20 11
558.617472648621 -285.771161317825 2474.99990463257 16 19 10
566.462814807892 -286.328077316284 2480.00001907349 16 19 10
575.027465820313 -287.231177091599 2487.99991607666 16 19 10
585.27135848999 -288.942277431488 2503.00002098084 14 17 8
592.520475387573 -289.152473211288 2505.00011444092 12 15 6
599.301040172577 -289.131820201874 2505.00011444092 14 17 8
604.870796203613 -288.534104824066 2500 17 20 11
610.412657260895 -287.936508655548 2494.99988555908 21 24 17
620.873689651489 -289.646953344345 2509.99999046326 25 28 21
635.916292667389 -293.434202671051 2542.99998283386 10 13 6
653.66405248642 -298.374742269516 2585.99996566772 8 11 4
669.088959693909 -302.160918712616 2618.99995803833 7 9 4
679.527878761292 -303.639352321625 2631.99996948242 8 10 5
681.687951087952 -301.426231861115 2612.99991607666 7 9 4
692.70646572113 -303.135365247726 2628.00002098084 6 11 5
701.674938201904 -303.921580314636 2634.99999046326 11 14 7
705.031752586365 -302.285850048065 2621.00005149841 13 16 9
712.930858135223 -302.61093378067 2624.00007247925 16 17 11
721.394062042236 -303.166657686234 2628.99994850159 16 17 9
726.004481315613 -302.108198404312 2619.99988555908 16 17 11
725.80897808075 -299.089878797531 2594.00010108948 12 13 7
728.579819202423 -297.340333461761 2578.9999961853 15 17 12
743.53289604187 -300.548434257507 2607.00011253357 11 16 12
760.93989610672 -304.678410291672 2642.99988746643 11 16 12
461.229890584946 -299.334853887558 2529.99997138977 16 17 11
468.654602766037 -299.669861793518 2532.99999237061 16 17 11
479.66131567955 -302.252322435379 2555.0000667572 17 18 10
473.265111446381 -293.951630592346 2484.99989509583 18 19 11
461.875975131989 -278.890818357468 2358.00004005432 18 19 13
506.475210189819 -297.537237405777 2516.00003242493 19 22 13
513.911068439484 -297.871381044388 2519.00005340576 20 23 14
518.674671649933 -296.668291091919 2509.0000629425 17 20 11
519.403576850891 -293.218821287155 2480.00001907349 14 17 8
527.39942073822 -293.907642364502 2486.00006103516 16 19 10
536.500990390778 -295.18735408783 2496.99997901917 19 22 13
548.489451408386 -298.0035841465 2520.99990844727 18 21 12
556.20151758194 -298.455357551575 2525.00009536743 18 21 12
555.906534194946 -294.652134180069 2493.00003051758 18 21 12
554.308772087097 -290.258467197418 2456.00008964539 17 20 11
560.046851634979 -289.765149354935 2451.99990272522 17 20 11
569.691181182861 -291.280746459961 2464.99991416931 17 20 11
579.872667789459 -293.032467365265 2480.00001907349 15 18 9
588.951766490936 -294.193148612976 2490.00000953674 12 15 6
595.452427864075 -294.054120779037 2489.00008201599 14 17 8
604.608178138733 -295.214593410492 2499.00007247925 16 19 10
606.966912746429 -293.067395687103 2480.99994659424 17 20 13
620.110869407654 -296.117693185806 2506.99996948242 21 24 17
642.396688461304 -303.419470787048 2569.00000572205 14 17 10
655.917704105377 -306.468665599823 2595.00002861023 7 10 3
668.812036514282 -309.163212776184 2618.00003051758 7 9 4
677.182734012604 -309.731900691986 2622.99990653992 9 11 6
683.753669261932 -309.474170207977 2621.00005149841 11 13 8
688.467800617218 -308.389991521835 2611.99998855591 8 13 7
700.05589723587 -310.375601053238 2628.99994850159 9 12 5
709.852278232574 -311.534702777863 2638.99993896484 9 12 5
721.332132816315 -313.401997089386 2654.99997138977 13 14 8
724.665820598602 -311.728119850159 2641.00003242493 15 16 8
729.586005210876 -310.762763023376 2632.99989700317 17 18 10
729.985415935516 -307.909399271011 2608.99996757507 22 23 17
737.599492073059 -308.124780654907 2611.00006103516 21 23 18
746.64980173111 -308.930307626724 2618.00003051758 18 23 19
764.662265777588 -313.393741846085 2655.99989891052 24 29 25
461.392134428024 -306.34331703186 2530.99989891052 18 19 13
469.559460878372 -307.170271873474 2538.00010681152 22 23 15
475.510805845261 -306.544661521912 2532.99999237061 19 20 12
485.24284362793 -308.339327573776 2548.00009727478 20 21 13
469.691425561905 -290.148198604584 2398.00000190735 23 24 18
498.402804136276 -299.544930458069 2476.0000705719 25 28 19
512.054204940796 -303.63729596138 2509.99999046326 23 26 17
518.653810024261 -303.495347499847 2509.0000629425 21 24 15
518.754601478577 -299.60373044014 2476.99999809265 22 25 16
522.923648357391 -298.131555318832 2464.99991416931 19 22 13
531.753301620483 -299.320071935654 2474.99990463257 16 19 10
540.853679180145 -300.62934756279 2486.00006103516 18 21 12
534.8140001297 -293.594837188721 2427.99997329712 18 21 12
552.31785774231 -299.498915672302 2476.99999809265 17 20 11
552.933871746063 -296.213418245316 2450.00004768372 17 20 11
558.427333831787 -295.588076114655 2444.9999332428 15 18 9
568.283796310425 -297.259628772736 2459.00011062622 18 21 12
579.150259494781 -299.414455890656 2476.99999809265 16 19 10
589.640200138092 -301.32719874382 2493.00003051758 15 18 9
596.86666727066 -301.547646522522 2494.99988555908 16 19 10
601.683795452118 -300.559550523758 2486.99998855591 16 19 12
611.594080924988 -302.109360694885 2500 16 19 12
626.025974750519 -305.833995342255 2530.99989891052 17 20 13
644.625544548035 -311.491370201111 2578.00006866455 12 15 8
655.643165111542 -313.402652740479 2594.00010108948 8 11 4
666.235566139221 -315.07208943367 2608.00004005432 8 10 5
675.095558166504 -315.895736217499 2615.00000953674 9 11 6
684.775352478027 -317.08174943924 2625 13 15 10
689.500451087952 -315.972715616226 2615.9999370575 11 16 10
700.300574302673 -317.641854286194 2630.00011444092 12 15 8
712.251484394073 -319.793909788132 2648.00000190735 12 15 8
722.940504550934 -321.341961622238 2661.00001335144 13 14 8
732.601642608643 -322.406977415085 2670.00007629395 13 14 6
730.950176715851 -318.521440029144 2638.00001144409 13 14 6
735.280513763428 -317.292749881744 2628.00002098084 16 17 11
739.838659763336 -316.185116767883 2618.99995803833 16 18 13
757.751643657684 -320.75160741806 2657.00006484985 16 21 17
771.551012992859 -323.507010936737 2680.0000667572 18 23 19
459.167510271072 -316.471070051193 2556.99992179871 25 26 21
463.741511106491 -314.841508865356 2543.99991035461 23 24 18
472.313910722733 -315.93456864357 2552.99997329712 16 17 9
484.125196933746 -319.130897521973 2578.9999961853 18 21 12
490.173101425171 -318.490922451019 2573.99988174438 20 23 12
504.304945468903 -323.047399520874 2611.00006103516 21 24 13
503.414154052734 -309.374630451202 2500.99992752075 21 24 13
507.137179374695 -307.498097419739 2486.00006103516 21 24 13
514.705121517181 -307.971686124802 2490.00000953674 22 25 16
527.110397815704 -311.289608478546 2516.99995994568 22 25 16
526.508986949921 -306.939780712128 2482.00011253357 18 21 12
534.740030765533 -307.784080505371 2489.00008201599 16 19 10
538.439333438873 -306.031554937363 2474.99990463257 19 22 13
538.757979869843 -302.424639463425 2446.00009918213 19 22 15
542.039930820465 -300.549000501633 2430.99999427795 20 23 16
557.20067024231 -305.225640535355 2469.00010108948 20 23 16
561.375319957733 -303.844451904297 2457.99994468689 20 23 16
571.035742759705 -305.430054664612 2470.99995613098 23 26 17
579.128921031952 -306.150197982788 2476.99999809265 23 26 17
596.950590610504 -311.937391757965 2523.9999294281 23 26 17
600.672721862793 -310.308933258057 2510.99991798401 20 23 14
604.807496070862 -308.927923440933 2500 17 20 11
610.10479927063 -308.164894580841 2493.99995803833 13 16 9
625.757038593292 -312.591344118118 2529.99997138977 15 18 11
640.102744102478 -316.275864839554 2559.99994277954 12 15 8
656.63206577301 -320.948243141174 2598.00004959106 12 15 8
661.615252494812 -319.937705993652 2589.99991416931 13 15 10
680.752813816071 -325.721025466919 2637.00008392334 12 14 9
688.405215740204 -325.945556163788 2638.99993896484 12 14 9
693.95899772644 -325.182139873505 2632.99989700317 12 17 10
697.349607944489 -323.430985212326 2618.99995803833 13 16 9
711.691498756409 -326.743096113205 2645.99990844727 12 15 8
722.103476524353 -328.202694654465 2657.99999237061 12 13 5
728.738367557526 -327.933669090271 2655.99989891052 11 12 4
740.626394748688 -330.010592937469 2673.00009727478 11 12 4
737.497448921204 -325.420886278152 2635.99991798401 13 14 8
743.207395076752 -324.782222509384 2631.00004196167 10 12 7
757.445275783539 -327.846854925156 2655.99989891052 14 19 15
768.363058567047 -329.430133104324 2668.99991035461 8 13 9
461.481034755707 -325.075030326843 2569.9999332428 20 20 18
463.90300989151 -321.891903877258 2545.00007629395 26 27 21
477.472722530365 -326.423764228821 2581.00008964539 30 31 23
484.854608774185 -326.655179262161 2582.99994468689 20 23 12
488.62823843956 -324.483782052994 2565.99998474121 21 24 13
498.29575419426 -326.232373714447 2579.99992370605 21 24 13
499.420672655106 -322.417318820953 2549.99995231628 22 25 14
495.218932628632 -315.31548500061 2493.99995803833 22 25 14
500.574946403503 -314.409196376801 2486.99998855591 17 20 9
508.951723575592 -315.399080514908 2494.99988555908 16 19 8
514.270305633545 -314.492732286453 2487.99991607666 13 16 7
526.041626930237 -317.504644393921 2512.00008392334 14 17 8
536.032915115356 -319.378554821014 2526.99995040894 17 20 11
536.437094211578 -315.565198659897 2496.99997901917 16 19 10
540.375709533691 -313.90056014061 2483.99996757507 16 19 10
543.141782283783 -311.60432100296 2466.00008010864 17 20 13
546.255052089691 -309.561043977737 2450.00004768372 20 23 16
554.69673871994 -310.550212860107 2457.99994468689 21 24 17
565.921425819397 -313.055276870728 2477.9999256134 22 25 18
575.635850429535 -314.675658941269 2490.9999370575 21 24 15
587.99147605896 -317.685306072235 2515.00010490417 21 24 15
596.928477287292 -318.799912929535 2523.9999294281 20 23 14
602.086007595062 -317.893594503403 2516.99995994568 18 21 12
605.753302574158 -316.229730844498 2503.99994850159 17 20 11
611.795425415039 -315.828859806061 2500.99992752075 14 17 10
623.756408691406 -318.458646535873 2522.0000743866 16 19 12
648.331582546234 -327.401250600815 2592.99993515015 12 15 8
657.873213291168 -328.641176223755 2602.9999256134 12 15 8
670.533359050751 -331.395924091339 2625 12 14 9
679.697573184967 -332.383036613464 2632.99989700317 11 13 8
684.469819068909 -331.224262714386 2624.00007247925 12 14 9
682.340264320374 -326.783895492554 2588.99998664856 8 13 6
694.132328033447 -329.033523797989 2607.00011253357 10 13 6
708.710610866547 -332.544982433319 2634.99999046326 9 12 5
718.549609184265 -333.784580230713 2644.99998092651 10 11 3
731.734216213226 -336.538344621658 2667.00005531311 10 11 3
737.556397914886 -335.885137319565 2661.99994087219 10 11 3
744.190275669098 -335.610657930374 2660.00008583069 12 13 7
752.224981784821 -335.967123508453 2663.00010681152 12 14 9
759.990334510803 -336.197644472122 2664.99996185303 12 17 13
459.305137395859 -330.518633127213 2558.00008773804 16 16 14
463.334947824478 -328.430026769638 2542.00005531311 23 24 18
469.126671552658 -327.63347029686 2536.00001335144 29 30 22
482.768177986145 -332.26266503334 2572.00002670288 23 26 15
490.891486406326 -333.0157995224 2578.00006866455 23 26 15
489.389777183533 -327.31032371521 2533.99991989136 22 25 14
492.935985326767 -325.092762708664 2516.99995994568 22 25 14
497.381627559662 -323.521196842194 2505.00011444092 22 25 14
501.358509063721 -321.691393852234 2490.9999370575 20 23 12
506.890296936035 -320.894837379456 2484.99989509583 17 20 9
514.041900634766 -321.131229400635 2486.99998855591 13 16 7
523.297429084778 -322.658717632294 2499.00007247925 13 16 7
533.889651298523 -324.960589408875 2516.99995994568 16 19 10
539.422631263733 -324.163675308228 2510.99991798401 17 20 11
540.353775024414 -320.656001567841 2483.99996757507 16 19 10
546.203315258026 -320.117592811584 2480.00001907349 15 18 11
561.171174049377 -324.871063232422 2516.99995994568 15 18 11
565.281093120575 -323.299914598465 2505.00011444092 14 17 10
568.639874458313 -321.341693401337 2490.00000953674 13 16 9
577.462375164032 -322.480857372284 2499.00007247925 15 18 9
588.90426158905 -325.039207935333 2519.00005340576 15 18 9
597.379088401794 -325.919806957245 2526.00002288818 12 15 6
604.934096336365 -326.284319162369 2529.00004386902 12 15 6
609.843492507935 -325.229674577713 2520.99990844727 13 16 7
618.377923965454 -326.11021399498 2528.00011634827 15 18 11
633.13215970993 -330.215394496918 2559.99994277954 14 17 10
655.309438705444 -338.060528039932 2621.00005149841 10 13 6
673.26682806015 -343.583136796951 2664.00003433228 7 10 3
676.896274089813 -341.754108667374 2650.00009536743 8 10 5
679.416477680206 -339.409619569778 2631.99996948242 8 10 5
677.665174007416 -335.002362728119 2598.00004959106 11 13 8
683.372020721436 -334.334909915924 2592.99993515015 11 16 9
692.512333393097 -335.343837738037 2601.0000705719 14 17 10
707.881152629852 -339.317888021469 2631.99996948242 15 18 11
718.52707862854 -340.971112251282 2644.99998092651 18 19 11
712.506592273712 -334.761112928391 2596.99988365173 18 19 11
714.260995388031 -332.290083169937 2578.00006866455 18 19 13
731.578707695007 -337.037086486816 2615.00000953674 18 19 13
748.530983924866 -341.525942087173 2650.00009536743 16 18 13
763.390362262726 -344.983398914337 2677.00004577637 12 17 13
456.410944461823 -335.36833524704 2542.00005531311 15 15 13
457.845598459244 -331.38906955719 2512.00008392334 19 20 14
466.700404882431 -332.818686962128 2523.00000190735 17 18 10
477.678388357162 -335.698902606964 2545.00007629395 23 26 15
490.107625722885 -339.501857757568 2573.99988174438 23 26 15
486.664175987244 -332.357496023178 2519.99998092651 23 26 15
488.018214702606 -328.642845153809 2492.00010299683 22 25 14
495.96980214119 -329.412132501602 2497.99990653992 21 24 13
504.355490207672 -330.444991588593 2506.00004196167 22 25 14
510.335862636566 -329.895347356796 2502.00009346008 19 22 11
513.193190097809 -327.368021011353 2483.00004005432 13 16 7
521.181344985962 -328.136891126633 2489.00008201599 13 16 7
531.109869480133 -330.091893672943 2503.99994850159 15 18 9
539.829850196838 -331.255793571472 2513.00001144409 15 18 9
540.114045143127 -327.278852462769 2483.00004005432 17 20 11
546.40132188797 -326.992869377136 2480.99994659424 16 19 12
560.033798217773 -331.055909395218 2512.00008392334 15 18 11
572.705090045929 -334.459453821182 2538.00010681152 13 16 9
571.586132049561 -329.824447631836 2503.00002098084 12 15 8
574.435949325562 -327.561765909195 2486.00006103516 13 16 7
587.011337280273 -330.833047628403 2510.99991798401 12 15 6
595.464408397675 -331.732451915741 2517.99988746643 10 13 4
606.82487487793 -334.212630987167 2536.99994087219 10 13 4
615.868330001831 -335.375219583511 2546.0000038147 11 14 5
625.204086303711 -336.669415235519 2555.99999427795 13 16 9
641.764998435974 -341.7828977108 2595.00002861023 13 16 9
663.786470890045 -349.661499261856 2654.99997138977 8 11 4
676.528334617615 -352.534830570221 2677.00004577637 5 8 1
683.513700962067 -352.379202842712 2676.00011825562 6 8 3
683.006942272186 -348.40515255928 2645.99990844727 6 8 3
683.119714260101 -344.826698303223 2618.99995803833 9 11 6
688.356459140778 -343.881905078888 2611.99998855591 9 14 7
697.015702724457 -344.648778438568 2618.00003051758 12 15 8
708.396196365356 -346.732079982758 2634.0000629425 13 16 9
711.441397666931 -344.734668731689 2618.99995803833 17 18 10
705.625653266907 -338.525861501694 2572.00002670288 18 19 11
714.239060878754 -339.293360710144 2578.00006866455 16 17 11
734.63386297226 -345.588266849518 2625.99992752075 16 17 11
743.706881999969 -346.487164497375 2632.99989700317 17 19 14
758.805572986603 -350.149393081665 2661.00001335144 12 17 13
452.79848575592 -339.591383934021 2522.0000743866 13 13 11
455.090254545212 -336.2036049366 2496.99997901917 17 18 12
462.609231472015 -336.720496416092 2500.99992752075 12 13 5
478.782385587692 -343.429952859879 2551.00011825562 18 21 10
478.090018033981 -338.022857904434 2510.99991798401 20 23 12
482.200443744659 -336.116224527359 2496.99997901917 22 25 14
485.450476408005 -333.671271800995 2479.00009155273 21 24 13
496.741861104965 -336.744755506516 2502.00009346008 18 21 10
508.156955242157 -339.817702770233 2525.00009536743 18 21 10
513.372838497162 -338.718354701996 2516.99995994568 17 20 9
512.344121932983 -333.582252264023 2479.00009155273 16 19 10
517.599284648895 -332.617878913879 2471.99988365173 16 19 10
528.542101383209 -335.286289453506 2492.00010299683 13 16 7
537.444174289703 -336.608976125717 2502.00009346008 12 15 6
539.873957633972 -333.895534276962 2482.00011253357 14 17 8
543.075323104858 -331.720501184464 2466.00008010864 14 17 10
555.998146533966 -335.464179515839 2493.99995803833 15 18 11
565.461337566376 -337.055236101151 2506.00004196167 17 20 13
567.68137216568 -334.342390298843 2486.00006103516 18 21 14
568.867802619934 -331.091970205307 2461.99989318848 15 18 9
576.702654361725 -331.741690635681 2467.00000762939 14 17 8
590.712010860443 -335.887372493744 2497.99990653992 12 15 6
601.778984069824 -338.284611701965 2516.00003242493 11 14 5
651.880741119385 -354.346513748169 2635.99991798401 12 15 8
656.262278556824 -352.843880653381 2625 8 11 4
678.020536899567 -360.615670681 2683.00008773804 7 10 3
684.76665019989 -360.32247543335 2680.99999427795 8 10 5
689.694285392761 -359.088718891144 2671.99993133545 7 9 4
690.138638019562 -355.570763349533 2645.99990844727 8 10 5
691.232085227966 -352.456510066986 2622.99990653992 8 13 6
698.589980602264 -352.567464113235 2624.00007247925 11 14 7
709.4486951828 -354.425102472305 2638.00001144409 12 15 8
721.197485923767 -356.685727834702 2654.99997138977 15 16 8
716.851234436035 -351.020306348801 2612.99991607666 16 17 9
731.116354465485 -354.490041732788 2638.99993896484 13 14 8
742.444217205048 -356.481969356537 2654.00004386902 15 16 10
745.096802711487 -354.310274124146 2638.00001144409 20 22 17
754.220724105835 -355.227887630463 2644.99998092651 18 23 19
770.86615562439 -359.637260437012 2677.99997329712 14 19 15
457.085430622101 -349.749147891998 2546.0000038147 15 15 13
455.797493457794 -343.545615673065 2500.99992752075 19 20 14
473.130106925964 -351.35281085968 2558.00008773804 14 15 7
475.757122039795 -348.171263933182 2535.00008583069 13 16 5
478.638976812363 -345.264613628387 2513.99993896484 17 20 9
480.247169733047 -341.53425693512 2486.99998855591 21 24 13
485.428243875504 -340.413302183151 2479.00009155273 21 24 13
496.917814016342 -343.686282634735 2503.00002098084 18 21 10
509.140312671661 -347.370684146881 2529.99997138977 17 20 9
515.389561653137 -346.935749053955 2526.99995040894 17 20 9
513.768196105957 -341.28400683403 2486.00006103516 18 21 12
521.554827690125 -341.947555541992 2490.9999370575 18 21 12
530.215978622437 -343.159973621368 2500 15 18 9
540.857911109924 -345.607429742813 2517.99988746643 12 15 6
542.678654193878 -342.427462339401 2494.99988555908 12 15 6
548.778176307678 -341.992616653442 2492.00010299683 13 16 9
555.306315422058 -341.832190752029 2490.9999370575 15 18 11
562.279284000397 -341.94627404213 2492.00010299683 16 19 12
566.28829240799 -340.276539325714 2480.00001907349 17 20 13
568.613946437836 -337.646633386612 2460.99996566772 17 20 11
576.212346553802 -338.172495365143 2464.99991416931 16 19 10
584.777295589447 -339.246958494186 2473.00004959106 14 17 8
595.298111438751 -341.418713331223 2489.00008201599 13 16 7
600.099503993988 -340.298235416412 2480.99994659424 11 14 7
646.910667419434 -358.766555786133 2615.9999370575 12 15 8
659.488201141357 -361.759334802628 2638.00001144409 9 12 5
663.844645023346 -360.226631164551 2627.00009346008 9 12 5
683.465242385864 -366.921186447144 2676.00011825562 10 12 7
691.218674182892 -367.170870304108 2677.99997329712 9 11 6
689.853847026825 -362.622231245041 2644.99998092651 9 11 6
692.262530326843 -360.130667686462 2627.00009346008 7 12 5
696.170449256897 -358.461976051331 2615.00000953674 9 12 5
705.122470855713 -359.397977590561 2621.99997901917 9 12 5
714.926540851593 -360.745161771774 2631.99996948242 10 11 3
729.996144771576 -364.696323871613 2661.00001335144 11 12 4
737.742185592651 -364.946961402893 2663.00010681152 11 12 4
749.134957790375 -366.979151964188 2677.99997329712 12 13 7
750.44047832489 -364.078372716904 2657.00006484985 18 20 15
756.194114685059 -363.370358943939 2651.99995040894 20 25 21
452.216029167175 -352.891892194748 2519.00005340576 7 7 5
466.891914606094 -358.893215656281 2562.00003623962 19 20 14
478.471010923386 -362.372189760208 2586.99989318848 14 15 7
481.176793575287 -359.127521514893 2563.99989128113 13 16 5
480.710566043854 -353.642195463181 2525.00009536743 13 16 5
485.052019357681 -351.798683404922 2512.00008392334 17 20 9
489.517718553543 -350.095331668854 2500 20 23 12
498.086094856262 -351.332664489746 2509.0000629425 23 26 15
507.50720500946 -353.129804134369 2522.0000743866 21 24 13
514.346599578857 -353.106558322906 2522.0000743866 20 23 12
516.018450260162 -349.583059549332 2496.99997901917 18 21 12
522.787988185883 -349.559843540192 2496.99997901917 16 19 10
533.161759376526 -351.916193962097 2513.99993896484 15 18 9
541.478872299194 -352.872490882874 2520.99990844727 15 18 9
546.570301055908 -351.72912478447 2513.00001144409 13 16 7
548.754930496216 -348.766475915909 2492.00010299683 11 14 7
558.180868625641 -350.422322750092 2503.99994850159 10 13 6
565.414607524872 -350.678622722626 2506.00004196167 12 15 8
571.060001850128 -349.955320358276 2500.99992752075 13 16 9
572.749674320221 -346.853584051132 2479.00009155273 16 19 10
574.319243431091 -343.752205371857 2457.00001716614 15 18 9
583.099007606506 -344.988167285919 2466.00008010864 14 17 8
593.12230348587 -346.923321485519 2480.00001907349 14 17 8
604.188084602356 -349.417805671692 2497.99990653992 16 19 12
624.888837337494 -357.366919517517 2555.0000667572 17 20 13
643.424391746521 -363.916337490082 2601.99999809265 12 15 8
651.214122772217 -364.31160569191 2605.00001907349 11 14 7
665.589213371277 -368.342667818069 2634.0000629425 9 12 5
678.843379020691 -371.674180030823 2657.99999237061 9 11 6
689.387440681458 -373.467236757278 2671.0000038147 9 11 6
690.872848033905 -370.36669254303 2648.9999294281 11 13 8
694.610178470612 -368.52490901947 2635.99991798401 8 13 6
699.075162410736 -367.102861404419 2625.99992752075 11 14 7
703.485310077667 -365.681111812592 2615.9999370575 12 15 8
712.72999048233 -366.775691509247 2624.00007247925 13 14 6
723.114371299744 -368.429362773895 2635.99991798401 12 13 5
737.995684146881 -372.319132089615 2664.00003433228 12 13 5
743.237137794495 -371.317327022552 2657.00006484985 10 11 5
744.203865528107 -368.219673633575 2634.99999046326 12 14 9
758.737564086914 -371.829807758331 2661.00001335144 8 13 9
770.24507522583 -373.902708292007 2676.00011825562 5 10 6
458.117574453354 -364.455580711365 2552.00004577637 7 7 5
466.504544019699 -365.575134754181 2559.99994277954 17 18 12
478.447735309601 -369.407445192337 2586.99989318848 16 17 9
479.652285575867 -364.957600831985 2555.99999427795 14 17 6
474.976390600204 -356.224954128265 2494.99988555908 13 16 5
487.732231616974 -360.627830028534 2526.00002288818 16 19 8
495.956063270569 -361.603766679764 2532.99999237061 19 22 11
498.856961727142 -358.725309371948 2513.00001144409 22 25 14
511.105835437775 -362.555801868439 2539.99996185303 21 24 13
517.382085323334 -362.103849649429 2536.99994087219 21 24 13
518.474876880646 -358.083873987198 2509.0000629425 20 23 14
525.276839733124 -358.060210943222 2509.0000629425 19 22 13
532.501876354218 -358.321875333786 2510.99991798401 17 20 11
541.025519371033 -359.439581632614 2519.00005340576 16 19 10
543.719291687012 -356.704711914063 2500 15 18 9
550.933301448822 -356.966286897659 2502.00009346008 12 15 8
555.92805147171 -355.801105499268 2493.99995803833 11 14 7
568.775117397308 -359.628945589066 2520.99990844727 11 14 7
573.091149330139 -358.035802841187 2509.99999046326 11 14 7
569.029629230499 -351.308047771454 2463.00005912781 16 19 10
577.568233013153 -352.425545454025 2470.99995613098 16 19 10
587.804436683655 -354.541122913361 2486.00006103516 17 20 11
600.990831851959 -358.367800712585 2513.00001144409 17 20 11
613.113284111023 -361.481010913849 2535.00008583069 18 21 12
618.995070457459 -360.886484384537 2530.99989891052 19 22 15
642.41087436676 -370.415180921555 2598.00004959106 13 16 9
654.18940782547 -373.099386692047 2617.00010299683 12 15 8
665.564477443695 -375.49814581871 2634.0000629425 10 13 6
677.541673183441 -378.181874752045 2653.00011634827 9 11 6
685.749292373657 -378.72713804245 2657.00006484985 10 12 7
690.587520599365 -377.419531345367 2648.00000190735 11 13 8
694.058895111084 -375.399678945541 2634.0000629425 8 13 6
699.583470821381 -374.520272016525 2628.00002098084 12 15 8
703.730463981628 -372.928589582443 2617.00010299683 13 16 9
712.434530258179 -373.759657144547 2622.99990653992 15 16 8
724.46221113205 -376.300543546677 2641.00003242493 15 16 8
734.647691249847 -377.844035625458 2651.99995040894 12 13 7
735.101819038391 -374.401092529297 2628.00002098084 14 15 9
744.46314573288 -375.517457723618 2635.99991798401 12 14 9
763.276338577271 -381.334692239761 2677.00004577637 12 17 13
773.963630199432 -383.020609617233 2688.99989128113 13 18 14
454.145580530167 -368.193566799164 2529.99997138977 7 7 5
464.294761419296 -370.790004730225 2548.00009727478 15 16 10
471.581637859344 -371.057718992233 2549.99995231628 18 19 11
467.056483030319 -362.158596515656 2489.00008201599 18 21 10
482.567936182022 -368.828296661377 2535.00008583069 18 21 10
490.991055965424 -369.968563318253 2542.99998283386 18 21 10
491.03769659996 -364.853143692017 2507.99989700317 17 20 9
496.649920940399 -363.956809043884 2502.00009346008 13 16 5
509.069859981537 -368.005990982056 2529.99997138977 15 18 7
516.338586807251 -368.272960186005 2532.00006484985 16 19 8
520.104169845581 -366.067230701447 2516.99995994568 19 22 13
524.415612220764 -364.298105239868 2505.00011444092 20 23 14
532.477974891663 -365.146666765213 2510.99991798401 20 23 14
535.847008228302 -362.796008586884 2494.99988555908 19 22 13
541.520595550537 -362.045019865036 2490.00000953674 20 23 14
547.166109085083 -361.294060945511 2484.99989509583 17 20 13
555.23544549942 -362.142443656921 2490.9999370575 13 16 9
558.824300765991 -360.083192586899 2476.99999809265 12 15 8
568.500757217407 -361.948937177658 2490.00000953674 11 14 7
570.161044597626 -358.727157115936 2467.99993515015 15 18 9
579.88178730011 -360.592722892761 2480.99994659424 15 18 9
596.528708934784 -366.672784090042 2523.00000190735 18 21 12
605.988740921021 -368.24694275856 2533.99991989136 18 21 12
615.507483482361 -369.821012020111 2545.00007629395 19 22 13
624.106645584106 -370.8136677742 2552.00004577637 19 22 15
648.814857006073 -381.250321865082 2624.00007247925 14 17 10
663.413286209106 -385.583728551865 2654.00004386902 13 16 9
673.62505197525 -387.301683425903 2665.99988937378 10 13 6
676.750481128693 -384.952127933502 2650.00009536743 9 11 6
682.369232177734 -384.055495262146 2644.00005340576 10 12 7
688.4765625 -383.449614048004 2640.00010490417 11 13 8
692.980408668518 -381.972432136536 2630.00011444092 8 13 6
696.631014347076 -380.059897899628 2617.00010299683 12 15 8
705.588638782501 -381.052166223526 2624.00007247925 13 16 9
715.941429138184 -382.770448923111 2635.99991798401 14 15 7
724.164009094238 -383.327096700668 2640.00010490417 13 14 6
732.407748699188 -383.883863687515 2644.00005340576 12 13 7
736.756443977356 -382.408142089844 2634.0000629425 13 14 8
744.722187519073 -382.820099592209 2637.00008392334 13 15 10
752.418398857117 -383.086949586868 2638.99993896484 14 19 15
760.12510061264 -383.354127407074 2641.00003242493 9 14 10
458.609938621521 -378.778845071793 2555.0000667572 11 11 9
451.152294874191 -367.04432964325 2476.0000705719 20 21 15
468.044519424438 -375.174105167389 2530.99989891052 21 22 14
476.790547370911 -376.632779836655 2540.99988937378 19 22 11
471.313416957855 -366.97518825531 2476.0000705719 19 22 11
491.546422243118 -377.326130867004 2546.0000038147 19 22 11
491.601377725601 -372.115224599838 2510.99991798401 17 20 9
495.435237884521 -369.868606328964 2496.00005149841 10 13 2
498.784363269806 -367.325812578201 2479.00009155273 13 16 5
514.886975288391 -374.11767244339 2525.00009536743 13 16 5
519.666850566864 -372.611850500107 2515.00010490417 16 19 10
523.972809314728 -370.809733867645 2503.00002098084 17 20 11
529.061019420624 -369.60044503212 2494.99988555908 19 22 13
536.896705627441 -370.316922664642 2500 19 22 13
543.236196041107 -369.996309280396 2497.99990653992 19 22 13
550.224542617798 -370.120137929916 2499.00007247925 18 21 14
556.102812290192 -369.503319263458 2494.99988555908 17 20 13
559.025764465332 -366.961508989334 2477.9999256134 17 20 13
561.855792999268 -364.419966936111 2460.99996566772 15 18 11
567.133963108063 -363.50753903389 2454.99992370605 11 14 5
580.792605876923 -367.925316095352 2484.99989509583 12 15 6
596.74072265625 -373.674988746643 2523.9999294281 13 16 7
605.007648468018 -374.538600444794 2529.99997138977 14 17 8
610.64612865448 -373.773843050003 2525.00009536743 15 18 9
627.750158309937 -379.966109991074 2566.99991226196 16 19 12
647.058844566345 -387.34170794487 2617.00010299683 14 17 10
661.888062953949 -391.904443502426 2648.00000190735 12 15 8
672.588884830475 -393.95073056221 2661.99994087219 9 12 5
668.042600154877 -387.118011713028 2615.9999370575 8 10 5
677.956938743591 -388.720750808716 2627.00009346008 9 11 6
683.496654033661 -387.807905673981 2621.00005149841 9 11 6
685.841679573059 -385.119944810867 2602.9999256134 11 16 9
693.944692611694 -385.687202215195 2607.00011253357 14 17 10
704.488635063171 -387.585878372192 2619.99988555908 15 18 11
714.559078216553 -389.18861746788 2631.00004196167 15 16 8
720.848202705383 -388.720512390137 2628.00002098084 15 16 8
721.303701400757 -385.146677494049 2604.00009155273 16 17 11
732.816874980927 -387.489289045334 2619.99988555908 15 16 10
745.54580450058 -390.42341709137 2640.00010490417 18 20 15
749.543905258179 -388.773024082184 2628.99994850159 16 21 17
457.506328821182 -379.058808088303 2510.99991798401 23 24 18
453.597545623779 -370.280295610428 2453.00006866455 21 24 13
459.692418575287 -369.804322719574 2450.00004768372 19 22 11
481.18793964386 -381.553769111633 2528.00011634827 17 20 9
482.25548863411 -377.002030611038 2497.99990653992 17 20 9
492.556303739548 -379.694551229477 2516.00003242493 16 19 8
491.044700145721 -373.332470655441 2473.99997711182 14 17 6
501.778364181519 -376.326441764832 2493.99995803833 14 17 6
513.435184955597 -379.923492670059 2517.99988746643 13 16 5
516.749739646912 -377.334117889404 2500.99992752075 14 17 8
519.971311092377 -374.745070934296 2483.99996757507 15 18 9
527.552425861359 -375.324159860611 2487.99991607666 17 20 11
536.872267723084 -377.109915018082 2500 18 21 12
546.256244182587 -378.895372152328 2512.00008392334 16 19 10
