ply
format ascii 1.0
comment KinectMotionCapture
element vertex 784
property float x
property float y
property float z
property uchar red
property uchar green
property uchar blue
end_header
-650.920569896698 -159.369692206383 2551.00011825562 14 19 12
-647.028267383575 -160.131722688675 2562.99996376038 13 16 9
-636.576890945435 -159.269377589226 2549.00002479553 14 17 10
-635.340094566345 -160.718932747841 2572.00002670288 12 15 8
-626.159727573395 -160.168960690498 2562.99996376038 18 21 14
-621.617317199707 -160.806372761726 2572.99995422363 18 21 14
-613.91419172287 -160.631328821182 2569.9999332428 15 18 11
-606.698572635651 -160.581320524216 2569.00000572205 16 17 11
-604.623019695282 -161.906510591507 2589.99991416931 15 16 10
-599.202036857605 -162.356659770012 2596.99988365173 14 13 8
-594.426035881042 -162.994459271431 2607.00011253357 13 14 8
-582.835555076599 -161.75651550293 2586.99989318848 15 16 10
-573.801040649414 -161.206215620041 2578.00006866455 18 21 14
-568.771600723267 -161.781445145607 2586.99989318848 21 24 17
-567.817747592926 -163.54501247406 2615.00000953674 19 24 17
-566.067159175873 -165.1211977005 2640.00010490417 20 23 16
-553.806006908417 -163.632556796074 2615.9999370575 20 21 15
-539.584398269653 -161.518111824989 2582.00001716614 21 22 16
-541.634678840637 -164.282962679863 2625.99992752075 13 14 8
-851.799190044403 -171.701833605766 2638.00001144409 19 21 16
-841.775476932526 -171.127021312714 2628.99994850159 13 16 9
-840.054869651794 -172.244772315025 2645.99990844727 11 14 7
-838.871598243713 -173.49299788475 2664.99996185303 11 14 7
-835.088729858398 -174.220740795135 2676.00011825562 14 17 10
-827.842950820923 -174.232482910156 2676.00011825562 13 16 7
-822.743356227875 -174.700185656548 2683.00008773804 13 16 7
-816.389739513397 -174.907580018044 2686.00010871887 12 15 6
-802.187323570251 -173.421934247017 2663.00010681152 14 17 8
-794.676542282104 -173.369005322456 2661.99994087219 13 16 5
-785.395741462708 -172.925382852554 2654.99997138977 11 14 5
-755.634784698486 -167.922243475914 2578.00006866455 14 17 10
-750.393569469452 -168.325215578079 2584.00011062622 16 17 11
-738.214552402496 -167.16480255127 2565.99998474121 14 15 9
-726.702570915222 -166.134625673294 2549.99995231628 11 14 7
-733.059585094452 -169.209197163582 2596.99988365173 10 13 6
-710.366368293762 -165.572717785835 2540.99988937378 10 13 6
-705.694496631622 -166.106402873993 2549.00002479553 11 14 5
-700.43021440506 -166.5098965168 2555.0000667572 12 15 6
-695.675432682037 -167.043820023537 2562.99996376038 13 16 9
-689.532816410065 -167.252004146576 2565.99998474121 16 19 12
-681.511163711548 -167.003974318504 2562.00003623962 17 20 11
-667.717754840851 -165.32176733017 2536.00001335144 15 18 9
-659.53665971756 -165.008410811424 2530.99989891052 13 16 7
-654.734194278717 -165.542677044868 2539.00003433228 11 14 5
-657.79721736908 -168.098405003548 2578.00006866455 10 13 4
-636.413037776947 -164.394378662109 2520.99990844727 10 13 4
-637.06374168396 -166.363522410393 2551.00011825562 12 13 5
-636.068403720856 -167.94165968895 2575.00004768372 14 15 7
-637.873530387878 -170.302748680115 2611.00006103516 16 17 9
-616.051316261292 -168.241560459137 2578.9999961853 14 15 7
-613.298177719116 -169.428899884224 2596.99988365173 13 14 6
-600.875198841095 -167.941361665726 2573.99988174438 15 16 8
-594.344079494476 -168.084844946861 2575.99997520447 13 14 6
-588.25695514679 -168.358817696571 2579.99992370605 12 15 6
-576.740026473999 -167.066588997841 2559.99994277954 15 18 9
-569.782078266144 -167.079448699951 2559.99994277954 17 20 11
-565.461158752441 -167.87551343441 2572.00002670288 19 22 13
-570.627748966217 -171.543791890144 2628.00002098084 21 24 15
-566.268622875214 -172.405526041985 2641.00003242493 21 24 15
-551.252961158752 -170.003071427345 2604.00009155273 16 19 10
-541.243672370911 -169.101879000664 2589.99991416931 16 19 10
-828.316390514374 -175.448164343834 2586.99989318848 14 17 10
-842.265784740448 -179.935872554779 2653.00011634827 12 15 8
-833.823621273041 -179.676368832588 2648.9999294281 10 13 6
-825.402855873108 -179.416939616203 2644.99998092651 13 16 9
-826.902806758881 -181.328445672989 2673.00009727478 13 16 7
-819.664776325226 -181.340768933296 2673.00009727478 13 16 7
-812.426149845123 -181.353196501732 2673.00009727478 13 16 5
-809.70561504364 -182.38353729248 2687.99996376038 14 17 6
-801.828563213348 -182.260617613792 2686.00010871887 13 16 5
-780.65025806427 -179.084047675133 2638.99993896484 11 14 3
-764.122426509857 -176.925107836723 2607.00011253357 14 17 10
-759.09298658371 -177.412927150726 2614.00008201599 15 18 11
-730.147004127502 -172.267258167267 2538.00010681152 12 15 8
-730.964720249176 -174.112573266029 2565.00005722046 10 13 6
-728.812873363495 -175.279408693314 2582.00001716614 10 13 6
-705.321848392487 -171.286836266518 2523.00000190735 10 13 6
-703.190267086029 -172.45377600193 2539.99996185303 11 14 7
-706.722557544708 -175.046876072884 2578.00006866455 12 15 8
-705.976784229279 -176.621839404106 2601.0000705719 13 16 9
-697.312653064728 -176.227688789368 2595.00002861023 15 18 11
-685.754179954529 -175.086453557014 2578.00006866455 16 19 12
-671.654224395752 -173.265904188156 2551.00011825562 14 17 8
-667.341232299805 -173.958376049995 2561.00010871887 12 15 6
-664.004385471344 -174.922704696655 2575.00004768372 11 14 5
-645.536720752716 -171.878948807716 2529.99997138977 10 13 4
-643.216013908386 -173.115119338036 2548.00009727478 11 14 5
-637.550055980682 -173.46815764904 2552.99997329712 13 14 6
-637.043237686157 -175.248265266418 2578.9999961853 15 16 8
-634.684264659882 -176.552966237068 2598.00004959106 17 18 10
-625.215113162994 -175.88697373867 2588.00005912781 16 17 9
-612.216174602509 -174.2013245821 2562.99996376038 14 15 7
-609.506487846375 -175.438284873962 2581.00008964539 14 15 7
-598.060727119446 -174.160197377205 2562.00003623962 14 17 8
-592.254340648651 -174.513518810272 2566.99991226196 12 15 6
-593.943774700165 -177.110522985458 2605.00001907349 12 15 6
-580.782115459442 -175.288319587708 2578.00006866455 15 18 9
-570.88178396225 -174.417763948441 2565.00005722046 17 20 11
-565.667867660522 -174.975141882896 2572.99995422363 17 20 11
-561.929166316986 -176.008611917496 2588.00005912781 19 22 13
-560.76580286026 -180.184587836266 2648.9999294281 19 22 13
-864.165067672729 -190.404087305069 2698.99988174438 17 20 13
-834.441006183624 -187.042102217674 2651.00002288818 9 12 5
-819.149494171143 -185.219898819923 2625 13 16 7
-828.12774181366 -188.901677727699 2677.00004577637 13 16 7
-832.224369049072 -191.525503993034 2713.99998664856 13 16 7
-819.707870483398 -190.33882021904 2697.00002670288 12 15 6
-813.006162643433 -190.493136644363 2698.99988174438 14 17 6
-798.233330249786 -188.741818070412 2674.00002479553 13 16 5
-781.52471780777 -186.496242880821 2641.99995994568 11 14 3
-775.24733543396 -186.72126531601 2644.99998092651 13 16 9
-740.494906902313 -180.027723312378 2549.99995231628 13 16 9
-737.613916397095 -181.02915585041 2563.99989128113 10 13 6
-737.506210803986 -182.736948132515 2588.00005912781 9 12 5
-732.18697309494 -183.173999190331 2594.00010108948 9 12 5
-708.663642406464 -179.020911455154 2535.00008583069 12 15 8
-705.945551395416 -180.093511939049 2549.99995231628 13 16 9
-700.404286384583 -180.460095405579 2555.0000667572 15 18 11
-701.349139213562 -182.522013783455 2584.00011062622 15 18 11
-694.07457113266 -182.465046644211 2582.99994468689 13 16 9
-680.952727794647 -180.853947997093 2559.99994277954 12 15 8
-681.908905506134 -182.987213134766 2589.99991416931 10 13 4
-665.53795337677 -182.379066944122 2581.00008964539 11 14 5
-654.708623886108 -181.332990527153 2565.99998474121 12 15 6
-638.658583164215 -178.802624344826 2529.99997138977 12 15 6
-636.537611484528 -180.159226059914 2549.00002479553 15 16 8
-635.30045747757 -181.79877102375 2572.00002670288 16 17 9
-626.120150089264 -181.17655813694 2562.99996376038 16 17 9
-616.987586021423 -180.554196238518 2553.99990081787 15 16 8
-612.9190325737 -181.416481733322 2565.99998474121 14 15 7
-596.504628658295 -178.60221862793 2526.00002288818 15 16 8
-591.044187545776 -179.040223360062 2532.00006484985 13 16 7
-594.086408615112 -182.094782590866 2575.00004768372 13 16 7
-593.929946422577 -184.230387210846 2605.00001907349 13 16 7
-582.120060920715 -182.7592253685 2584.00011062622 15 18 9
-572.42614030838 -181.924402713776 2572.00002670288 17 20 11
-563.235998153687 -181.230872869492 2562.00003623962 15 18 9
-563.001155853271 -183.437719941139 2592.99993515015 16 19 10
-565.169334411621 -186.493813991547 2635.99991798401 18 21 12
-561.386942863464 -187.639981508255 2651.99995040894 20 23 14
-553.546011447906 -187.441825866699 2648.9999294281 18 21 12
-876.949489116669 -198.997050523758 2716.00008010864 4 7 0
-855.575144290924 -197.483524680138 2694.9999332428 16 19 12
-829.392433166504 -193.099394440651 2634.99999046326 10 13 6
-816.016495227814 -191.646337509155 2615.00000953674 13 16 7
-826.568067073822 -195.836737751961 2671.99993133545 13 16 7
-830.371260643005 -198.488622903824 2707.99994468689 13 16 7
-818.174839019775 -197.329297661781 2691.99991226196 12 15 6
-809.679269790649 -197.049617767334 2687.99996376038 14 17 8
-780.919671058655 -193.557888269424 2640.00010490417 11 14 3
-769.665002822876 -192.545041441917 2625.99992752075 12 15 8
-757.03376531601 -191.165551543236 2607.00011253357 12 15 8
-765.217483043671 -195.065930485725 2660.00008583069 11 14 7
-752.025842666626 -193.539947271347 2638.99993896484 8 11 4
-724.55221414566 -188.273280858994 2566.99991226196 9 12 5
-711.44562959671 -186.673417687416 2545.00007629395 14 17 10
-696.519613265991 -184.559896588326 2516.00003242493 16 19 12
-694.908082485199 -185.967400670052 2535.00008583069 16 19 12
-689.12148475647 -186.274707317352 2539.00003433228 16 19 12
-686.536908149719 -187.462583184242 2555.0000667572 13 16 9
-690.056502819061 -192.334026098251 2621.00005149841 9 12 3
-679.820895195007 -191.46791100502 2608.99996757507 10 13 4
-669.391572475433 -190.528333187103 2595.99995613098 11 14 5
-655.714988708496 -188.63445520401 2569.9999332428 13 16 7
-641.673803329468 -186.593517661095 2542.00005531311 14 17 8
-634.525775909424 -186.534360051155 2540.99988937378 15 16 8
-628.370225429535 -186.768874526024 2543.99991035461 16 17 9
-627.083122730255 -188.471853733063 2566.99991226196 15 16 8
-619.389176368713 -188.26599419117 2563.99989128113 13 14 6
-612.904846668243 -188.427284359932 2565.99998474121 13 14 6
-602.158069610596 -187.266737222672 2549.99995231628 14 15 7
-598.966598510742 -188.456162810326 2565.99998474121 13 16 7
-593.380093574524 -188.911288976669 2572.00002670288 13 16 7
-588.21576833725 -189.513355493546 2579.99992370605 13 16 7
-580.754160881042 -189.380913972855 2578.00006866455 16 19 10
-572.189509868622 -188.881084322929 2571.00009918213 17 20 11
-567.838549613953 -189.777076244354 2582.99994468689 15 18 9
-575.362741947174 -194.714456796646 2650.00009536743 14 17 8
-561.51020526886 -192.451193928719 2618.99995803833 16 19 10
-549.941956996918 -190.922453999519 2598.00004959106 20 23 14
-556.874990463257 -195.860862731934 2664.99996185303 18 21 12
-869.848012924194 -208.252787590027 2740.00000953674 19 22 15
-834.730446338654 -201.577425003052 2651.99995040894 15 18 9
-805.081963539124 -196.117535233498 2579.99992370605 11 14 5
-816.965281963348 -200.7677257061 2641.00003242493 13 16 7
-816.252470016479 -202.377662062645 2661.99994087219 13 16 7
-818.768978118896 -204.824343323708 2694.00000572205 12 15 6
-806.050956249237 -203.469723463058 2676.00011825562 14 17 8
-796.414852142334 -202.875450253487 2667.99998283386 13 16 7
-782.088994979858 -201.064512133598 2644.00005340576 11 14 5
-773.461222648621 -200.698405504227 2638.99993896484 11 14 7
-771.248400211334 -202.005609869957 2655.99989891052 11 14 7
-749.956667423248 -198.293045163155 2607.00011253357 9 12 5
-741.1829829216 -197.850912809372 2601.0000705719 10 13 6
-715.223908424377 -192.76836514473 2533.99991989136 15 18 11
-709.195256233215 -193.010687828064 2536.99994087219 17 20 13
-700.104534626007 -192.416206002235 2529.00004386902 15 18 11
-685.84805727005 -190.375983715057 2502.00009346008 14 17 10
-687.207520008087 -192.672953009605 2532.00006484985 12 15 8
-686.791360378265 -194.513723254204 2555.99999427795 10 13 6
-684.648215770721 -195.898190140724 2573.99988174438 9 12 5
-687.145590782166 -198.652938008308 2609.99989509583 9 12 3
-673.552632331848 -196.764975786209 2585.00003814697 11 14 5
-658.547163009644 -194.419994950294 2553.99990081787 13 16 7
-651.618182659149 -194.434732198715 2553.99990081787 15 18 9
-643.17387342453 -193.992719054222 2548.00009727478 15 18 9
-627.519428730011 -191.342517733574 2513.00001144409 17 18 10
-626.379787921906 -193.108484148979 2536.00001335144 17 18 10
-625.602841377258 -195.027053356171 2561.00010871887 14 15 7
-614.301681518555 -193.671062588692 2542.99998283386 12 13 5
-607.63543844223 -193.762004375458 2543.99991035461 14 15 7
-609.699785709381 -196.671277284622 2582.00001716614 15 16 8
-604.787468910217 -197.371870279312 2591.00008010864 12 15 6
-590.135514736176 -194.872915744781 2558.00008773804 13 16 7
-583.185434341431 -194.887757301331 2558.00008773804 14 17 8
-578.26155424118 -195.588320493698 2566.99991226196 16 19 10
-577.070891857147 -197.584316134453 2592.99993515015 17 20 11
-584.311246871948 -202.552631497383 2657.99999237061 17 20 11
-573.393702507019 -201.272368431091 2641.00003242493 13 16 7
-554.420471191406 -197.095632553101 2585.99996566772 14 17 8
-551.832377910614 -198.711082339287 2607.00011253357 21 24 15
-563.546538352966 -205.586463212967 2697.00002670288 20 23 14
-878.85445356369 -216.104209423065 2744.99988555908 19 22 15
-885.389983654022 -219.582110643387 2789.00003433228 19 22 15
-814.742147922516 -205.594465136528 2611.00006103516 16 19 10
-812.002420425415 -206.71047270298 2625 13 16 7
-809.799551963806 -207.984253764153 2641.00003242493 13 16 7
-804.774582386017 -208.549588918686 2648.00000190735 13 16 7
-802.723348140717 -209.902733564377 2664.99996185303 14 17 8
-784.162104129791 -206.924006342888 2627.00009346008 12 15 6
-794.793784618378 -211.664795875549 2687.00003623962 11 14 5
-778.72234582901 -209.316238760948 2657.00006484985 11 14 7
-759.909272193909 -206.17963373661 2617.00010299683 10 13 6
-737.749099731445 -204.002797603607 2588.99998664856 11 14 7
-725.370585918427 -202.520281076431 2569.9999332428 14 17 10
-708.621919155121 -199.776783585548 2535.00008583069 17 20 13
-698.429107666016 -198.845595121384 2523.00000190735 14 17 10
-705.021679401398 -202.72234082222 2572.00002670288 12 15 8
-697.506248950958 -202.57967710495 2569.9999332428 11 14 7
-686.507940292358 -201.412260532379 2555.0000667572 9 12 5
-682.771503925323 -202.373296022415 2566.99991226196 8 11 4
-675.020098686218 -202.151894569397 2563.99989128113 10 13 4
-661.030828952789 -200.038149952888 2536.99994087219 12 15 6
-654.148936271667 -200.053215026855 2536.99994087219 15 18 9
-641.142964363098 -198.175698518753 2513.00001144409 15 18 9
-639.877438545227 -199.925720691681 2535.00008583069 16 19 10
-632.248997688293 -199.704274535179 2532.00006484985 19 20 12
-630.810558795929 -201.454728841782 2553.99990081787 18 19 11
-621.923565864563 -200.838983058929 2546.0000038147 15 16 8
-613.561987876892 -200.380906462669 2539.99996185303 13 14 6
-611.441969871521 -201.974079012871 2559.99994277954 14 15 7
-614.643216133118 -205.382227897644 2602.9999256134 16 17 9
-606.872856616974 -205.16112446785 2599.99990463257 12 15 6
-592.88877248764 -202.809289097786 2569.9999332428 13 16 7
-596.621096134186 -206.533923745155 2617.00010299683 14 17 8
-587.932646274567 -205.997094511986 2609.99989509583 16 19 10
-581.061482429504 -206.091612577438 2611.00006103516 17 20 11
-578.58020067215 -207.764849066734 2631.99996948242 17 20 11
-579.023003578186 -210.543543100357 2667.00005531311 14 17 8
-565.982341766357 -208.427727222443 2640.00010490417 13 16 7
-560.918927192688 -209.23288166523 2650.00009536743 18 21 12
-895.959556102753 -226.018160581589 2775.00009536743 20 23 14
-881.722092628479 -224.321648478508 2753.99994850159 20 23 14
-821.593284606934 -214.506909251213 2632.99989700317 15 18 9
-807.039141654968 -212.565585970879 2608.99996757507 13 16 7
-806.412696838379 -214.290753006935 2630.00011444092 13 16 7
-804.456412792206 -215.69037437439 2647.0000743866 12 15 6
-799.696743488312 -216.35690331459 2654.99997138977 12 15 8
-798.773944377899 -218.083128333092 2676.00011825562 11 14 7
-788.567245006561 -217.2831594944 2665.99988937378 11 14 7
-781.931340694427 -217.461317777634 2667.99998283386 10 13 6
-765.41131734848 -214.868173003197 2635.99991798401 9 12 5
-747.338354587555 -211.785688996315 2598.00004959106 8 11 4
-747.422456741333 -213.838934898376 2622.99990653992 15 18 11
-722.251117229462 -208.636358380318 2559.00001525879 16 19 12
-709.725260734558 -207.020729780197 2539.00003433228 15 18 11
-701.18260383606 -206.546545028687 2532.99999237061 12 15 8
-696.783304214478 -207.295581698418 2542.00005531311 10 13 6
-699.662268161774 -210.246756672859 2578.00006866455 9 12 5
-694.015920162201 -210.670113563538 2582.99994468689 10 13 6
-682.224273681641 -209.217548370361 2565.00005722046 11 14 7
-679.480254650116 -210.538312792778 2581.00008964539 13 16 7
-663.100004196167 -207.617193460464 2545.00007629395 13 16 7
-651.039659976959 -206.001088023186 2525.00009536743 15 18 9
-644.189238548279 -206.016600131989 2525.00009536743 16 19 10
-634.056627750397 -204.971328377724 2512.00008392334 17 20 11
-634.980320930481 -207.516476511955 2542.99998283386 15 16 8
-621.409714221954 -205.328747630119 2516.00003242493 15 16 8
-628.259003162384 -209.914743900299 2572.00002670288 14 15 7
-615.478932857513 -207.971721887589 2548.00009727478 13 14 6
-610.23223400116 -208.558887243271 2555.0000667572 12 13 5
-609.432637691498 -210.697144269943 2581.00008964539 12 13 5
-605.690002441406 -211.856082081795 2595.00002861023 12 15 6
-597.256302833557 -211.382240056992 2588.99998664856 14 17 8
-591.58980846405 -211.888149380684 2595.00002861023 16 19 10
-588.142156600952 -213.210672140121 2611.00006103516 17 20 11
-581.935822963715 -213.55339884758 2615.00000953674 18 21 12
-565.814733505249 -210.220947861671 2573.99988174438 10 13 4
-562.507271766663 -211.625218391418 2591.00008010864 11 14 5
-562.75075674057 -214.418292045593 2625 13 16 7
-561.749696731567 -216.803282499313 2654.00004386902 20 23 14
-894.669055938721 -231.296807527542 2747.99990653992 31 35 21
-896.268308162689 -233.667746186256 2776.00002288818 20 23 12
-827.819764614105 -223.370611667633 2653.00011634827 16 19 10
-807.624638080597 -221.799969673157 2634.0000629425 13 16 7
-812.647104263306 -225.183248519897 2674.00002479553 12 15 8
-804.500997066498 -224.945768713951 2671.0000038147 12 15 8
-797.266185283661 -224.961072206497 2671.0000038147 11 14 7
-792.692899703979 -225.734606385231 2680.0000667572 11 14 7
-784.553468227386 -225.497543811798 2677.00004577637 9 12 5
-778.752684593201 -225.934520363808 2681.99992179871 9 12 5
-747.898399829865 -219.04219686985 2599.99990463257 8 11 4
-733.729660511017 -216.951429843903 2575.00004768372 15 18 11
-724.493682384491 -216.29287302494 2566.99991226196 17 20 13
-709.150910377502 -213.780492544174 2536.99994087219 14 17 10
-701.997756958008 -213.711723685265 2536.00001335144 11 14 7
-708.280205726624 -217.772603034973 2584.00011062622 10 13 6
-703.174650669098 -218.37854385376 2591.00008010864 10 13 6
-692.925333976746 -217.383101582527 2578.9999961853 11 14 7
-681.144595146179 -215.881869196892 2561.00010871887 12 15 8
-674.199223518372 -215.897858142853 2561.00010871887 13 16 7
-661.781549453735 -214.143455028534 2539.99996185303 14 17 8
-650.765955448151 -212.810382246971 2523.9999294281 15 18 9
-639.326274394989 -211.308553814888 2506.00004196167 16 19 10
-640.098571777344 -213.8542085886 2536.00001335144 16 19 10
-631.219029426575 -213.195636868477 2528.00011634827 14 15 7
-617.936313152313 -211.018845438957 2502.00009346008 14 15 7
-612.854361534119 -211.625158786774 2509.0000629425 13 14 6
-615.946054458618 -215.099573135376 2549.99995231628 13 14 6
-607.11133480072 -214.440956711769 2542.00005531311 12 13 5
-604.221880435944 -215.891346335411 2559.00001525879 12 13 5
-600.305438041687 -217.004477977753 2572.00002670288 12 15 6
-598.162829875946 -218.792781233788 2592.99993515015 14 17 8
-594.309151172638 -219.990640878677 2607.00011253357 16 19 10
-586.098551750183 -219.585224986076 2601.99999809265 17 20 11
-577.91393995285 -219.179719686508 2596.99988365173 17 20 11
-558.105289936066 -214.300751686096 2539.00003433228 20 23 14
-554.892957210541 -215.751737356186 2555.99999427795 21 24 15
-561.019480228424 -220.917195081711 2617.00010299683 20 23 14
-567.236363887787 -226.252242922783 2680.0000667572 17 20 11
-887.492537498474 -236.876249313354 2726.0000705719 25 26 12
-888.505160808563 -239.149957895279 2752.00009346008 19 21 8
-866.646289825439 -235.253855586052 2707.00001716614 17 20 9
-859.538972377777 -237.369358539581 2730.99994659424 17 20 11
-846.526682376862 -235.819950699806 2713.00005912781 14 17 8
-822.476208209991 -231.141090393066 2658.99991989136 12 15 6
-816.807985305786 -231.590911746025 2664.00003433228 12 15 6
-811.416208744049 -232.127904891968 2670.00007629395 11 14 7
-802.076041698456 -231.534853577614 2663.00010681152 11 14 7
-798.444509506226 -232.593953609467 2674.99995231628 11 14 7
-787.944734096527 -231.653332710266 2664.00003433228 10 13 6
-787.175238132477 -233.582481741905 2686.00010871887 8 11 4
-776.704072952271 -232.6420545578 2674.99995231628 9 12 5
-746.731996536255 -225.787356495857 2595.99995613098 11 14 7
-733.713984489441 -223.976701498032 2575.00004768372 15 18 11
-725.324690341949 -223.557725548744 2569.9999332428 16 19 12
-721.993088722229 -224.704653024673 2582.99994468689 11 14 7
-706.893563270569 -224.389120936394 2578.9999961853 10 13 6
-703.429698944092 -225.53662955761 2592.00000762939 11 14 7
-690.222322940826 -223.551690578461 2569.00000572205 13 16 9
-680.064499378204 -222.523838281631 2556.99992179871 13 16 9
-668.128192424774 -220.886692404747 2538.00010681152 15 18 9
-656.815111637115 -219.42338347435 2520.99990844727 15 18 9
-647.913813591003 -218.743309378624 2513.00001144409 16 19 10
-644.667565822601 -219.978347420692 2526.99995040894 16 19 10
-632.762849330902 -218.253642320633 2506.99996948242 15 18 9
-638.943016529083 -222.797304391861 2559.00001525879 14 15 7
-613.474667072296 -216.283693909645 2483.99996757507 14 15 7
-618.456125259399 -220.479667186737 2532.00006484985 14 15 7
-615.4465675354 -221.889555454254 2548.00009727478 14 15 7
-614.737272262573 -224.170550704002 2573.99988174438 14 15 7
-604.913711547852 -223.142266273499 2562.00003623962 14 15 7
-600.755631923676 -224.204242229462 2573.99988174438 12 15 6
-597.684741020203 -225.701972842216 2591.00008010864 15 18 9
-594.748258590698 -227.286994457245 2608.99996757507 17 20 11
-579.549670219421 -224.167585372925 2572.99995422363 17 20 11
-560.067296028137 -222.02268242836 2548.00009727478 12 15 6
-558.567106723785 -224.217802286148 2572.99995422363 15 18 9
-555.429220199585 -225.8031219244 2591.00008010864 23 26 17
-555.578649044037 -228.78310084343 2625 20 23 14
-870.087862014771 -241.543292999268 2694.9999332428 18 20 7
-848.383367061615 -237.524583935738 2650.00009536743 14 17 6
-859.618306159973 -242.738232016563 2707.99994468689 15 18 7
-858.894288539886 -244.635984301567 2729.00009155273 16 19 10
-852.751851081848 -245.010122656822 2733.00004005432 13 16 7
-825.554072856903 -239.287987351418 2668.99991035461 12 15 6
-812.500059604645 -237.600028514862 2650.00009536743 12 15 6
-806.842088699341 -238.064020872116 2654.99997138977 11 14 7
-797.241270542145 -237.362533807755 2647.0000743866 11 14 7
-793.055832386017 -238.275274634361 2657.00006484985 10 13 6
-790.886223316193 -239.81611430645 2674.00002479553 10 13 6
-778.366923332214 -238.218113780022 2655.99989891052 8 11 4
-769.13857460022 -237.60674893856 2648.9999294281 9 12 5
-757.358610630035 -236.188054084778 2632.99989700317 9 12 5
-727.144479751587 -228.938221931458 2552.00004577637 14 17 10
-730.670571327209 -232.273906469345 2588.99998664856 15 18 11
-733.157098293304 -235.341012477875 2622.99990653992 10 13 6
-718.297004699707 -232.845515012741 2595.00002861023 10 13 6
-708.521664142609 -231.964960694313 2585.00003814697 11 14 7
-698.528170585632 -230.994611978531 2573.99988174438 11 14 7
-691.011726856232 -230.831936001778 2572.00002670288 13 16 9
-676.05859041214 -228.156223893166 2542.00005531311 13 16 9
-667.058646678925 -227.454885840416 2533.99991989136 16 19 10
-663.311958312988 -228.548869490623 2546.0000038147 16 19 10
-650.47550201416 -226.500973105431 2523.00000190735 16 19 10
-640.824377536774 -225.530177354813 2512.00008392334 16 19 10
-644.103944301605 -229.13846373558 2552.00004577637 15 18 9
-635.929942131042 -228.706568479538 2546.99993133545 14 15 7
-629.757821559906 -228.99304330349 2549.99995231628 14 15 7
-621.226489543915 -231.003224849701 2572.00002670288 14 15 7
-616.630792617798 -231.918692588806 2582.00001716614 14 15 7
-609.618782997131 -231.936052441597 2582.00001716614 14 15 7
-605.17293214798 -232.941597700119 2592.99993515015 12 15 6
-599.282264709473 -233.408227562904 2598.00004959106 16 19 10
-593.135297298431 -233.785033226013 2601.99999809265 18 21 12
-581.33465051651 -231.915548443794 2581.00008964539 18 21 12
-574.542343616486 -232.022672891617 2582.00001716614 16 19 10
-571.040511131287 -233.477830886841 2598.00004959106 15 18 9
-558.333158493042 -231.158375740051 2572.00002670288 19 22 13
-554.983556270599 -232.703477144241 2588.99998664856 26 29 20
-551.328659057617 -234.158843755722 2605.00001907349 19 22 13
-868.458867073059 -248.427867889404 2690.00005722046 17 19 6
-861.494243144989 -248.535230755806 2690.99998474121 13 16 5
-857.0636510849 -249.381795525551 2700.00004768372 14 17 6
-868.94965171814 -255.031853914261 2760.99991798401 16 19 8
-841.191351413727 -249.043554067612 2696.00009918213 13 16 7
-812.54768371582 -242.685228586197 2627.00009346008 12 15 8
-813.097476959229 -245.010614395142 2651.99995040894 12 15 8
-809.561133384705 -246.135383844376 2664.00003433228 11 14 7
-801.140487194061 -245.782077312469 2660.00008583069 11 14 7
-789.159417152405 -244.320049881935 2644.00005340576 10 12 7
-780.222237110138 -243.782103061676 2638.00001144409 10 12 7
-774.833738803864 -244.353234767914 2644.00005340576 9 12 5
-769.70249414444 -245.017021894455 2651.00002288818 10 13 6
-763.957560062408 -245.496183633804 2655.99989891052 9 12 5
-735.390961170197 -238.58055472374 2581.00008964539 14 17 10
-730.624675750732 -241.66513979435 2614.00008201599 10 13 6
-722.985565662384 -241.497457027435 2611.99998855591 10 13 6
-707.956373691559 -238.833338022232 2582.99994468689 11 14 7
-696.882963180542 -237.463533878326 2568.00007820129 11 14 7
-692.875325679779 -238.497987389565 2578.9999961853 13 16 9
-681.094706058502 -236.850649118423 2561.00010871887 13 16 9
-669.937252998352 -235.38812994957 2545.00007629395 16 19 10
-665.900051593781 -236.42286658287 2555.99999427795 17 20 11
-654.325723648071 -234.775200486183 2538.00010681152 17 20 11
-644.37872171402 -233.682423830032 2526.00002288818 16 19 10
-642.067551612854 -235.365018248558 2543.99991035461 14 17 8
-643.902182579041 -238.620847463608 2578.9999961853 13 14 6
-635.667443275452 -238.175898790359 2573.99988174438 13 14 6
-629.657208919525 -238.563790917397 2578.00006866455 14 15 7
-621.208965778351 -238.026291131973 2572.00002670288 14 15 7
-614.702701568604 -238.229095935822 2573.99988174438 14 15 7
-609.601199626923 -238.98734152317 2582.00001716614 14 15 7
-600.020945072174 -237.98693716526 2571.00009918213 13 16 7
-596.49658203125 -239.393219351768 2585.99996566772 17 20 11
-591.066062450409 -240.059077739716 2592.99993515015 19 22 13
-582.218050956726 -239.336222410202 2585.00003814697 18 21 12
-573.634803295136 -238.705828785896 2578.00006866455 17 20 11
-576.517760753632 -242.890521883965 2622.99990653992 16 19 10
-565.913379192352 -241.42675101757 2607.00011253357 10 13 4
-551.107704639435 -238.110423088074 2571.00009918213 17 20 11
-550.041377544403 -240.721270442009 2598.99997711182 20 23 14
-542.554080486298 -240.553632378578 2596.99988365173 20 23 14
-871.672213077545 -256.710976362228 2700.00004768372 17 18 10
-867.881596088409 -257.772326469421 2710.99996566772 15 18 11
-854.456543922424 -258.184373378754 2714.99991416931 15 18 11
-825.26296377182 -251.543492078781 2644.99998092651 13 16 9
-809.74805355072 -248.991549015045 2618.00003051758 12 15 8
-813.694596290588 -252.431690692902 2654.00004386902 12 15 8
-814.710736274719 -255.016356706619 2680.99999427795 11 14 7
-808.954477310181 -255.508780479431 2686.00010871887 11 14 7
-796.604454517365 -253.908544778824 2668.99991035461 10 13 6
-778.135240077972 -250.310301780701 2631.00004196167 10 13 6
-779.212534427643 -252.991378307343 2658.99991989136 9 12 5
-765.330255031586 -250.820159912109 2635.99991798401 9 12 5
-762.214541435242 -252.169728279114 2650.00009536743 10 13 6
-753.893673419952 -251.80658698082 2645.99990844727 13 16 9
-731.765687465668 -246.780127286911 2592.99993515015 13 16 9
-734.79962348938 -250.223934650421 2628.99994850159 10 13 6
-721.030533313751 -247.957274317741 2605.00001907349 11 14 7
-706.842720508575 -245.499953627586 2578.9999961853 12 15 8
-696.322858333588 -244.280010461807 2565.99998474121 13 16 9
-695.544242858887 -246.487349271774 2588.99998664856 14 17 10
-688.25763463974 -246.410027146339 2588.00005912781 14 17 10
-674.394726753235 -243.952214717865 2562.00003623962 17 20 13
-661.453604698181 -241.779834032059 2539.00003433228 18 21 14
-653.792560100555 -241.511836647987 2536.00001335144 15 18 11
-651.503801345825 -243.243917822838 2553.99990081787 13 16 9
-656.435489654541 -247.738465666771 2601.0000705719 13 16 9
-643.884241580963 -245.661169290543 2578.9999961853 10 13 6
-634.908676147461 -244.91722881794 2571.00009918213 12 15 8
-627.196967601776 -244.649574160576 2568.00007820129 14 17 10
-618.05123090744 -243.810206651688 2559.00001525879 13 16 9
-615.878820419312 -245.733961462975 2578.9999961853 12 15 8
-604.625344276428 -244.036972522736 2561.00010871887 13 16 7
-598.136007785797 -244.245663285255 2562.99996376038 14 17 8
-593.018770217896 -245.02620100975 2571.00009918213 18 21 10
-588.996648788452 -246.283382177353 2584.00011062622 19 22 11
-580.398261547089 -245.634347200394 2576.99990272522 17 20 9
-579.402029514313 -248.226270079613 2604.00009155273 17 20 9
-566.389381885529 -245.670586824417 2576.99990272522 21 24 15
-568.283140659332 -249.597579240799 2618.00003051758 13 16 7
-555.376946926117 -247.041523456573 2591.00008010864 17 20 13
-547.483921051025 -246.678158640862 2586.99989318848 23 25 20
-540.865004062653 -246.886879205704 2588.99998664856 15 17 12
-869.528114795685 -261.218577623367 2671.0000038147 26 28 17
-868.105411529541 -262.994349002838 2688.99989128113 17 18 10
-873.628079891205 -266.922473907471 2729.00009155273 14 17 10
-869.094014167786 -267.818957567215 2737.99991607666 14 17 10
-839.963555335999 -261.085718870163 2668.99991035461 14 17 10
-816.198706626892 -255.917131900787 2615.9999370575 12 15 8
-813.134253025055 -257.205158472061 2628.99994850159 12 15 8
-813.677966594696 -259.667575359344 2654.00004386902 12 15 8
-823.20249080658 -265.065968036652 2709.00011062622 11 14 7
-818.875908851624 -266.061812639236 2719.00010108948 11 14 7
-795.990407466888 -260.990738868713 2667.00005531311 10 13 6
-783.145844936371 -259.14865732193 2648.00000190735 10 13 6
-773.92041683197 -258.481055498123 2641.00003242493 9 12 5
-775.184214115143 -261.337131261826 2670.00007629395 9 12 5
-753.85582447052 -256.558686494827 2621.00005149841 10 13 6
-746.753096580505 -256.576389074326 2621.00005149841 13 16 9
-746.986985206604 -259.139627218246 2647.0000743866 13 16 9
-722.484111785889 -253.087639808655 2585.00003814697 11 14 7
-725.164353847504 -256.532460451126 2619.99988555908 11 14 7
-702.713906764984 -251.067131757736 2563.99989128113 13 16 9
-688.164293766022 -248.343110084534 2536.00001335144 13 16 9
-695.794880390167 -253.64938378334 2589.99991416931 14 17 10
-690.898835659027 -254.451185464859 2598.00004959106 14 17 10
-674.903094768524 -251.139342784882 2563.99989128113 17 20 13
-663.780331611633 -249.590322375298 2548.00009727478 18 21 14
-657.641649246216 -249.902427196503 2551.00011825562 15 18 11
-667.811095714569 -256.484657526016 2618.00003051758 13 16 9
-663.231015205383 -257.483214139938 2628.00002098084 12 15 8
-645.114123821259 -253.190815448761 2584.00011062622 11 14 7
-634.396493434906 -251.739591360092 2569.00000572205 12 15 8
-628.399670124054 -252.150148153305 2572.99995422363 14 17 10
-619.482040405273 -251.384705305099 2565.00005722046 13 16 9
-610.845565795898 -250.717163085938 2558.00008773804 13 16 9
-601.773977279663 -249.85346198082 2549.00002479553 13 16 9
-594.383835792542 -249.675884842873 2546.99993133545 16 19 8
-588.387370109558 -250.086426734924 2551.00011825562 18 21 10
-586.470901966095 -252.261787652969 2572.99995422363 19 22 11
-581.280767917633 -253.064751625061 2581.00008964539 17 20 9
-571.151077747345 -251.710563898087 2566.99991226196 17 20 9
-571.206271648407 -254.867076873779 2598.99997711182 17 20 9
-565.659821033478 -255.572229623795 2605.99994659424 20 23 14
-562.646269798279 -257.454365491867 2625 22 25 18
-553.39115858078 -256.492227315903 2615.00000953674 21 23 18
-875.191986560822 -272.534906864166 2710.99996566772 18 21 14
-877.453327178955 -275.567084550858 2740.9999370575 14 17 10
-863.681435585022 -273.572832345963 2720.99995613098 12 15 8
-870.158970355988 -278.013676404953 2765.00010490417 12 15 8
-824.870705604553 -268.193423748016 2667.00005531311 12 15 8
-821.632206439972 -269.517779350281 2680.0000667572 12 15 8
-820.146203041077 -271.445989608765 2698.99988174438 11 14 7
-823.074460029602 -274.883359670639 2733.00004005432 11 14 7
-806.120276451111 -271.682649850845 2700.99997520447 10 13 6
-794.366598129272 -270.191818475723 2686.00010871887 10 13 6
-775.660932064056 -266.286551952362 2647.0000743866 9 12 5
-769.649863243103 -266.706913709641 2651.00002288818 9 12 5
-759.302616119385 -265.618413686752 2640.00010490417 10 13 6
-743.601143360138 -262.618035078049 2609.99989509583 14 17 10
-729.75480556488 -260.221153497696 2585.99996566772 14 17 10
-725.540459156036 -261.245667934418 2595.99995613098 13 16 9
-713.244795799255 -259.351789951324 2576.99990272522 13 16 9
-693.030655384064 -257.07346200943 2553.99990081787 14 17 10
-688.791811466217 -258.098423480988 2563.99989128113 15 18 11
-686.359524726868 -259.828329086304 2581.00008964539 16 19 12
-672.779023647308 -257.33008980751 2555.99999427795 18 21 14
-662.980496883392 -256.241202354431 2545.00007629395 17 20 13
-664.06786441803 -259.381175041199 2575.99997520447 15 18 11
-666.771829128265 -263.226628303528 2614.00008201599 12 15 8
-652.864992618561 -260.526746511459 2586.99989318848 11 14 7
-644.096672534943 -259.840786457062 2579.99992370605 12 15 8
-634.624660015106 -258.852571249008 2569.9999332428 13 16 9
-629.357755184174 -259.576678276062 2576.99990272522 14 17 10
-622.602880001068 -259.696483612061 2578.00006866455 13 16 9
-603.663206100464 -254.678428173065 2528.00011634827 13 16 9
-601.047098636627 -256.510615348816 2546.0000038147 14 17 10
-593.665063381195 -256.327927112579 2543.99991035461 16 19 10
-588.368713855743 -257.0521235466 2551.00011825562 18 21 10
-588.047564029694 -259.993374347687 2579.99992370605 18 21 10
-583.06360244751 -260.919451713562 2588.99998664856 17 20 9
-573.134779930115 -259.62832570076 2575.99997520447 17 20 9
-572.286248207092 -262.469530105591 2604.00009155273 18 21 10
-568.89671087265 -264.202296733856 2621.00005149841 17 20 9
-560.912609100342 -263.818264007568 2617.00010299683 19 22 13
-559.50915813446 -266.559422016144 2644.00005340576 19 22 15
-555.033087730408 -267.889380455017 2657.00006484985 27 29 24
-893.576800823212 -285.808920860291 2767.99988746643 18 21 14
-880.957961082459 -284.173548221588 2752.00009346008 14 17 10
-881.757020950317 -286.875456571579 2778.00011634827 13 16 9
-853.46257686615 -280.076771974564 2711.99989318848 13 16 9
-847.052991390228 -280.403822660446 2714.99991416931 13 16 9
-829.8020362854 -277.116149663925 2683.00008773804 12 15 8
-824.68056678772 -277.856707572937 2690.00005722046 12 15 8
-822.863399982452 -279.733806848526 2707.99994468689 11 14 7
-821.55054807663 -281.817942857742 2727.9999256134 11 14 7
-812.966346740723 -281.423091888428 2723.99997711182 10 13 6
-793.165326118469 -277.10223197937 2681.99992179871 10 13 6
-790.001034736633 -278.567254543304 2696.00009918213 10 13 6
-767.889797687531 -273.315995931625 2644.99998092651 8 11 4
-756.695806980133 -271.887749433517 2631.00004196167 10 13 6
-746.716678142548 -270.872861146927 2621.00005149841 14 17 10
-730.865299701691 -267.687499523163 2589.99991416931 15 18 11
-719.093978404999 -265.948921442032 2572.99995422363 15 18 11
-717.654585838318 -268.034845590591 2592.99993515015 14 17 10
-714.461743831635 -269.500941038132 2607.00011253357 14 17 10
-699.524462223053 -266.521841287613 2578.00006866455 14 17 10
-694.145798683167 -267.161071300507 2584.00011062622 16 19 12
-675.96971988678 -262.837439775467 2542.00005531311 16 19 12
-667.759299278259 -262.339204549789 2536.99994087219 17 20 13
-666.60863161087 -264.633148908615 2559.00001525879 15 18 11
-659.924328327179 -264.755636453629 2559.99994277954 12 15 8
-652.46856212616 -264.567971229553 2558.00008773804 11 14 7
-655.11691570282 -268.517643213272 2595.99995613098 11 14 7
-642.829358577728 -266.364902257919 2575.00004768372 12 15 8
-636.334002017975 -266.591191291809 2576.99990272522 13 16 9
-628.117501735687 -266.093373298645 2572.00002670288 14 17 10
-615.097045898438 -263.526141643524 2546.99993133545 13 16 9
-607.942342758179 -263.441950082779 2546.0000038147 14 17 10
-600.319862365723 -263.150751590729 2542.99998283386 15 18 11
-596.212923526764 -264.411866664886 2555.0000667572 15 18 9
-592.03976392746 -265.673100948334 2566.99991226196 18 21 12
-589.395761489868 -267.659038305283 2585.99996566772 18 21 12
-585.971891880035 -269.334763288498 2601.99999809265 17 20 9
-578.900158405304 -269.354373216629 2601.99999809265 17 21 7
-570.948302745819 -268.959879875183 2598.00004959106 20 24 10
-568.226158618927 -271.050006151199 2618.00003051758 15 19 5
-560.250282287598 -270.655483007431 2614.00008201599 17 20 9
-560.336053371429 -274.195641279221 2648.00000190735 19 22 13
-560.653567314148 -277.943342924118 2684.00001525879 24 27 20
-873.222470283508 -286.675661802292 2704.99992370605 15 18 11
-876.779675483704 -290.29592871666 2739.00008201599 14 17 10
-860.368609428406 -289.800584316254 2733.99996757507 15 18 11
-838.299989700317 -284.835994243622 2687.00003623962 14 17 10
-829.475283622742 -284.323543310165 2681.99992179871 12 15 8
-830.794036388397 -287.30982542038 2710.00003814697 12 15 8
-821.933567523956 -286.797910928726 2704.99992370605 11 14 7
-810.690701007843 -285.437881946564 2691.99991226196 11 14 7
-803.994476795197 -285.668462514877 2694.00000572205 10 13 6
-804.680228233337 -288.550406694412 2720.99995613098 10 13 6
-786.758959293365 -284.75159406662 2684.99994277954 10 13 6
-765.258312225342 -279.573678970337 2635.99991798401 8 11 4
-755.526661872864 -278.637886047363 2627.00009346008 9 12 5
-744.988560676575 -277.383923530579 2615.00000953674 15 18 11
-730.564415454865 -274.644762277603 2588.99998664856 16 19 12
-721.870064735413 -274.027168750763 2582.99994468689 17 20 13
-717.635691165924 -275.107115507126 2592.99993515015 17 20 13
-713.894486427307 -276.399552822113 2605.00001907349 15 18 11
-695.164024829865 -271.856188774109 2562.00003623962 15 18 11
-688.754081726074 -272.087574005127 2563.99989128113 17 20 13
-675.684750080109 -269.665986299515 2540.99988937378 18 21 14
-668.793082237244 -269.685178995132 2540.99988937378 16 19 12
-665.286958217621 -271.084308624268 2553.99990081787 12 15 8
-662.740468978882 -272.908240556717 2571.00009918213 11 14 7
-658.825695514679 -274.20175075531 2582.99994468689 12 15 8
-645.760357379913 -271.673619747162 2559.00001525879 11 14 7
-645.30611038208 -274.453729391098 2585.00003814697 13 16 9
-639.030516147614 -274.792164564133 2588.00005912781 14 17 10
-625.899970531464 -272.157371044159 2562.99996376038 13 16 9
-618.941485881805 -272.177189588547 2562.99996376038 13 16 9
-609.355568885803 -271.028727293015 2552.00004577637 14 17 10
-597.23162651062 -268.711805343628 2529.99997138977 16 19 12
-587.559640407562 -267.456740140915 2517.99988746643 17 20 13
-590.636432170868 -272.043913602829 2561.00010871887 17 20 11
-596.897065639496 -278.225183486938 2618.99995803833 17 20 11
-593.608617782593 -280.051469802856 2635.99991798401 16 19 8
-581.105053424835 -277.521789073944 2611.99998855591 17 21 7
-573.565602302551 -277.329355478287 2609.99989509583 19 23 9
-573.198199272156 -280.643582344055 2641.00003242493 17 21 7
-569.660484790802 -282.470375299454 2657.99999237061 18 22 8
-566.02931022644 -284.297406673431 2674.99995231628 17 20 9
-860.293328762054 -289.698868989944 2664.99996185303 12 15 8
-865.558803081512 -293.955355882645 2703.9999961853 13 16 9
-861.408591270447 -295.05980014801 2713.99998664856 14 17 10
-851.85444355011 -294.316321611404 2707.00001716614 15 18 11
-848.577618598938 -295.747637748718 2720.00002861023 13 16 9
-821.885645389557 -291.543126106262 2680.99999427795 12 15 8
-813.711225986481 -291.235208511353 2677.99997329712 11 14 7
-807.660698890686 -291.688740253448 2681.99992179871 11 14 7
-802.48361825943 -292.468905448914 2688.99989128113 10 13 6
-800.816714763641 -294.554591178894 2707.99994468689 10 13 6
-780.293583869934 -289.678871631622 2663.00010681152 10 13 6
-771.045446395874 -288.93655538559 2655.99989891052 8 11 4
-750.618577003479 -283.951371908188 2609.99989509583 9 12 5
-729.585826396942 -278.639316558838 2561.00010871887 15 18 11
-727.441549301147 -280.508011579514 2578.00006866455 16 19 12
-722.968757152557 -281.506478786469 2586.99989318848 18 21 14
-722.597897052765 -284.137666225433 2611.00006103516 17 20 13
-691.617369651794 -277.429193258286 2549.00002479553 15 18 11
-673.692107200623 -272.985935211182 2507.99989700317 17 20 13
-677.26081609726 -277.250468730927 2546.99993133545 18 21 14
-673.774421215057 -278.685301542282 2559.99994277954 15 18 11
-667.090713977814 -278.813987970352 2561.00010871887 11 14 7
-658.854186534882 -278.289467096329 2555.99999427795 11 14 7
-650.388956069946 -277.656078338623 2549.99995231628 12 15 8
-651.796698570251 -281.269460916519 2582.99994468689 12 15 8
-643.78821849823 -280.854076147079 2578.9999961853 14 17 10
-636.294305324554 -280.656486749649 2576.99990272522 14 17 10
-627.833604812622 -280.023247003555 2571.00009918213 13 16 9
-623.268246650696 -281.132727861404 2581.00008964539 13 16 9
-611.723244190216 -279.083341360092 2562.00003623962 15 18 11
-601.224720478058 -277.469426393509 2546.99993133545 16 19 12
-592.673420906067 -276.726871728897 2539.99996185303 17 20 13
-590.847074985504 -279.143929481506 2562.00003623962 17 20 11
-595.053493976593 -284.503310918808 2611.00006103516 17 20 11
-592.6873087883 -286.812216043472 2631.99996948242 16 19 8
-585.089206695557 -286.614954471588 2630.00011444092 17 21 7
-579.039096832275 -287.180483341217 2634.99999046326 19 23 9
-569.640040397644 -289.728760719299 2657.99999237061 16 20 6
-568.124651908875 -292.692720890045 2684.99994277954 28 32 18
-873.543918132782 -304.109841585159 2729.00009155273 10 13 6
-862.660467624664 -302.901655435562 2717.99993515015 16 19 12
-844.284355640411 -299.018859863281 2683.00008773804 17 20 13
-829.217195510864 -296.250402927399 2657.99999237061 8 11 4
-830.985605716705 -299.50088262558 2687.00003623962 11 14 7
-820.641040802002 -298.404633998871 2677.00004577637 11 14 7
-813.08501958847 -298.311799764633 2676.00011825562 11 14 7
-806.738495826721 -298.665046691895 2678.99990081787 10 13 6
-803.061306476593 -300.022035837173 2690.99998474121 10 13 6
-798.431575298309 -301.044911146164 2700.00004768372 9 12 5
-793.752670288086 -302.068114280701 2709.00011062622 9 12 5
-775.961101055145 -298.073530197144 2673.00009727478 8 11 4
-745.71031332016 -289.171665906906 2592.99993515015 11 14 7
-732.70046710968 -286.849021911621 2572.00002670288 14 17 10
-728.26874256134 -287.872165441513 2581.00008964539 15 18 11
-723.228752613068 -288.672536611557 2588.00005912781 16 19 12
-713.722169399261 -287.688344717026 2578.9999961853 16 19 12
-684.000790119171 -281.257271766663 2520.99990844727 18 21 14
-677.43331193924 -281.388461589813 2522.0000743866 18 21 14
-678.038775920868 -284.532427787781 2549.99995231628 18 21 14
-673.491239547729 -285.556763410568 2559.00001525879 12 15 8
-665.768325328827 -285.242140293121 2555.99999427795 11 14 7
-648.781597614288 -280.909776687622 2516.99995994568 10 13 6
-652.919292449951 -285.729080438614 2559.99994277954 12 15 8
-647.234380245209 -286.307573318481 2565.00005722046 13 16 9
-639.025032520294 -285.769909620285 2559.99994277954 15 18 11
-630.595028400421 -285.12054681778 2553.99990081787 15 18 11
-621.315896511078 -287.282884120941 2572.99995422363 15 18 11
-615.523040294647 -287.861853837967 2578.00006866455 16 19 12
-603.092849254608 -285.314202308655 2555.0000667572 17 20 13
-593.353152275085 -283.99458527565 2542.99998283386 16 19 12
-592.210352420807 -286.807179450989 2568.00007820129 17 20 13
-592.981696128845 -290.625333786011 2601.99999809265 18 21 14
-588.388025760651 -291.874915361404 2612.99991607666 17 20 9
-585.513234138489 -294.018298387527 2631.99996948242 17 20 9
-579.897224903107 -294.821381568909 2638.99993896484 16 20 6
-572.505831718445 -294.730722904205 2638.00001144409 17 21 7
-567.476034164429 -295.869052410126 2648.00000190735 19 23 9
-563.025534152985 -297.342717647552 2661.00001335144 24 27 16
-896.735906600952 -317.122042179108 2778.00011634827 58 60 55
-878.967821598053 -313.486874103546 2746.00005149841 5 8 1
-865.499019622803 -311.335802078247 2726.99999809265 15 18 11
-851.818442344666 -309.070557355881 2707.00001716614 15 18 11
-835.750341415405 -305.891871452332 2678.99990081787 8 11 4
-838.698387145996 -309.678554534912 2711.99989318848 10 13 6
-831.657946109772 -309.811681509018 2713.00005912781 11 14 7
-813.369929790497 -305.719614028931 2677.00004577637 11 14 7
-811.537384986877 -307.794511318207 2694.9999332428 11 14 7
-807.219743728638 -308.956235647202 2704.99992370605 10 13 6
-804.326117038727 -310.689389705658 2720.00002861023 8 11 4
-790.216624736786 -308.082163333893 2697.00002670288 9 12 5
-761.136472225189 -299.534380435944 2621.99997901917 9 12 5
-751.730024814606 -298.640161752701 2614.00008201599 10 13 6
-735.244870185852 -294.889688491821 2581.00008964539 13 16 9
-728.813290596008 -295.137941837311 2582.99994468689 13 16 9
-723.208904266357 -295.729249715805 2588.00005912781 15 18 11
-708.721041679382 -292.663842439651 2561.00010871887 16 19 12
-688.624501228333 -287.198215723038 2513.00001144409 17 20 13
-680.725336074829 -286.760807037354 2509.0000629425 17 20 13
-680.636644363403 -289.638161659241 2533.99991989136 17 20 13
-680.145800113678 -292.401731014252 2558.00008773804 16 19 12
-676.365792751312 -293.793976306915 2569.9999332428 12 15 8
-661.059558391571 -290.156215429306 2538.00010681152 11 14 7
-653.916418552399 -290.062308311462 2536.99994087219 11 14 7
-648.308098316193 -290.654540061951 2542.00005531311 12 15 8
-644.942760467529 -292.27602481842 2555.99999427795 14 17 10
-637.007534503937 -291.839390993118 2552.00004577637 15 18 11
-623.167514801025 -288.657903671265 2523.9999294281 15 18 11
-623.6412525177 -292.109698057175 2553.99990081787 15 18 11
-622.019469738007 -294.646978378296 2575.99997520447 16 19 12
-614.069700241089 -294.210493564606 2572.00002670288 17 20 13
-604.724407196045 -293.087542057037 2562.00003623962 18 21 14
