ply
format ascii 1.0
comment KinectMotionCapture
element vertex 785
property float x
property float y
property float z
property uchar red
property uchar green
property uchar blue
end_header
-625.500500202179 -473.249852657318 2592.99993515015 16 19 8
-620.604991912842 -474.920153617859 2601.99999809265 16 19 8
-611.651420593262 -473.487704992294 2594.00010108948 16 19 8
-606.00358247757 -474.610686302185 2599.99990463257 15 21 11
-597.5581407547 -473.543286323547 2594.00010108948 17 23 13
-598.02258014679 -479.595750570297 2627.00009346008 18 24 14
-596.057653427124 -483.823210000992 2650.00009536743 20 23 14
-580.856442451477 -477.278649806976 2614.00008201599 21 22 16
-583.409488201141 -485.340982675552 2657.99999237061 21 22 16
-908.361911773682 -503.732264041901 2723.99997711182 3 8 4
-890.717267990112 -498.017221689224 2693.00007820129 10 15 11
-883.738577365875 -498.220205307007 2694.00000572205 11 16 9
-885.213375091553 -503.232359886169 2720.99995613098 12 17 10
-872.347354888916 -500.107705593109 2703.9999961853 13 16 9
-862.452685832977 -498.64786863327 2696.00009918213 13 16 9
-856.72527551651 -499.592959880829 2700.99997520447 12 15 8
-845.624923706055 -497.394114732742 2688.99989128113 10 13 6
-841.136991977692 -499.080181121826 2697.99995422363 9 12 5
-824.856400489807 -493.737280368805 2668.99991035461 11 13 8
-827.726304531097 -499.864220619202 2701.99990272522 10 12 7
-823.433756828308 -501.736998558044 2711.99989318848 8 10 5
-815.175294876099 -501.205265522003 2709.00011062622 9 11 6
-813.791573047638 -504.92936372757 2729.00009155273 9 11 6
-796.933889389038 -499.032497406006 2697.00002670288 8 10 5
-753.58659029007 -480.761408805847 2598.00004959106 11 14 7
-740.792572498322 -477.084338665009 2578.00006866455 21 24 17
-728.675901889801 -473.777264356613 2559.99994277954 17 20 13
-718.348264694214 -471.580684185028 2548.00009727478 14 17 10
-714.786529541016 -473.826259374619 2559.99994277954 14 17 10
-711.435914039612 -476.257473230362 2572.99995422363 15 18 11
-698.431968688965 -472.210466861725 2551.00011825562 15 18 11
-686.360061168671 -468.718528747559 2532.00006484985 14 17 10
-688.07727098465 -474.667936563492 2563.99989128113 13 16 9
-680.854141712189 -474.508821964264 2562.99996376038 13 16 9
-672.321200370789 -473.424047231674 2556.99992179871 13 16 5
-661.218106746674 -470.487713813782 2540.99988937378 13 16 7
-652.519106864929 -469.217836856842 2533.99991989136 13 16 7
-649.717569351196 -472.20703959465 2549.99995231628 13 16 5
-652.12219953537 -479.085713624954 2586.99989318848 13 16 7
-646.844565868378 -480.409413576126 2594.00010108948 13 16 7
-630.182504653931 -473.213642835617 2555.0000667572 14 17 6
-623.73274564743 -473.611146211624 2556.99992179871 17 20 9
-617.753922939301 -474.379390478134 2561.00010871887 17 20 11
-608.652174472809 -472.739577293396 2552.00004577637 16 19 10
-613.981485366821 -482.400119304657 2604.00009155273 15 18 9
-609.471678733826 -484.466016292572 2615.00000953674 13 19 9
-601.446211338043 -483.753085136414 2611.00006103516 16 22 12
-597.539007663727 -486.375212669373 2625 17 23 13
-589.731395244598 -485.847681760788 2621.99997901917 20 23 16
-591.049432754517 -492.917686700821 2660.00008583069 20 21 15
-566.261291503906 -478.120982646942 2579.99992370605 20 20 18
-901.283383369446 -511.350750923157 2724.99990463257 15 20 16
-883.720278739929 -505.55157661438 2694.00000572205 14 17 10
-878.687977790833 -506.88374042511 2700.99997520447 13 16 9
-874.263465404511 -508.592009544373 2710.00003814697 14 17 10
-860.193371772766 -504.670441150665 2688.99989128113 15 18 11
-850.361168384552 -503.189146518707 2680.99999427795 15 18 11
-846.233069896698 -505.086660385132 2690.99998474121 14 17 10
-844.233095645905 -508.298754692078 2707.99994468689 13 16 9
-845.231473445892 -513.388693332672 2734.99989509583 12 14 9
-822.189927101135 -503.837585449219 2684.00001525879 10 12 7
-814.605951309204 -503.672361373901 2683.00008773804 8 10 5
-820.267260074615 -511.767983436584 2726.0000705719 8 10 5
-807.803750038147 -508.600056171417 2709.00011062622 8 10 5
-757.91347026825 -490.64701795578 2612.99991607666 10 13 6
-745.940566062927 -487.478941679001 2595.99995613098 21 24 17
-732.636451721191 -483.371943235397 2573.99988174438 20 23 16
-711.557805538177 -474.006474018097 2523.9999294281 17 20 13
-711.969673633575 -478.913813829422 2549.99995231628 16 19 12
-707.2634100914 -480.441302061081 2558.00008773804 15 18 11
-698.406636714935 -479.151606559753 2551.00011825562 16 19 12
-692.840278148651 -480.116218328476 2555.99999427795 17 20 13
-688.588201999664 -482.020348310471 2565.99998474121 16 19 12
-686.140835285187 -485.239923000336 2582.99994468689 15 18 11
-674.661338329315 -482.072561979294 2565.99998474121 13 16 9
-664.314448833466 -479.656487703323 2552.99997329712 12 15 8
-654.552698135376 -477.616190910339 2542.00005531311 10 13 6
-653.512597084045 -481.964439153671 2565.00005722046 11 14 7
-648.31405878067 -483.306676149368 2572.00002670288 13 16 9
-641.830086708069 -483.709633350372 2573.99988174438 17 20 13
-629.662096500397 -479.790389537811 2552.99997329712 17 20 13
-627.608239650726 -483.576387166977 2572.99995422363 16 19 12
-615.796804428101 -479.844868183136 2552.99997329712 15 18 11
-608.624756336212 -479.684293270111 2552.00004577637 16 19 12
-603.107929229736 -480.839669704437 2558.00008773804 16 19 12
-606.413781642914 -489.138603210449 2601.99999809265 17 23 13
-598.884224891663 -488.790690898895 2599.99990463257 20 23 14
-596.372485160828 -492.578983306885 2619.99988555908 20 23 14
-592.176973819733 -495.051622390747 2632.99989700317 19 20 15
-575.245261192322 -486.806929111481 2588.99998664856 18 18 16
-575.670599937439 -493.228405714035 2622.99990653992 14 14 16
-914.825856685638 -526.571691036224 2766.00003242493 14 19 15
-874.189376831055 -507.361650466919 2664.99996185303 13 16 9
-872.162938117981 -510.426044464111 2680.99999427795 11 14 7
-873.921453952789 -515.775978565216 2709.00011062622 13 16 9
-867.850840091705 -516.557157039642 2713.00005912781 14 17 10
-851.609587669373 -511.245906352997 2684.99994277954 15 18 11
-844.639837741852 -511.456847190857 2686.00010871887 14 17 10
-849.199593067169 -518.714010715485 2723.99997711182 13 16 9
-851.699113845825 -524.829626083374 2756.00004196167 9 11 6
-843.303918838501 -524.280846118927 2753.00002098084 8 10 5
-820.048272609711 -514.400541782379 2700.99997520447 7 9 4
-817.535698413849 -517.470896244049 2717.00000762939 7 9 4
-818.812727928162 -523.017942905426 2746.00005149841 8 10 5
-793.635547161102 -511.613786220551 2686.00010871887 7 9 4
-790.740668773651 -514.495193958282 2700.99997520447 9 12 5
-769.781410694122 -505.566656589508 2654.00004386902 10 13 6
-748.502373695374 -496.256679296494 2605.00001907349 20 23 16
-732.896685600281 -490.565776824951 2575.00004768372 20 23 16
-720.554649829865 -486.970394849777 2555.99999427795 19 22 15
-709.432244300842 -484.137028455734 2540.99988937378 17 20 13
-710.556089878082 -489.687442779541 2569.9999332428 15 18 11
-701.940298080444 -488.569438457489 2563.99989128113 15 18 11
-694.169998168945 -488.023340702057 2561.00010871887 16 19 12
-689.099013805389 -489.383071660995 2568.00007820129 14 17 10
-682.395756244659 -489.599674940109 2569.00000572205 13 16 9
-680.419147014618 -493.247151374817 2588.00005912781 10 13 6
-664.548337459564 -486.793398857117 2553.99990081787 10 13 6
-656.843662261963 -486.248135566711 2551.00011825562 11 14 7
-653.995275497437 -489.324659109116 2566.99991226196 12 15 8
-647.026658058167 -489.351689815521 2566.99991226196 13 16 9
-639.808177947998 -489.18816447258 2565.99998474121 17 20 13
-636.293828487396 -491.884589195251 2579.99992370605 16 19 12
-631.483256816864 -493.628084659576 2588.99998664856 14 17 10
-621.558129787445 -491.367727518082 2576.99990272522 14 17 10
-608.597338199615 -486.628353595734 2552.00004577637 17 20 13
-604.730606079102 -489.134937524796 2565.00005722046 18 21 14
-598.462104797363 -489.73485827446 2568.00007820129 19 25 15
-597.013473510742 -494.339883327484 2592.00000762939 19 22 13
-589.743375778198 -494.177371263504 2591.00008010864 18 21 12
-587.425589561462 -498.211026191711 2611.99998855591 17 18 13
-578.994154930115 -497.094988822937 2605.99994659424 17 17 15
-929.317653179169 -538.136184215546 2786.99994087219 95 101 101
-894.302606582642 -522.126913070679 2703.9999961853 16 21 17
-882.372081279755 -519.441246986389 2690.00005722046 17 20 13
-865.963697433472 -514.052391052246 2661.99994087219 13 16 9
-871.643841266632 -521.795511245728 2701.99990272522 14 17 10
-867.191195487976 -523.553073406219 2710.99996566772 14 17 10
-854.443907737732 -520.289957523346 2694.00000572205 15 18 11
-847.449123859406 -520.503520965576 2694.9999332428 12 15 8
-842.631578445435 -522.069692611694 2703.00006866455 11 14 7
-835.916340351105 -522.477447986603 2704.99992370605 10 12 7
-832.866549491882 -525.203824043274 2719.00010108948 9 11 6
-824.27579164505 -524.45375919342 2714.99991416931 9 11 6
-819.919466972351 -526.408553123474 2724.99990463257 10 12 7
-814.614295959473 -527.784466743469 2732.00011253357 11 13 8
-807.498395442963 -528.001725673676 2733.00004005432 10 12 7
-804.182708263397 -530.731081962585 2746.99997901917 11 14 7
-746.754169464111 -502.184569835663 2598.99997711182 17 20 13
-730.310916900635 -495.83226442337 2565.99998474121 17 20 13
-719.966351985931 -493.537724018097 2553.99990081787 16 19 12
-714.432954788208 -494.528591632843 2559.00001525879 15 18 11
-707.766175270081 -494.746774435043 2559.99994277954 13 16 9
-699.998617172241 -494.192183017731 2556.99992179871 13 16 9
-693.331241607666 -494.410902261734 2558.00008773804 12 15 8
-685.04810333252 -493.470191955566 2552.99997329712 11 14 7
-679.447829723358 -494.462579488754 2558.00008773804 9 12 5
-673.031210899353 -494.875371456146 2559.99994277954 12 15 8
-668.424665927887 -496.64169549942 2569.00000572205 13 16 9
-654.242277145386 -491.255074739456 2540.99988937378 14 17 10
-654.987454414368 -497.081965208054 2571.00009918213 14 17 10
-647.755742073059 -496.91566824913 2569.9999332428 13 16 9
-638.035655021667 -494.815945625305 2559.00001525879 12 15 8
-633.060216903687 -496.390104293823 2566.99991226196 13 16 9
-628.528773784637 -498.351454734802 2576.99990272522 17 20 13
-618.395030498505 -495.864987373352 2563.99989128113 18 21 14
-612.623751163483 -496.859669685364 2569.00000572205 19 22 15
-603.75988483429 -495.340198278427 2561.00010871887 19 22 15
-596.103847026825 -494.787633419037 2558.00008773804 15 21 11
-593.991160392761 -498.877704143524 2578.9999961853 14 17 8
-592.67395734787 -503.741979598999 2604.00009155273 13 16 7
-586.947321891785 -504.931151866913 2609.99989509583 16 17 12
-577.6327252388 -503.024995326996 2599.99990463257 18 18 16
-900.569200515747 -533.205568790436 2723.00004959106 17 22 18
-891.866564750671 -532.439947128296 2719.00010108948 21 24 17
-884.162187576294 -532.26226568222 2717.99993515015 17 20 13
-872.592628002167 -529.735147953033 2704.99992370605 15 18 11
-865.892112255096 -530.14612197876 2707.00001716614 15 18 11
-858.863949775696 -530.361890792847 2707.99994468689 14 17 10
-848.057448863983 -528.227806091309 2697.00002670288 12 15 8
-837.93431520462 -526.485860347748 2687.99996376038 11 14 7
-832.804560661316 -527.878284454346 2694.9999332428 11 13 8
-821.204543113709 -525.157809257507 2680.99999427795 10 12 7
-817.87770986557 -527.726590633392 2694.00000572205 9 11 6
-813.276767730713 -529.512405395508 2703.00006866455 10 12 7
-812.503218650818 -533.845603466034 2724.99990463257 11 13 8
-813.974142074585 -539.747059345245 2755.00011444092 10 12 7
-796.839356422424 -533.306121826172 2721.99988365173 11 14 7
-732.364237308502 -499.457865953445 2549.00002479553 16 19 12
-721.748769283295 -496.934354305267 2536.00001335144 16 19 12
-717.968821525574 -499.113976955414 2546.99993133545 14 17 10
-714.408159255981 -501.490116119385 2559.00001525879 14 17 10
-707.464694976807 -501.515030860901 2559.00001525879 13 16 9
-699.699580669403 -500.952243804932 2555.99999427795 13 16 9
-691.67947769165 -500.193655490875 2552.00004577637 13 16 9
-685.290634632111 -500.611305236816 2553.99990081787 12 15 8
-676.76568031311 -499.461114406586 2548.00009727478 10 13 6
-673.004925251007 -501.839578151703 2559.99994277954 13 16 9
-667.357444763184 -502.846240997314 2565.00005722046 13 16 9
-664.771795272827 -506.20573759079 2582.00001716614 13 16 9
-655.724585056305 -504.664242267609 2573.99988174438 13 16 9
-647.980630397797 -504.103243350983 2571.00009918213 13 16 9
-640.252351760864 -503.542244434357 2568.00007820129 15 18 11
-630.073666572571 -501.02037191391 2555.0000667572 16 19 12
-626.550018787384 -503.793239593506 2569.00000572205 18 21 14
-624.63790178299 -507.939219474792 2589.99991416931 18 21 14
-614.742159843445 -505.613803863525 2578.00006866455 15 18 11
-607.268154621124 -505.249381065369 2575.99997520447 14 17 10
-607.494235038757 -511.358022689819 2607.00011253357 13 19 9
-596.956968307495 -508.44407081604 2592.00000762939 13 16 7
-595.148980617523 -512.984275817871 2615.00000953674 13 16 7
-588.94270658493 -513.797581195831 2618.99995803833 17 18 13
-587.379097938538 -518.731117248535 2644.00005340576 19 19 17
-901.544213294983 -541.210949420929 2726.0000705719 14 19 15
-900.048851966858 -544.802010059357 2743.99995803833 15 18 11
-878.702640533447 -540.867805480957 2723.99997711182 11 14 7
-867.152035236359 -538.305699825287 2710.99996566772 9 12 5
-859.161078929901 -537.928283214569 2709.00011062622 8 11 4
-850.552320480347 -537.154138088226 2704.99992370605 9 12 5
-833.237528800964 -530.820250511169 2673.00009727478 10 13 6
-821.349620819092 -527.862370014191 2657.99999237061 9 11 6
-822.101593017578 -533.047437667847 2684.00001525879 8 10 5
-811.479926109314 -530.884802341461 2673.00009727478 7 9 4
-809.342503547668 -534.283757209778 2690.00005722046 8 10 5
-815.759360790253 -543.443739414215 2736.00006103516 8 10 5
-806.859016418457 -542.474448680878 2730.99994659424 7 9 4
-790.374875068665 -536.340773105621 2700.00004768372 9 12 5
-755.497574806213 -517.49312877655 2605.00001907349 9 12 5
-736.075639724731 -508.974552154541 2562.00003623962 19 22 15
-723.147809505463 -504.826307296753 2540.99988937378 18 21 14
-718.790173530579 -506.638467311859 2549.99995231628 16 19 12
-714.104294776917 -508.252501487732 2558.00008773804 15 18 11
-705.228090286255 -506.886422634125 2551.00011825562 14 17 10
-700.221836566925 -508.302509784698 2558.00008773804 15 18 11
-691.653966903687 -507.135570049286 2552.00004577637 17 20 13
-684.996485710144 -507.35992193222 2552.99997329712 17 20 13
-679.130017757416 -508.180737495422 2556.99992179871 16 19 12
-675.60750246048 -510.790705680847 2569.9999332428 15 18 11
-670.973181724548 -512.606024742126 2578.9999961853 15 18 11
-662.68515586853 -511.638998985291 2573.99988174438 16 19 12
-658.499658107758 -513.852596282959 2585.00003814697 17 20 13
-654.001951217651 -515.86776971817 2595.00002861023 18 21 14
-642.718076705933 -512.515664100647 2578.00006866455 16 19 12
-636.457681655884 -513.139605522156 2581.00008964539 15 18 11
-632.619380950928 -515.752017498016 2594.00010108948 13 16 9
-625.092327594757 -515.382349491119 2592.00000762939 12 15 8
-618.052423000336 -515.410304069519 2592.00000762939 13 16 9
-613.840639591217 -517.824769020081 2604.00009155273 14 17 10
-600.94141960144 -512.881398200989 2578.9999961853 13 19 9
-597.389340400696 -515.892803668976 2594.00010108948 16 19 10
-592.389404773712 -517.711162567139 2602.9999256134 17 20 11
-590.488076210022 -522.314488887787 2625.99992752075 19 20 15
-904.593169689178 -545.995771884918 2713.00005912781 5 11 7
-904.503643512726 -550.439953804016 2734.99989509583 8 13 9
-894.455194473267 -548.847019672394 2726.99999809265 12 15 8
-890.956580638886 -551.280081272125 2739.00008201599 14 17 10
-876.425921916962 -546.870470046997 2717.00000762939 11 14 7
-870.331227779388 -547.694563865662 2720.99995613098 11 14 7
-859.458386898041 -545.499980449677 2710.00003814697 11 14 7
-848.330974578857 -543.104469776154 2697.99995422363 10 13 6
-836.333930492401 -540.105402469635 2683.00008773804 10 13 6
-832.761585712433 -542.542040348053 2694.9999332428 12 14 9
-825.142681598663 -542.362332344055 2694.00000572205 11 13 8
-819.957792758942 -543.793618679047 2700.99997520447 9 11 6
-816.5403008461 -546.433627605438 2713.99998664856 8 10 5
-814.244985580444 -549.879670143127 2730.99994659424 7 9 4
-808.016657829285 -550.708830356598 2734.99989509583 7 9 4
-778.348982334137 -535.429358482361 2658.99991989136 6 9 2
-767.074167728424 -532.634079456329 2644.99998092651 11 14 7
-733.178913593292 -513.929724693298 2552.00004577637 23 26 19
-727.392733097076 -514.758944511414 2555.99999427795 22 25 18
-719.611525535584 -514.178931713104 2552.99997329712 19 22 15
-711.008965969086 -512.994825839996 2546.99993133545 18 21 14
-701.609492301941 -511.206746101379 2538.00010681152 18 21 14
-699.922800064087 -515.058815479279 2556.99992179871 18 21 14
-694.33867931366 -516.091346740723 2562.00003623962 16 19 12
-683.360934257507 -513.095259666443 2546.99993133545 15 18 11
-676.448166370392 -513.121068477631 2546.99993133545 15 18 11
-674.792408943176 -517.176568508148 2566.99991226196 19 22 15
-669.645607471466 -518.613398075104 2573.99988174438 19 22 15
-661.113679409027 -517.431259155273 2568.00007820129 17 20 13
-656.179964542389 -519.070148468018 2575.99997520447 16 19 12
-653.470456600189 -522.522985935211 2592.99993515015 15 18 11
-646.67946100235 -522.752106189728 2594.00010108948 13 16 9
-640.622019767761 -523.585915565491 2598.00004959106 13 16 9
-632.591485977173 -522.807657718658 2594.00010108948 12 15 8
-624.58199262619 -522.029280662537 2589.99991416931 12 15 8
-611.824989318848 -517.21978187561 2565.99998474121 13 16 9
-609.097898006439 -520.876049995422 2584.00011062622 13 16 9
-598.583281040192 -517.880439758301 2569.00000572205 11 17 7
-590.452313423157 -516.900479793549 2563.99989128113 15 18 9
-590.312838554382 -522.976934909821 2594.00010108948 17 20 11
-585.737347602844 -525.223195552826 2605.00001907349 20 21 16
-909.91199016571 -556.64187669754 2729.00009155273 1 7 3
-889.2742395401 -548.498928546906 2688.99989128113 13 18 14
-885.910093784332 -550.963461399078 2700.99997520447 11 14 7
-884.758234024048 -554.856717586517 2720.00002861023 12 15 8
-876.729846000671 -554.466784000397 2717.99993515015 12 15 8
-866.15401506424 -552.445471286774 2707.99994468689 12 15 8
-860.70716381073 -553.688883781433 2713.99998664856 12 15 8
-854.599237442017 -554.524838924408 2717.99993515015 11 14 7
-845.041215419769 -553.117096424103 2710.99996566772 11 14 7
-837.375342845917 -552.934110164642 2710.00003814697 10 12 7
-827.877402305603 -551.527261734009 2703.00006866455 10 12 7
-822.060525417328 -552.569448947906 2707.99994468689 9 11 6
-822.534680366516 -557.897508144379 2733.99996757507 8 10 5
-814.817845821381 -557.716608047485 2733.00004005432 8 10 5
-800.607144832611 -553.046464920044 2710.00003814697 9 11 6
-790.619313716888 -551.2335896492 2700.99997520447 9 12 5
-775.75021982193 -545.951366424561 2674.99995231628 11 14 7
-745.50873041153 -529.647529125214 2595.00002861023 18 21 14
-736.759722232819 -528.446853160858 2588.99998664856 15 18 11
-722.405850887299 -523.164033889771 2562.99996376038 12 15 8
-707.634747028351 -517.472803592682 2535.00008583069 13 16 9
-698.543906211853 -515.864133834839 2526.99995040894 11 14 7
-697.981595993042 -520.584344863892 2549.99995231628 11 14 7
-691.874027252197 -521.222054958344 2552.99997329712 11 14 7
-680.920660495758 -518.185019493103 2538.00010681152 12 15 8
-675.625562667847 -519.435822963715 2543.99991035461 12 15 8
-672.663152217865 -522.52459526062 2559.00001525879 12 15 8
-664.936363697052 -521.938383579254 2555.99999427795 12 15 8
-660.314679145813 -523.802876472473 2565.00005722046 13 16 9
-656.407594680786 -526.280283927917 2576.99990272522 12 15 8
-652.687013149261 -528.96249294281 2589.99991416931 12 15 8
-646.153211593628 -529.398500919342 2592.00000762939 13 16 9
-639.114737510681 -529.426157474518 2592.00000762939 13 16 9
-629.393458366394 -527.20707654953 2581.00008964539 12 15 8
-616.355240345001 -522.127985954285 2555.99999427795 12 15 8
-612.273991107941 -524.607181549072 2568.00007820129 13 16 9
-603.884160518646 -523.409307003021 2562.00003623962 13 16 9
-603.914022445679 -529.566466808319 2592.00000762939 12 18 8
-591.805875301361 -525.099754333496 2569.9999332428 16 19 10
-588.91898393631 -528.806030750275 2588.00005912781 17 20 11
-592.229068279266 -538.234114646912 2634.0000629425 19 20 15
-893.557190895081 -558.502852916718 2701.99990272522 15 20 16
-882.613241672516 -556.245565414429 2690.99998474121 11 14 7
-881.487846374512 -560.190200805664 2710.00003814697 14 17 10
-875.421404838562 -561.034858226776 2713.99998664856 12 15 8
-862.616956233978 -557.539045810699 2697.00002670288 12 15 8
-861.321926116943 -561.485826969147 2716.00008010864 12 15 8
-853.635907173157 -561.298847198486 2714.99991416931 12 15 8
-849.384367465973 -563.386499881744 2724.99990463257 12 15 8
-838.899075984955 -561.339855194092 2714.99991416931 9 11 6
-830.612301826477 -560.740947723389 2711.99989318848 9 11 6
-823.556244373322 -560.969591140747 2713.00005912781 8 10 5
-824.3168592453 -566.574931144714 2740.00000953674 8 10 5
-819.564640522003 -568.459093570709 2749.00007247925 9 11 6
-803.242385387421 -562.278866767883 2719.00010108948 10 12 7
-775.960147380829 -548.239946365356 2651.00002288818 10 13 6
-748.357713222504 -538.773715496063 2605.00001907349 17 20 13
-737.304747104645 -535.902142524719 2591.00008010864 14 17 10
-721.254229545593 -529.307425022125 2559.00001525879 12 15 8
-705.6565284729 -522.919356822968 2528.00011634827 12 15 8
-700.454294681549 -524.184763431549 2533.99991989136 10 13 6
-698.230266571045 -527.726292610168 2551.00011825562 9 12 5
-690.764665603638 -527.337729930878 2549.00002479553 10 13 6
-679.017245769501 -523.639142513275 2530.99989891052 12 15 8
-672.678530216217 -524.078488349915 2532.99999237061 12 15 8
-669.48276758194 -527.001023292542 2546.99993133545 12 15 8
-663.869380950928 -528.061807155609 2552.00004577637 13 16 9
-661.317586898804 -531.606137752533 2569.00000572205 13 16 9
-656.889975070953 -533.702373504639 2578.9999961853 13 16 9
-654.675602912903 -537.661612033844 2598.00004959106 12 15 8
-650.363385677338 -539.965748786926 2608.99996757507 13 16 9
-640.31982421875 -537.509858608246 2596.99988365173 13 16 9
-627.414882183075 -532.57018327713 2572.99995422363 12 15 8
-616.086483001709 -528.871953487396 2555.0000667572 12 15 8
-606.762588024139 -526.829600334167 2545.00007629395 13 16 9
-608.098804950714 -534.10279750824 2579.99992370605 13 16 9
-606.6814661026 -539.09969329834 2604.00009155273 12 18 8
-600.527703762054 -539.956331253052 2608.00004005432 16 19 10
-591.621041297913 -538.328528404236 2599.99990463257 16 19 10
-908.422589302063 -575.27893781662 2746.99997901917 15 20 16
-882.268667221069 -563.358008861542 2690.00005722046 11 14 7
-879.518866539001 -566.306829452515 2703.9999961853 16 19 12
-869.919955730438 -564.858257770538 2697.00002670288 12 15 8
-861.958682537079 -564.457416534424 2694.9999332428 12 15 8
-858.131468296051 -566.780149936676 2706.00008964539 12 15 8
-853.930473327637 -568.894147872925 2716.00008010864 12 15 8
-846.870303153992 -569.12362575531 2717.00000762939 12 15 8
-836.715281009674 -567.258954048157 2707.99994468689 9 11 6
-829.978287220001 -567.699015140533 2710.00003814697 9 11 6
-826.569676399231 -570.443987846375 2723.00004959106 8 10 5
-825.497508049011 -574.865758419037 2743.99995803833 8 10 5
-814.473271369934 -572.374641895294 2732.00011253357 9 11 6
-797.60605096817 -565.693378448486 2700.00004768372 10 12 7
-785.0102186203 -561.94531917572 2681.99992179871 10 13 6
-755.403399467468 -545.835077762604 2605.00001907349 13 16 9
-753.504812717438 -549.630284309387 2622.99990653992 18 21 14
-737.849771976471 -543.367743492126 2592.99993515015 15 18 11
-723.484933376312 -537.943363189697 2566.99991226196 13 16 9
-712.610483169556 -535.033643245697 2552.99997329712 12 15 8
-706.787407398224 -535.896420478821 2556.99992179871 11 14 7
-700.668573379517 -536.549985408783 2559.99994277954 10 13 6
-692.636370658875 -535.736858844757 2555.99999427795 12 15 8
-680.333316326141 -531.570076942444 2536.00001335144 13 16 9
-670.528411865234 -529.289782047272 2525.00009536743 13 16 9
-668.668150901794 -533.298313617706 2543.99991035461 13 16 9
-666.964530944824 -537.517130374908 2563.99989128113 13 16 9
-665.40938615799 -541.946411132813 2585.00003814697 13 16 9
-659.409999847412 -542.812049388886 2588.99998664856 12 15 8
-652.380347251892 -542.839229106903 2588.99998664856 12 15 8
-652.329742908478 -548.737764358521 2617.00010299683 13 16 9
-644.730031490326 -548.346281051636 2615.00000953674 13 16 9
-634.458422660828 -545.648097991943 2601.99999809265 12 15 8
-623.292446136475 -542.110979557037 2585.00003814697 12 15 8
-613.648593425751 -539.83199596405 2573.99988174438 13 16 9
-608.777761459351 -541.747629642487 2582.99994468689 13 16 9
-609.914541244507 -549.116969108582 2618.00003051758 15 21 11
-604.643642902374 -550.823628902435 2625.99992752075 15 18 9
-591.364979743958 -545.188724994659 2598.99997711182 16 19 10
-582.279026508331 -543.329298496246 2589.99991416931 18 19 14
-903.197646141052 -574.676871299744 2709.00011062622 5 11 7
-893.194973468781 -572.994887828827 2700.99997520447 11 16 12
-889.139831066132 -575.132131576538 2710.99996566772 12 15 8
-881.128132343292 -574.724495410919 2709.00011062622 13 16 9
-876.99830532074 -576.863348484039 2719.00010108948 12 15 8
-863.219738006592 -572.637915611267 2698.99988174438 11 14 7
-856.526970863342 -573.080778121948 2700.99997520447 11 14 7
-855.168461799622 -577.13121175766 2720.00002861023 11 14 7
-846.850156784058 -576.514482498169 2717.00000762939 11 14 7
-839.166462421417 -576.322674751282 2716.00008010864 9 11 6
-835.469663143158 -578.890025615692 2727.9999256134 9 11 6
-834.439992904663 -583.368003368378 2749.00007247925 9 11 6
-823.970794677734 -581.268131732941 2739.00008201599 8 10 5
-812.065303325653 -578.107297420502 2723.99997711182 9 11 6
-802.309334278107 -576.432466506958 2716.00008010864 9 11 6
-789.084553718567 -572.211027145386 2696.00009918213 8 11 4
-766.979098320007 -561.409771442413 2644.99998092651 17 20 13
-745.724976062775 -551.032662391663 2595.99995613098 22 25 18
-733.273208141327 -547.023177146912 2576.99990272522 17 20 13
-720.642507076263 -542.801380157471 2556.99992179871 15 18 11
-712.307155132294 -541.7640209198 2552.00004577637 13 16 9
-707.591891288757 -543.486714363098 2559.99994277954 13 16 9
-702.83317565918 -545.209944248199 2568.00007820129 14 17 10
-695.320904254913 -544.810473918915 2565.99998474121 14 17 10
-683.795273303986 -541.226267814636 2549.00002479553 14 17 10
-670.502960681915 -536.155700683594 2525.00009536743 12 15 8
-661.545872688293 -534.482479095459 2516.99995994568 12 15 8
-666.418015956879 -544.064342975616 2562.00003623962 12 15 8
-665.897309780121 -549.40003156662 2586.99989318848 13 16 9
-656.836032867432 -547.727942466736 2578.9999961853 12 15 8
-654.368817806244 -551.577985286713 2596.99988365173 12 15 8
-650.307953357697 -554.154276847839 2608.99996757507 13 16 9
-643.715918064117 -554.606854915619 2611.00006103516 13 16 9
-635.893404483795 -553.997457027435 2608.00004005432 12 15 8
-627.122282981873 -552.538573741913 2601.0000705719 12 15 8
-624.110043048859 -556.178212165833 2618.00003051758 13 16 9
-623.125791549683 -561.73038482666 2644.00005340576 13 16 9
-608.954131603241 -555.38535118103 2614.00008201599 14 20 10
-607.147634029388 -560.300946235657 2637.00008392334 14 17 8
-594.521760940552 -555.23008108139 2612.99991607666 16 19 10
-583.824217319489 -551.858842372894 2596.99988365173 18 19 14
-893.180906772614 -575.602531433105 2678.99990081787 2 8 4
-895.494282245636 -581.84814453125 2707.99994468689 10 15 11
-896.339058876038 -587.235450744629 2733.00004005432 12 15 8
-882.737636566162 -583.169281482697 2713.99998664856 10 13 6
-889.882326126099 -592.85581111908 2759.0000629425 11 14 7
-868.958592414856 -583.848476409912 2717.00000762939 11 14 7
-857.142567634583 -580.858290195465 2703.00006866455 11 14 7
-846.974968910217 -578.942954540253 2694.00000572205 10 13 6
-847.453534603119 -584.335029125214 2719.00010108948 10 13 6
-845.016121864319 -587.79376745224 2734.99989509583 10 12 7
-841.267228126526 -590.393602848053 2746.99997901917 9 11 6
-837.149858474731 -592.779338359833 2757.99989700317 9 11 6
-827.859103679657 -591.511845588684 2752.00009346008 8 10 5
-812.042653560638 -585.515797138214 2723.99997711182 8 10 5
-801.695466041565 -583.389103412628 2713.99998664856 9 11 6
-781.451463699341 -573.953926563263 2670.00007629395 11 14 7
-760.576486587524 -563.873469829559 2622.99990653992 18 21 14
-741.105616092682 -554.652571678162 2579.99992370605 22 25 18
-730.119705200195 -551.666080951691 2565.99998474121 17 20 13
-723.718822002411 -552.119672298431 2568.00007820129 14 17 10
-719.260692596436 -554.078817367554 2576.99990272522 13 16 9
-707.567453384399 -550.447940826416 2559.99994277954 14 17 10
-701.439797878265 -551.117539405823 2562.99996376038 14 17 10
-696.921408176422 -553.077876567841 2572.00002670288 14 17 10
-684.843003749847 -549.017369747162 2552.99997329712 13 16 9
-673.398435115814 -545.386910438538 2536.00001335144 11 14 7
-666.251063346863 -545.197367668152 2535.00008583069 12 15 8
-665.611386299133 -550.385057926178 2559.00001525879 13 16 9
-665.098488330841 -555.788636207581 2584.00011062622 14 17 10
-657.318532466888 -555.170178413391 2581.00008964539 14 17 10
-653.333604335785 -557.778418064117 2592.99993515015 14 17 10
-649.781823158264 -560.817420482636 2607.00011253357 13 16 9
-641.222834587097 -559.5543384552 2601.0000705719 13 16 9
-632.939696311951 -558.506369590759 2595.99995613098 12 15 8
-628.540813922882 -560.900926589966 2607.00011253357 12 15 8
-624.081611633301 -563.295841217041 2618.00003051758 13 16 9
-627.810418605804 -573.222219944 2664.00003433228 13 16 9
-612.419784069061 -565.719723701477 2628.99994850159 15 18 9
-606.428027153015 -566.824495792389 2634.0000629425 14 17 8
-591.307878494263 -559.321105480194 2598.99997711182 15 18 11
-586.493134498596 -561.501860618591 2608.99996757507 18 19 14
-911.836862564087 -595.076620578766 2734.99989509583 4 9 5
-911.02135181427 -599.443018436432 2755.00011444092 12 17 13
-901.898622512817 -598.370432853699 2750 12 17 10
-905.163288116455 -605.567216873169 2782.99999237061 9 14 7
-880.511522293091 -594.051420688629 2730.00001907349 12 15 8
-868.301212787628 -590.804696083069 2714.99991416931 12 15 8
-859.343945980072 -589.734613895416 2710.00003814697 12 15 8
-840.982615947723 -582.136392593384 2674.99995231628 11 14 7
-845.563888549805 -590.425252914429 2713.00005912781 10 13 6
-840.361475944519 -591.968417167664 2720.00002861023 10 13 6
-840.021193027496 -596.994698047638 2743.00003051758 10 13 6
-836.824655532837 -600.062966346741 2756.99996948242 10 13 6
-825.430333614349 -597.255170345306 2743.99995803833 9 12 5
-807.846784591675 -589.87683057785 2710.00003814697 9 12 5
-796.946287155151 -587.287127971649 2697.99995422363 9 12 5
-783.477246761322 -582.738697528839 2677.00004577637 10 13 6
-754.174470901489 -566.217303276062 2601.0000705719 13 16 9
-741.657078266144 -562.103867530823 2582.00001716614 18 21 14
-730.665445327759 -559.079170227051 2568.00007820129 17 20 13
-734.122157096863 -567.158162593842 2605.00001907349 13 16 9
-727.609634399414 -567.617833614349 2607.00011253357 14 17 10
-713.623464107513 -562.19893693924 2582.00001716614 14 17 10
-701.688647270203 -558.304131031036 2563.99989128113 14 17 10
-696.896255016327 -560.071051120758 2572.00002670288 14 17 10
-692.596673965454 -562.273979187012 2582.00001716614 13 16 9
-675.497174263 -554.024040699005 2543.99991035461 13 16 9
-671.481609344482 -556.445360183716 2555.0000667572 12 15 8
-668.70641708374 -559.955954551697 2571.00009918213 13 16 9
-659.409403800964 -558.022081851959 2562.00003623962 13 16 9
-653.471648693085 -558.919787406921 2565.99998474121 13 16 9
-650.283098220825 -562.213957309723 2581.00008964539 12 15 8
-647.511184215546 -565.944314002991 2598.00004959106 11 14 7
-639.469563961029 -565.100491046906 2594.00010108948 13 16 9
-625.841617584229 -559.245765209198 2566.99991226196 14 17 10
-626.584112644196 -566.245198249817 2598.99997711182 12 15 8
-620.477735996246 -567.144691944122 2602.9999256134 13 16 9
-615.056157112122 -568.698108196259 2609.99989509583 15 18 11
-619.146287441254 -579.185843467712 2657.99999237061 14 15 9
-601.334393024445 -569.190800189972 2611.99998855591 17 19 14
-591.961860656738 -567.040145397186 2601.99999809265 14 16 11
-583.542227745056 -565.761029720306 2595.99995613098 16 18 15
-927.158772945404 -612.652599811554 2780.99989891052 4 9 5
-908.691585063934 -605.39698600769 2747.99990653992 12 17 13
-904.17867898941 -607.394814491272 2756.99996948242 7 12 6
-897.666215896606 -608.071625232697 2759.99999046326 8 13 6
-885.655105113983 -605.003654956818 2746.00005149841 12 15 8
-863.486528396606 -594.885647296906 2700.00004768372 12 15 8
-856.472015380859 -595.123589038849 2700.99997520447 11 14 7
-852.910578250885 -597.785830497742 2713.00005912781 11 14 7
-845.544517040253 -597.804725170136 2713.00005912781 10 13 6
-841.268301010132 -600.027799606323 2723.00004959106 10 13 6
-833.875775337219 -600.047945976257 2723.00004959106 10 13 6
-832.55398273468 -604.476094245911 2743.00003051758 9 12 5
-821.798920631409 -602.07337141037 2732.00011253357 9 12 5
-804.247617721558 -594.602108001709 2697.99995422363 9 12 5
-789.539515972137 -589.114487171173 2673.00009727478 9 12 5
-777.015745639801 -585.169553756714 2654.99997138977 11 14 7
-760.240733623505 -577.918767929077 2621.99997901917 14 17 10
-754.846811294556 -579.264223575592 2628.00002098084 17 20 13
-754.257321357727 -584.357500076294 2651.00002288818 16 19 12
-731.843769550323 -572.4778175354 2596.99988365173 12 15 8
-726.189732551575 -573.603987693787 2601.99999809265 14 17 10
-714.151859283447 -569.660127162933 2584.00011062622 14 17 10
-704.674363136292 -567.700445652008 2575.00004768372 14 17 10
-699.580729007721 -569.268584251404 2582.00001716614 14 17 10
-694.985330104828 -571.278154850006 2591.00008010864 13 16 9
-687.420129776001 -570.862710475922 2588.99998664856 13 16 9
-674.872279167175 -566.258013248444 2568.00007820129 12 15 8
-664.518892765045 -563.417255878448 2555.0000667572 13 16 9
-657.838940620422 -563.663840293884 2555.99999427795 13 16 9
-648.351967334747 -561.484754085541 2546.0000038147 13 16 9
-648.240625858307 -567.465960979462 2572.99995422363 12 15 8
-646.985411643982 -572.565674781799 2595.99995613098 13 16 9
-635.497868061066 -568.622827529907 2578.00006866455 14 17 10
-629.471182823181 -569.532513618469 2582.00001716614 13 16 9
-624.86869096756 -571.765959262848 2592.00000762939 12 15 8
-623.548328876495 -577.088177204132 2615.9999370575 14 17 10
-614.085257053375 -574.910283088684 2605.99994659424 16 19 12
-612.362563610077 -580.012857913971 2628.99994850159 14 15 9
-602.226614952087 -577.173292636871 2615.9999370575 20 22 17
-598.303198814392 -580.290853977203 2630.00011444092 15 17 12
-912.809491157532 -610.630095005035 2737.99991607666 3 8 4
-902.394533157349 -608.636677265167 2729.00009155273 13 18 14
-900.228023529053 -612.21969127655 2744.99988555908 13 18 11
-893.42212677002 -612.681150436401 2746.99997901917 10 15 8
-872.092604637146 -603.106379508972 2703.9999961853 12 15 8
-866.667568683624 -604.461252689362 2710.00003814697 11 14 7
-859.625101089478 -604.701519012451 2710.99996566772 11 14 7
-856.035888195038 -607.396185398102 2723.00004959106 10 13 6
-853.628575801849 -610.983908176422 2739.00008201599 10 13 6
-844.955921173096 -610.110938549042 2734.99989509583 9 12 5
-837.836444377899 -610.353946685791 2736.00006103516 9 12 5
-828.890800476074 -609.259068965912 2730.99994659424 9 12 5
-821.777403354645 -609.503269195557 2732.00011253357 9 12 5
-809.591352939606 -605.955183506012 2716.00008010864 8 11 4
-783.019244670868 -591.474771499634 2651.00002288818 8 11 4
-769.67716217041 -586.811304092407 2630.00011444092 14 17 10
-766.596794128418 -589.957416057587 2644.00005340576 17 20 13
-762.866020202637 -592.657923698425 2655.99989891052 16 19 12
-740.577042102814 -580.854475498199 2602.9999256134 14 17 10
-723.084568977356 -572.621047496796 2565.99998474121 13 16 9
-715.28160572052 -571.974992752075 2562.99996376038 14 17 10
-711.363911628723 -574.453711509705 2573.99988174438 13 16 9
-701.639711856842 -572.246134281158 2563.99989128113 13 16 9
-696.846425533295 -574.056267738342 2572.00002670288 13 16 9
-694.959998130798 -578.322052955627 2591.00008010864 13 16 9
-685.535967350006 -576.338529586792 2582.00001716614 13 16 9
-674.320936203003 -572.792589664459 2565.99998474121 14 17 10
-663.972854614258 -569.916248321533 2552.99997329712 14 17 10
-655.239105224609 -568.379461765289 2546.0000038147 14 17 10
-650.617480278015 -570.414900779724 2555.0000667572 14 17 10
-645.442664623261 -572.00413942337 2562.00003623962 13 16 9
-645.712077617645 -578.50581407547 2591.00008010864 15 18 11
-639.907538890839 -579.649388790131 2595.99995613098 14 17 10
-626.518368721008 -573.871195316315 2569.9999332428 12 15 8
-622.912466526031 -577.024817466736 2584.00011062622 13 16 9
-622.328519821167 -583.08207988739 2611.00006103516 15 18 11
-620.183527469635 -587.800085544586 2631.99996948242 16 19 12
-610.470712184906 -585.371792316437 2621.00005149841 13 14 8
-606.111586093903 -588.08046579361 2632.99989700317 14 16 11
-602.369070053101 -591.459631919861 2648.00000190735 12 14 9
-917.13011264801 -621.015131473541 2750.99992752075 3 8 4
-884.300172328949 -613.833665847778 2719.00010108948 10 15 8
-881.752014160156 -617.235541343689 2733.99996757507 11 14 7
-867.610275745392 -612.510800361633 2713.00005912781 11 14 7
-858.973622322083 -611.624598503113 2709.00011062622 11 14 7
-860.733151435852 -618.189752101898 2737.99991607666 10 13 6
-859.531044960022 -622.723877429962 2757.99989700317 9 12 5
-844.318568706512 -617.098212242126 2733.00004005432 9 12 5
-835.366487503052 -615.988731384277 2727.9999256134 9 12 5
-826.442122459412 -614.879906177521 2723.00004959106 9 12 5
-822.057008743286 -617.158770561218 2733.00004005432 8 11 4
-810.463905334473 -614.018559455872 2719.00010108948 8 11 4
-800.128579139709 -611.782014369965 2709.00011062622 8 11 4
-773.16689491272 -596.672832965851 2641.99995994568 13 16 9
-762.805163860321 -594.210684299469 2631.00004196167 16 19 12
-751.641571521759 -591.071128845215 2617.00010299683 14 17 10
-734.295070171356 -582.962810993195 2581.00008964539 12 15 8
-712.91720867157 -571.466028690338 2529.99997138977 12 15 8
-719.723165035248 -582.557320594788 2578.9999961853 13 16 9
-705.536425113678 -576.707780361176 2552.99997329712 13 16 9
-698.058128356934 -576.279938220978 2551.00011825562 13 16 9
-691.67423248291 -576.755940914154 2552.99997329712 13 16 9
-690.106987953186 -581.29894733429 2572.99995422363 12 15 8
-680.997133255005 -579.516530036926 2565.00005722046 12 15 8
-678.499937057495 -583.382844924927 2582.00001716614 12 15 8
-672.009170055389 -583.860516548157 2584.00011062622 13 16 9
-661.389648914337 -580.723106861115 2569.9999332428 13 16 9
-653.901517391205 -580.297350883484 2568.00007820129 13 16 9
-659.271657466888 -591.396987438202 2617.00010299683 12 15 8
-646.183371543884 -586.000204086304 2592.99993515015 15 18 11
-637.908399105072 -584.897339344025 2588.00005912781 13 16 9
-624.053418636322 -578.596174716949 2559.99994277954 12 15 8
-623.367011547089 -584.499955177307 2585.99996566772 13 16 9
-620.155453681946 -588.144063949585 2601.99999809265 15 18 11
-608.374118804932 -583.651065826416 2582.00001716614 14 17 10
-607.880353927612 -590.008497238159 2609.99989509583 12 13 7
-602.400004863739 -591.619193553925 2617.00010299683 12 14 9
-599.610507488251 -595.943152904511 2635.99991798401 12 14 9
-916.117191314697 -627.815663814545 2747.99990653992 3 8 4
-879.551708698273 -607.723593711853 2660.00008583069 14 19 15
-880.850434303284 -613.677144050598 2686.00010871887 12 17 10
-883.959949016571 -621.002614498138 2717.99993515015 8 13 6
-877.54362821579 -621.703207492828 2720.99995613098 11 14 7
-870.791792869568 -622.176051139832 2723.00004959106 11 14 7
-868.468821048737 -625.848531723022 2739.00008201599 10 13 6
-869.51744556427 -632.035434246063 2766.00003242493 9 12 5
-850.162982940674 -623.370230197906 2727.9999256134 9 12 5
-840.901136398315 -622.017741203308 2721.99988365173 9 12 5
-833.203434944153 -621.808469295502 2720.99995613098 9 12 5
-821.869432926178 -618.857324123383 2707.99994468689 8 11 4
-817.22354888916 -620.934426784515 2717.00000762939 8 11 4
-750.316381454468 -591.535925865173 2588.00005912781 17 20 13
-744.726121425629 -592.700719833374 2592.99993515015 14 17 10
-726.875603199005 -584.036767482758 2555.0000667572 12 15 8
-723.883867263794 -587.259650230408 2569.00000572205 14 17 10
-718.025386333466 -588.19705247879 2572.99995422363 13 16 9
-710.210740566254 -587.534666061401 2569.9999332428 13 16 9
-695.571482181549 -581.157088279724 2542.00005531311 13 16 9
-690.837144851685 -583.010077476501 2549.99995231628 12 15 8
-684.450030326843 -583.491742610931 2552.00004577637 12 15 8
-680.706560611725 -586.260139942169 2563.99989128113 12 15 8
-678.474426269531 -590.401172637939 2582.00001716614 12 15 8
-676.144242286682 -594.542801380157 2599.99990463257 13 16 9
-668.826639652252 -594.340264797211 2598.99997711182 13 16 9
-659.986257553101 -592.765688896179 2592.00000762939 13 16 9
-652.695059776306 -592.563509941101 2591.00008010864 12 15 8
-646.654903888702 -593.505024909973 2595.00002861023 14 17 10
-637.881338596344 -591.930985450745 2588.00005912781 12 15 8
-623.782634735107 -585.324883460999 2559.00001525879 12 15 8
-624.303698539734 -592.442870140076 2589.99991416931 14 17 10
-620.604395866394 -595.672965049744 2604.00009155273 14 17 10
-615.179121494293 -597.302079200745 2611.00006103516 13 16 9
-607.619345188141 -596.872568130493 2608.99996757507 14 15 9
-603.522539138794 -599.874913692474 2621.99997901917 12 14 9
-598.672091960907 -602.191269397736 2631.99996948242 13 15 10
-597.812116146088 -608.626484870911 2660.00008583069 21 23 20
-893.757104873657 -624.902606010437 2703.00006866455 9 14 10
-884.116172790527 -623.297393321991 2696.00009918213 10 15 8
-889.148890972137 -632.096648216248 2733.99996757507 10 15 8
-879.785776138306 -630.724132061005 2727.9999256134 12 15 8
-868.217527866364 -627.733945846558 2714.99991416931 11 14 7
-865.915477275848 -631.449520587921 2730.99994659424 10 13 6
-845.158755779266 -627.090573310852 2711.99989318848 9 12 5
-842.118203639984 -630.34600019455 2726.0000705719 9 12 5
-831.346809864044 -627.821147441864 2714.99991416931 10 13 6
-820.332169532776 -625.065565109253 2703.00006866455 9 12 5
-812.390685081482 -624.622941017151 2700.99997520447 7 10 3
-809.22931432724 -627.881050109863 2714.99991416931 8 11 4
-798.313140869141 -625.126957893372 2703.00006866455 10 13 6
-749.715089797974 -598.110020160675 2585.99996566772 17 20 13
-733.503401279449 -590.73007106781 2553.99990081787 14 17 10
-728.844881057739 -592.602372169495 2562.00003623962 14 17 10
-724.706530570984 -594.937801361084 2572.00002670288 13 16 9
-719.955623149872 -596.81111574173 2579.99992370605 11 14 7
-708.805620670319 -593.364477157593 2565.00005722046 13 16 9
-701.567530632019 -593.156635761261 2563.99989128113 13 16 9
-692.167580127716 -591.098427772522 2555.0000667572 14 17 10
-684.425532817841 -590.428471565247 2552.00004577637 13 16 9
-676.43404006958 -589.527487754822 2548.00009727478 14 17 10
-675.033152103424 -594.411194324493 2569.00000572205 14 17 10
-674.298107624054 -599.989831447601 2592.99993515015 13 16 9
-668.800532817841 -601.403951644897 2598.99997711182 12 15 8
-658.941507339478 -598.884642124176 2588.00005912781 12 15 8
-648.638188838959 -595.902442932129 2575.00004768372 11 14 7
-647.126436233521 -601.020276546478 2596.99988365173 13 16 9
-638.347327709198 -599.427103996277 2589.99991416931 13 16 9
-632.774591445923 -600.842714309692 2595.99995613098 13 16 9
-627.891898155212 -602.953135967255 2605.00001907349 13 16 9
-624.628126621246 -606.68420791626 2621.00005149841 13 16 9
-619.392037391663 -608.563840389252 2628.99994850159 13 16 9
-612.248957157135 -608.591914176941 2628.99994850159 12 13 7
-608.097493648529 -611.629724502563 2641.99995994568 14 16 11
-603.647470474243 -614.436447620392 2654.00004386902 12 14 9
-904.425203800201 -634.584963321686 2713.00005912781 9 14 10
-898.043096065521 -635.298550128937 2716.00008010864 15 20 16
-899.187803268433 -641.392946243286 2742.00010299683 12 17 10
-890.110373497009 -640.236914157867 2736.99998855591 8 13 6
-882.02840089798 -639.783322811127 2734.99989509583 12 15 8
-874.597489833832 -639.798402786255 2734.99989509583 11 14 7
-857.021331787109 -632.328271865845 2703.00006866455 10 13 6
-842.763006687164 -627.197861671448 2680.99999427795 9 12 5
-845.452785491943 -634.701013565063 2713.00005912781 9 12 5
-843.644380569458 -638.929963111877 2730.99994659424 9 12 5
-832.858979701996 -636.374890804291 2720.00002861023 10 13 6
-820.312738418579 -632.416486740112 2703.00006866455 9 12 5
-810.566067695618 -630.564153194427 2694.9999332428 8 11 4
-799.969077110291 -628.010451793671 2684.00001525879 8 11 4
-768.713176250458 -614.7141456604 2627.00009346008 15 18 11
-749.983668327332 -605.374991893768 2586.99989318848 18 21 14
-737.789809703827 -601.184070110321 2569.00000572205 14 17 10
-728.822886943817 -599.567532539368 2562.00003623962 15 18 11
-727.219939231873 -604.036211967468 2581.00008964539 14 17 10
-720.490753650665 -604.292809963226 2582.00001716614 11 14 7
-709.058701992035 -600.571095943451 2565.99998474121 12 15 8
-699.355006217957 -598.253726959229 2555.99999427795 13 16 9
-695.123612880707 -600.618064403534 2565.99998474121 13 16 9
-686.815023422241 -599.471747875214 2561.00010871887 12 15 8
-677.736937999725 -597.623348236084 2552.99997329712 12 15 8
-669.227600097656 -596.243381500244 2546.99993133545 14 17 10
-672.192275524139 -605.164289474487 2585.00003814697 13 16 9
-665.686726570129 -605.658054351807 2586.99989318848 12 15 8
-651.78656578064 -599.362432956696 2559.99994277954 12 15 8
-644.329905509949 -598.920047283173 2558.00008773804 11 14 7
-646.850645542145 -607.843518257141 2595.99995613098 13 16 9
-634.941160678864 -610.004603862762 2605.00001907349 13 16 9
-631.720900535584 -613.778650760651 2621.00005149841 13 16 9
-618.166148662567 -607.483148574829 2594.00010108948 13 16 9
-620.777606964111 -617.112636566162 2634.99999046326 13 16 9
-611.289441585541 -614.798605442047 2625 13 14 8
-603.696227073669 -614.358186721802 2622.99990653992 12 14 9
-602.709114551544 -620.710611343384 2650.00009536743 10 12 7
-907.619714736938 -649.551391601563 2744.99988555908 11 16 12
-900.814533233643 -650.036990642548 2746.99997901917 9 14 7
-885.543763637543 -644.37073469162 2723.00004959106 13 18 11
-882.981538772583 -647.934138774872 2737.99991607666 11 14 7
-879.698693752289 -651.025116443634 2750.99992752075 10 13 6
-866.200387477875 -646.544218063354 2732.00011253357 9 12 5
-850.605368614197 -640.407025814056 2706.00008964539 9 12 5
-852.91451215744 -647.760272026062 2736.99998855591 9 12 5
-845.788836479187 -648.01436662674 2737.99991607666 9 12 5
-837.433338165283 -647.322475910187 2734.99989509583 9 12 5
-816.651999950409 -636.9269490242 2690.99998474121 9 12 5
-815.057933330536 -641.443252563477 2710.00003814697 8 11 4
-810.08243560791 -643.356680870056 2717.99993515015 9 12 5
-791.183352470398 -634.145319461823 2678.99990081787 9 12 5
-762.254953384399 -616.648972034454 2605.00001907349 16 19 12
-748.223423957825 -610.988259315491 2581.00008964539 18 21 14
-742.65056848526 -612.192869186401 2585.99996566772 14 17 10
-734.490573406219 -611.267387866974 2582.00001716614 14 17 10
-731.987357139587 -615.077316761017 2598.00004959106 14 17 10
