ply
format ascii 1.0
comment KinectMotionCapture
element vertex 783
property float x
property float y
property float z
property uchar red
property uchar green
property uchar blue
end_header
-704.283535480499 -279.695302248001 2569.9999332428 14 17 10
-694.873332977295 -278.735250234604 2561.00010871887 14 17 10
-688.197433948517 -278.86363863945 2562.00003623962 17 20 13
-679.122149944305 -278.012454509735 2553.99990081787 18 21 14
-675.879955291748 -279.556214809418 2568.00007820129 16 19 12
-675.426065921783 -282.297790050507 2592.99993515015 15 18 11
-666.587233543396 -281.555771827698 2585.99996566772 13 16 9
-652.93949842453 -278.744906187058 2559.99994277954 11 14 7
-646.749913692474 -279.091596603394 2562.99996376038 13 16 9
-645.036399364471 -281.398594379425 2584.00011062622 14 17 10
-642.220258712769 -283.270299434662 2601.0000705719 14 17 10
-622.949659824371 -277.844935655594 2551.00011825562 13 16 9
-607.81329870224 -274.161607027054 2516.99995994568 12 15 8
-604.321420192719 -275.706440210342 2530.99989891052 15 18 11
-601.460814476013 -277.578383684158 2548.00009727478 17 20 13
-598.040103912354 -279.232680797577 2562.99996376038 15 21 11
-592.692017555237 -280.015558004379 2569.9999332428 16 22 10
-588.444292545319 -281.343370676041 2582.00001716614 16 22 10
-580.752491950989 -281.036734580994 2578.9999961853 16 22 8
-576.412975788116 -282.364785671234 2591.00008010864 18 22 8
-572.666347026825 -284.019887447357 2605.99994659424 18 22 8
-566.666781902313 -284.585237503052 2611.00006103516 24 28 14
-564.710855484009 -287.221699953079 2634.99999046326 18 21 10
-561.353743076324 -289.20441865921 2653.00011634827 32 35 26
-878.324687480927 -298.153340816498 2676.00011825562 125 125 123
-873.680174350739 -299.061208963394 2684.00001525879 36 37 32
-865.44144153595 -298.74375462532 2680.99999427795 10 12 7
-857.218980789185 -298.426568508148 2677.99997329712 14 17 10
-840.760707855225 -295.212090015411 2648.9999294281 13 16 9
-831.067800521851 -294.33798789978 2641.00003242493 12 15 8
-822.353839874268 -293.798357248306 2635.99991798401 11 14 7
-822.326242923737 -296.379894018173 2658.99991989136 12 15 8
-822.173774242401 -298.961967229843 2681.99992179871 11 14 7
-819.465696811676 -300.652801990509 2697.00002670288 10 13 6
-807.943105697632 -299.111008644104 2683.00008773804 9 12 5
-796.495974063873 -297.569245100021 2668.99991035461 9 12 5
-783.645808696747 -295.469999313354 2650.00009536743 10 13 6
-780.860364437103 -297.161847352982 2664.99996185303 9 12 5
-768.413424491882 -295.174211263657 2647.0000743866 9 12 5
-749.736607074738 -290.732979774475 2607.00011253357 13 16 9
-724.15417432785 -283.503174781799 2542.00005531311 15 18 11
-726.293504238129 -287.0914041996 2573.99988174438 16 19 12
-719.87521648407 -287.334024906158 2575.99997520447 16 19 12
-715.382635593414 -288.357645273209 2585.00003814697 14 17 10
-708.100378513336 -288.265973329544 2584.00011062622 14 17 10
-689.969897270203 -283.711731433868 2542.99998283386 16 19 12
-684.417188167572 -284.289360046387 2548.00009727478 18 21 14
-683.356761932373 -286.764055490494 2569.9999332428 17 20 13
-680.597245693207 -288.569658994675 2585.99996566772 13 16 9
-675.145328044891 -289.259642362595 2592.00000762939 12 15 8
-672.237753868103 -291.065841913223 2608.00004005432 11 14 7
-663.121163845062 -290.19358754158 2599.99990463257 12 15 8
-654.047310352325 -289.321333169937 2592.00000762939 13 16 9
-648.510575294495 -290.011793375015 2598.00004959106 15 18 11
-633.311033248901 -286.348551511765 2565.00005722046 15 18 11
-621.464252471924 -284.136205911636 2545.00007629395 14 17 10
-611.656904220581 -282.816797494888 2532.99999237061 14 17 10
-605.017602443695 -282.948762178421 2533.99991989136 17 20 13
-598.371982574463 -283.080816268921 2535.00008583069 18 21 12
-597.319722175598 -285.893082618713 2559.99994277954 13 19 9
-593.593955039978 -287.477254867554 2573.99988174438 15 21 9
-588.879585266113 -288.614898920059 2584.00011062622 16 22 10
-581.40754699707 -288.412183523178 2582.00001716614 16 22 8
-576.837301254272 -289.661645889282 2592.99993515015 17 21 7
-572.645723819733 -291.134744882584 2605.99994659424 17 21 7
-572.722792625427 -294.842451810837 2638.99993896484 17 21 7
-570.476293563843 -297.433316707611 2661.99994087219 21 24 13
-568.949818611145 -300.47145485878 2688.99989128113 23 26 17
-863.247036933899 -302.721619606018 2651.99995040894 30 31 26
-866.392731666565 -306.391477584839 2684.00001525879 11 13 8
-867.124497890472 -309.262931346893 2709.00011062622 14 17 10
-855.34280538559 -307.682424783707 2694.9999332428 14 17 10
-824.441909790039 -299.137353897095 2619.99988555908 13 16 9
-820.152163505554 -300.182789564133 2628.99994850159 13 16 9
-816.741347312927 -301.571190357208 2641.00003242493 12 15 8
-816.637217998505 -304.216116666794 2664.00003433228 11 14 7
-810.331523418427 -304.577589035034 2667.00005531311 10 13 6
-803.10583114624 -304.596662521362 2667.00005531311 9 12 5
-788.653552532196 -304.635524749756 2667.00005531311 10 13 6
-775.859713554382 -302.484810352325 2648.00000190735 10 13 6
-765.490829944611 -301.247984170914 2637.00008392334 9 12 5
-751.154839992523 -298.411667346954 2611.99998855591 10 13 6
-727.553367614746 -291.804790496826 2553.99990081787 15 18 11
-718.373477458954 -290.910243988037 2546.0000038147 15 18 11
-715.104937553406 -292.41544008255 2559.00001525879 15 18 11
-721.727609634399 -298.034846782684 2608.00004005432 14 17 10
-703.421831130981 -293.369591236115 2566.99991226196 15 18 11
-696.461498737335 -293.389767408371 2566.99991226196 17 20 13
-685.740113258362 -291.809856891632 2552.99997329712 16 19 12
-677.752792835236 -291.372954845428 2549.00002479553 16 19 12
-676.102638244629 -293.679654598236 2569.00000572205 12 15 8
-664.185106754303 -291.528075933456 2549.99995231628 12 15 8
-671.701312065125 -297.951281070709 2605.99994659424 11 14 7
-666.415810585022 -298.772722482681 2612.99991607666 13 16 9
-656.045019626617 -297.307372093201 2599.99990463257 14 17 10
-643.99665594101 -295.041352510452 2579.99992370605 14 17 10
-634.277880191803 -293.804347515106 2569.00000572205 14 17 10
-620.955288410187 -290.851622819901 2542.99998283386 14 17 10
-617.431581020355 -292.473703622818 2556.99992179871 15 18 11
-608.339667320251 -291.465133428574 2548.00009727478 17 20 13
-602.600038051605 -292.05796122551 2552.99997329712 18 21 12
-593.332529067993 -290.934801101685 2542.99998283386 14 20 8
-594.495534896851 -294.960111379623 2578.00006866455 15 21 9
-588.174939155579 -295.324474573135 2581.00008964539 15 21 9
-585.890054702759 -297.748625278473 2601.99999809265 15 21 7
-579.040884971619 -297.884285449982 2602.9999256134 17 21 7
-574.162840843201 -299.049943685532 2612.99991607666 17 21 7
-572.050511837006 -301.703691482544 2635.99991798401 18 21 10
-573.455095291138 -306.303650140762 2676.00011825562 23 26 17
-571.678817272186 -309.301495552063 2701.99990272522 23 26 17
-862.904727458954 -309.830337762833 2651.00002288818 8 9 4
-870.571792125702 -315.223962068558 2697.00002670288 14 16 11
-869.667291641235 -317.579388618469 2717.00000762939 14 17 10
-850.246787071228 -313.155651092529 2678.99990081787 13 16 9
-836.381435394287 -310.718983411789 2657.99999237061 13 16 9
-823.253631591797 -308.516085147858 2638.99993896484 13 16 9
-814.867377281189 -308.06690454483 2634.99999046326 12 15 8
-809.567928314209 -308.787107467651 2641.00003242493 11 14 7
-810.312390327454 -311.846196651459 2667.00005531311 10 13 6
-799.774169921875 -310.57932972908 2655.99989891052 9 12 5
-789.593696594238 -309.429436922073 2645.99990844727 9 12 5
-769.708871841431 -304.42026257515 2602.9999256134 10 13 6
-770.273149013519 -307.480722665787 2628.99994850159 9 12 5
-768.373668193817 -309.606045484543 2647.0000743866 9 12 5
-752.57283449173 -306.11714720726 2617.00010299683 10 13 6
-741.491854190826 -304.499626159668 2602.9999256134 15 18 11
-735.564947128296 -304.987847805023 2607.00011253357 15 18 11
-714.526057243347 -299.15851354599 2556.99992179871 14 17 10
-711.191475391388 -300.699770450592 2569.9999332428 14 17 10
-704.77157831192 -300.954222679138 2572.00002670288 16 19 12
-691.557645797729 -298.283368349075 2549.00002479553 17 20 13
-677.393317222595 -295.144140720367 2522.0000743866 15 18 11
-673.212289810181 -296.334862709045 2532.00006484985 14 17 10
-670.028984546661 -297.994077205658 2546.0000038147 11 14 7
-659.736752510071 -296.493202447891 2532.99999237061 11 14 7
-663.432240486145 -301.313400268555 2573.99988174438 12 15 8
-658.233523368835 -302.154064178467 2581.00008964539 13 16 9
-651.482045650482 -302.292436361313 2582.00001716614 14 17 10
-640.231430530548 -300.323337316513 2565.00005722046 14 17 10
-629.31901216507 -298.471093177795 2549.00002479553 14 17 10
-624.841094017029 -299.66327548027 2559.00001525879 14 17 10
-614.754438400269 -298.162132501602 2546.0000038147 15 18 11
-612.377285957336 -300.408601760864 2565.00005722046 18 21 14
-601.398825645447 -298.438787460327 2548.00009727478 19 22 15
-594.944715499878 -298.694282770157 2549.99995231628 14 20 8
-590.323567390442 -299.886971712112 2559.99994277954 14 20 8
-594.762086868286 -305.765867233276 2609.99989509583 15 21 9
-588.795721530914 -306.373417377472 2615.00000953674 15 21 7
-578.352093696594 -304.637581110001 2599.99990463257 17 21 7
-569.087684154511 -303.48739027977 2589.99991416931 20 23 12
-567.905843257904 -306.672871112823 2617.00010299683 19 22 11
-566.790282726288 -309.975862503052 2644.99998092651 23 26 17
-568.906426429749 -315.154552459717 2688.99989128113 23 26 19
-877.534985542297 -322.43475317955 2696.00009918213 14 16 11
-874.427497386932 -324.007272720337 2709.00011062622 17 19 14
-870.929419994354 -325.46067237854 2720.99995613098 13 16 9
-859.114944934845 -323.804467916489 2707.00001716614 13 16 9
-846.432268619537 -321.789532899857 2690.00005722046 12 15 8
-828.226387500763 -317.621231079102 2654.99997138977 11 14 7
-816.394925117493 -315.845519304276 2640.00010490417 12 15 8
-811.38813495636 -316.702008247375 2647.0000743866 11 14 7
-810.293018817902 -319.11438703537 2667.00005531311 10 13 6
-798.550188541412 -317.339152097702 2651.99995040894 9 12 5
-787.186801433563 -315.683603286743 2638.00001144409 9 12 5
-777.377307415009 -314.626455307007 2628.99994850159 10 13 6
-769.374132156372 -314.287453889847 2625.99992752075 10 13 6
-764.87010717392 -315.384924411774 2634.99999046326 9 12 5
-754.853010177612 -314.208418130875 2625 11 14 7
-742.610991001129 -312.074333429337 2607.00011253357 14 17 10
-734.133660793304 -311.496376991272 2601.99999809265 15 18 11
-720.653176307678 -308.76350402832 2578.9999961853 14 17 10
-700.932264328003 -303.276628255844 2532.99999237061 17 20 13
-702.010869979858 -306.769520044327 2562.00003623962 17 20 13
-695.335149765015 -306.910067796707 2562.99996376038 15 18 11
-684.355974197388 -305.13471364975 2548.00009727478 13 16 9
-678.774952888489 -305.754512548447 2552.99997329712 13 16 9
-677.90299654007 -308.530330657959 2575.99997520447 11 14 7
-678.989052772522 -312.264889478683 2607.00011253357 12 15 8
-657.998502254486 -305.818021297455 2552.99997329712 13 16 9
-656.936943531036 -308.594673871994 2575.99997520447 14 17 10
-643.134415149689 -305.381596088409 2549.00002479553 14 17 10
-633.221328258514 -303.965270519257 2536.99994087219 14 17 10
-629.05079126358 -305.304676294327 2548.00009727478 14 17 10
-617.983043193817 -303.289115428925 2530.99989891052 16 19 12
-619.803547859192 -307.624697685242 2566.99991226196 17 20 13
-609.968364238739 -306.208282709122 2555.0000667572 18 21 14
-601.141393184662 -305.271059274673 2546.99993133545 18 21 14
-594.223380088806 -305.292665958405 2546.99993133545 15 21 11
-593.069076538086 -308.31104516983 2572.00002670288 14 20 8
-592.689394950867 -311.80939078331 2601.0000705719 14 20 8
-591.025352478027 -314.708769321442 2625 13 19 7
-578.552842140198 -311.853408813477 2601.0000705719 16 19 8
-569.066047668457 -310.556381940842 2589.99991416931 17 20 11
-568.317949771881 -314.055740833282 2618.99995803833 16 19 10
-566.125452518463 -316.835969686508 2641.99995994568 20 23 16
-567.614793777466 -321.775317192078 2683.00008773804 19 21 18
-886.630952358246 -333.204478025436 2723.99997711182 11 13 8
-874.732136726379 -331.509947776794 2710.00003814697 15 17 12
-869.950711727142 -332.50692486763 2717.99993515015 12 15 8
-867.66505241394 -334.483087062836 2733.99996757507 12 15 8
-851.447820663452 -331.076443195343 2706.00008964539 12 15 8
-833.510458469391 -326.935470104218 2671.99993133545 11 14 7
-829.672932624817 -328.300714492798 2683.00008773804 12 15 8
-824.549376964569 -329.176902770996 2690.00005722046 11 14 7
-809.665560722351 -326.13730430603 2664.99996185303 10 13 6
-803.046941757202 -326.402068138123 2667.00005531311 9 12 5
-785.973250865936 -322.383314371109 2634.0000629425 9 12 5
-780.609726905823 -323.137849569321 2640.00010490417 10 13 6
-774.627447128296 -323.647975921631 2644.00005340576 11 14 7
-767.752170562744 -323.791027069092 2644.99998092651 10 13 6
-751.66928768158 -320.016771554947 2614.00008201599 11 14 7
-736.893355846405 -316.731929779053 2586.99989318848 14 17 10
-728.188037872314 -316.018044948578 2581.00008964539 14 17 10
-716.999888420105 -314.202219247818 2565.99998474121 14 17 10
-705.339133739471 -312.141358852386 2549.00002479553 17 20 13
-692.673861980438 -309.590548276901 2528.00011634827 16 19 12
-691.244781017303 -312.06089258194 2548.00009727478 14 17 10
-688.900828361511 -314.164251089096 2565.00005722046 13 16 9
-690.185904502869 -317.982822656631 2595.99995613098 13 16 9
-682.881295681 -317.882120609283 2595.00002861023 11 14 7
-669.330835342407 -314.841330051422 2569.9999332428 12 15 8
-662.873923778534 -315.108120441437 2572.00002670288 13 16 9
-655.895173549652 -315.129965543747 2572.00002670288 14 17 10
-645.383536815643 -313.436478376389 2558.00008773804 14 17 10
-634.198129177094 -311.375111341476 2540.99988937378 15 18 11
-631.497919559479 -313.480228185654 2558.00008773804 15 18 11
-628.216028213501 -315.340518951416 2572.99995422363 16 19 12
-617.367208003998 -313.401579856873 2556.99992179871 17 20 13
-608.036696910858 -312.197864055634 2546.99993133545 17 20 13
-599.231600761414 -311.239153146744 2539.00003433228 17 20 13
-593.968331813812 -312.119156122208 2546.0000038147 15 21 11
-596.966922283173 -317.412912845612 2588.99998664856 14 20 10
-596.540808677673 -320.990890264511 2618.00003051758 13 19 9
-589.652061462402 -321.136027574539 2618.99995803833 13 19 9
-581.422209739685 -320.545434951782 2614.00008201599 15 18 9
-575.854957103729 -321.426302194595 2621.00005149841 16 19 10
-568.29571723938 -321.203470230103 2618.99995803833 19 22 15
-561.603367328644 -321.471184492111 2621.00005149841 17 19 14
-563.149511814117 -326.522618532181 2661.99994087219 21 23 20
-886.938393115997 -340.750128030777 2724.99990463257 17 22 16
-878.264367580414 -340.26825428009 2720.99995613098 16 19 12
-871.532440185547 -340.53698182106 2723.00004959106 13 16 7
-866.376519203186 -341.43140912056 2730.00001907349 11 14 5
-854.575157165527 -339.699685573578 2716.00008010864 11 14 5
-844.721019268036 -338.71853351593 2707.99994468689 12 15 6
-838.620901107788 -339.238613843918 2711.99989318848 11 14 7
-827.594637870789 -337.757498025894 2700.00004768372 11 14 7
-820.582687854767 -337.902843952179 2700.99997520447 11 14 7
-795.499205589294 -330.541789531708 2641.99995994568 11 14 7
-786.848247051239 -329.936534166336 2637.00008392334 11 14 7
-780.293583869934 -330.207228660584 2638.99993896484 11 14 7
-773.727774620056 -330.478250980377 2641.00003242493 11 13 8
-758.733332157135 -327.120363712311 2614.00008201599 9 11 6
-751.935958862305 -327.266424894333 2615.00000953674 9 11 6
-738.581478595734 -324.534088373184 2592.99993515015 12 15 8
-727.884948253632 -322.928041219711 2579.99992370605 14 17 10
-713.625907897949 -319.694697856903 2553.99990081787 17 20 13
-705.594837665558 -319.215089082718 2549.99995231628 13 16 7
-693.748831748962 -316.982924938202 2532.00006484985 12 15 6
-689.324498176575 -318.130880594254 2540.99988937378 12 15 6
-687.2678399086 -320.40610909462 2559.00001525879 10 13 4
-688.303053379059 -324.184238910675 2588.99998664856 9 12 3
-683.648765087128 -325.333327054977 2598.00004959106 11 14 7
-672.434151172638 -323.351830244064 2582.00001716614 13 16 9
-666.717648506165 -324.000209569931 2586.99989318848 15 18 11
-656.128108501434 -322.269052267075 2572.99995422363 16 19 12
-644.100069999695 -319.786131381989 2552.99997329712 16 19 12
-645.656764507294 -324.067413806915 2586.99989318848 15 18 11
-629.994511604309 -319.705218076706 2552.00004577637 16 19 12
-625.01984834671 -320.729732513428 2559.99994277954 17 20 13
-618.552207946777 -321.002691984177 2562.00003623962 18 21 14
-610.640585422516 -320.523917675018 2558.00008773804 18 21 14
-599.209487438202 -318.165361881256 2539.00003433228 18 21 14
-596.978962421417 -320.693969726563 2559.00001525879 14 19 13
-602.939248085022 -327.734798192978 2615.00000953674 13 18 12
-596.973776817322 -328.384339809418 2619.99988555908 12 17 10
-591.880619525909 -329.535394906998 2628.99994850159 13 16 7
-586.07029914856 -330.310523509979 2634.99999046326 13 16 7
-578.908085823059 -330.333471298218 2634.99999046326 13 16 7
-570.008993148804 -329.353481531143 2627.00009346008 13 15 10
-560.081005096436 -327.746361494064 2614.00008201599 25 30 26
-564.184427261353 -334.414690732956 2667.00005531311 18 22 25
-887.245714664459 -348.300933837891 2726.0000705719 2 9 2
-872.113287448883 -345.2527821064 2701.99990272522 15 18 11
-875.034213066101 -349.360555410385 2733.99996757507 13 16 7
-869.530737400055 -350.146532058716 2740.00000953674 12 15 6
-854.870200157166 -347.226768732071 2717.00000762939 11 14 5
-845.325231552124 -346.351891756058 2710.00003814697 12 15 6
-833.344042301178 -344.454646110535 2694.9999332428 10 13 6
-823.896288871765 -343.58012676239 2687.99996376038 10 13 6
-809.017896652222 -340.404838323593 2663.00010681152 10 13 6
-793.973565101624 -337.101578712463 2637.00008392334 10 13 6
-786.2309217453 -336.866408586502 2634.99999046326 11 14 7
-783.525228500366 -338.804870843887 2650.00009536743 11 14 7
-768.433570861816 -335.373789072037 2622.99990653992 10 12 7
-754.939019680023 -332.581758499146 2601.0000705719 8 10 5
-745.876431465149 -331.707775592804 2594.00010108948 11 14 7
-739.414811134338 -331.984758377075 2595.99995613098 13 16 9
-724.196195602417 -328.297346830368 2566.99991226196 15 18 11
-723.942756652832 -331.388294696808 2591.00008010864 16 19 12
-705.573499202728 -326.165795326233 2549.99995231628 12 15 6
-701.125085353851 -327.338606119156 2559.00001525879 11 14 5
-686.171770095825 -326.870501041412 2555.0000667572 11 14 5
-679.507911205292 -327.020436525345 2555.99999427795 10 13 4
-675.469219684601 -328.449964523315 2566.99991226196 12 15 8
-675.797343254089 -332.055121660233 2595.00002861023 13 16 9
-663.08730840683 -329.262435436249 2572.99995422363 16 19 12
-642.845869064331 -322.630107402802 2520.99990844727 16 19 12
-641.554951667786 -325.467973947525 2542.99998283386 15 18 11
-641.890645027161 -329.202234745026 2572.00002670288 16 19 12
-638.118386268616 -330.888986587524 2585.00003814697 16 19 12
-628.903567790985 -329.759746789932 2575.99997520447 17 20 13
-622.392475605011 -330.038636922836 2578.00006866455 17 20 13
-613.005042076111 -328.781217336655 2568.00007820129 17 20 13
-602.963030338287 -327.139496803284 2555.0000667572 17 20 13
-602.088510990143 -330.491483211517 2581.00008964539 14 19 15
-594.846546649933 -330.386340618134 2579.99992370605 13 18 12
-601.279735565186 -337.965101003647 2638.99993896484 12 17 10
-584.428310394287 -332.481354475021 2595.99995613098 14 17 8
-578.262805938721 -333.016693592072 2599.99990463257 14 17 8
-574.930548667908 -335.217297077179 2617.00010299683 14 17 8
-568.467080593109 -335.624724626541 2619.99988555908 11 13 8
-561.98638677597 -336.032211780548 2622.99990653992 12 17 13
-561.19966506958 -339.898884296417 2653.00011634827 9 14 18
-863.468050956726 -346.200197935104 2653.00011634827 7 14 7
-874.676764011383 -353.65691781044 2710.00003814697 15 18 11
-870.854437351227 -355.111420154572 2720.99995613098 14 17 8
-858.404219150543 -353.042513132095 2704.99992370605 13 16 7
-846.355497837067 -351.104259490967 2690.00005722046 12 15 6
-840.002536773682 -351.515650749207 2693.00007820129 12 15 8
-832.705616950989 -351.535767316818 2693.00007820129 11 14 7
-817.132890224457 -348.031431436539 2665.99988937378 11 14 7
-805.959582328796 -346.354722976685 2653.00011634827 11 14 7
-793.350875377655 -344.025284051895 2634.99999046326 11 14 7
-786.508500576019 -344.176560640335 2635.99991798401 11 13 8
-776.999533176422 -343.152940273285 2628.00002098084 11 13 8
-777.494013309479 -346.569299697876 2654.00004386902 9 11 6
-757.239878177643 -340.714246034622 2608.99996757507 8 10 5
-744.705021381378 -338.254272937775 2589.99991416931 11 14 7
-727.146029472351 -333.443224430084 2552.99997329712 13 16 9
-731.227517127991 -338.558673858643 2592.00000762939 14 17 10
-716.097831726074 -334.792405366898 2562.99996376038 15 18 11
-715.512573719025 -337.818741798401 2585.99996566772 13 16 9
-714.802026748657 -340.845614671707 2608.99996757507 10 13 4
-702.844381332397 -338.516443967819 2591.00008010864 10 13 4
-689.372301101685 -335.403054952621 2566.99991226196 12 15 6
-680.549085140228 -334.510713815689 2559.99994277954 12 15 6
-676.499366760254 -335.970669984818 2571.00009918213 14 17 10
-672.389209270477 -337.43080496788 2582.00001716614 15 18 11
-659.71451997757 -334.578305482864 2559.99994277954 16 19 12
-636.448979377747 -326.236039400101 2496.00005149841 15 18 11
-630.936920642853 -326.911836862564 2500.99992752075 15 18 11
-635.878324508667 -333.07808637619 2548.00009727478 18 21 14
-637.848496437073 -337.807178497314 2584.00011062622 17 20 13
-633.030772209167 -339.006990194321 2592.99993515015 16 19 12
-624.783575534821 -338.376581668854 2588.00005912781 15 18 11
-615.369081497192 -337.092339992523 2578.00006866455 15 18 11
-610.727608203888 -338.423222303391 2588.00005912781 15 18 11
-597.400069236755 -334.915637969971 2561.00010871887 12 17 11
-598.281741142273 -339.385390281677 2595.00002861023 12 17 11
-590.547919273376 -339.016437530518 2592.00000762939 11 16 9
-586.656332015991 -340.871036052704 2605.99994659424 14 17 8
-581.130802631378 -341.810166835785 2612.99991607666 15 18 9
-575.346529483795 -342.618554830551 2618.99995803833 15 18 9
-570.179581642151 -343.819558620453 2628.00002098084 18 20 15
-567.74777173996 -346.721559762955 2650.00009536743 12 17 13
-855.871260166168 -347.413778305054 2608.00004005432 2 8 6
-865.077257156372 -354.092359542847 2657.99999237061 13 19 15
-884.340465068817 -365.035176277161 2740.00000953674 15 18 11
-857.073307037354 -356.79417848587 2677.99997329712 14 17 8
-857.115387916565 -359.877854585648 2700.99997520447 13 16 7
-850.425958633423 -360.164105892181 2703.00006866455 12 15 8
-838.734805583954 -358.318597078323 2688.99989128113 12 15 8
-824.027597904205 -355.140656232834 2664.99996185303 12 15 8
-824.16182756424 -358.359485864639 2688.99989128113 12 15 8
-807.761609554291 -354.382067918777 2658.99991989136 12 15 8
-800.254821777344 -354.269683361053 2657.99999237061 12 14 9
-787.38260269165 -351.758271455765 2638.99993896484 11 13 8
-784.961044788361 -353.912353515625 2654.99997138977 11 13 8
-783.624112606049 -356.600165367126 2674.99995231628 9 11 6
-776.083588600159 -356.488883495331 2674.00002479553 7 9 4
-744.683444499969 -345.311760902405 2589.99991416931 11 14 7
-733.960092067719 -343.600183725357 2576.99990272522 13 16 9
-724.1530418396 -342.288583517075 2566.99991226196 14 17 10
-715.517282485962 -341.510444879532 2561.00010871887 14 17 10
-714.660346508026 -344.466328620911 2582.99994468689 12 15 8
-708.7522149086 -345.022201538086 2586.99989318848 10 13 4
-700.923085212708 -344.644695520401 2584.00011062622 11 14 5
-691.229641437531 -343.33348274231 2573.99988174438 13 16 7
-685.311555862427 -343.889832496643 2578.00006866455 13 16 7
-679.370880126953 -344.446301460266 2582.00001716614 15 18 11
-668.98101568222 -342.734932899475 2569.00000572205 16 19 12
-654.537856578827 -338.888764381409 2539.99996185303 16 19 12
-638.721466064453 -334.241628646851 2505.00011444092 16 19 12
-632.428050041199 -334.531098604202 2506.99996948242 15 18 11
-638.10133934021 -341.226160526276 2556.99992179871 18 21 14
-638.56565952301 -345.253050327301 2586.99989318848 17 20 13
-631.298542022705 -345.143169164658 2585.99996566772 15 18 11
-623.311698436737 -344.632863998413 2582.00001716614 14 17 10
-608.662366867065 -340.384900569916 2549.99995231628 14 17 10
-602.68098115921 -340.942144393921 2553.99990081787 15 18 11
-600.642442703247 -343.769103288651 2575.00004768372 13 18 12
-591.572403907776 -342.590987682343 2565.99998474121 12 17 11
-593.486130237579 -347.821831703186 2605.00001907349 11 16 9
-588.883757591248 -349.314451217651 2615.9999370575 13 16 9
-586.222052574158 -352.00908780098 2635.99991798401 14 17 10
-577.958941459656 -351.365387439728 2631.00004196167 14 17 10
-573.410153388977 -352.992057800293 2642.99988746643 22 24 19
-569.223463535309 -354.885995388031 2657.00006484985 13 18 14
-872.261941432953 -361.31352186203 2657.99999237061 7 13 11
-876.124441623688 -365.953713655472 2691.99991226196 13 19 15
-864.956617355347 -364.341169595718 2680.0000667572 15 18 9
-877.216339111328 -372.653484344482 2740.9999370575 15 18 11
-841.864228248596 -360.708653926849 2653.00011634827 14 17 10
-851.035118103027 -367.798656225204 2704.99992370605 13 16 9
-831.228852272034 -362.379848957062 2664.99996185303 12 15 8
-815.658867359161 -358.728557825089 2638.00001144409 14 17 10
-810.962021350861 -359.836846590042 2645.99990844727 13 16 9
-815.335094928741 -365.025609731674 2684.00001525879 11 13 8
-810.771048069 -366.271078586578 2693.00007820129 10 12 7
-799.593925476074 -364.524483680725 2680.0000667572 9 11 6
-787.304580211639 -362.233906984329 2663.00010681152 8 10 5
-782.430350780487 -363.344132900238 2671.0000038147 9 11 6
-770.546972751617 -361.189693212509 2654.99997138977 8 10 5
-746.099293231964 -353.049010038376 2595.00002861023 11 14 7
-732.514262199402 -349.941730499268 2572.00002670288 13 16 9
-725.541591644287 -349.963754415512 2572.00002670288 13 16 9
-711.863219738007 -346.720188856125 2548.00009727478 12 15 8
-705.507814884186 -347.014516592026 2549.99995231628 11 14 5
-705.989956855774 -350.711345672607 2576.99990272522 12 15 6
-699.272811412811 -350.870251655579 2578.00006866455 13 16 7
-692.281007766724 -350.893169641495 2578.00006866455 14 17 8
-686.61767244339 -351.596802473068 2582.99994468689 14 17 8
-680.663347244263 -352.164536714554 2586.99989318848 16 19 12
-663.22922706604 -346.742391586304 2546.99993133545 16 19 12
-658.637821674347 -347.990840673447 2555.99999427795 16 19 12
-655.781745910645 -350.19263625145 2572.00002670288 17 20 13
-641.990959644318 -346.539676189423 2545.00007629395 17 20 13
-634.833991527557 -346.426844596863 2543.99991035461 17 20 13
-634.345948696136 -349.990963935852 2569.9999332428 16 19 12
-628.589570522308 -350.695669651031 2575.00004768372 13 16 9
-616.046071052551 -347.586810588837 2552.00004577637 13 16 9
-606.252074241638 -345.975875854492 2539.99996185303 14 17 10
-598.174095153809 -345.318287611008 2535.00008583069 15 18 11
-597.773194313049 -353.267073631287 2592.99993515015 11 16 9
-588.90575170517 -352.201133966446 2585.00003814697 11 16 9
-592.686355113983 -358.765423297882 2632.99989700317 13 16 9
-592.202186584473 -362.877815961838 2663.00010681152 14 17 10
-582.767426967621 -361.539721488953 2653.00011634827 14 17 10
-574.253737926483 -360.746473073959 2647.0000743866 12 14 11
-570.698797702789 -363.087862730026 2664.00003433228 10 14 13
-890.94877243042 -376.455843448639 2714.99991416931 16 22 20
-874.478459358215 -372.591942548752 2687.00003623962 13 19 15
-865.260303020477 -371.778845787048 2680.99999427795 15 18 9
-845.513761043549 -366.389602422714 2641.99995994568 15 18 11
-843.431293964386 -368.627905845642 2657.99999237061 14 17 10
-834.969878196716 -368.092894554138 2654.00004386902 13 16 9
-822.475492954254 -365.755081176758 2637.00008392334 12 15 8
-819.348812103271 -367.578566074371 2650.00009536743 13 16 9
-811.860740184784 -367.460489273071 2648.9999294281 13 16 9
-815.617561340332 -372.475564479828 2684.99994277954 10 12 7
-822.791695594788 -379.15626168251 2733.00004005432 9 11 6
-810.014307498932 -376.68114900589 2714.99991416931 7 9 4
-797.925531864166 -374.483495950699 2698.99988174438 6 8 3
-754.562735557556 -360.790878534317 2599.99990463257 8 10 5
-734.002113342285 -354.29060459137 2552.99997329712 11 14 7
-731.068193912506 -356.255441904068 2566.99991226196 12 15 8
-719.877660274506 -354.195833206177 2552.00004577637 11 14 7
-719.384074211121 -357.41052031517 2575.00004768372 10 13 6
-705.48540353775 -353.962957859039 2549.99995231628 12 15 6
-704.049587249756 -356.761962175369 2569.9999332428 14 17 8
-702.504694461823 -359.561443328857 2589.99991416931 17 20 11
-692.794978618622 -358.196407556534 2579.99992370605 16 19 10
-684.73356962204 -357.664316892624 2575.99997520447 15 18 9
-675.114750862122 -356.299191713333 2565.99998474121 16 19 12
-663.205981254578 -353.684276342392 2546.99993133545 16 19 12
-655.007064342499 -353.013306856155 2542.00005531311 16 19 12
-655.758142471313 -357.203185558319 2572.00002670288 17 20 13
-650.796115398407 -358.338117599487 2579.99992370605 18 21 14
-636.806726455688 -354.472875595093 2552.00004577637 16 19 12
-631.360352039337 -355.330109596252 2558.00008773804 15 18 11
-623.683571815491 -354.937195777893 2555.0000667572 13 16 9
-614.091157913208 -353.432834148407 2543.99991035461 13 16 9
-616.491377353668 -358.875244855881 2582.99994468689 14 17 10
-619.85856294632 -365.013152360916 2627.00009346008 15 18 11
-616.221725940704 -367.122083902359 2641.99995994568 10 15 8
-608.583688735962 -366.869032382965 2640.00010490417 10 15 8
-598.44958782196 -365.087121725082 2627.00009346008 10 15 8
-593.111991882324 -366.223603487015 2634.99999046326 14 17 10
-596.847176551819 -373.059034347534 2684.00001525879 15 18 11
-589.11269903183 -372.806131839752 2681.99992179871 16 18 13
-579.435586929321 -371.302098035812 2671.0000038147 17 19 16
-895.196199417114 -385.687559843063 2727.9999256134 10 16 16
-873.483419418335 -379.48539853096 2684.00001525879 12 18 14
-859.754741191864 -376.676499843597 2664.00003433228 15 18 11
-836.853981018066 -369.767040014267 2615.00000953674 12 15 8
-836.74818277359 -372.897386550903 2637.00008392334 13 16 9
-827.084898948669 -371.785789728165 2628.99994850159 14 17 10
-821.831524372101 -372.654348611832 2634.99999046326 14 16 11
-826.439440250397 -378.049254417419 2673.00009727478 11 13 8
-816.130518913269 -376.655906438828 2663.00010681152 11 13 8
-803.445637226105 -374.131083488464 2644.99998092651 9 11 6
-804.706454277039 -378.113269805908 2673.00009727478 8 10 5
-816.257178783417 -387.047499418259 2736.00006103516 7 9 4
-793.17307472229 -379.572153091431 2683.00008773804 5 7 4
-775.648534297943 -374.642819166183 2648.00000190735 6 8 3
-753.669917583466 -367.449313402176 2596.99988365173 7 9 4
-745.767593383789 -367.047190666199 2594.00010108948 10 13 6
-721.363306045532 -358.437687158585 2532.99999237061 12 15 8
-728.88171672821 -365.677207708359 2584.00011062622 12 15 8
-718.52320432663 -364.0016913414 2572.00002670288 13 16 9
-710.719168186188 -363.600015640259 2569.00000572205 14 17 10
-705.396354198456 -364.472299814224 2575.00004768372 17 20 11
-701.125204563141 -365.911036729813 2585.00003814697 18 21 12
-697.336256504059 -367.633253335953 2596.99988365173 18 21 12
-680.723130702972 -362.560510635376 2561.00010871887 17 20 11
-671.671092510223 -361.451417207718 2552.99997329712 17 20 13
-661.620259284973 -359.775960445404 2540.99988937378 18 21 14
-657.04482793808 -361.073940992355 2549.99995231628 19 22 15
-655.989050865173 -364.354640245438 2572.99995422363 18 21 14
-649.510860443115 -364.662021398544 2575.00004768372 17 20 13
-638.779044151306 -362.561821937561 2559.99994277954 18 21 14
-626.893758773804 -359.753251075745 2539.99996185303 16 19 12
-625.856399536133 -363.176643848419 2563.99989128113 13 16 9
-624.929308891296 -366.74228310585 2588.99998664856 13 16 9
-618.853569030762 -367.333471775055 2592.99993515015 13 16 9
-619.361877441406 -371.891647577286 2625 12 15 8
-617.362976074219 -375.033617019653 2647.0000743866 11 16 9
-609.019756317139 -374.350279569626 2641.99995994568 8 13 6
-608.220040798187 -378.343015909195 2670.00007629395 9 14 7
-604.566276073456 -380.635797977448 2686.00010871887 13 16 9
-598.378419876099 -381.369858980179 2690.99998474121 14 16 11
-588.208913803101 -379.552930593491 2677.99997329712 13 15 10
-575.939655303955 -376.318246126175 2654.99997138977 9 11 8
-878.770291805267 -385.911077260971 2677.99997329712 11 17 15
-869.559288024902 -385.065078735352 2671.99993133545 21 27 23
-862.640202045441 -385.228306055069 2673.00009727478 18 21 14
-850.595474243164 -383.08584690094 2657.99999237061 19 22 15
-832.098424434662 -381.251811981201 2644.99998092651 14 16 11
-832.727074623108 -384.875863790512 2670.00007629395 12 14 9
-825.181663036346 -384.752541780472 2668.99991035461 9 11 6
-813.964068889618 -382.899552583694 2655.99989891052 9 11 6
-804.031789302826 -381.623446941376 2647.0000743866 8 10 5
-804.985642433167 -385.537952184677 2674.00002479553 8 10 7
-802.809596061707 -388.011276721954 2690.99998474121 8 10 7
-790.785551071167 -385.726600885391 2674.99995231628 7 9 6
-773.575663566589 -380.846351385117 2641.00003242493 8 10 5
-745.745122432709 -374.113440513611 2594.00010108948 13 16 9
-734.15619134903 -371.828466653824 2578.00006866455 14 17 10
-726.320326328278 -371.418535709381 2575.00004768372 14 17 10
-719.897091388702 -371.72994017601 2576.99990272522 16 19 12
-714.01584148407 -372.330158948898 2581.00008964539 17 20 13
-707.290530204773 -372.497797012329 2582.00001716614 18 21 12
-704.627573490143 -374.829798936844 2598.00004959106 18 21 12
-698.117971420288 -375.142216682434 2599.99990463257 17 20 11
-677.775681018829 -367.951512336731 2549.99995231628 16 19 10
-667.964279651642 -366.387873888016 2539.00003433228 17 20 13
-670.969843864441 -371.895492076874 2576.99990272522 17 20 13
-662.947058677673 -371.342390775681 2572.99995422363 17 20 13
-650.356233119965 -368.191331624985 2551.00011825562 16 19 12
-648.225486278534 -370.958000421524 2569.9999332428 16 19 12
-639.503359794617 -369.971930980682 2562.99996376038 15 18 11
-625.635743141174 -365.954279899597 2535.00008583069 14 17 10
-618.509531021118 -365.83411693573 2533.99991989136 12 15 8
-625.870108604431 -374.376773834229 2592.99993515015 13 16 9
-620.044529438019 -379.480451345444 2628.00002098084 14 17 10
-611.507058143616 -378.639250993729 2621.99997901917 11 17 7
-614.065647125244 -384.730070829391 2664.00003433228 9 15 5
-606.600046157837 -384.611219167709 2663.00010681152 9 15 5
-600.489318370819 -385.359019041061 2667.99998283386 12 15 8
-594.795048236847 -386.395752429962 2674.99995231628 13 15 10
-584.669172763824 -384.543538093567 2661.99994087219 12 14 11
-872.517168521881 -390.413641929626 2658.99991989136 16 22 18
-872.469186782837 -393.662601709366 2680.99999427795 16 23 16
-869.075179100037 -395.443946123123 2693.00007820129 21 24 17
-856.335997581482 -392.967253923416 2676.00011825562 22 25 18
-843.3718085289 -390.34378528595 2657.99999237061 17 19 14
-837.740659713745 -391.098320484161 2663.00010681152 13 15 10
-828.340113162994 -390.090823173523 2655.99989891052 11 13 8
-827.633917331696 -393.196165561676 2677.00004577637 9 11 6
-828.346133232117 -397.036671638489 2703.00006866455 9 11 6
-828.006029129028 -400.437206029892 2726.0000705719 8 10 5
-816.101789474487 -398.256063461304 2710.99996566772 8 10 7
-799.505531787872 -393.72444152832 2680.0000667572 8 10 7
-784.259557723999 -389.780223369598 2653.00011634827 8 10 7
-779.996931552887 -391.272217035294 2663.00010681152 8 10 5
-760.299563407898 -384.976863861084 2619.99988555908 9 11 6
-742.560029029846 -379.562765359879 2582.99994468689 14 17 10
-731.00084066391 -377.234309911728 2566.99991226196 16 19 12
-723.194718360901 -376.816302537918 2563.99989128113 15 18 11
-717.918455600739 -377.721220254898 2569.9999332428 16 19 12
-713.715732097626 -379.214346408844 2579.99992370605 16 19 12
-711.101770401001 -381.5898001194 2595.99995613098 18 21 12
-701.349079608917 -380.143731832504 2585.99996566772 18 21 12
-688.427984714508 -376.933455467224 2563.99989128113 17 20 11
-676.423072814941 -374.164074659348 2545.00007629395 16 19 10
-667.940437793732 -373.305797576904 2539.00003433228 17 20 13
-671.466290950775 -379.211276769638 2578.9999961853 16 19 12
-661.119163036346 -377.32407450676 2565.99998474121 16 19 12
-649.822175502777 -374.848604202271 2549.00002479553 15 18 11
-642.9044008255 -374.872982501984 2549.00002479553 15 18 11
-638.979911804199 -376.662373542786 2561.00010871887 16 19 12
-631.040751934052 -376.098662614822 2556.99992179871 14 17 10
-627.271831035614 -378.035575151443 2569.9999332428 12 15 8
-620.535254478455 -378.207564353943 2571.00009918213 13 16 9
-629.220426082611 -392.381399869919 2667.00005531311 14 17 10
-621.509909629822 -392.113029956818 2664.99996185303 11 17 7
-614.039838314056 -391.991794109344 2664.00003433228 9 15 5
-600.879788398743 -388.191699981689 2638.00001144409 9 15 5
-596.187293529511 -389.836132526398 2648.9999294281 12 14 9
-590.544700622559 -390.892058610916 2655.99989891052 12 14 11
-882.014334201813 -401.990741491318 2687.99996376038 13 20 13
-877.006053924561 -403.056561946869 2694.9999332428 23 30 23
-875.18709897995 -405.618607997894 2711.99989318848 24 27 20
-871.99604511261 -407.582998275757 2724.99990463257 19 21 16
-847.793757915497 -399.675726890564 2671.99993133545 15 17 12
-837.720274925232 -398.349940776825 2663.00010681152 10 12 7
-833.309173583984 -399.716973304749 2671.99993133545 11 13 8
-821.738600730896 -397.643685340881 2657.99999237061 8 10 5
-827.711343765259 -404.098331928253 2700.99997520447 8 10 5
-827.679932117462 -407.711267471313 2724.99990463257 8 10 7
-817.885398864746 -406.536847352982 2717.00000762939 8 10 7
-797.693014144897 -400.125354528427 2674.00002479553 8 10 7
-791.922509670258 -400.896310806274 2678.99990081787 8 10 7
-781.43835067749 -399.273216724396 2667.99998283386 8 10 5
-757.084727287292 -390.466451644897 2608.99996757507 11 13 8
-739.375114440918 -384.951680898666 2572.00002670288 16 19 12
-728.984594345093 -383.178383111954 2559.99994277954 18 21 14
-719.222962856293 -381.704598665237 2549.99995231628 16 19 12
-713.425815105438 -382.326513528824 2553.99990081787 14 17 10
-708.436369895935 -383.397847414017 2561.00010871887 17 20 11
-705.599665641785 -385.667204856873 2575.99997520447 18 21 12
-701.053857803345 -387.03864812851 2585.00003814697 19 22 13
-685.719132423401 -382.421106100082 2553.99990081787 19 22 13
-681.714653968811 -384.09236073494 2565.00005722046 19 22 13
-673.966944217682 -383.667439222336 2562.00003623962 17 20 13
-666.234850883484 -383.242547512054 2559.00001525879 16 19 12
-661.867499351501 -384.764730930328 2569.00000572205 15 18 11
-647.503316402435 -380.445748567581 2539.99996185303 15 18 11
-642.879843711853 -381.818443536758 2549.00002479553 15 18 11
-638.955175876617 -383.640795946121 2561.00010871887 18 21 14
-645.329236984253 -391.755491495132 2615.00000953674 16 19 12
-624.806225299835 -383.540838956833 2559.99994277954 13 16 9
-613.752365112305 -381.018698215485 2542.99998283386 13 16 9
-628.013491630554 -403.572529554367 2693.00007820129 11 17 7
-611.478447914124 -397.604197263718 2653.00011634827 12 18 8
-606.775999069214 -399.278908967972 2664.00003433228 12 18 8
-599.087119102478 -399.005323648453 2661.99994087219 13 15 10
-590.96348285675 -398.431926965714 2657.99999237061 15 17 14
-879.688382148743 -404.875218868256 2658.99991989136 0 4 0
-902.011215686798 -418.598204851151 2749.00007247925 14 21 14
-884.471237659454 -413.896918296814 2717.99993515015 18 25 17
-885.171055793762 -417.723804712296 2743.00003051758 18 20 15
-865.255951881409 -411.804586648941 2703.9999961853 13 15 10
-851.898074150085 -408.931165933609 2684.99994277954 11 13 8
-843.991041183472 -408.647269010544 2683.00008773804 10 12 7
-840.772747993469 -410.648375749588 2696.00009918213 10 12 7
-822.644770145416 -405.338436365128 2661.00001335144 9 11 8
-814.206182956696 -404.750674962997 2657.00006484985 9 11 8
-828.264892101288 -415.436416864395 2726.99999809265 9 11 8
-807.327032089233 -408.603429794312 2681.99992179871 8 10 7
-799.460232257843 -408.321380615234 2680.0000667572 8 10 7
-797.515749931335 -411.086946725845 2697.99995422363 8 10 7
-795.473575592041 -413.853168487549 2716.00008010864 7 9 4
-759.673357009888 -398.943305015564 2618.00003051758 11 13 8
-743.664085865021 -394.242316484451 2586.99989318848 17 20 13
-717.507541179657 -387.735307216644 2543.99991035461 16 19 12
-709.212481975555 -386.996507644653 2539.00003433228 17 20 13
-699.5609998703 -385.495632886887 2529.00004386902 19 22 13
-703.110456466675 -391.311824321747 2566.99991226196 20 23 14
-695.877015590668 -391.183465719223 2565.99998474121 20 23 14
-686.232089996338 -389.683127403259 2555.99999427795 20 23 14
-678.235352039337 -389.097541570663 2552.00004577637 19 22 13
-673.942387104034 -390.646725893021 2562.00003623962 18 21 14
-671.156764030457 -393.111169338226 2578.00006866455 17 20 13
-664.419054985046 -393.288522958755 2578.9999961853 15 18 11
-654.361426830292 -391.483515501022 2566.99991226196 15 18 11
-641.341805458069 -387.848138809204 2542.99998283386 15 18 11
-639.429092407227 -390.923589468002 2562.99996376038 17 20 13
-632.224798202515 -390.796184539795 2562.00003623962 15 18 11
-623.316824436188 -389.601022005081 2553.99990081787 13 16 9
-640.998780727386 -405.186861753464 2655.99989891052 13 16 9
-639.312088489532 -413.478553295136 2710.00003814697 13 16 7
-614.909410476685 -407.123297452927 2667.99998283386 15 21 11
-609.255015850067 -408.218055963516 2674.99995231628 15 21 11
-601.986408233643 -408.244550228119 2674.99995231628 16 18 13
-596.273005008698 -409.339517354965 2681.99992179871 19 21 18
-883.640110492706 -413.974553346634 2671.0000038147 17 22 18
-889.523446559906 -420.192867517471 2710.99996566772 18 21 14
-888.682126998901 -423.312187194824 2730.99994659424 9 12 5
-879.665195941925 -422.55699634552 2726.0000705719 12 15 8
-867.795467376709 -420.40690779686 2711.99989318848 11 14 7
-853.146612644196 -416.861891746521 2688.99989128113 10 13 6
-843.9701795578 -415.952503681183 2683.00008773804 11 14 7
-822.314262390137 -412.428945302963 2660.00008583069 8 10 5
-815.410017967224 -412.605613470078 2661.00001335144 8 10 5
-806.678116321564 -411.852300167084 2655.99989891052 9 11 6
-819.043755531311 -421.954363584518 2720.99995613098 9 11 6
-806.596398353577 -419.341117143631 2703.9999961853 8 10 5
-802.221834659576 -420.915365219116 2713.99998664856 7 9 4
-786.077857017517 -416.286140680313 2684.00001525879 7 9 4
-772.127211093903 -412.742376327515 2661.00001335144 11 14 7
-748.527705669403 -403.924494981766 2604.00009155273 16 19 12
-730.931639671326 -398.208320140839 2566.99991226196 12 15 8
-719.458520412445 -395.749658346176 2551.00011825562 14 17 10
-703.602731227875 -390.808552503586 2519.00005340576 17 20 13
-699.260830879211 -392.228364944458 2528.00011634827 20 23 16
-696.239113807678 -394.424319267273 2542.00005531311 20 23 16
-693.683326244354 -396.931141614914 2558.00008773804 19 22 15
-684.328436851501 -395.558774471283 2549.00002479553 19 22 15
-674.756109714508 -394.031316041946 2539.00003433228 20 23 16
-673.654735088348 -397.470235824585 2561.00010871887 18 21 14
-667.487144470215 -397.960692644119 2563.99989128113 18 21 14
-666.197299957275 -401.400536298752 2585.99996566772 17 20 13
-651.787281036377 -396.924167871475 2556.99992179871 17 20 13
-644.847512245178 -396.94932103157 2556.99992179871 16 19 12
-634.164929389954 -394.645839929581 2542.00005531311 14 17 10
-633.433222770691 -398.552507162094 2566.99991226196 14 17 10
-626.952171325684 -398.888528347015 2569.00000572205 16 19 12
-622.390031814575 -400.466918945313 2578.9999961853 16 19 12
-633.044183254242 -411.984175443649 2653.00011634827 16 19 12
-617.466926574707 -411.260694265366 2648.00000190735 16 19 12
-610.734403133392 -411.59787774086 2650.00009536743 19 22 15
-596.474409103394 -406.809151172638 2618.99995803833 21 24 17
-593.408524990082 -409.631550312042 2637.00008392334 23 26 19
-590.4660820961 -412.609577178955 2655.99989891052 25 27 22
-872.043192386627 -415.726482868195 2635.99991798401 10 12 9
-880.645513534546 -423.315227031708 2684.00001525879 10 13 6
-881.829082965851 -427.43518948555 2710.00003814697 17 20 13
-871.577918529511 -426.035284996033 2700.99997520447 12 15 8
-858.495950698853 -423.216104507446 2683.00008773804 10 13 6
-843.60808134079 -419.450521469116 2658.99991989136 9 12 5
-831.367015838623 -416.947036981583 2642.99988746643 10 13 6
-822.019338607788 -415.863573551178 2635.99991798401 10 13 6
-817.346632480621 -417.146980762482 2644.00005340576 8 10 5
-811.711132526398 -417.957454919815 2648.9999294281 8 10 5
-808.478176593781 -420.030683279037 2661.99994087219 9 11 6
-799.455642700195 -419.106334447861 2655.99989891052 9 11 6
-812.240660190582 -429.70198392868 2723.00004959106 8 10 5
-794.808745384216 -424.359977245331 2688.99989128113 7 9 4
-784.58970785141 -422.805398702621 2678.99990081787 7 10 3
-765.139758586884 -416.200309991837 2637.00008392334 11 14 7
-746.204614639282 -409.752637147903 2595.99995613098 15 18 11
-730.054080486298 -404.725074768066 2563.99989128113 13 16 9
-716.614842414856 -401.117920875549 2540.99988937378 15 18 11
-705.813765525818 -398.931324481964 2526.99995040894 15 18 11
-697.300910949707 -398.007720708847 2520.99990844727 17 20 13
-696.76285982132 -401.662915945053 2543.99991035461 17 20 13
-689.862489700317 -401.687145233154 2543.99991035461 16 19 12
-681.61940574646 -400.922030210495 2539.00003433228 16 19 12
-674.465775489807 -400.788605213165 2538.00010681152 17 20 13
-663.10852766037 -398.128569126129 2520.99990844727 17 20 13
-665.379524230957 -403.680890798569 2555.99999427795 17 20 13
-661.5349650383 -405.601382255554 2568.00007820129 16 19 12
-657.36973285675 -407.364219427109 2578.9999961853 16 19 12
-647.091865539551 -405.336260795593 2565.99998474121 16 19 12
-626.992106437683 -401.437789201736 2540.99988937378 15 18 11
-628.878772258759 -407.151103019714 2576.99990272522 18 21 14
-634.912848472595 -415.70919752121 2631.00004196167 18 21 14
-615.904867649078 -412.60176897049 2611.00006103516 15 18 11
-616.507589817047 -417.84331202507 2644.00005340576 19 20 14
-603.333115577698 -413.760811090469 2618.00003051758 21 24 17
-596.903502941132 -414.261490106583 2621.00005149841 22 25 18
-587.981402873993 -413.023471832275 2612.99991607666 24 27 20
-577.768087387085 -410.836845636368 2598.99997711182 26 28 23
-887.242555618286 -430.28262257576 2681.99992179871 12 14 11
-876.033246517181 -428.375959396362 2670.00007629395 23 26 19
-876.928687095642 -432.406157255173 2694.9999332428 3 6 0
-876.075506210327 -435.634881258011 2714.99991416931 12 15 8
-850.796461105347 -426.669269800186 2658.99991989136 10 13 6
-840.415060520172 -425.084799528122 2648.9999294281 9 12 5
-835.435450077057 -426.228761672974 2655.99989891052 9 12 5
-826.675832271576 -425.447404384613 2651.00002288818 9 12 5
-818.870723247528 -425.147771835327 2648.9999294281 8 10 5
-816.285490989685 -427.577048540115 2664.00003433228 8 10 5
-813.315153121948 -429.846435785294 2677.99997329712 9 11 6
-802.744030952454 -428.103387355804 2667.00005531311 9 11 6
-785.968482494354 -422.98948764801 2634.99999046326 8 10 5
-794.785261154175 -431.681394577026 2688.99989128113 7 9 4
-778.708755970001 -426.888763904572 2658.99991989136 8 11 4
-756.411731243134 -418.563812971115 2607.00011253357 11 14 7
-737.845361232758 -412.164837121964 2566.99991226196 15 18 11
-726.329207420349 -409.619241952896 2551.00011825562 13 16 9
