ply
format ascii 1.0
comment KinectMotionCapture
element vertex 802
property float x
property float y
property float z
property uchar red
property uchar green
property uchar blue
end_header
702.446758747101 236.496612429619 2509.99999046326 33 36 29
708.662092685699 236.291453242302 2507.99989700317 37 40 33
464.688360691071 233.763203024864 2548.00009727478 4 6 1
470.497518777847 233.196511864662 2542.00005531311 0 1 0
476.272881031036 232.629805803299 2536.00001335144 8 10 5
479.91880774498 231.054097414017 2519.00005340576 22 25 18
482.698321342468 229.111611843109 2497.99990653992 47 50 41
487.518101930618 228.178188204765 2487.99991607666 36 39 30
493.871748447418 227.978423237801 2486.00006103516 16 19 8
500.213325023651 227.77858376503 2483.99996757507 18 21 10
505.318462848663 227.02856361866 2476.0000705719 23 29 19
509.758591651917 226.003497838974 2464.99991416931 17 20 13
517.071008682251 226.262003183365 2467.99993515015 17 20 13
524.186551570892 226.428776979446 2470.00002861023 32 33 27
532.601296901703 227.145418524742 2477.9999256134 27 26 21
537.140667438507 226.212069392204 2467.99993515015 42 39 32
541.18424654007 225.09554028511 2456.00008964539 38 35 26
547.392129898071 224.895551800728 2453.9999961853 32 28 16
553.588211536407 224.695563316345 2451.99990272522 40 34 22
560.000777244568 224.587187170982 2450.99997520447 55 49 35
566.406965255737 224.478840827942 2450.00004768372 43 37 21
572.806656360626 224.370449781418 2448.99988174438 51 48 29
578.963398933411 224.170506000519 2447.00002670288 48 45 26
584.629654884338 223.787367343903 2443.00007820129 47 44 25
592.9354429245 224.411845207214 2450.00004768372 60 54 38
600.543975830078 224.761456251144 2453.9999961853 55 49 35
608.668029308319 225.294202566147 2460.00003814697 44 38 24
614.572465419769 225.002720952034 2457.00001716614 36 30 18
622.22957611084 225.352257490158 2460.99996566772 34 30 18
628.374218940735 225.152418017387 2459.00011062622 31 29 17
636.056542396545 225.501969456673 2463.00005912781 23 21 9
639.845490455627 224.478289484978 2451.99990272522 25 27 16
656.75675868988 228.031948208809 2490.9999370575 22 23 15
668.817162513733 229.845941066742 2510.99991798401 24 27 20
681.523263454437 231.842815876007 2532.99999237061 21 24 17
685.651063919067 230.910763144493 2523.00000190735 24 27 20
686.979234218597 229.063719511032 2503.00002098084 17 20 13
696.236550807953 229.870826005936 2512.00008392334 22 25 18
703.023076057434 229.8544049263 2512.00008392334 35 38 31
708.678603172302 229.472070932388 2507.99989700317 31 34 27
718.020379543304 230.27928173542 2516.99995994568 34 37 30
732.881546020508 232.82465338707 2545.00007629395 36 39 32
724.93052482605 228.143155574799 2493.99995803833 146 149 142
457.783281803131 226.834207773209 2548.00009727478 9 10 4
468.35196018219 228.598847985268 2568.00007820129 18 19 13
470.328480005264 226.179569959641 2540.99988937378 24 25 19
471.969336271286 223.67151081562 2513.00001144409 40 43 36
478.410720825195 223.477691411972 2510.99991798401 43 46 39
482.907712459564 222.39388525486 2499.00007247925 32 35 28
488.51403594017 221.844032406807 2493.00003051758 23 26 19
494.68258023262 221.561118960381 2490.00000953674 19 22 13
502.04199552536 221.81199491024 2493.00003051758 17 20 11
505.334734916687 220.283433794975 2476.0000705719 22 25 16
511.015653610229 219.822525978088 2470.99995613098 21 22 14
517.50648021698 219.717457890511 2470.00002861023 21 23 12
520.807325839996 218.278124928474 2453.9999961853 26 28 17
527.459263801575 218.261986970901 2453.9999961853 30 31 23
538.027763366699 219.846621155739 2471.99988365173 34 36 25
541.641354560852 218.585312366486 2457.99994468689 31 31 21
548.300921916962 218.569025397301 2457.99994468689 25 22 13
554.507791996002 218.374907970428 2456.00008964539 25 23 11
560.702800750732 218.180745840073 2453.9999961853 25 23 11
567.348301410675 218.164414167404 2453.9999961853 23 21 8
573.758840560913 218.059211969376 2453.00006866455 28 25 10
579.926371574402 217.865064740181 2450.99997520447 28 25 10
585.603415966034 217.49322116375 2447.00002670288 30 27 12
593.194007873535 217.832386493683 2450.99997520447 38 34 22
599.581599235535 217.727199196815 2450.00004768372 52 48 36
607.200026512146 218.066349625587 2453.9999961853 66 62 51
614.088654518127 218.138888478279 2454.99992370605 50 46 37
621.740460395813 218.47802400589 2459.00011062622 45 41 32
629.157245159149 218.728229403496 2461.99989318848 32 28 19
635.814785957336 218.712002038956 2461.99989318848 29 24 18
646.385669708252 220.028206706047 2476.99999809265 28 25 18
652.291059494019 219.745472073555 2473.99997711182 21 22 16
672.296583652496 224.170073866844 2523.9999294281 22 23 17
680.732667446136 224.686473608017 2529.99997138977 29 32 25
685.123980045319 223.870858550072 2520.99990844727 31 34 27
690.014719963074 223.233014345169 2513.99993896484 25 28 21
693.758368492126 222.240194678307 2503.00002098084 29 32 25
703.598916530609 223.20082783699 2513.99993896484 34 37 30
713.21576833725 224.072650074959 2523.9999294281 28 31 24
722.886025905609 224.944442510605 2533.99991989136 41 44 37
741.248905658722 228.479146957397 2573.99988174438 34 37 30
718.551278114319 219.409868121147 2471.99988365173 100 103 96
455.64267039299 218.852818012238 2536.00001335144 14 15 9
462.713629007339 218.923896551132 2536.99994087219 18 19 13
467.937797307968 218.131974339485 2528.00011634827 28 29 23
473.487436771393 217.512637376785 2520.99990844727 36 39 32
479.569554328918 217.1521037817 2516.99995994568 33 36 29
483.889549970627 216.015100479126 2503.99994850159 25 28 21
488.921642303467 215.223222970963 2494.99988555908 21 24 17
494.698315858841 214.776381850243 2490.00000953674 17 20 13
500.849485397339 214.502021670341 2486.99998855591 17 20 13
505.146443843842 213.451460003853 2474.99990463257 17 20 11
508.342981338501 211.969792842865 2457.99994468689 21 23 12
515.636682510376 212.21287548542 2460.99996566772 23 25 14
522.733330726624 212.369650602341 2463.00005912781 28 30 19
530.05462884903 212.6125395298 2466.00008010864 30 32 21
531.731903553009 210.613876581192 2443.00007820129 23 25 14
540.775954723358 211.546421051025 2453.9999961853 22 24 13
548.317015171051 211.875379085541 2457.99994468689 22 22 12
554.97545003891 211.859509348869 2457.99994468689 23 23 13
561.175942420959 211.671248078346 2456.00008964539 23 23 13
567.133247852325 211.396813392639 2453.00006866455 22 22 10
573.073267936707 211.122393608093 2450.00004768372 26 24 11
579.705834388733 211.106494069099 2450.00004768372 28 24 12
585.858821868896 210.918262600899 2447.99995422363 31 27 15
593.210101127625 211.160853505135 2450.99997520447 36 32 20
599.597692489624 211.058810353279 2450.00004768372 45 41 30
606.721162796021 211.215198040009 2451.99990272522 45 41 32
613.604485988617 211.285501718521 2453.00006866455 44 40 31
621.756553649902 211.786419153214 2459.00011062622 40 35 29
629.42898273468 212.115049362183 2463.00005912781 31 26 20
636.34729385376 212.185323238373 2463.99998664856 29 24 18
642.22639799118 211.911201477051 2460.99996566772 30 27 22
664.321780204773 214.72093462944 2493.99995803833 30 31 25
671.062350273132 214.705109596252 2493.99995803833 32 35 28
681.06347322464 215.722352266312 2506.00004196167 30 33 26
688.784897327423 213.883444666862 2484.99989509583 23 26 19
702.775180339813 216.105654835701 2510.99991798401 31 34 27
713.796734809875 217.38101541996 2526.00002288818 44 49 42
728.892624378204 219.86098587513 2555.0000667572 38 43 36
735.793173313141 219.845429062843 2555.0000667572 48 53 46
455.66913485527 215.213268995285 2575.00004768372 2 3 0
456.196635961533 212.18977868557 2539.00003433228 44 45 39
460.357576608658 210.921481251717 2523.9999294281 22 23 17
469.618856906891 211.992934346199 2536.99994087219 40 41 35
476.507842540741 211.977943778038 2536.99994087219 24 27 20
480.91858625412 210.87671816349 2523.9999294281 16 19 12
483.904778957367 209.190726280212 2503.99994850159 21 24 17
487.173229455948 207.671999931335 2486.00006103516 23 26 19
492.130845785141 206.905141472816 2476.99999809265 18 21 14
498.851001262665 206.890061497688 2476.99999809265 22 25 18
502.508401870728 205.622106790543 2461.99989318848 22 25 16
510.63334941864 206.191599369049 2469.00010108948 23 26 17
516.280710697174 205.758810043335 2463.99998664856 23 26 17
523.173272609711 205.82702755928 2464.99991416931 19 20 12
530.070185661316 205.895215272903 2466.00008010864 16 17 9
534.141659736633 204.877987504005 2453.9999961853 21 22 14
539.469301700592 204.361751675606 2447.99995422363 23 24 16
546.548008918762 204.513385891914 2450.00004768372 27 27 19
553.862154483795 204.748407006264 2453.00006866455 25 25 17
561.191558837891 204.983368515968 2456.00008964539 24 24 16
566.917657852173 204.634055495262 2451.99990272522 25 25 15
573.088943958282 204.451724886894 2450.00004768372 27 25 13
579.721570014954 204.436272382736 2450.00004768372 25 23 10
586.113810539246 204.337373375893 2448.99988174438 28 26 13
592.741727828979 204.321935772896 2448.99988174438 29 27 15
598.634421825409 204.05624806881 2446.00009918213 32 30 18
605.499625205994 204.124242067337 2447.00002670288 36 33 24
612.869679927826 204.359069466591 2450.00004768372 36 33 24
620.760679244995 204.760700464249 2454.99992370605 35 32 25
628.677845001221 205.162301659584 2460.00003814697 32 29 24
633.521974086761 204.563200473785 2453.00006866455 33 30 25
642.502903938293 205.298349261284 2461.99989318848 37 34 29
655.222952365875 207.200810313225 2484.99989509583 44 43 38
669.931292533875 209.686651825905 2515.00010490417 45 46 40
663.543820381165 205.586090683937 2466.00008010864 48 51 44
674.012839794159 206.737995147705 2480.00001907349 46 49 42
688.673913478851 209.14015173912 2509.0000629425 38 41 34
694.621026515961 208.874851465225 2506.00004196167 35 38 31
697.47269153595 207.692876458168 2492.00010299683 38 41 34
709.855914115906 209.344655275345 2512.00008392334 62 67 60
721.205353736877 210.662946105003 2528.00011634827 63 68 61
740.416288375854 214.230969548225 2571.00009918213 50 55 48
461.1696600914 210.698470473289 2605.99994659424 32 33 27
468.070149421692 210.603013634682 2605.00001907349 8 9 3
470.374047756195 205.399990081787 2540.99988937378 19 20 14
478.588819503784 205.951243638992 2548.00009727478 24 27 20
482.648342847824 204.724162817001 2532.99999237061 21 24 17
484.499424695969 202.608183026314 2506.99996948242 31 34 27
486.796110868454 200.734883546829 2483.99996757507 31 34 27
493.139117956162 200.558662414551 2482.00011253357 23 26 19
495.844930410385 198.927968740463 2461.99989318848 28 31 24
503.747999668121 199.39811527729 2467.99993515015 26 29 20
511.06196641922 199.625745415688 2470.99995613098 26 29 20
518.181562423706 199.772521853447 2473.00004959106 27 30 21
525.098562240601 199.838414788246 2473.99997711182 26 29 20
529.440402984619 198.935031890869 2463.00005912781 27 28 20
536.115765571594 198.920115828514 2463.00005912781 30 31 23
539.48438167572 197.693794965744 2447.99995422363 31 32 24
545.893847942352 197.598144412041 2447.00002670288 30 31 23
552.522540092468 197.583228349686 2447.00002670288 29 29 21
559.607207775116 197.729766368866 2448.99988174438 31 31 23
565.314412117004 197.391852736473 2444.9999332428 33 33 23
570.998847484589 197.053998708725 2440.99998474121 34 34 22
576.897203922272 196.796864271164 2437.99996376038 32 32 20
584.214389324188 197.024092078209 2440.99998474121 32 32 20
590.820610523224 197.00913131237 2440.99998474121 33 33 21
599.138975143433 197.559088468552 2447.99995422363 32 32 22
606.752038002014 197.866901755333 2451.99990272522 27 27 19
612.884879112244 197.690546512604 2450.00004768372 27 27 19
622.292995452881 198.563113808632 2460.99996566772 28 28 20
628.693103790283 198.467463254929 2460.00003814697 27 26 21
633.795380592346 197.968497872353 2453.9999961853 27 26 21
641.735136508942 198.356971144676 2459.00011062622 30 29 24
652.601420879364 199.63264465332 2474.99990463257 30 31 25
658.225834369659 199.295118451118 2470.99995613098 31 32 26
669.747650623322 200.731977820396 2489.00008201599 35 38 31
673.756062984467 199.910715222359 2479.00009155273 38 41 34
679.356396198273 199.573412537575 2474.99990463257 39 42 35
664.699673652649 193.350315093994 2398.00000190735 47 50 43
687.971234321594 198.173642158508 2457.99994468689 30 33 26
701.958119869232 200.25534927845 2483.99996757507 27 32 25
716.940820217133 202.578693628311 2513.00001144409 55 60 53
729.487419128418 204.17632162571 2532.99999237061 43 48 41
749.990344047546 207.950070500374 2579.99992370605 62 67 60
466.847062110901 206.092104315758 2638.00001144409 11 12 4
467.904955148697 203.421711921692 2604.00009155273 20 21 13
464.094281196594 195.816546678543 2506.99996948242 17 18 10
472.029000520706 196.271225810051 2513.00001144409 24 27 18
476.755768060684 195.398092269897 2502.00009346008 29 32 23
481.808096170425 194.681152701378 2493.00003051758 34 37 28
487.986296415329 194.432765245438 2490.00000953674 30 33 24
494.146943092346 194.184318184853 2486.99998855591 25 28 19
499.484598636627 193.623557686806 2480.00001907349 31 34 27
504.170775413513 192.828595638275 2470.00002861023 25 28 19
511.490225791931 193.048492074013 2473.00004959106 24 27 18
519.034385681152 193.346336483955 2476.99999809265 23 26 17
525.749981403351 193.331882357597 2476.99999809265 24 27 18
531.389713287354 192.927166819572 2471.99988365173 26 27 19
536.348104476929 192.28832423687 2463.99998664856 30 31 23
541.482508182526 191.727608442307 2457.00001716614 29 30 22
545.908570289612 190.932840108871 2447.00002670288 26 27 19
551.408290863037 190.528273582458 2441.99991226196 27 27 19
558.250963687897 190.59182703495 2443.00007820129 31 31 23
565.329134464264 190.733328461647 2444.9999332428 33 33 25
571.48140668869 190.562844276428 2443.00007820129 36 36 26
575.72877407074 189.768344163895 2433.00008773804 34 34 22
583.032369613647 189.987868070602 2436.00010871887 31 33 20
591.319441795349 190.51930308342 2443.00007820129 34 36 23
598.664343357086 190.738722681999 2446.00009918213 35 35 25
603.302478790283 190.100431442261 2437.99996376038 30 30 22
609.647512435913 190.007999539375 2437.00003623962 30 31 23
618.76779794693 190.773203969002 2447.00002670288 31 31 23
629.218935966492 191.928088665009 2461.99989318848 27 26 21
634.068250656128 191.367909312248 2454.99992370605 24 25 19
634.964287281036 189.638704061508 2433.00008773804 24 25 19
643.123507499695 190.092071890831 2438.99989128113 27 28 22
656.10945224762 191.948235034943 2463.00005912781 33 36 29
665.995061397552 192.869007587433 2474.99990463257 38 41 34
681.380748748779 195.348158478737 2506.99996948242 41 44 37
684.037268161774 194.164976477623 2492.00010299683 38 41 34
681.345224380493 191.501721739769 2457.99994468689 36 39 32
677.349328994751 188.52736055851 2420.00007629395 32 35 28
698.016107082367 192.408561706543 2470.00002861023 34 39 32
711.534380912781 194.264054298401 2493.99995803833 48 53 46
720.285773277283 194.795310497284 2500.99992752075 36 41 34
729.365170001984 195.40448486805 2509.0000629425 55 60 53
722.643435001373 191.808342933655 2463.00005912781 40 45 41
465.445399284363 198.294669389725 2630.00011444092 132 133 125
462.528139352798 194.0588504076 2573.99988174438 23 24 16
464.777767658234 192.085132002831 2548.00009727478 37 38 30
464.66338634491 189.207002520561 2509.99999046326 58 59 51
469.037353992462 188.213601708412 2496.99997901917 21 24 15
475.626260042191 188.124671578407 2496.00005149841 26 29 20
482.015252113342 187.960341572762 2493.99995803833 27 30 21
488.78413438797 187.946632504463 2493.99995803833 23 26 17
497.340083122253 188.611045479774 2503.00002098084 21 24 15
501.109898090363 187.46691942215 2487.99991607666 20 23 14
505.817711353302 186.699628829956 2477.9999256134 20 23 14
514.400005340576 187.363788485527 2486.99998855591 20 23 14
519.048511981964 186.596482992172 2476.99999809265 21 24 15
525.764286518097 186.582490801811 2476.99999809265 27 30 21
531.833946704865 186.342477798462 2473.99997711182 30 33 24
540.715992450714 187.081560492516 2483.99996757507 31 32 24
543.259859085083 185.636535286903 2464.99991416931 28 29 21
548.153817653656 185.020044445992 2457.00001716614 24 25 17
552.551567554474 184.252992272377 2447.00002670288 26 27 19
557.808101177216 183.787196874619 2440.99998474121 26 27 19
562.568724155426 183.170899748802 2433.00008773804 25 26 18
569.39035654068 183.232203125954 2434.00001525879 21 24 13
577.162861824036 183.594569563866 2438.99989128113 25 28 17
585.440099239349 184.107393026352 2446.00009918213 21 24 13
594.238340854645 184.770703315735 2454.99992370605 21 24 13
600.636601448059 184.681311249733 2453.9999961853 21 24 15
603.811621665955 183.613672852516 2440.00005722046 19 22 13
608.160614967346 182.922467589378 2430.99999427795 21 24 15
616.506099700928 183.435216546059 2437.99996376038 25 28 21
626.677453517914 184.474512934685 2451.99990272522 29 32 25
631.757974624634 184.009164571762 2446.00009918213 31 34 27
635.239362716675 183.092564344406 2434.00001525879 34 37 30
643.401265144348 183.530032634735 2440.00005722046 38 39 33
650.795757770538 183.741867542267 2443.00007820129 36 39 32
663.318276405334 185.382604598999 2464.99991416931 38 41 34
674.056470394135 186.496794223785 2480.00001907349 41 44 37
689.541339874268 188.889175653458 2512.00008392334 45 48 41
681.08195066452 184.739798307419 2457.00001716614 45 48 41
687.999129295349 184.801369905472 2457.99994468689 41 44 37
697.181940078735 185.464471578598 2467.00000762939 39 44 37
706.983327865601 186.277896165848 2477.9999256134 46 51 44
713.675439357758 186.264455318451 2477.9999256134 47 52 45
721.529841423035 186.55176460743 2482.00011253357 45 50 43
729.111671447754 186.76395714283 2484.99989509583 72 77 73
457.671761512756 187.92413175106 2585.99996566772 22 23 15
461.822718381882 186.748310923576 2569.9999332428 29 30 22
460.413187742233 183.39279294014 2523.9999294281 47 48 40
462.084829807281 181.345418095589 2496.00005149841 54 55 47
468.487083911896 181.187108159065 2493.99995803833 22 25 16
474.496275186539 180.883452296257 2490.00000953674 27 30 21
479.902654886246 180.361852049828 2483.00004005432 25 28 19
487.033754587173 180.493921041489 2484.99989509583 24 27 18
494.174480438232 180.625930428505 2486.99998855591 29 32 23
497.498035430908 179.377987980843 2470.00002861023 27 30 21
504.402458667755 179.437294602394 2470.99995613098 22 28 18
511.104285717011 179.423898458481 2470.99995613098 24 30 20
515.918970108032 178.75699698925 2461.99989318848 25 31 21
522.381782531738 178.670942783356 2460.99996566772 29 32 23
530.342936515808 179.093062877655 2467.00000762939 31 34 25
539.859175682068 180.023163557053 2480.00001907349 32 35 26
542.612493038177 178.7029504776 2461.99989318848 32 35 26
543.482422828674 176.802322268486 2436.00010871887 33 34 26
549.855530261993 176.716238260269 2434.99994277954 34 35 27
558.735966682434 177.428409457207 2444.9999332428 33 34 26
564.663529396057 177.197143435478 2441.99991226196 32 33 25
571.509599685669 177.256137132645 2443.00007820129 34 37 28
580.962955951691 178.113132715225 2454.99992370605 30 33 24
589.283585548401 178.607299923897 2461.99989318848 29 32 23
596.430778503418 178.738683462143 2463.99998664856 28 31 22
602.119147777557 178.434818983078 2460.00003814697 27 30 21
610.259652137756 178.856328129768 2466.00008010864 27 30 23
611.426591873169 177.247121930122 2444.00000572205 28 31 24
616.266965866089 176.725953817368 2437.00003623962 27 30 23
621.579647064209 176.349893212318 2431.99992179871 26 29 22
629.18895483017 176.62650346756 2436.00010871887 26 29 22
633.687019348145 176.033049821854 2427.99997329712 29 32 25
640.514254570007 176.092207431793 2428.99990081787 33 34 28
646.813333034515 176.0064214468 2427.99997329712 38 41 34
658.2190990448 177.297919988632 2446.00009918213 39 42 35
671.35214805603 179.024130105972 2470.00002861023 40 43 36
679.947376251221 179.518073797226 2476.99999809265 48 51 44
686.362326145172 179.432302713394 2476.0000705719 52 55 48
692.491054534912 179.274126887321 2473.99997711182 38 41 34
695.49959897995 178.318992257118 2460.99996566772 35 40 33
706.425964832306 179.392769932747 2476.0000705719 40 45 38
713.976681232452 179.597124457359 2479.00009155273 54 59 52
721.54289484024 179.801523685455 2482.00011253357 52 57 50
737.633526325226 182.106643915176 2513.99993896484 60 65 61
739.979445934296 181.007266044617 2499.00007247925 59 64 60
459.51384305954 176.159501075745 2519.00005340576 24 25 17
465.059757232666 175.657451152802 2512.00008392334 19 20 12
468.875616788864 174.526035785675 2496.00005149841 19 22 13
476.033627986908 174.653232097626 2497.99990653992 28 31 22
479.915618896484 173.591837286949 2483.00004005432 30 33 24
485.674828290939 173.229590058327 2477.9999256134 25 28 19
489.815980195999 172.308087348938 2464.99991416931 22 25 16
496.705442667007 172.365203499794 2466.00008010864 18 21 12
501.965999603271 171.86313867569 2459.00011062622 24 29 22
511.324286460876 172.758787870407 2471.99988365173 25 30 23
517.189502716064 172.466278076172 2467.99993515015 26 31 24
522.819578647614 172.10391163826 2463.00005912781 25 30 23
529.281318187714 172.020986676216 2461.99989318848 28 31 24
535.954117774963 172.007918357849 2461.99989318848 29 32 25
539.760708808899 171.086654067039 2448.99988174438 28 31 24
541.933834552765 169.67648267746 2428.99990081787 27 30 23
548.513889312744 169.663488864899 2428.99990081787 28 29 23
556.921124458313 170.209243893623 2437.00003623962 25 26 20
565.370559692383 170.754879713058 2444.9999332428 23 24 18
572.224736213684 170.811593532562 2446.00009918213 24 27 20
582.869589328766 171.985521912575 2463.00005912781 22 25 18
590.49379825592 172.25156724453 2467.00000762939 23 26 19
594.99180316925 171.609938144684 2457.99994468689 27 30 23
601.153552532196 171.457141637802 2456.00008964539 27 30 23
609.035670757294 171.792954206467 2460.99996566772 28 31 24
616.443634033203 171.989157795906 2463.99998664856 30 33 26
619.567692279816 170.998826622963 2450.00004768372 33 36 29
621.592819690704 169.729501008987 2431.99992179871 33 36 29
626.619160175323 169.297844171524 2426.00011825562 32 35 28
633.70007276535 169.424459338188 2427.99997329712 31 34 27
642.109572887421 169.900000095367 2434.99994277954 31 32 26
643.895983695984 168.631300330162 2417.00005531311 29 32 25
655.002892017365 169.804558157921 2434.00001525879 27 30 23
667.55998134613 171.326458454132 2456.00008964539 26 29 22
676.666378974915 171.941369771957 2464.99991416931 34 37 30
683.603167533875 171.99832201004 2466.00008010864 38 41 34
690.544664859772 172.055318951607 2467.00000762939 46 49 42
699.186444282532 172.530800104141 2473.99997711182 44 49 42
707.009434700012 172.797098755836 2477.9999256134 39 44 37
716.581463813782 173.481777310371 2487.99991607666 56 61 54
726.20701789856 174.166470766068 2497.99990653992 57 62 55
735.885798931122 174.851134419441 2507.99989700317 64 69 65
459.997981786728 174.690052866936 2598.99997711182 39 40 32
461.129307746887 172.459840774536 2565.99998474121 23 24 16
467.552840709686 172.245964407921 2562.99996376038 30 31 23
468.404561281204 170.016005635262 2529.99997138977 31 32 24
470.954358577728 168.458268046379 2506.99996948242 19 22 13
473.568648099899 166.967839002609 2484.99989509583 27 30 21
479.541450738907 166.686907410622 2480.99994659424 24 27 18
484.707295894623 166.137218475342 2473.00004959106 17 20 11
489.431083202362 165.453180670738 2463.00005912781 19 22 13
494.905143976212 165.037855505943 2457.00001716614 19 22 13
502.386808395386 165.2941852808 2460.99996566772 20 25 18
511.336982250214 166.020527482033 2471.99988365173 23 28 21
516.573548316956 165.537938475609 2464.99991416931 24 29 22
523.469150066376 165.592581033707 2466.00008010864 25 30 23
527.574300765991 164.774268865585 2453.9999961853 27 30 23
534.007728099823 164.694562554359 2453.00006866455 28 31 24
537.789881229401 163.809239864349 2440.00005722046 27 30 23
545.29333114624 164.065197110176 2444.00000572205 26 29 22
550.107479095459 163.515612483025 2436.00010871887 27 28 22
556.93393945694 163.570135831833 2437.00003623962 25 26 20
563.764810562134 163.62464427948 2437.99996376038 24 25 19
572.939395904541 164.350211620331 2448.99988174438 23 26 19
582.882642745972 165.277019143105 2463.00005912781 21 24 17
589.549422264099 165.264248847961 2463.00005912781 21 24 17
593.068301677704 164.379253983498 2450.00004768372 23 26 19
597.250044345856 163.695693016052 2440.00005722046 22 25 18
607.06889629364 164.55514729023 2453.00006866455 23 26 19
615.95618724823 165.1461571455 2461.99989318848 26 29 22
620.086312294006 164.462685585022 2451.99990272522 29 32 25
625.183939933777 164.047673344612 2446.00009918213 31 34 27
628.439903259277 163.163259625435 2433.00008773804 31 34 27
635.017812252045 163.150787353516 2433.00008773804 32 35 28
642.385959625244 163.339480757713 2436.00010871887 35 36 30
652.966380119324 164.332762360573 2450.99997520447 29 32 25
655.822813510895 163.381740450859 2437.00003623962 25 28 21
665.126264095306 164.039760828018 2447.00002670288 26 29 22
671.463370323181 163.960412144661 2446.00009918213 30 33 26
678.625822067261 164.082169532776 2447.99995422363 34 37 30
691.956698894501 165.67850112915 2471.99988365173 41 44 37
694.39435005188 164.660975337029 2457.00001716614 35 40 33
707.30721950531 166.123151779175 2479.00009155273 27 32 25
716.30585193634 166.64707660675 2486.99998855591 38 43 36
727.382242679596 167.640030384064 2502.00009346008 57 62 55
745.287537574768 170.173853635788 2539.99996185303 36 41 37
760.732531547546 172.104492783546 2569.00000572205 45 50 46
450.80628991127 164.246529340744 2546.99993133545 26 27 19
462.938368320465 166.104897856712 2575.99997520447 28 29 21
466.105461120605 164.739057421684 2555.0000667572 25 26 18
470.638275146484 163.889065384865 2542.00005531311 19 20 12
470.214933156967 161.362990736961 2503.00002098084 14 17 8
474.914640188217 160.642147064209 2492.00010299683 22 25 16
479.746788740158 159.985795617104 2482.00011253357 22 25 16
488.247394561768 160.554066300392 2490.9999370575 18 21 12
489.641845226288 158.802047371864 2463.99998664856 20 23 14
495.118618011475 158.403545618057 2457.99994468689 18 21 12
500.970005989075 158.133924007416 2453.9999961853 19 24 17
509.901285171509 158.830791711807 2464.99991416931 19 24 17
518.052816390991 159.2698097229 2471.99988365173 19 24 17
526.241183280945 159.708708524704 2479.00009155273 18 23 16
530.811429023743 159.052342176437 2469.00010108948 19 24 17
535.10856628418 158.331632614136 2457.99994468689 26 29 22
540.446996688843 157.9330265522 2451.99990272522 25 28 21
547.313809394836 157.98531472683 2453.00006866455 27 30 23
554.636359214783 158.166334033012 2456.00008964539 29 32 25
558.317542076111 157.316997647285 2443.00007820129 29 32 25
562.389671802521 156.596541404724 2431.99992179871 28 31 24
571.31415605545 157.228261232376 2441.99991226196 28 30 25
582.658469676971 158.503711223602 2461.99989318848 27 29 24
588.365077972412 158.233925700188 2457.99994468689 28 30 25
589.691758155823 156.805545091629 2436.00010871887 32 34 29
596.772849559784 156.922101974487 2437.99996376038 32 34 29
606.586337089539 157.746657729149 2450.99997520447 30 32 27
613.967180252075 157.927513122559 2453.9999961853 30 32 27
620.351672172546 157.850965857506 2453.00006866455 30 32 27
626.218736171722 157.645747065544 2450.00004768372 27 30 23
631.810128688812 157.376274466515 2446.00009918213 28 31 24
639.206111431122 157.557189464569 2448.99988174438 31 34 27
646.617531776428 157.738119363785 2451.99990272522 31 32 26
657.507598400116 158.755287528038 2467.99993515015 26 29 22
668.21426153183 159.708023071289 2483.00004005432 25 28 21
668.943881988525 158.280968666077 2460.99996566772 25 28 21
670.926332473755 157.175749540329 2444.00000572205 34 37 30
678.915083408356 157.485470175743 2448.99988174438 38 41 34
693.648338317871 159.33845937252 2477.9999256134 38 41 34
697.51513004303 158.683642745018 2467.99993515015 32 37 30
697.332739830017 157.128930091858 2444.00000572205 23 28 21
721.790254116058 161.103203892708 2506.00004196167 23 28 21
729.719936847687 161.34862601757 2509.99999046326 38 43 36
736.20343208313 161.272674798965 2509.0000629425 43 48 44
748.603403568268 162.482306361198 2528.00011634827 29 34 30
437.89666891098 152.789309620857 2473.99997711182 41 43 32
462.285876274109 156.472504138947 2533.99991989136 42 44 33
468.983501195908 156.399503350258 2532.99999237061 21 23 12
472.668617963791 155.33858537674 2516.00003242493 15 18 7
474.735528230667 153.783842921257 2490.9999370575 21 24 13
480.918020009995 153.587356209755 2487.99991607666 20 23 12
486.495018005371 153.205662965775 2482.00011253357 17 20 9
495.41637301445 153.873205184937 2493.00003051758 20 23 12
493.518799543381 151.207864284515 2450.00004768372 18 21 12
497.715204954147 150.455936789513 2437.99996376038 19 24 17
505.98269701004 150.938257575035 2446.00009918213 19 24 17
512.406170368195 150.865107774734 2444.9999332428 17 22 15
522.64416217804 151.902511715889 2461.99989318848 17 22 15
531.683325767517 152.56954729557 2473.00004959106 19 24 17
534.249663352966 151.385769248009 2453.9999961853 23 26 19
540.458917617798 151.250749826431 2451.99990272522 23 26 19
547.325670719147 151.300773024559 2453.00006866455 25 28 21
552.841663360596 150.980725884438 2447.99995422363 27 30 23
557.186722755432 150.352329015732 2437.99996376038 27 30 23
561.476528644562 149.724021553993 2427.99997329712 26 29 22
568.752586841583 149.897396564484 2430.99999427795 27 29 26
579.120516777039 150.872260332108 2447.00002670288 27 29 24
586.22270822525 150.983825325966 2448.99988174438 29 31 26
588.008999824524 149.739161133766 2428.99990081787 33 35 30
593.847513198853 149.542644619942 2426.00011825562 34 36 31
601.648509502411 149.83919262886 2430.99999427795 34 36 31
612.477898597717 150.875300168991 2447.99995422363 34 36 31
617.834687232971 150.555491447449 2443.00007820129 32 34 29
623.674511909485 150.358974933624 2440.00005722046 29 32 25
631.821990013123 150.717064738274 2446.00009918213 27 30 23
640.000998973846 151.075139641762 2451.99990272522 27 30 23
647.684216499329 151.309967041016 2456.00008964539 31 32 26
658.851504325867 152.345642447472 2473.00004959106 27 30 23
664.458513259888 152.087643742561 2469.00010108948 26 29 22
666.781008243561 151.090547442436 2453.00006866455 26 29 22
670.937895774841 150.524809956551 2444.00000572205 26 29 22
676.154375076294 150.205552577972 2438.99989128113 25 28 21
689.181089401245 151.610627770424 2461.99989318848 32 35 28
701.766133308411 152.89244055748 2483.00004005432 40 45 38
705.618679523468 152.265399694443 2473.00004959106 43 48 41
718.921482563019 153.670221567154 2496.00005149841 45 50 43
734.092354774475 155.44430911541 2525.00009536743 45 50 43
743.25704574585 155.925467610359 2532.99999237061 38 43 39
757.794857025146 157.514646649361 2559.00001525879 46 51 47
759.622752666473 156.45706653595 2542.00005531311 34 39 35
457.389712333679 150.219514966011 2545.00007629395 25 26 18
464.668542146683 150.326788425446 2546.99993133545 20 21 13
469.92039680481 149.784803390503 2538.00010681152 18 19 11
475.49769282341 149.360805749893 2530.99989891052 19 20 12
479.130059480667 148.346751928329 2513.99993896484 21 22 14
480.929106473923 146.801725029945 2487.99991607666 22 23 15
491.014420986176 147.793844342232 2505.00011444092 17 18 10
492.84416437149 146.307945251465 2480.00001907349 23 24 16
494.73848938942 144.881203770638 2456.00008964539 15 18 9
496.297240257263 143.395632505417 2430.99999427795 22 25 18
506.407558917999 144.387483596802 2447.99995422363 24 27 20
514.722764492035 144.848316907883 2456.00008964539 21 24 17
520.957231521606 144.719332456589 2453.9999961853 22 25 18
528.899729251862 145.062059164047 2460.00003814697 25 28 21
534.260988235474 144.69712972641 2453.9999961853 22 25 18
539.809048175812 144.391179084778 2448.99988174438 19 22 15
545.105814933777 144.026309251785 2443.00007820129 23 26 19
552.175521850586 144.133061170578 2444.9999332428 24 27 20
555.598258972168 143.296629190445 2430.99999427795 25 28 21
560.794174671173 142.931863665581 2424.99995231628 24 27 20
569.231927394867 143.392220139503 2433.00008773804 25 27 22
578.185319900513 143.970385193825 2443.00007820129 25 27 22
586.234211921692 144.312709569931 2448.99988174438 26 28 23
589.71506357193 143.535494804382 2436.00010871887 30 32 27
590.676546096802 142.169192433357 2413.00010681152 30 32 27
598.689913749695 142.511591315269 2418.99991035461 33 35 30
609.737277030945 143.560871481895 2437.00003623962 35 37 32
619.869232177734 144.37435567379 2450.99997520447 35 37 32
627.008855342865 144.480973482132 2453.00006866455 33 36 29
631.058394908905 143.88082921505 2443.00007820129 30 33 26
638.968348503113 144.16415989399 2447.99995422363 27 30 23
648.223042488098 144.741907715797 2457.99994468689 24 27 20
658.862948417664 145.61402797699 2473.00004959106 25 28 21
663.393259048462 145.131856203079 2464.99991416931 26 29 22
668.423175811768 144.767567515373 2459.00011062622 28 31 24
675.341546535492 144.815444946289 2460.00003814697 27 30 23
680.323839187622 144.451305270195 2453.9999961853 27 30 23
684.713304042816 143.96958053112 2446.00009918213 29 32 25
694.42880153656 144.606217741966 2457.00001716614 39 42 35
706.200301647186 145.654767751694 2474.99990463257 35 40 33
717.204332351685 146.526724100113 2490.00000953674 46 51 44
728.579461574554 147.457435727119 2506.00004196167 43 48 41
736.519157886505 147.682055830956 2509.99999046326 48 53 47
744.77607011795 147.96556532383 2515.00010490417 39 44 40
767.701387405396 149.768009781837 2546.0000038147 42 47 43
452.255010604858 143.848761916161 2555.0000667572 25 26 18
460.99466085434 144.401475787163 2565.00005722046 17 18 10
463.40200304985 142.98377931118 2539.99996185303 21 22 14
469.931036233902 142.860874533653 2538.00010681152 23 24 16
474.193245172501 142.062485218048 2523.9999294281 20 21 13
478.759586811066 141.376703977585 2512.00008392334 19 20 12
485.192358493805 141.25369489193 2509.99999046326 20 21 13
490.437090396881 140.793040394783 2502.00009346008 16 17 9
497.425645589828 140.838786959648 2503.00002098084 28 29 21
493.137568235397 137.733697891235 2447.99995422363 27 28 20
498.34942817688 137.329503893852 2440.99998474121 26 29 22
507.03889131546 137.881621718407 2450.99997520447 26 29 22
513.476073741913 137.814879417419 2450.00004768372 30 33 26
518.84514093399 137.466862797737 2444.00000572205 30 33 26
525.470554828644 137.456297874451 2444.00000572205 28 31 24
532.094776630402 137.445718050003 2444.00000572205 27 30 23
539.158701896667 137.547567486763 2446.00009918213 25 28 21
543.777942657471 137.030854821205 2437.00003623962 29 32 25
550.379753112793 137.020215392113 2437.00003623962 29 32 25
552.180886268616 135.828912258148 2415.99988937378 27 30 23
558.72368812561 135.818332433701 2415.99988937378 29 32 25
566.669166088104 136.145025491714 2421.99993133545 22 25 18
577.486276626587 137.14611530304 2440.00005722046 23 26 19
586.005866527557 137.585029006004 2447.99995422363 24 27 20
591.178476810455 137.237086892128 2441.99991226196 23 26 19
592.156171798706 135.93390583992 2418.99991035461 25 28 21
599.690794944763 136.148050427437 2423.00009727478 29 32 25
607.496321201324 136.418357491493 2427.99997329712 30 33 26
618.362784385681 137.36280798912 2444.9999332428 31 34 27
625.230610370636 137.408301234245 2446.00009918213 30 33 26
631.844341754913 137.397632002831 2446.00009918213 29 32 25
639.501214027405 137.611642479897 2450.00004768372 27 30 23
649.288833141327 138.274967670441 2461.99989318848 26 32 22
656.742513179779 138.432800769806 2464.99991416931 27 33 23
662.327647209167 138.197556138039 2460.99996566772 29 35 25
667.890250682831 137.962371110916 2457.00001716614 39 42 33
676.175832748413 138.288751244545 2463.00005912781 38 39 31
677.562296390533 137.211576104164 2444.00000572205 33 34 26
684.163987636566 137.201204895973 2444.00000572205 27 28 20
693.308770656586 137.696132063866 2453.00006866455 28 29 21
707.066833972931 139.089107513428 2477.9999256134 27 30 21
718.943119049072 140.089064836502 2496.00005149841 28 34 24
726.554870605469 140.247121453285 2499.00007247925 32 38 28
733.888685703278 140.349105000496 2500.99992752075 48 50 45
739.455938339233 140.114471316338 2496.99997901917 35 37 32
746.794044971466 140.216633677483 2499.00007247925 42 47 41
760.776340961456 141.553163528442 2523.00000190735 35 40 36
449.329823255539 138.118505477905 2578.00006866455 18 19 11
449.432760477066 136.019423604012 2539.00003433228 25 26 18
457.769632339478 136.438265442848 2546.99993133545 27 28 20
461.952537298203 135.624974966049 2532.00006484985 27 28 20
464.571416378021 134.383246302605 2509.0000629425 28 29 21
470.070123672485 133.998543024063 2502.00009346008 33 34 26
476.291954517365 133.828043937683 2499.00007247925 26 27 19
481.336504220963 133.336201310158 2490.00000953674 29 30 22
490.251272916794 133.915260434151 2500.99992752075 27 28 20
495.846062898636 133.58399271965 2494.99988555908 30 31 23
498.183965682983 132.396131753922 2473.00004959106 29 30 22
500.197052955627 131.154865026474 2450.00004768372 24 27 20
506.428480148315 131.037831306458 2447.99995422363 25 28 21
512.228786945343 130.813732743263 2444.00000572205 39 42 35
519.916892051697 131.07131421566 2448.99988174438 42 45 38
528.060972690582 131.435841321945 2456.00008964539 38 41 34
533.846855163574 131.211653351784 2451.99990272522 29 32 25
540.050804615021 131.094455718994 2450.00004768372 28 31 24
543.788254261017 130.388736724854 2437.00003623962 31 34 27
548.357486724854 129.897087812424 2427.99997329712 32 35 28
550.819933414459 128.924056887627 2410.00008583069 31 34 27
556.883931159973 128.806993365288 2407.99999237061 32 35 28
565.275728702545 129.224807024002 2415.99988937378 27 30 23
574.893236160278 129.909992218018 2428.99990081787 27 30 23
584.819495677948 130.648523569107 2443.00007820129 28 31 24
591.673135757446 130.691736936569 2444.00000572205 26 29 22
597.062408924103 130.41415810585 2438.99989128113 27 30 23
602.423667907715 130.136609077454 2434.00001525879 29 32 25
608.757793903351 130.072981119156 2433.00008773804 29 32 25
617.867410182953 130.597397685051 2443.00007820129 30 33 26
624.729692935944 130.640655755997 2444.00000572205 30 33 26
631.596326828003 130.683928728104 2444.9999332428 29 32 25
640.294790267944 131.101354956627 2453.00006866455 28 31 24
649.826645851135 131.679028272629 2463.99998664856 27 33 23
657.552242279053 131.88262283802 2467.99993515015 33 36 27
662.068784236908 131.444990634918 2460.00003814697 37 40 31
669.803440570831 131.648629903793 2463.99998664856 44 45 37
676.735162734985 131.691992282867 2464.99991416931 38 38 30
681.176483631134 131.254628300667 2457.00001716614 30 30 22
685.293853282928 130.763947963715 2447.99995422363 27 28 20
699.819624423981 132.249668240547 2476.0000705719 25 26 18
714.495897293091 133.735209703445 2503.99994850159 22 25 16
722.409725189209 133.938893675804 2507.99989700317 24 27 18
729.763031005859 134.03582572937 2509.99999046326 26 32 22
735.95267534256 133.919179439545 2507.99989700317 46 48 43
742.427289485931 133.856073021889 2506.99996948242 30 32 27
748.895764350891 133.793026208878 2506.00004196167 37 42 36
752.644658088684 133.249625563622 2496.00005149841 34 39 33
737.780392169952 129.450082778931 2424.99995231628 27 33 29
441.670209169388 128.845378756523 2533.99991989136 31 32 24
452.451467514038 129.954800009727 2555.99999427795 27 28 20
457.060247659683 129.284590482712 2542.99998283386 31 32 24
459.955096244812 128.156870603561 2520.99990844727 27 28 20
463.2847905159 127.181768417358 2502.00009346008 39 40 32
468.764454126358 126.816645264626 2494.99988555908 64 65 57
474.776774644852 126.604005694389 2490.9999370575 45 46 38
482.699275016785 126.899540424347 2496.99997901917 29 30 22
489.476919174194 126.890063285828 2496.99997901917 23 24 16
496.849566698074 127.03301012516 2500 21 22 14
501.014053821564 126.362904906273 2486.99998855591 20 21 13
503.881692886353 125.387996435165 2467.99993515015 20 23 16
503.335058689117 123.600400984287 2433.00008773804 20 23 16
509.723484516144 123.540140688419 2431.99992179871 23 26 19
520.56360244751 124.546527862549 2451.99990272522 24 27 20
529.575943946838 125.09560585022 2463.00005912781 22 25 18
534.945428371429 124.781221151352 2457.00001716614 20 23 16
538.958549499512 124.162144958973 2444.9999332428 21 24 17
543.798208236694 123.746275901794 2437.00003623962 22 25 18
548.141598701477 123.228870332241 2427.00004577637 23 26 19
552.886724472046 122.813068330288 2418.99991035461 24 27 20
559.206485748291 122.752696275711 2417.99998283386 24 27 20
565.987527370453 122.793823480606 2418.99991035461 20 23 16
575.376570224762 123.393297195435 2430.99999427795 19 22 15
584.111332893372 123.840413987637 2440.00005722046 20 23 16
589.504301548004 123.576924204826 2434.99994277954 16 19 12
595.358788967133 123.414978384972 2431.99992179871 17 20 13
602.6811003685 123.557515442371 2434.99994277954 21 24 17
610.018670558929 123.70003759861 2437.99996376038 22 25 18
617.371559143066 123.842559754848 2440.99998474121 23 26 19
622.694611549377 123.579226434231 2436.00010871887 23 26 19
629.79793548584 123.671025037766 2437.99996376038 23 26 19
637.172281742096 123.813554644585 2440.99998474121 23 26 19
646.671831607819 124.361842870712 2451.99990272522 25 28 19
651.167631149292 123.946502804756 2444.00000572205 29 30 22
661.540389060974 124.646879732609 2457.99994468689 27 28 20
670.085072517395 124.992229044437 2464.99991416931 26 26 18
679.215788841248 125.438988208771 2473.99997711182 27 24 17
679.799914360046 124.314047396183 2451.99990272522 25 22 15
691.182315349579 125.166445970535 2469.00010108948 25 25 17
704.351663589478 126.322910189629 2492.00010299683 21 21 13
717.359066009521 127.428561449051 2513.99993896484 18 19 11
722.995519638062 127.216324210167 2509.99999046326 20 23 14
730.063438415527 127.257585525513 2510.99991798401 23 26 17
735.962271690369 127.096205949783 2507.99989700317 30 32 27
745.694279670715 127.593651413918 2517.99988746643 40 42 37
750.100553035736 127.179086208344 2509.99999046326 26 31 25
760.493934154511 127.777934074402 2522.0000743866 27 32 26
436.506748199463 122.418977320194 2543.99991035461 10 11 5
442.202001810074 122.073523700237 2536.99994087219 31 32 24
448.211997747421 121.824286878109 2532.00006484985 28 29 21
454.013764858246 121.526889503002 2526.00002288818 34 35 27
459.416836500168 121.133267879486 2517.99988746643 27 28 20
463.4790122509 120.40289491415 2503.00002098084 63 64 56
467.458337545395 119.672559201717 2487.99991607666 59 60 52
473.070561885834 119.375161826611 2482.00011253357 43 44 36
479.422152042389 119.270101189613 2480.00001907349 28 29 21
486.545830965042 119.357369840145 2482.00011253357 24 25 17
495.269000530243 119.829252362251 2492.00010299683 24 25 17
501.42627954483 119.675941765308 2489.00008201599 20 21 13
506.136953830719 119.186066091061 2479.00009155273 22 25 18
504.999339580536 117.350123822689 2440.99998474121 22 25 18
511.828601360321 117.389187216759 2441.99991226196 20 23 16
522.271454334259 118.245370686054 2460.00003814697 20 23 16
530.660390853882 118.620738387108 2467.99993515015 22 25 18
534.51931476593 117.986753582954 2454.99992370605 20 23 16
537.64533996582 117.208682000637 2438.99989128113 22 25 18
541.799247264862 116.670973598957 2427.99997329712 22 25 18
549.280166625977 116.854049265385 2431.99992179871 23 26 19
557.695984840393 117.229260504246 2440.00005722046 25 28 21
564.766347408295 117.316141724586 2441.99991226196 23 26 19
572.080373764038 117.451034486294 2444.9999332428 20 23 16
578.699588775635 117.441788315773 2444.9999332428 19 22 15
585.317671298981 117.432557046413 2444.9999332428 20 23 16
587.576985359192 116.558849811554 2427.00004577637 16 19 12
593.165040016174 116.35759472847 2423.00009727478 17 20 13
604.670643806458 117.308802902699 2443.00007820129 23 26 19
612.02996969223 117.4436211586 2446.00009918213 23 26 19
618.139743804932 117.338374257088 2444.00000572205 24 27 20
620.91463804245 116.609074175358 2428.99990081787 24 27 20
627.999126911163 116.695955395699 2430.99999427795 26 29 22
638.486981391907 117.406845092773 2446.00009918213 26 29 22
646.153807640076 117.589682340622 2450.00004768372 26 29 20
652.509212493896 117.532543838024 2448.99988174438 28 29 21
664.241135120392 118.435226380825 2467.99993515015 23 24 16
674.98767375946 119.145877659321 2483.00004005432 21 21 13
680.597901344299 118.94479393959 2479.00009155273 26 23 16
685.354053974152 118.599854409695 2471.99988365173 27 24 17
693.1511759758 118.782743811607 2476.0000705719 25 22 15
705.491483211517 119.733162224293 2496.00005149841 19 19 11
716.797709465027 120.491616427898 2512.00008392334 18 18 10
720.412194728851 119.955010712147 2500.99992752075 22 23 15
727.455854415894 119.994081556797 2502.00009346008 25 26 18
734.210669994354 119.985237717628 2502.00009346008 32 35 28
745.407223701477 120.695747435093 2516.99995994568 35 37 32
757.28178024292 121.502101421356 2533.99991989136 23 28 22
770.755469799042 122.548162937164 2555.99999427795 24 29 23
442.863762378693 117.154061794281 2581.00008964539 14 15 9
438.724309206009 114.240981638432 2516.99995994568 29 30 22
443.263798952103 113.64284157753 2503.99994850159 21 22 14
453.662812709808 114.542312920094 2523.9999294281 18 19 11
460.155218839645 114.443272352219 2522.0000743866 24 25 17
462.931990623474 113.436669111252 2500 28 29 21
468.782126903534 113.201476633549 2494.99988555908 35 36 28
473.079144954681 112.603336572647 2482.00011253357 35 36 28
479.237467050552 112.458854913712 2479.00009155273 27 28 20
485.574305057526 112.359710037708 2476.99999809265 19 20 12
496.271461248398 113.258399069309 2496.99997901917 23 24 16
503.24821472168 113.295167684555 2497.99990653992 17 18 10
505.9415102005 112.379521131516 2477.9999256134 22 25 18
509.559512138367 111.69072240591 2463.00005912781 21 24 17
513.93336057663 111.183345317841 2451.99990272522 23 26 19
519.944846630096 111.038751900196 2448.99988174438 23 26 19
526.583969593048 111.030161380768 2448.99988174438 21 24 17
533.004105091095 110.976189374924 2447.99995422363 23 26 19
538.315534591675 110.695563256741 2441.99991226196 27 30 23
543.147027492523 110.324315726757 2434.00001525879 25 28 21
550.418376922607 110.451646149158 2437.00003623962 25 28 21
559.762001037598 110.986799001694 2448.99988174438 27 30 23
571.019768714905 111.884385347366 2469.00010108948 24 27 20
575.36518573761 111.422456800938 2459.00011062622 22 25 18
580.365419387817 111.096508800983 2451.99990272522 22 25 18
584.129750728607 110.544100403786 2440.00005722046 21 24 17
583.712220191956 109.221637248993 2411.00001335144 19 22 15
595.132410526276 110.118970274925 2430.99999427795 20 23 16
604.927241802216 110.699124634266 2444.00000572205 22 25 18
612.289071083069 110.826261341572 2447.00002670288 22 25 18
617.389917373657 110.545828938484 2440.99998474121 23 26 19
620.156705379486 109.857887029648 2426.00011825562 24 27 20
626.974642276764 109.894551336765 2427.00004577637 26 29 22
635.885417461395 110.293440520763 2436.00010871887 27 30 23
645.371437072754 110.782824456692 2447.00002670288 29 30 22
653.317272663116 111.000545322895 2451.99990272522 30 30 22
662.096858024597 111.354067921638 2460.00003814697 29 29 21
672.549962997437 111.979126930237 2473.99997711182 35 32 25
677.861332893372 111.744225025177 2469.00010108948 29 26 19
683.144927024841 111.509390175343 2463.99998664856 28 25 18
691.480219364166 111.772403120995 2470.00002861023 23 20 13
705.500304698944 112.940393388271 2496.00005149841 21 18 11
712.526202201843 112.977117300034 2496.99997901917 21 21 13
716.676235198975 112.561464309692 2487.99991607666 23 24 16
721.940159797668 112.326897680759 2483.00004005432 25 26 18
729.230463504791 112.409055233002 2484.99989509583 30 33 26
743.934988975525 113.622084259987 2512.00008392334 31 34 27
