ply
format ascii 1.0
comment KinectMotionCapture
element vertex 779
property float x
property float y
property float z
property uchar red
property uchar green
property uchar blue
end_header
-795.877635478973 -26.632122695446 2528.00011634827 16 22 12
-786.849498748779 -26.5602357685566 2520.99990844727 14 17 8
-779.715538024902 -26.5515819191933 2519.99998092651 10 13 4
-771.666407585144 -26.5113338828087 2516.00003242493 20 23 16
-767.894506454468 -26.6186278313398 2526.00002288818 25 28 21
-762.260258197784 -26.6627240926027 2529.99997138977 27 30 23
-755.409419536591 -26.66468732059 2529.99997138977 26 27 21
-747.374594211578 -26.6245044767857 2526.00002288818 24 25 19
-740.240454673767 -26.615958660841 2525.00009536743 23 26 17
-730.78727722168 -26.5230890363455 2516.00003242493 22 25 16
-725.123047828674 -26.5672691166401 2519.99998092651 21 24 17
-714.8756980896 -26.4427755028009 2507.99989700317 21 24 17
-706.951498985291 -26.4026336371899 2503.99994850159 21 24 17
-699.886977672577 -26.3941287994385 2503.00002098084 22 25 18
-695.319294929504 -26.480546221137 2510.99991798401 19 22 15
-690.981566905975 -26.5775322914124 2519.99998092651 21 24 17
-685.508370399475 -26.6323536634445 2525.00009536743 25 27 22
-676.7817735672 -26.5606082975864 2517.99988746643 25 27 22
-669.156670570374 -26.5310630202293 2515.00010490417 23 25 20
-663.916945457459 -26.596462354064 2520.99990844727 24 26 21
-656.819343566895 -26.5880264341831 2519.99998092651 25 27 22
-650.757789611816 -26.6217961907387 2523.00000190735 22 25 18
-646.720826625824 -26.7399996519089 2533.99991989136 21 24 17
-646.158158779144 -27.005972340703 2559.00001525879 20 23 16
-638.464629650116 -26.9764680415392 2555.99999427795 20 23 16
-631.527543067932 -26.9786305725574 2555.99999427795 21 24 17
-618.724763393402 -26.7274547368288 2532.00006484985 22 25 18
-615.475416183472 -26.887945830822 2546.99993133545 22 25 16
-613.81596326828 -27.1223671734333 2569.00000572205 21 24 15
-607.784032821655 -27.166772633791 2572.99995422363 19 22 13
-605.698704719543 -27.3906979709864 2594.00010108948 17 23 13
-596.11302614212 -27.2767264395952 2582.99994468689 21 24 17
-584.989428520203 -27.0888078957796 2565.00005722046 19 22 15
-582.525789737701 -27.3022018373013 2585.00003814697 18 19 14
-577.503204345703 -27.3994393646717 2594.00010108948 13 15 12
-575.289309024811 -27.6340059936047 2615.9999370575 8 10 5
-569.262206554413 -27.689017355442 2621.00005149841 12 13 7
-556.772530078888 -27.4270698428154 2595.99995613098 9 9 1
-548.440873622894 -27.365829795599 2589.99991416931 22 9 0
-540.76761007309 -27.3362714797258 2586.99989318848 72 54 44
-534.141004085541 -27.35953964293 2588.99998664856 129 101 90
-528.113007545471 -27.4145044386387 2594.00010108948 145 116 100
-523.06079864502 -27.5223143398762 2604.00009155273 149 120 104
-517.952919006348 -27.6301316916943 2614.00008201599 154 128 115
-512.007415294647 -27.6956632733345 2619.99988555908 148 124 112
-506.028056144714 -27.7611967176199 2625.99992752075 135 116 109
-503.054261207581 -27.9958844184875 2648.00000190735 125 110 103
-875.513195991516 -34.4937816262245 2601.99999809265 19 26 19
-875.146269798279 -34.7610861063004 2621.99997901917 14 19 13
-863.745987415314 -34.5909371972084 2608.99996757507 15 18 11
-851.431012153625 -34.3810245394707 2592.99993515015 19 20 14
-837.248742580414 -34.0915620326996 2571.00009918213 16 19 10
-818.664073944092 -33.6164385080338 2535.00008583069 16 22 10
-823.651492595673 -34.1093949973583 2572.00002670288 15 21 11
-816.054701805115 -34.0851992368698 2569.9999332428 16 22 12
-798.079311847687 -33.6233302950859 2535.00008583069 15 21 11
-788.095831871033 -33.4930345416069 2525.00009536743 13 16 7
-780.022799968719 -33.4423445165157 2520.99990844727 10 13 4
-774.731278419495 -33.5110649466515 2526.00002288818 16 19 12
-767.284274101257 -33.4869511425495 2523.9999294281 21 24 17
-761.956691741943 -33.55573117733 2529.00004386902 24 27 20
-753.018617630005 -33.4653183817863 2522.0000743866 23 24 18
-745.301306247711 -33.4279909729958 2519.00005340576 21 22 16
-734.668076038361 -33.2579612731934 2506.00004196167 21 24 15
-729.913651943207 -33.3533734083176 2513.00001144409 21 24 15
-728.285908699036 -33.5948169231415 2530.99989891052 20 23 14
-718.008875846863 -33.4380902349949 2519.00005340576 20 23 14
-708.643078804016 -33.3211794495583 2509.99999046326 20 23 16
-695.969998836517 -33.0449528992176 2489.00008201599 21 24 17
-691.16336107254 -33.1404618918896 2496.00005149841 20 23 16
-688.511371612549 -33.3422161638737 2510.99991798401 20 23 16
-684.691488742828 -33.4909074008465 2522.0000743866 22 25 18
-679.198384284973 -33.5599407553673 2526.99995040894 23 25 20
-672.347009181976 -33.5625931620598 2526.99995040894 23 25 20
-666.548132896423 -33.6183831095696 2530.99989891052 23 25 20
-658.902108669281 -33.5812009871006 2528.00011634827 24 27 20
-650.497496128082 -33.5041657090187 2522.0000743866 21 24 17
-645.442306995392 -33.5998348891735 2529.00004386902 19 22 15
-641.358137130737 -33.7486788630486 2539.99996185303 19 22 15
-636.963486671448 -33.8842570781708 2549.99995231628 20 23 16
-629.054427146912 -33.8338129222393 2546.0000038147 21 24 17
-622.387766838074 -33.8498130440712 2546.99993133545 23 26 17
-612.331509590149 -33.6797386407852 2533.99991989136 23 26 17
-611.424148082733 -34.014742821455 2559.00001525879 22 25 16
-609.435081481934 -34.2966243624687 2579.99992370605 19 22 13
-606.163263320923 -34.5120839774609 2595.99995613098 18 24 14
-595.879793167114 -34.3287065625191 2582.00001716614 19 22 15
-584.758877754211 -34.0921059250832 2563.99989128113 17 20 13
-578.917741775513 -34.161314368248 2569.00000572205 19 20 15
-577.500700950623 -34.4964973628521 2594.00010108948 15 17 12
-570.668697357178 -34.512534737587 2595.00002861023 10 12 7
-568.825423717499 -34.8344780504704 2618.99995803833 10 11 5
-556.770086288452 -34.5312803983688 2595.99995613098 7 7 0
-548.861980438232 -34.4807840883732 2592.00000762939 16 3 0
-541.392266750336 -34.4568714499474 2589.99991416931 61 43 33
-535.170197486877 -34.5127768814564 2594.00010108948 122 94 83
-528.517782688141 -34.5420651137829 2595.99995613098 133 104 90
-523.259282112122 -34.6644967794418 2605.00001907349 150 121 105
-517.950534820557 -34.7869284451008 2614.00008201599 139 111 99
-513.177573680878 -34.9492877721787 2625.99992752075 149 122 111
-506.796538829803 -35.0051857531071 2630.00011444092 119 102 94
-883.570730686188 -41.6356772184372 2605.00001907349 68 75 68
-879.211962223053 -41.7661033570766 2612.99991607666 19 26 19
-875.477612018585 -41.9285669922829 2622.99990653992 15 20 14
-864.405810832977 -41.7394004762173 2611.00006103516 14 17 10
-858.9808344841 -41.8220274150372 2615.9999370575 17 18 12
-842.782318592072 -41.377104818821 2588.00005912781 13 16 7
-831.579327583313 -41.1719940602779 2575.00004768372 16 22 10
-818.204820156097 -40.8549644052982 2555.0000667572 15 21 11
-809.383988380432 -40.7618060708046 2549.00002479553 15 21 11
-800.909996032715 -40.6846590340137 2543.99991035461 14 20 10
-795.272052288055 -40.7514832913876 2548.00009727478 12 15 6
-788.374245166779 -40.754359215498 2548.00009727478 11 14 5
-777.795612812042 -40.5653156340122 2536.00001335144 14 17 10
-768.193662166595 -40.4242761433125 2526.99995040894 18 21 14
-758.037269115448 -40.2512401342392 2516.00003242493 23 26 19
-754.21017408371 -40.4141955077648 2526.00002288818 23 24 18
-744.706749916077 -40.2731820940971 2516.99995994568 21 22 16
-733.492612838745 -40.0361642241478 2502.00009346008 19 22 13
-727.006316184998 -40.0551818311214 2503.00002098084 19 22 13
-728.858590126038 -40.5383408069611 2532.99999237061 19 22 13
-722.851693630219 -40.5894443392754 2536.00001335144 19 22 13
-710.616588592529 -40.2884371578693 2516.99995994568 19 22 13
-698.763370513916 -40.0034077465534 2499.00007247925 19 22 15
-690.329730510712 -39.9104580283165 2493.00003051758 20 23 16
-685.218214988709 -40.0096289813519 2499.00007247925 19 22 15
-684.145629405975 -40.3489992022514 2519.99998092651 18 21 14
-676.776528358459 -40.3201468288898 2517.99988746643 19 22 15
-672.876238822937 -40.4994823038578 2529.00004386902 21 24 17
-664.438307285309 -40.4065921902657 2523.00000190735 22 25 18
-659.159719944 -40.5058972537518 2529.00004386902 23 26 19
-651.01033449173 -40.4290296137333 2523.9999294281 21 24 17
-646.460235118866 -40.5764281749725 2532.99999237061 19 22 15
-644.637763500214 -40.9000776708126 2552.99997329712 19 22 15
-637.70979642868 -40.9033410251141 2552.99997329712 19 22 13
-629.298448562622 -40.810476988554 2546.99993133545 20 23 14
-620.674252510071 -40.7015755772591 2539.99996185303 23 26 17
-613.536775112152 -40.6888090074062 2539.00003433228 23 26 17
-603.775441646576 -40.499746799469 2526.99995040894 19 22 13
-603.999078273773 -40.9838296473026 2556.99992179871 18 21 12
-599.622249603271 -41.1634370684624 2568.00007820129 18 24 14
-590.107202529907 -40.9903824329376 2556.99992179871 17 20 11
-583.843648433685 -41.0417504608631 2559.99994277954 16 19 12
-577.112019062042 -41.0610511898994 2561.00010871887 20 21 16
-573.267757892609 -41.2887968122959 2575.00004768372 16 18 13
-573.524475097656 -41.8212488293648 2608.00004005432 12 14 9
-570.777058601379 -42.1452969312668 2628.00002098084 11 12 4
-560.413062572479 -41.9080406427383 2612.99991607666 11 11 3
-549.494206905365 -41.6226200759411 2595.00002861023 20 7 0
-541.807413101196 -41.5777489542961 2592.00000762939 33 15 5
-535.579860210419 -41.6451543569565 2595.99995613098 115 87 76
-529.329180717468 -41.7125523090363 2599.99990463257 120 88 75
-524.461507797241 -41.8922677636147 2611.00006103516 127 95 82
-520.325243473053 -42.1361662447453 2625.99992752075 111 83 72
-515.519738197327 -42.3319451510906 2638.00001144409 118 94 84
-508.913218975067 -42.3832982778549 2641.00003242493 98 81 74
-883.246898651123 -49.1170845925808 2625 24 31 24
-882.150053977966 -49.4569726288319 2642.99988746643 16 21 15
-863.409698009491 -48.8051362335682 2608.00004005432 11 14 7
-855.03762960434 -48.7334281206131 2604.00009155273 17 18 12
-848.640918731689 -48.7740412354469 2605.99994659424 15 18 9
-829.961657524109 -48.1034591794014 2569.9999332428 16 22 10
-814.038813114166 -47.5825779139996 2542.00005531311 15 21 11
-808.428287506104 -47.6607009768486 2546.0000038147 15 21 11
-807.518243789673 -48.0196923017502 2565.00005722046 14 20 10
-802.759647369385 -48.154104501009 2572.00002670288 12 15 6
-796.415627002716 -48.1949523091316 2573.99988174438 12 15 6
-782.699704170227 -47.7864407002926 2552.00004577637 13 16 9
-769.102454185486 -47.3779030144215 2529.99997138977 17 20 13
-759.239256381989 -47.1940711140633 2519.99998092651 22 25 18
-754.206895828247 -47.3099090158939 2526.00002288818 22 23 17
-743.815898895264 -47.0886416733265 2513.99993896484 21 22 16
-734.368860721588 -46.9235740602016 2505.00011444092 18 21 12
-728.164792060852 -46.9645671546459 2506.99996948242 18 21 12
-725.977838039398 -47.2678765654564 2523.00000190735 18 21 12
-720.568120479584 -47.3651625216007 2528.00011634827 18 21 12
-713.718831539154 -47.3687946796417 2528.00011634827 18 21 12
-702.115297317505 -47.0538735389709 2510.99991798401 18 21 14
-695.587635040283 -47.076266258955 2512.00008392334 20 23 16
-690.698683261871 -47.2111254930496 2519.00005340576 18 21 14
-683.599174022675 -47.1960715949535 2517.99988746643 15 18 11
-676.50431394577 -47.1810325980186 2516.99995994568 16 19 12
-667.019367218018 -46.9972901046276 2506.99996948242 19 22 15
-661.011278629303 -47.0572449266911 2509.99999046326 22 25 18
-652.640283107758 -46.9484850764275 2503.99994850159 23 26 19
-648.169755935669 -47.1209771931171 2513.00001144409 21 24 17
-652.326643466949 -47.9310750961304 2555.99999427795 19 22 15
-644.886672496796 -47.8973910212517 2553.99990081787 19 22 15
-634.209334850311 -47.619890421629 2539.00003433228 20 23 14
-626.824200153351 -47.5861802697182 2536.99994087219 21 24 15
-620.426416397095 -47.627504914999 2539.00003433228 24 27 18
-612.325012683868 -47.5375168025494 2533.99991989136 24 27 18
-607.594788074493 -47.7101728320122 2542.99998283386 20 23 14
-602.105855941772 -47.8265658020973 2549.00002479553 19 22 13
-594.481766223907 -47.7740950882435 2546.0000038147 18 24 14
-587.795794010162 -47.7966703474522 2546.99993133545 16 19 10
-586.804986000061 -48.2884384691715 2572.99995422363 15 18 9
-575.981676578522 -47.9732044041157 2555.99999427795 20 21 16
-574.377357959747 -48.4275072813034 2579.99992370605 17 19 14
-581.437587738037 -49.6327355504036 2644.00005340576 13 15 10
-576.854705810547 -49.8619340360165 2655.99989891052 11 12 4
-559.337198734283 -48.9646680653095 2608.00004005432 12 12 2
-548.431932926178 -48.6305430531502 2589.99991416931 20 7 0
-541.594862937927 -48.6531145870686 2591.00008010864 21 3 0
-535.369992256165 -48.7320199608803 2595.00002861023 114 86 75
-529.325604438782 -48.8296933472157 2599.99990463257 124 92 81
-524.458050727844 -49.0400642156601 2611.00006103516 119 87 76
-520.916163921356 -49.3819229304791 2628.99994850159 117 90 81
-516.88414812088 -49.686249345541 2644.99998092651 114 89 82
-509.487867355347 -49.6712327003479 2644.00005340576 93 78 73
-886.956691741943 -56.0583658516407 2615.00000953674 40 47 40
-878.196537494659 -55.954597890377 2609.99989509583 10 17 10
-869.463682174683 -55.8508895337582 2605.00001907349 13 18 12
-873.00705909729 -56.5405450761318 2637.00008392334 15 18 11
-856.01931810379 -55.9009090065956 2607.00011253357 16 17 11
-841.147661209106 -55.389903485775 2582.99994468689 15 18 9
-823.499381542206 -54.6858757734299 2549.99995231628 15 21 9
-812.754452228546 -54.4321946799755 2538.00010681152 15 21 11
-810.965061187744 -54.7790676355362 2553.99990081787 15 21 11
-806.570291519165 -54.9544468522072 2562.00003623962 13 19 9
-804.004371166229 -55.2585907280445 2575.99997520447 14 17 8
-796.721398830414 -55.2410408854485 2575.00004768372 12 15 6
-779.935777187347 -54.5584373176098 2542.99998283386 14 17 10
-766.058802604675 -54.0688782930374 2519.99998092651 15 18 11
-758.331716060638 -54.0084391832352 2516.99995994568 24 27 20
-752.411723136902 -54.0767721831799 2519.99998092651 25 26 20
-742.036998271942 -53.8232438266277 2507.99989700317 23 24 16
-732.899308204651 -53.6555610597134 2500 21 24 13
-727.870643138886 -53.7883676588535 2506.00004196167 20 23 12
-724.535167217255 -54.0500208735466 2517.99988746643 18 21 12
-721.704304218292 -54.3546788394451 2532.00006484985 18 21 12
-714.279592037201 -54.3159022927284 2529.99997138977 18 21 12
-704.627931118011 -54.1053786873817 2519.99998092651 18 21 12
-696.968138217926 -54.0451519191265 2516.99995994568 18 21 12
-690.420567989349 -54.0708266198635 2517.99988746643 18 21 14
-685.767114162445 -54.2468577623367 2526.00002288818 18 21 14
-674.350202083588 -53.8860075175762 2509.0000629425 20 23 16
-666.483223438263 -53.8043305277824 2505.00011444092 20 23 16
-656.266987323761 -53.52932959795 2492.00010299683 21 24 17
-655.763924121857 -54.0491454303265 2516.00003242493 22 25 18
-652.808308601379 -54.3756857514381 2530.99989891052 20 23 16
-646.963059902191 -54.4659607112408 2535.00008583069 19 22 15
-637.812674045563 -54.276917129755 2526.00002288818 20 23 14
-632.206857204437 -54.3886907398701 2530.99989891052 23 26 17
-626.573085784912 -54.5004941523075 2536.00001335144 22 25 16
-620.177924633026 -54.5478351414204 2538.00010681152 25 28 19
-615.220725536346 -54.7241494059563 2546.0000038147 25 28 17
-608.307421207428 -54.7285228967667 2546.0000038147 19 22 11
-601.629316806793 -54.7543838620186 2546.99993133545 20 23 12
-600.081503391266 -55.2532449364662 2569.9999332428 15 21 9
-600.023031234741 -55.9026822447777 2599.99990463257 17 20 11
-585.660576820374 -55.2190542221069 2568.00007820129 15 18 9
-577.104389667511 -55.0729110836983 2561.00010871887 21 22 16
-581.719815731049 -56.1955943703651 2612.99991607666 19 21 16
-586.271345615387 -57.3399588465691 2665.99988937378 16 19 12
-555.043697357178 -55.6711181998253 2588.00005912781 13 13 3
-548.639595508575 -55.7400211691856 2591.00008010864 20 8 0
-542.635917663574 -55.8519400656223 2595.99995613098 43 25 13
-536.397516727448 -55.9423491358757 2599.99990463257 125 98 87
-530.339598655701 -56.0542680323124 2605.00001907349 121 93 81
-525.257468223572 -56.2737807631493 2615.00000953674 108 80 69
-521.704733371735 -56.6654726862907 2632.99989700317 124 101 93
-516.880095005035 -56.928064674139 2644.99998092651 102 83 76
-875.16462802887 -62.8552138805389 2601.0000705719 7 14 7
-870.461225509644 -63.0282983183861 2608.00004005432 18 23 17
-867.70623922348 -63.3464753627777 2621.00005149841 17 20 13
-855.687022209167 -62.9879906773567 2605.99994659424 16 17 11
-834.630846977234 -61.9527027010918 2562.99996376038 14 17 8
-830.923080444336 -62.1985383331776 2572.99995422363 14 20 8
-828.121662139893 -62.5169947743416 2585.99996566772 15 21 11
-817.94661283493 -62.2794777154922 2575.99997520447 16 22 12
-805.306911468506 -61.8485510349274 2558.00008773804 15 21 11
-799.318671226501 -61.9254000484943 2561.00010871887 14 17 8
-792.694985866547 -61.9539432227612 2562.00003623962 13 16 7
-778.091430664063 -61.353761702776 2536.99994087219 14 17 10
-767.878592014313 -61.0921308398247 2526.00002288818 15 18 11
-757.72500038147 -60.8305111527443 2515.00010490417 23 26 19
-748.526036739349 -60.6414526700974 2506.99996948242 24 25 19
-741.441011428833 -60.6217421591282 2506.00004196167 21 22 14
-734.360814094543 -60.6020577251911 2505.00011444092 21 24 13
-730.770826339722 -60.8727373182774 2516.00003242493 21 24 13
-726.257383823395 -61.0709115862846 2523.9999294281 19 22 11
-720.844805240631 -61.19654327631 2529.00004386902 18 21 10
-712.581157684326 -61.0802210867405 2523.9999294281 17 20 11
-703.505098819733 -60.8913041651249 2516.00003242493 18 21 12
-696.963727474213 -60.9202161431313 2516.99995994568 18 21 12
-688.496768474579 -60.7797205448151 2510.99991798401 18 21 12
-681.147515773773 -60.7360489666462 2509.0000629425 19 22 13
-674.34561252594 -60.740802437067 2509.0000629425 21 24 17
-669.139325618744 -60.8908459544182 2515.00010490417 22 25 18
-663.109540939331 -60.9682910144329 2517.99988746643 21 24 17
-655.759334564209 -60.9246864914894 2516.00003242493 22 25 16
-656.156718730927 -61.6075806319714 2543.99991035461 21 24 15
-648.234486579895 -61.5156069397926 2539.99996185303 19 22 13
-636.545479297638 -61.0603094100952 2520.99990844727 20 23 14
-631.203174591064 -61.2105131149292 2526.99995040894 26 29 20
-626.321375370026 -61.4091940224171 2535.00008583069 24 27 18
-622.616827487946 -61.7290437221527 2548.00009727478 25 28 17
-616.665840148926 -61.8308857083321 2552.00004577637 24 27 16
-609.975337982178 -61.860054731369 2552.99997329712 21 24 13
-606.821298599243 -62.2527040541172 2569.00000572205 22 25 14
-606.614649295807 -62.9604607820511 2598.00004959106 15 21 9
-603.47992181778 -63.3774921298027 2615.00000953674 16 19 10
-583.603322505951 -62.0252005755901 2559.00001525879 15 18 9
-583.183884620667 -62.7330914139748 2588.00005912781 21 22 16
-584.386587142944 -63.6350139975548 2625 21 24 17
-581.868410110474 -64.1491562128067 2645.99990844727 20 23 16
-570.764541625977 -63.7177899479866 2628.00002098084 18 19 11
-559.542834758759 -63.2620975375175 2608.99996757507 15 15 5
-551.387667655945 -63.1458088755608 2604.00009155273 21 9 0
-544.512510299683 -63.1749704480171 2605.00001907349 68 50 38
-538.249611854553 -63.276894390583 2608.99996757507 131 104 93
-532.777965068817 -63.4758323431015 2617.00010299683 113 86 75
-527.060687541962 -63.6505261063576 2624.00007247925 92 68 56
-521.502017974854 -63.8494566082954 2631.99996948242 125 105 96
-514.921367168427 -63.927099108696 2634.99999046326 114 97 89
-891.647696495056 -71.2664350867271 2650.00009536743 16 23 16
-870.790839195251 -70.168174803257 2608.99996757507 16 21 15
-868.695259094238 -70.5760568380356 2624.00007247925 17 20 13
-854.041039943695 -69.9619278311729 2601.0000705719 16 17 11
-846.349775791168 -69.9126794934273 2598.99997711182 11 14 5
-840.929865837097 -70.0518116354942 2604.00009155273 11 17 5
-832.60041475296 -69.9488744139671 2599.99990463257 13 19 9
-818.259656429291 -69.3348124623299 2576.99990272522 17 23 13
-801.839351654053 -68.5323625802994 2546.99993133545 16 22 12
-793.071866035461 -68.3756768703461 2540.99988937378 13 16 7
-787.43052482605 -68.4881210327148 2545.00007629395 13 16 7
-782.687187194824 -68.6813816428185 2552.00004577637 12 15 8
-767.265915870667 -67.9326951503754 2523.9999294281 12 15 8
-755.6112408638 -67.5069540739059 2507.99989700317 19 22 15
-745.535612106323 -67.2157853841782 2496.99997901917 20 21 15
-741.436183452606 -67.4630254507065 2506.00004196167 17 18 10
-736.994445323944 -67.6834285259247 2513.99993896484 19 22 11
-731.637299060822 -67.8231120109558 2519.00005340576 20 23 12
-725.677073001862 -67.9090097546577 2522.0000743866 19 22 11
-720.554828643799 -68.0757388472557 2528.00011634827 18 21 10
-712.858617305756 -68.0001527070999 2525.00009536743 17 20 9
-704.339027404785 -67.8437799215317 2519.00005340576 18 21 12
-696.404933929443 -67.7412748336792 2515.00010490417 18 21 12
-689.58854675293 -67.746527493 2515.00010490417 19 22 13
-678.699135780334 -67.3477202653885 2500 20 23 14
-673.534274101257 -67.5146281719208 2506.00004196167 22 25 16
-669.134318828583 -67.7624344825745 2515.00010490417 22 25 16
-661.524415016174 -67.6869302988052 2512.00008392334 23 26 17
-656.275510787964 -67.8539574146271 2517.99988746643 21 24 15
-653.056561946869 -68.2366341352463 2532.00006484985 17 20 11
-649.505376815796 -68.5924291610718 2545.00007629395 19 22 13
-639.317870140076 -68.2474747300148 2532.00006484985 23 26 17
-631.94739818573 -68.1989938020706 2529.99997138977 28 31 20
-627.798616886139 -68.5009732842445 2540.99988937378 25 28 17
-624.07773733139 -68.856917321682 2553.99990081787 23 26 15
-620.768547058105 -69.2668557167053 2569.00000572205 22 25 14
-612.837195396423 -69.1645219922066 2565.00005722046 19 22 11
-608.941972255707 -69.5206075906754 2578.00006866455 21 24 13
-608.477294445038 -70.2812746167183 2605.99994659424 17 23 11
-589.628159999847 -68.9113363623619 2555.0000667572 14 17 8
-586.562871932983 -69.3753510713577 2572.00002670288 13 16 7
-584.981322288513 -70.028267800808 2595.99995613098 17 18 12
-583.268165588379 -70.6812739372253 2619.99988555908 18 21 14
-577.9048204422 -70.9026977419853 2628.00002098084 19 22 15
-569.673299789429 -70.7733631134033 2622.99990653992 1 3 0
-561.253368854523 -70.6170201301575 2617.00010299683 16 16 6
-553.076386451721 -70.4876109957695 2611.99998855591 85 73 61
-547.015607357025 -70.6280469894409 2617.00010299683 93 75 63
-540.720045566559 -70.7414820790291 2621.00005149841 90 66 54
-535.826504230499 -71.0438564419746 2631.99996948242 73 51 38
-529.2649269104 -71.1303055286407 2634.99999046326 111 93 81
-522.289395332336 -71.1627379059792 2635.99991798401 90 77 68
-513.939201831818 -71.0061714053154 2630.00011444092 80 70 61
-897.363007068634 -78.9969637989998 2667.00005531311 11 18 11
-886.806845664978 -78.7056460976601 2657.00006484985 16 21 15
-869.352579116821 -77.7922570705414 2625.99992752075 15 18 11
-866.841912269592 -78.2120078802109 2640.00010490417 14 15 9
-861.324548721313 -78.365221619606 2644.99998092651 15 18 9
-851.9047498703 -78.1629830598831 2638.00001144409 10 16 4
-840.921401977539 -77.8126269578934 2625.99992752075 11 17 7
-821.747362613678 -76.6918212175369 2588.00005912781 16 22 12
-809.075117111206 -76.1636346578598 2569.9999332428 16 22 12
-798.996865749359 -75.872540473938 2559.99994277954 13 16 7
-792.375862598419 -75.9075209498405 2561.00010871887 14 17 8
-780.535280704498 -75.4386335611343 2545.00007629395 12 15 8
-769.388735294342 -75.0290229916573 2530.99989891052 12 15 8
-756.509900093079 -74.441522359848 2510.99991798401 19 22 15
-747.023284435272 -74.180118739605 2502.00009346008 20 21 15
-746.164858341217 -74.7785940766335 2522.0000743866 18 19 11
-739.627540111542 -74.8137980699539 2523.00000190735 17 20 9
-731.631994247437 -74.7007727622986 2519.00005340576 18 21 10
-721.643269062042 -74.3801593780518 2507.99989700317 18 21 10
-719.124317169189 -74.8306959867477 2523.00000190735 18 21 10
-712.288439273834 -74.8363956809044 2523.00000190735 17 20 9
-705.172300338745 -74.8124718666077 2522.0000743866 18 21 12
-699.999153614044 -74.9962404370308 2528.00011634827 18 21 12
-694.518446922302 -75.1504004001617 2532.99999237061 18 21 12
-683.851659297943 -74.7408494353294 2519.00005340576 19 22 13
-677.022755146027 -74.7466906905174 2519.00005340576 21 24 15
-668.596565723419 -74.5744928717613 2513.00001144409 22 25 16
-661.255419254303 -74.521005153656 2510.99991798401 25 28 19
-652.881741523743 -74.3488073348999 2505.00011444092 23 26 17
-649.955749511719 -74.7999176383018 2519.99998092651 20 23 14
-647.458016872406 -75.3104984760284 2536.99994087219 22 25 16
-640.322089195251 -75.286790728569 2536.00001335144 25 28 19
-631.442189216614 -75.0552639365196 2528.00011634827 27 30 19
-624.333918094635 -75.031541287899 2526.99995040894 25 28 17
-624.560713768005 -75.8986473083496 2555.99999427795 25 28 17
-622.937440872192 -76.5580236911774 2578.00006866455 23 26 15
-616.176247596741 -76.593816280365 2578.9999961853 20 23 12
-612.479150295258 -77.0157352089882 2592.99993515015 20 23 12
-599.598824977875 -76.2792676687241 2568.00007820129 17 23 11
-594.468653202057 -76.52298361063 2575.99997520447 13 16 7
-583.364307880402 -75.9942978620529 2558.00008773804 13 16 7
-583.172917366028 -76.891653239727 2588.00005912781 15 16 10
-580.813467502594 -77.5216966867447 2608.99996757507 15 18 11
-575.260102748871 -77.7358189225197 2615.9999370575 17 20 13
-569.015920162201 -77.8608098626137 2619.99988555908 26 28 17
-562.96318769455 -78.0155137181282 2625 60 60 50
-554.76450920105 -77.8729841113091 2619.99988555908 96 84 72
-548.054933547974 -77.9384970664978 2621.99997901917 65 47 33
-542.158424854279 -78.1229138374329 2628.00002098084 66 42 30
-537.652969360352 -78.5154178738594 2641.00003242493 86 66 55
-531.267762184143 -78.6403641104698 2644.99998092651 108 91 81
-523.076236248016 -78.4977078437805 2640.00010490417 83 73 63
-921.196281909943 -87.8498926758766 2716.00008010864 55 62 55
-896.012127399445 -86.1408188939095 2663.00010681152 19 26 19
-878.457605838776 -85.1433128118515 2631.99996948242 10 15 9
-874.64427947998 -85.4721814393997 2641.99995994568 21 24 17
-870.448350906372 -85.7688188552856 2651.00002288818 14 15 9
-860.667824745178 -85.5155289173126 2642.99988746643 11 14 7
-850.28463602066 -85.1975828409195 2632.99989700317 8 14 4
-838.03391456604 -84.6855118870735 2617.00010299683 8 14 4
-827.139794826508 -84.3028947710991 2605.00001907349 13 19 9
-819.143652915955 -84.2115730047226 2601.99999809265 15 21 11
-813.036143779755 -84.3145102262497 2605.00001907349 15 18 9
-794.536054134369 -83.1227675080299 2568.00007820129 12 15 6
-782.67639875412 -82.6107263565063 2552.00004577637 10 13 6
-770.295023918152 -82.0339024066925 2533.99991989136 9 12 5
-760.119616985321 -81.6836953163147 2523.00000190735 17 20 13
-750.003337860107 -81.3335031270981 2512.00008392334 19 20 14
-747.046589851379 -81.7604139447212 2525.00009536743 16 17 9
-744.018971920013 -82.1874514222145 2538.00010681152 15 18 7
-733.659207820892 -81.8049609661102 2526.00002288818 14 17 6
-724.227011203766 -81.5196111798286 2516.99995994568 16 19 8
-719.403326511383 -81.7525163292885 2523.9999294281 17 20 9
-715.952575206757 -82.1474492549896 2536.00001335144 20 23 12
-710.199177265167 -82.2833180427551 2539.99996185303 18 21 12
-702.485084533691 -82.1924582123756 2536.99994087219 18 21 12
-695.883274078369 -82.2312235832214 2538.00010681152 18 21 12
-688.460648059845 -82.1728110313416 2536.00001335144 18 21 12
-681.316912174225 -82.1468085050583 2535.00008583069 19 22 13
-670.186817646027 -81.6347226500511 2519.00005340576 19 22 13
-660.985946655273 -81.3494324684143 2509.99999046326 20 23 14
-654.699921607971 -81.4206674695015 2512.00008392334 23 26 17
-650.465428829193 -81.7512571811676 2522.0000743866 24 27 18
-648.472547531128 -82.3736563324928 2540.99988937378 22 25 16
-640.568256378174 -82.2505056858063 2536.99994087219 21 24 15
-631.685733795166 -81.9976702332497 2529.00004386902 20 23 12
-626.798272132874 -82.2635665535927 2536.99994087219 20 23 12
-622.84392118454 -82.6592519879341 2549.00002479553 25 28 17
-619.306564331055 -83.1198692321777 2562.99996376038 24 27 16
-619.036912918091 -84.0346068143845 2591.00008010864 19 22 11
-609.638392925262 -83.7169289588928 2581.00008964539 15 18 7
-604.262173175812 -83.9506536722183 2588.00005912781 16 22 8
-596.077620983124 -83.7951079010963 2582.99994468689 12 15 4
-585.866570472717 -83.3475366234779 2569.00000572205 14 17 6
-581.589221954346 -83.7434828281403 2581.00008964539 15 16 8
-579.916656017303 -84.5288708806038 2605.00001907349 16 17 9
-575.693547725677 -84.9573910236359 2618.00003051758 19 20 12
-569.443941116333 -85.0938782095909 2621.99997901917 50 50 40
-562.742352485657 -85.1654410362244 2624.00007247925 34 32 20
-555.605173110962 -85.1720944046974 2624.00007247925 32 20 8
-549.302756786346 -85.3085517883301 2628.00002098084 47 31 18
-543.596208095551 -85.5424106121063 2634.99999046326 82 60 49
-538.053810596466 -85.8087241649628 2642.99988746643 78 65 56
-531.060576438904 -85.8477726578712 2644.00005340576 53 44 35
-518.116652965546 -84.9126502871513 2615.00000953674 189 185 176
-900.044202804565 -93.8239023089409 2674.99995231628 13 20 13
-870.441973209381 -91.4795696735382 2608.00004005432 13 18 11
-867.355406284332 -91.9062420725822 2619.99988555908 19 22 15
-862.890839576721 -92.1927616000175 2628.00002098084 9 12 5
-854.47496175766 -92.0583829283714 2624.00007247925 17 20 13
-841.559529304504 -91.4328768849373 2605.99994659424 10 13 6
-835.466265678406 -91.5442407131195 2608.99996757507 10 13 6
-832.214117050171 -91.9714942574501 2621.00005149841 12 15 8
-821.341335773468 -91.5566608309746 2608.99996757507 13 16 9
-819.584131240845 -92.1595990657806 2625.99992752075 13 16 9
-806.90586566925 -91.5342941880226 2608.00004005432 13 16 9
-792.177677154541 -90.6632542610168 2582.99994468689 13 16 9
-783.664047718048 -90.4942154884338 2578.00006866455 13 16 9
-769.452929496765 -89.6582156419754 2553.99990081787 13 16 9
-752.38561630249 -88.4710699319839 2519.99998092651 16 19 12
-745.561003684998 -88.4775593876839 2519.99998092651 17 20 11
-747.530400753021 -89.5374789834023 2549.99995231628 13 16 5
-740.042567253113 -89.4739329814911 2548.00009727478 13 16 5
-728.248834609985 -88.8836309313774 2530.99989891052 15 18 7
-721.107006072998 -88.8552293181419 2529.99997138977 17 20 9
-715.663731098175 -89.0375971794128 2535.00008583069 22 25 14
-711.87025308609 -89.4307866692543 2546.0000038147 18 21 10
-703.586041927338 -89.2620086669922 2540.99988937378 17 20 9
-696.150720119476 -89.1986414790154 2539.00003433228 18 21 10
-689.539849758148 -89.2406851053238 2539.99996185303 20 23 12
-679.160058498383 -88.7908637523651 2526.99995040894 20 23 12
-671.244323253632 -88.6572450399399 2523.00000190735 18 21 10
-663.875997066498 -88.5939076542854 2520.99990844727 15 21 9
-659.645080566406 -88.9523178339005 2530.99989891052 16 22 10
-655.359089374542 -89.3108248710632 2540.99988937378 21 27 15
-650.507390499115 -89.5990878343582 2549.00002479553 19 25 13
-641.571521759033 -89.3249437212944 2540.99988937378 16 22 10
-630.679786205292 -88.7695252895355 2525.00009536743 18 24 12
-627.779722213745 -89.3391072750092 2540.99988937378 18 24 12
-622.592806816101 -89.592345058918 2548.00009727478 22 28 16
-617.849826812744 -89.915931224823 2556.99992179871 20 26 14
-611.623525619507 -90.0285691022873 2559.99994277954 16 22 10
-614.827752113342 -91.5480405092239 2602.9999256134 15 21 9
-601.219952106476 -90.5704647302628 2575.00004768372 13 19 5
-594.455361366272 -90.6128138303757 2575.99997520447 15 19 5
-587.456107139587 -90.6199887394905 2575.99997520447 12 16 2
-581.13157749176 -90.7326936721802 2578.9999961853 19 21 10
-581.913232803345 -91.971293091774 2614.00008201599 21 21 11
-577.885568141937 -92.4711376428604 2628.00002098084 21 18 9
-569.43690776825 -92.267245054245 2621.99997901917 14 10 0
-564.236581325531 -92.5911888480186 2631.00004196167 19 12 2
-557.503819465637 -92.6687866449356 2632.99989700317 50 37 28
-551.80412530899 -92.9223746061325 2640.00010490417 77 63 54
-544.414520263672 -92.8943529725075 2638.99993896484 83 66 58
-538.046956062317 -93.0423066020012 2642.99988746643 42 37 31
-527.237594127655 -92.4157202243805 2625 131 132 126
-884.897410869598 -99.4176343083382 2630.00011444092 13 20 13
-873.106002807617 -98.8944843411446 2615.9999370575 16 21 15
-869.666934013367 -99.3165522813797 2627.00009346008 17 20 13
-874.376595020294 -100.683949887753 2663.00010681152 25 28 21
-857.725024223328 -99.5939299464226 2634.0000629425 5 8 1
-839.292943477631 -98.2769951224327 2598.99997711182 10 13 6
-838.34183216095 -99.0020111203194 2618.00003051758 9 12 5
-837.922811508179 -99.8028591275215 2638.99993896484 9 12 5
-831.093907356262 -99.8474881052971 2640.00010490417 7 10 3
-823.010683059692 -99.7409000992775 2637.00008392334 7 10 3
-793.080687522888 -98.7027063965797 2608.99996757507 11 14 7
-773.362696170807 -97.1207544207573 2566.99991226196 12 15 8
-752.677440643311 -95.3872948884964 2520.99990844727 16 19 12
-740.524709224701 -94.7131663560867 2503.00002098084 16 19 10
-745.17834186554 -96.1960107088089 2542.00005531311 15 18 9
-738.583445549011 -96.2410122156143 2542.99998283386 15 18 9
-729.104995727539 -95.9075763821602 2533.99991989136 16 19 10
-721.384942531586 -95.8012491464615 2530.99989891052 16 19 10
-715.656757354736 -95.9599316120148 2535.00008583069 17 20 11
-710.465133190155 -96.1943939328194 2540.99988937378 15 18 9
-700.256288051605 -95.7474485039711 2529.00004386902 16 19 10
-692.030906677246 -95.5655202269554 2523.9999294281 19 22 13
-680.845618247986 -94.9670523405075 2507.99989700317 21 24 15
-678.346574306488 -95.5803468823433 2523.9999294281 19 22 13
-672.567367553711 -95.7392975687981 2528.00011634827 18 21 12
-667.028784751892 -95.9361493587494 2532.99999237061 15 21 9
-660.941004753113 -96.0573107004166 2536.00001335144 19 25 13
-655.609667301178 -96.2921604514122 2542.00005531311 24 30 18
-649.734497070313 -96.4512899518013 2546.0000038147 22 28 16
-639.796733856201 -96.0042625665665 2533.99991989136 18 24 12
-632.171034812927 -95.8981886506081 2530.99989891052 17 23 11
-625.054717063904 -95.867894589901 2529.99997138977 17 23 11
-621.363639831543 -96.368134021759 2542.99998283386 20 26 14
-618.325710296631 -96.9821587204933 2559.00001525879 18 24 12
-615.199863910675 -97.5962653756142 2575.00004768372 14 20 8
-607.025742530823 -97.4144786596298 2569.9999332428 13 19 7
-600.278615951538 -97.4600985646248 2571.00009918213 12 18 6
-593.755602836609 -97.5436270236969 2572.99995422363 14 17 6
-586.536467075348 -97.513422369957 2572.00002670288 13 16 5
-579.997479915619 -97.5969433784485 2573.99988174438 19 21 10
-577.008247375488 -98.2871800661087 2592.00000762939 19 19 9
-576.998472213745 -99.5084121823311 2624.00007247925 19 16 7
-569.646596908569 -99.4782745838165 2622.99990653992 29 22 14
-564.014732837677 -99.7515469789505 2630.00011444092 49 42 34
-558.766782283783 -100.100673735142 2638.99993896484 41 32 25
-553.050696849823 -100.373975932598 2645.99990844727 49 38 32
-544.81965303421 -100.192032754421 2641.00003242493 39 28 22
-534.1717004776 -99.5547473430634 2624.00007247925 199 200 195
-893.302619457245 -107.602767646313 2654.99997138977 5 12 5
-891.456127166748 -108.257859945297 2671.0000038147 18 23 17
-884.888589382172 -108.345687389374 2673.00009727478 15 18 11
-875.354886054993 -108.068786561489 2665.99988937378 21 24 17
-857.392728328705 -106.737978756428 2632.99989700317 6 9 2
-872.87050485611 -109.582833945751 2703.00006866455 10 13 6
-858.508825302124 -108.698114752769 2680.99999427795 10 13 6
-828.073024749756 -105.745516717434 2608.00004005432 8 11 4
-827.309131622314 -106.563687324524 2628.00002098084 8 11 4
-822.067141532898 -106.814317405224 2634.0000629425 7 10 3
-852.681934833527 -111.769460141659 2756.00004196167 7 10 3
-774.259328842163 -104.248456656933 2569.9999332428 11 14 7
-756.551623344421 -102.795600891113 2533.99991989136 15 18 11
-748.505592346191 -102.640829980373 2529.99997138977 17 20 13
-742.239534854889 -102.72952914238 2532.00006484985 15 18 9
-731.315016746521 -102.169089019299 2517.99988746643 15 18 9
-727.371335029602 -102.582506835461 2528.00011634827 15 18 9
-718.812465667725 -102.346740663052 2522.0000743866 15 18 9
-715.64918756485 -102.882079780102 2535.00008583069 14 17 8
-709.059536457062 -102.930493652821 2536.00001335144 14 17 8
-700.802385807037 -102.735415101051 2530.99989891052 16 19 10
-690.104007720947 -102.174997329712 2516.99995994568 20 23 14
-681.109547615051 -101.858116686344 2509.0000629425 21 24 15
-679.682672023773 -102.678030729294 2529.00004386902 19 22 13
-674.953937530518 -103.010833263397 2536.99994087219 17 20 11
-669.39103603363 -103.221923112869 2542.00005531311 15 21 9
-661.454498767853 -103.067576885223 2538.00010681152 18 24 12
-655.086040496826 -103.156894445419 2539.99996185303 23 29 17
-648.705780506134 -103.246241807938 2542.00005531311 21 27 15
-642.818689346313 -103.416860103607 2546.0000038147 18 24 12
-633.661866188049 -103.05942595005 2536.99994087219 17 23 11
-627.02339887619 -103.108197450638 2538.00010681152 17 23 11
-622.08878993988 -103.441387414932 2546.0000038147 19 25 13
-624.116778373718 -104.952968657017 2582.99994468689 17 23 11
-616.147458553314 -104.798726737499 2578.9999961853 13 19 7
-606.545388698578 -104.359991848469 2568.00007820129 13 19 7
-602.138459682465 -104.815304279327 2578.9999961853 11 17 5
-595.132172107697 -104.823581874371 2578.9999961853 14 17 6
-581.511497497559 -103.65304350853 2549.99995231628 15 18 7
-574.581742286682 -103.661209344864 2549.99995231628 18 20 9
-569.208920001984 -103.953920304775 2556.99992179871 18 18 8
-570.173740386963 -105.425760149956 2592.99993515015 17 17 7
-568.987011909485 -106.531836092472 2619.99988555908 18 14 5
-565.507769584656 -107.231438159943 2637.00008392334 32 28 19
-560.029149055481 -107.565104961395 2644.99998092651 36 29 21
-554.50576543808 -107.898786664009 2653.00011634827 43 36 28
-546.668291091919 -107.785083353519 2650.00009536743 19 10 3
-910.791635513306 -117.091983556747 2707.00001716614 4 11 4
-882.233142852783 -115.289479494095 2664.99996185303 14 16 11
-871.7360496521 -114.864125847816 2654.99997138977 8 11 4
-849.535405635834 -114.800028502941 2653.00011634827 9 12 5
-837.273418903351 -114.115312695503 2637.00008392334 9 12 5
-827.616393566132 -113.776817917824 2628.99994850159 9 12 5
-831.422388553619 -115.299433469772 2664.00003433228 9 12 5
-848.961114883423 -118.770122528076 2743.99995803833 9 12 5
-783.590734004974 -112.604506313801 2601.0000705719 11 14 7
-762.514889240265 -110.577709972858 2553.99990081787 15 18 11
-752.048015594482 -110.066182911396 2542.00005531311 16 19 12
-742.231667041779 -109.641253948212 2532.00006484985 15 18 9
-735.373258590698 -109.649360179901 2532.00006484985 15 18 9
-727.363407611847 -109.484300017357 2528.00011634827 14 17 8
-724.504709243774 -110.098876059055 2542.00005531311 13 16 7
-711.688756942749 -109.197564423084 2520.99990844727 13 16 7
-704.577922821045 -109.162554144859 2519.99998092651 14 17 8
-702.178716659546 -109.86402630806 2536.00001335144 16 19 10
-690.644264221191 -109.135925769806 2519.00005340576 21 24 15
-683.273077011108 -109.057687222958 2516.99995994568 21 24 15
-680.480718612671 -109.716109931469 2532.00006484985 18 21 12
-676.541984081268 -110.201314091682 2542.99998283386 17 20 11
-667.012751102448 -109.776511788368 2532.99999237061 15 21 9
-658.058047294617 -109.438359737396 2525.00009536743 16 22 10
-651.209115982056 -109.446942806244 2525.00009536743 20 26 14
-644.614338874817 -109.498880803585 2526.00002288818 18 24 12
-641.042947769165 -110.071092844009 2539.00003433228 18 24 12
-634.652495384216 -110.16646027565 2540.99988937378 18 24 12
-630.720674991608 -110.695458948612 2552.99997329712 17 23 11
-628.677368164063 -111.571446061134 2572.99995422363 19 25 13
-624.591469764709 -112.100660800934 2585.00003814697 17 23 11
-615.661025047302 -111.762538552284 2576.99990272522 12 18 6
-607.71781206131 -111.597895622253 2572.99995422363 12 18 6
-599.56169128418 -111.389808356762 2568.00007820129 13 16 7
-590.046942234039 -110.921405255795 2556.99992179871 14 17 8
-583.09930562973 -110.930144786835 2556.99992179871 16 19 10
-574.347972869873 -110.591769218445 2549.00002479553 17 20 11
-571.426630020142 -111.381463706493 2566.99991226196 17 18 10
-568.845868110657 -112.258024513721 2586.99989318848 17 17 9
-569.195687770844 -113.742277026176 2621.00005149841 14 11 4
-566.571354866028 -114.662513136864 2641.99995994568 24 21 14
-561.290979385376 -115.062035620213 2651.00002288818 32 27 21
-552.407026290894 -114.723667502403 2642.99988746643 35 30 24
-879.426956176758 -121.170222759247 2634.99999046326 18 23 17
-870.308101177216 -120.901793241501 2628.99994850159 10 12 7
-880.921900272369 -123.392909765244 2683.00008773804 6 8 3
-864.216148853302 -122.066989541054 2654.00004386902 14 16 11
-855.094492435455 -121.798932552338 2648.00000190735 9 12 5
-849.527537822723 -122.036956250668 2653.00011634827 9 12 5
-840.758144855499 -121.815070509911 2648.00000190735 9 12 5
-828.552782535553 -121.087215840816 2631.99996948242 10 13 6
-836.719810962677 -123.34992736578 2680.99999427795 10 13 6
-824.511170387268 -122.622266411781 2664.99996185303 9 12 5
-811.468660831451 -121.756546199322 2645.99990844727 9 12 5
-803.392231464386 -121.627099812031 2642.99988746643 10 13 6
-789.908885955811 -120.669312775135 2621.99997901917 11 14 7
-780.121326446533 -120.263777673244 2612.99991607666 14 17 10
-756.477296352386 -117.694914340973 2556.99992179871 15 18 11
-750.431180000305 -117.841631174088 2559.99994277954 14 17 8
-744.368135929108 -117.988437414169 2562.99996376038 13 16 7
-739.151418209076 -118.273437023163 2569.00000572205 13 16 7
-728.771328926086 -117.729790508747 2556.99992179871 15 18 9
-697.579503059387 -114.892520010471 2494.99988555908 18 21 12
-691.925525665283 -115.085497498512 2499.00007247925 21 24 15
-689.538955688477 -115.831196308136 2515.00010490417 20 23 14
-684.621751308441 -116.162523627281 2522.0000743866 18 21 12
-680.740654468536 -116.678185760975 2532.99999237061 16 19 10
-670.946359634399 -116.180509328842 2522.0000743866 17 20 11
-668.583869934082 -116.972722113132 2539.00003433228 16 19 8
-656.485557556152 -116.060368716717 2519.00005340576 18 21 10
-649.910688400269 -116.115517914295 2519.99998092651 19 22 11
-645.626187324524 -116.585433483124 2529.99997138977 16 19 8
-641.286373138428 -117.055431008339 2539.99996185303 17 20 9
-635.642647743225 -117.29508638382 2545.00007629395 21 24 13
-632.440984249115 -117.99568682909 2559.99994277954 20 23 12
-626.957952976227 -118.281565606594 2565.99998474121 21 24 13
-622.649371623993 -118.797980248928 2576.99990272522 18 21 10
-613.501906394959 -118.392430245876 2568.00007820129 14 17 6
-603.457391262054 -117.802374064922 2555.0000667572 15 18 7
-593.949317932129 -117.304421961308 2543.99991035461 17 20 11
-594.653069972992 -118.835411965847 2576.99990272522 14 17 10
-587.651073932648 -118.844732642174 2576.99990272522 17 20 13
-580.422639846802 -118.807949125767 2575.99997520447 17 20 13
-574.08881187439 -118.955612182617 2578.9999961853 17 20 13
-570.815861225128 -119.749091565609 2595.99995613098 18 21 14
-564.843237400055 -119.989067316055 2601.0000705719 16 17 11
-565.704464912415 -121.705397963524 2638.00001144409 18 19 13
-560.22310256958 -122.083909809589 2645.99990844727 23 24 18
-881.755650043488 -128.69668006897 2641.99995994568 24 29 23
-870.631456375122 -128.120049834251 2630.00011444092 12 14 9
-863.512337207794 -128.128081560135 2630.00011444092 9 11 6
-878.861129283905 -131.497979164124 2698.99988174438 6 8 3
-868.648886680603 -131.067991256714 2690.00005722046 12 15 8
-848.878741264343 -129.176214337349 2651.00002288818 12 15 8
-837.257266044617 -128.50259244442 2637.00008392334 11 14 7
-831.692278385162 -128.754898905754 2641.99995994568 11 14 7
-833.9022397995 -130.225792527199 2671.99993133545 11 14 7
-827.905595302582 -130.429744720459 2676.00011825562 10 13 6
-812.379956245422 -129.122748970985 2648.9999294281 10 13 6
-798.215985298157 -128.010660409927 2625.99992752075 10 13 6
-794.117629528046 -128.507271409035 2635.99991798401 11 14 7
-775.037050247192 -126.56632065773 2595.99995613098 14 17 10
-761.202037334442 -125.454068183899 2572.99995422363 14 17 10
-751.887977123261 -125.073134899139 2565.00005722046 15 18 9
-738.55072259903 -124.009504914284 2542.99998283386 14 17 8
-731.374084949493 -123.969942331314 2542.00005531311 14 17 8
-729.332208633423 -124.808311462402 2559.00001525879 16 19 10
-715.058863162994 -123.54951351881 2532.99999237061 20 23 14
-699.807286262512 -122.095465660095 2503.00002098084 19 22 13
-691.362619400024 -121.812023222446 2496.99997901917 21 24 15
-689.25553560257 -122.65070527792 2513.99993896484 20 23 14
-686.784148216248 -123.440764844418 2529.99997138977 17 20 11
-678.312659263611 -123.157516121864 2523.9999294281 16 19 10
-671.46909236908 -123.167037963867 2523.9999294281 17 20 11
-664.361298084259 -123.127780854702 2523.00000190735 17 20 9
-661.427795886993 -123.869463801384 2538.00010681152 19 22 11
-650.41720867157 -123.09817224741 2522.0000743866 20 23 12
-644.596040248871 -123.303040862083 2526.00002288818 17 20 9
-641.277015209198 -123.996153473854 2539.99996185303 16 19 8
-632.136464118958 -123.566478490829 2530.99989891052 22 25 14
-628.231704235077 -124.162092804909 2542.99998283386 21 24 13
-620.107233524323 -123.927727341652 2538.00010681152 21 24 13
-617.807388305664 -124.865263700485 2556.99992179871 18 21 10
-620.181441307068 -126.779720187187 2595.99995613098 14 17 6
-603.68400812149 -124.836072325706 2555.99999427795 15 18 9
-597.208380699158 -124.943569302559 2558.00008773804 18 21 14
-598.797023296356 -126.760765910149 2595.00002861023 14 17 10
-595.394670963287 -127.552330493927 2611.00006103516 18 21 14
-586.94726228714 -127.26916372776 2605.00001907349 17 20 13
-578.75382900238 -127.034813165665 2599.99990463257 17 20 13
-569.926738739014 -126.653790473938 2592.00000762939 19 22 15
-567.439556121826 -127.689838409424 2612.99991607666 20 23 16
-564.193665981293 -128.579407930374 2631.00004196167 13 16 9
-550.26251077652 -127.025336027145 2598.99997711182 20 23 16
-538.803279399872 -126.008674502373 2578.00006866455 22 25 18
-883.416175842285 -136.158257722855 2647.0000743866 16 21 15
-872.940599918365 -135.652214288712 2637.00008392334 9 11 6
-875.652194023132 -137.204051017761 2667.00005531311 9 11 6
-872.665762901306 -137.881591916084 2680.0000667572 16 18 13
-862.181842327118 -137.375965714455 2670.00007629395 12 15 8
-851.751863956451 -136.870384216309 2660.00008583069 11 14 7
-836.295783519745 -135.541543364525 2634.0000629425 11 14 7
-833.572089672089 -136.271089315414 2648.00000190735 11 14 7
-834.205210208893 -137.56699860096 2673.00009727478 11 14 7
-829.133868217468 -137.936756014824 2680.0000667572 10 13 6
-818.50403547287 -137.380123138428 2668.99991035461 9 12 5
-798.814535140991 -135.279253125191 2628.00002098084 11 14 7
-792.601943016052 -135.443285107613 2631.00004196167 11 14 7
-771.743714809418 -133.084744215012 2585.00003814697 12 15 8
-760.305166244507 -132.322058081627 2569.9999332428 15 18 11
-753.637313842773 -132.383167743683 2571.00009918213 14 17 8
-735.927522182465 -130.487576127052 2533.99991989136 16 19 10
-723.020851612091 -129.41575050354 2513.00001144409 18 21 12
-717.06748008728 -129.579901695251 2516.00003242493 18 21 12
-713.355481624603 -130.15615940094 2526.99995040894 18 21 12
-702.314138412476 -129.393339157104 2512.00008392334 16 19 10
-694.398701190948 -129.19707596302 2507.99989700317 15 18 9
-690.068483352661 -129.670575261116 2516.99995994568 15 18 9
-686.774432659149 -130.350291728973 2529.99997138977 15 18 9
