ply
format ascii 1.0
comment KinectMotionCapture
element vertex 765
property float x
property float y
property float z
property uchar red
property uchar green
property uchar blue
end_header
568.283081054688 365.890502929688 2460.00003814697 182 182 184
575.177431106567 366.015166044235 2460.99996566772 178 176 179
581.839919090271 365.991055965424 2460.99996566772 176 174 177
588.023364543915 365.66960811615 2459.00011062622 170 168 171
594.920575618744 365.79430103302 2460.00003814697 168 166 169
600.844204425812 365.324258804321 2457.00001716614 163 161 164
607.492625713348 365.300446748734 2457.00001716614 162 160 163
613.89034986496 365.127950906754 2456.00008964539 161 159 162
621.292531490326 365.55016040802 2459.00011062622 148 146 149
628.199398517609 365.675121545792 2460.00003814697 134 132 135
635.369122028351 365.9488260746 2461.99989318848 154 152 155
642.288267612457 366.073966026306 2463.00005912781 162 160 163
649.739027023315 366.496413946152 2466.00008010864 138 138 138
657.205402851105 366.91889166832 2469.00010108948 137 137 137
666.300714015961 368.233144283295 2477.9999256134 139 139 139
675.444066524506 369.547337293625 2486.99998855591 134 134 134
685.184061527252 371.158629655838 2497.99990653992 125 125 125
693.321168422699 371.878534555435 2503.00002098084 126 126 126
703.162908554077 373.489886522293 2513.99993896484 135 135 135
712.498962879181 374.804139137268 2523.00000190735 142 142 142
721.883058547974 376.118391752243 2532.00006484985 138 138 138
730.164170265198 376.838564872742 2536.99994087219 137 137 137
739.052951335907 377.855896949768 2543.99991035461 136 136 136
755.016326904297 382.437884807587 2575.00004768372 157 157 157
782.391548156738 392.66300201416 2644.00005340576 161 161 161
799.389183521271 397.541075944901 2677.00004577637 121 121 121
809.333324432373 398.855030536652 2686.00010871887 124 124 124
817.805826663971 399.426758289337 2690.00005722046 123 123 123
825.379550457001 399.553209543228 2690.99998474121 132 132 132
832.339763641357 399.383097887039 2690.00005722046 132 132 132
838.982462882996 399.064928293228 2687.99996376038 135 137 134
477.678596973419 377.585798501968 2582.99994468689 193 194 196
475.870192050934 370.691925287247 2536.00001335144 190 191 193
479.325950145721 368.037432432175 2517.99988746643 187 187 189
484.034568071365 366.406291723251 2506.99996948242 185 185 187
488.878220319748 364.921301603317 2496.99997901917 183 183 185
494.063645601273 363.728731870651 2489.00008201599 182 182 184
500.009417533875 363.120645284653 2484.99989509583 185 185 187
506.340444087982 362.80483007431 2483.00004005432 183 183 185
512.246251106262 362.196713685989 2479.00009155273 181 181 183
517.501294612885 361.150294542313 2471.99988365173 185 185 187
522.929608821869 360.25008559227 2466.00008010864 189 189 191
529.398143291473 360.080301761627 2464.99991416931 184 184 186
536.295235157013 360.202580690384 2466.00008010864 184 184 186
542.756497859955 360.032677650452 2464.99991416931 186 186 188
549.434304237366 360.008895397186 2464.99991416931 186 186 188
555.208742618561 359.400868415833 2460.99996566772 184 184 186
562.102079391479 359.522998332977 2461.99989318848 184 184 186
568.769037723541 359.49918627739 2461.99989318848 183 183 185
575.435101985931 359.475344419479 2461.99989318848 178 176 179
581.627428531647 359.159529209137 2460.00003814697 176 174 177
587.808072566986 358.843773603439 2457.99994468689 175 173 176
594.702541828156 358.966022729874 2459.00011062622 174 172 175
601.357102394104 358.942300081253 2459.00011062622 166 164 167
608.258128166199 359.06457901001 2460.00003814697 161 159 162
614.913880825043 359.041005373001 2460.00003814697 159 157 160
622.074067592621 359.30934548378 2461.99989318848 155 153 156
629.244446754456 359.577745199203 2463.99998664856 143 141 144
636.941015720367 360.138028860092 2467.99993515015 134 132 135
644.397854804993 360.552459955215 2470.99995613098 146 144 147
651.606619358063 360.821008682251 2473.00004959106 150 150 150
659.091889858246 361.235558986664 2476.0000705719 145 145 145
667.668282985687 362.233698368073 2483.00004005432 140 140 140
677.368342876434 363.815397024155 2493.99995803833 139 139 139
686.578691005707 365.105301141739 2503.00002098084 133 133 133
695.283114910126 366.10347032547 2509.99999046326 119 119 119
704.304575920105 367.247551679611 2517.99988746643 127 127 127
713.368773460388 368.391662836075 2526.00002288818 140 140 140
722.76097536087 369.681686162949 2535.00008583069 135 135 135
732.201218605042 370.9716796875 2543.99991035461 133 133 133
741.689920425415 372.261852025986 2552.99997329712 133 133 133
760.609745979309 378.217846155167 2594.00010108948 146 146 146
786.852777004242 387.672394514084 2658.99991989136 157 157 157
801.502048969269 391.294658184052 2684.00001525879 123 123 123
810.259580612183 392.001152038574 2688.99989128113 125 125 125
818.131923675537 392.270624637604 2690.99998474121 120 120 120
825.708091259003 392.394572496414 2691.99991226196 126 126 126
832.980096340179 392.37305521965 2691.99991226196 130 130 130
839.939832687378 392.206162214279 2690.99998474121 133 135 132
476.456463336945 364.227175712585 2539.00003433228 191 192 194
479.730010032654 361.478418111801 2519.99998092651 187 187 189
484.830230474472 360.164314508438 2510.99991798401 184 184 186
489.684820175171 358.706772327423 2500.99992752075 183 183 185
494.881004095078 357.536166906357 2493.00003051758 182 182 184
500.435292720795 356.652438640594 2486.99998855591 185 185 187
506.363868713379 356.055468320847 2483.00004005432 183 183 185
512.269735336304 355.458527803421 2479.00009155273 182 182 184
517.524838447571 354.431390762329 2471.99988365173 184 184 186
522.7410197258 353.404402732849 2464.99991416931 187 187 189
528.992235660553 353.094279766083 2463.00005912781 186 186 188
536.101400852203 353.357464075089 2464.99991416931 184 184 186
542.780160903931 353.333950042725 2464.99991416931 185 185 187
549.235165119171 353.167086839676 2463.99998664856 186 186 188
555.232465267181 352.71355509758 2460.99996566772 185 185 187
561.89751625061 352.689921855927 2460.99996566772 184 184 186
568.330764770508 352.5230884552 2460.00003814697 183 183 185
574.757635593414 352.356255054474 2459.00011062622 182 180 183
581.178247928619 352.18945145607 2457.99994468689 180 178 181
587.353408336639 351.879417896271 2456.00008964539 175 173 176
594.484269618988 352.142423391342 2457.99994468689 175 173 176
600.64697265625 351.832538843155 2456.00008964539 177 175 178
607.787072658539 352.095603942871 2457.99994468689 177 175 178
614.687323570251 352.215528488159 2459.00011062622 156 154 157
621.844828128815 352.478712797165 2460.99996566772 152 150 153
629.012405872345 352.741926908493 2463.00005912781 154 152 155
636.964321136475 353.434830904007 2467.99993515015 134 132 135
645.46412229538 354.414105415344 2474.99990463257 127 125 128
652.947247028351 354.82057929039 2477.9999256134 138 138 138
660.179615020752 355.084031820297 2480.00001907349 147 147 147
667.960107326508 355.633854866028 2483.99996757507 152 152 152
676.84805393219 356.756418943405 2492.00010299683 144 144 144
686.601400375366 358.308404684067 2503.00002098084 139 139 139
695.30576467514 359.287798404694 2509.99999046326 121 121 121
704.886555671692 360.696613788605 2519.99998092651 116 116 116
713.95617723465 361.819267272949 2528.00011634827 128 128 128
723.638713359833 363.228142261505 2538.00010681152 138 138 138
733.662664890289 364.780157804489 2549.00002479553 138 138 138
745.19819021225 367.047667503357 2565.00005722046 134 134 134
766.496360301971 374.037146568298 2614.00008201599 131 131 131
791.906177997589 382.88602232933 2676.00011825562 135 135 135
803.913474082947 385.152816772461 2691.99991226196 118 118 118
811.185777187347 385.13058423996 2691.99991226196 124 124 124
819.369912147522 385.537773370743 2694.9999332428 118 118 118
826.649844646454 385.516136884689 2694.9999332428 118 118 118
834.548473358154 385.780811309814 2697.00002670288 125 125 125
841.521501541138 385.61674952507 2696.00009918213 137 139 136
474.766343832016 361.286610364914 2566.99991226196 180 181 183
476.479470729828 357.322990894318 2539.00003433228 195 196 198
480.32420873642 355.048477649689 2523.00000190735 186 186 188
484.66020822525 353.196203708649 2509.99999046326 184 184 186
489.707887172699 351.90686583519 2500.99992752075 183 183 185
494.308590888977 350.336164236069 2490.00000953674 182 182 184
499.854773283005 349.469065666199 2483.99996757507 186 186 188
506.183207035065 349.164694547653 2482.00011253357 183 183 185
512.706279754639 349.00090098381 2480.99994659424 182 182 184
518.385589122772 348.274439573288 2476.0000705719 183 183 185
523.61261844635 347.266674041748 2469.00010108948 185 185 187
529.659867286682 346.821576356888 2466.00008010864 187 187 189
536.342322826386 346.79839015007 2466.00008010864 184 184 186
542.583405971527 346.493870019913 2463.99998664856 184 184 186
548.589766025543 346.04874253273 2460.99996566772 185 185 187
554.578959941864 345.60364484787 2457.99994468689 184 184 186
561.235964298248 345.58042883873 2457.99994468689 184 184 186
567.892074584961 345.557123422623 2457.99994468689 182 182 184
574.313521385193 345.393300056458 2457.00001716614 181 179 182
581.201553344727 345.51066160202 2457.99994468689 181 179 182
587.61590719223 345.346868038177 2457.00001716614 176 174 177
594.023942947388 345.183134078979 2456.00008964539 172 170 173
600.425601005554 345.019400119781 2454.99992370605 171 169 172
607.563078403473 345.277398824692 2457.00001716614 174 172 175
614.710450172424 345.53536772728 2459.00011062622 164 162 165
621.61523103714 345.652908086777 2460.00003814697 154 152 155
628.524720668793 345.770448446274 2460.99996566772 151 149 152
636.471152305603 346.450060606003 2466.00008010864 145 143 146
645.7479596138 347.832053899765 2476.0000705719 133 131 134
654.287695884705 348.792523145676 2483.00004005432 125 125 125
661.53347492218 349.05070066452 2484.99989509583 137 137 137
668.52068901062 349.168539047241 2486.00006103516 147 147 147
676.87064409256 349.988639354706 2492.00010299683 149 149 149
686.623930931091 351.511001586914 2503.00002098084 146 146 146
695.605218410492 352.612048387527 2510.99991798401 128 128 128
705.468475818634 354.134410619736 2522.0000743866 119 119 119
714.543223381042 355.235427618027 2529.99997138977 119 119 119
724.516093730927 356.75773024559 2540.99988937378 140 140 140
734.548151493073 358.280092477798 2552.00004577637 143 143 143
748.997211456299 361.908227205276 2578.00006866455 140 140 140
775.022387504578 371.010720729828 2642.99988746643 134 134 134
793.704211711884 376.462876796722 2681.99992179871 130 130 130
804.234504699707 377.984583377838 2693.00007820129 120 120 120
811.509132385254 377.962559461594 2693.00007820129 129 129 129
819.999814033508 378.502130508423 2697.00002670288 128 128 128
827.59153842926 378.620952367783 2697.99995422363 125 125 125
835.497975349426 378.880351781845 2700.00004768372 131 131 131
474.234342575073 353.891044855118 2563.99989128113 198 199 201
476.68993473053 350.555986166 2539.99996185303 196 197 199
480.537325143814 348.325192928314 2523.9999294281 186 186 188
484.682947397232 346.370577812195 2509.99999046326 184 184 186
489.534854888916 344.968020915985 2500 184 184 186
494.132876396179 343.42759847641 2489.00008201599 182 182 184
499.676376581192 342.577069997787 2483.00004005432 186 186 188
506.206095218658 342.416405677795 2482.00011253357 184 184 186
512.522637844086 342.117697000504 2480.00001907349 182 182 184
518.19920539856 341.405063867569 2474.99990463257 181 181 183
523.211419582367 340.278774499893 2467.00000762939 183 183 185
528.823733329773 339.566260576248 2461.99989318848 188 188 190
535.712897777557 339.681357145309 2463.00005912781 185 185 187
541.725695133209 339.244693517685 2460.00003814697 184 184 186
548.389971256256 339.221715927124 2460.00003814697 184 184 186
554.376482963562 338.785141706467 2457.00001716614 185 185 187
560.802459716797 338.624268770218 2456.00008964539 184 184 186
567.45320558548 338.601380586624 2456.00008964539 183 183 185
574.102878570557 338.578402996063 2456.00008964539 185 183 186
581.461191177368 338.968992233276 2459.00011062622 184 182 185
587.878108024597 338.80814909935 2457.99994468689 182 180 183
594.28882598877 338.647395372391 2457.00001716614 179 177 180
599.959492683411 338.073253631592 2453.00006866455 166 164 167
607.338726520538 338.46390247345 2456.00008964539 161 159 162
614.233434200287 338.578939437866 2457.00001716614 169 167 170
621.638119220734 338.969618082047 2460.00003814697 166 164 167
628.29202413559 338.946938514709 2460.00003814697 157 155 158
635.977625846863 339.475452899933 2463.99998664856 145 143 146
645.24906873703 340.830534696579 2473.99997711182 143 141 144
653.78338098526 341.772317886353 2480.99994659424 136 136 136
661.822378635406 342.438578605652 2486.00006103516 129 129 129
669.618844985962 342.96715259552 2490.00000953674 126 126 126
677.979528903961 343.771189451218 2496.00005149841 144 144 144
686.920642852783 344.850718975067 2503.99994850159 148 148 148
695.350527763367 345.654845237732 2509.99999046326 144 144 144
706.050038337708 347.56064414978 2523.9999294281 137 137 137
715.695023536682 348.915606737137 2533.99991989136 121 121 121
725.678682327271 350.408256053925 2545.00007629395 130 130 130
735.433578491211 351.763308048248 2555.0000667572 139 139 139
752.796113491058 356.697678565979 2591.00008010864 147 147 147
780.616223812103 366.44971370697 2661.99994087219 130 130 130
794.614195823669 369.593590497971 2684.99994277954 135 135 135
804.555237293243 370.810389518738 2694.00000572205 132 132 132
812.435030937195 371.063798666 2696.00009918213 125 125 125
821.541547775269 371.867924928665 2701.99990272522 125 125 125
829.45328950882 372.121810913086 2703.9999961853 123 123 123
837.066233158112 372.238367795944 2704.99992370605 136 136 136
474.256843328476 346.916764974594 2563.99989128113 191 192 194
476.71240568161 343.647301197052 2539.99996185303 192 193 195
480.94055056572 341.730892658234 2526.00002288818 186 186 188
484.898507595062 339.679360389709 2510.99991798401 184 184 186
489.361524581909 338.033825159073 2499.00007247925 184 184 186
494.155377149582 336.658865213394 2489.00008201599 183 183 185
500.302672386169 336.230725049973 2486.00006103516 187 187 189
506.636559963226 335.937798023224 2483.99996757507 184 184 186
513.165354728699 335.780054330826 2483.00004005432 182 182 184
518.850088119507 335.081368684769 2477.9999256134 180 180 182
524.29461479187 334.247440099716 2471.99988365173 183 183 185
529.490828514099 333.278447389603 2464.99991416931 188 188 190
535.735666751862 332.985430955887 2463.00005912781 185 185 187
541.528224945068 332.422077655792 2459.00011062622 185 185 187
548.189878463745 332.3994576931 2459.00011062622 185 185 187
554.399251937866 332.106411457062 2457.00001716614 185 185 187
561.053574085236 332.083761692047 2457.00001716614 185 185 187
567.475974559784 331.925988197327 2456.00008964539 184 184 186
574.125707149506 331.90330862999 2456.00008964539 191 189 192
581.011056900024 332.015782594681 2457.00001716614 186 184 187
587.422609329224 331.858038902283 2456.00008964539 181 179 182
594.069719314575 331.83541893959 2456.00008964539 183 181 184
599.98220205307 331.407517194748 2453.00006866455 175 173 176
607.855975627899 332.06045627594 2457.99994468689 169 167 170
614.756047725677 332.173049449921 2459.00011062622 159 157 160
622.166037559509 332.555830478668 2461.99989318848 163 161 164
628.825306892395 332.53338932991 2461.99989318848 163 161 164
636.516392230988 333.051353693008 2466.00008010864 149 147 150
645.79313993454 334.379523992538 2476.0000705719 143 141 144
654.332756996155 335.302501916885 2483.00004005432 141 141 141
662.909626960754 336.225509643555 2490.00000953674 133 133 133
670.71670293808 336.743414402008 2493.99995803833 127 127 127
679.35985326767 337.666422128677 2500.99992752075 132 132 132
687.765777111053 338.45442533493 2506.99996948242 135 135 135
695.926606655121 339.107513427734 2512.00008392334 154 154 154
706.071972846985 340.705513954163 2523.9999294281 144 144 144
716.846704483032 342.573523521423 2538.00010681152 129 129 129
726.84109210968 344.036519527435 2549.00002479553 126 126 126
736.894369125366 345.499485731125 2559.99994277954 135 135 135
755.432665348053 350.876092910767 2599.99990463257 151 151 151
782.10461139679 359.895795583725 2667.00005531311 127 127 127
795.82005739212 362.842470407486 2688.99989128113 122 122 122
805.17441034317 363.765150308609 2696.00009918213 123 123 123
813.662052154541 364.283174276352 2700.00004768372 121 121 121
822.475075721741 364.936292171478 2704.99992370605 126 126 126
830.701410770416 365.319848060608 2707.99994468689 138 138 138
838.324964046478 365.433871746063 2709.00011062622 152 152 152
476.613223552704 346.725761890411 2615.00000953674 114 116 113
474.464058876038 340.074241161346 2565.00005722046 195 196 198
476.546853780746 336.605191230774 2539.00003433228 190 191 193
480.962693691254 334.859788417816 2526.00002288818 184 184 186
485.306888818741 333.114475011826 2513.00001144409 184 184 186
489.57946896553 331.369310617447 2500 183 183 185
494.37603354454 330.02182841301 2490.00000953674 180 180 182
500.324904918671 329.469680786133 2486.00006103516 185 185 187
506.658971309662 329.182505607605 2483.99996757507 183 183 185
512.981057167053 328.89524102211 2482.00011253357 181 181 183
518.872499465942 328.342974185944 2477.9999256134 181 181 183
524.104952812195 327.393233776093 2470.99995613098 183 183 185
529.298424720764 326.443552970886 2463.99998664856 186 186 188
535.323023796082 326.023817062378 2460.99996566772 187 187 189
541.330456733704 325.604140758514 2457.99994468689 185 185 187
547.989368438721 325.581789016724 2457.99994468689 184 184 186
554.647326469421 325.559467077255 2457.99994468689 184 184 186
561.30439043045 325.537085533142 2457.99994468689 184 184 186
567.498445510864 325.249880552292 2456.00008964539 185 185 187
573.446869850159 324.830263853073 2453.00006866455 187 185 188
580.324113368988 324.940353631973 2453.9999961853 187 185 188
587.20588684082 325.050443410873 2454.99992370605 187 185 188
594.092190265656 325.160562992096 2456.00008964539 186 184 187
600.249111652374 324.873477220535 2453.9999961853 182 180 183
607.631027698517 325.248390436172 2457.00001716614 180 178 181
614.778399467468 325.490951538086 2459.00011062622 166 164 167
622.693777084351 326.130509376526 2463.99998664856 157 155 158
629.869341850281 326.373130083084 2466.00008010864 158 156 159
637.570977210999 326.880395412445 2470.00002861023 163 161 164
646.597862243652 328.049331903458 2479.00009155273 159 157 160
655.409097671509 329.085916280746 2486.99998855591 150 150 150
663.996577262878 329.990088939667 2493.99995803833 147 149 148
672.083556652069 330.629706382751 2499.00007247925 142 144 143
680.739998817444 331.533908843994 2506.00004196167 130 132 131
688.336372375488 331.90906047821 2509.0000629425 133 135 134
696.225345134735 332.416474819183 2513.00001144409 142 144 143
705.813944339752 333.71764421463 2523.00000190735 152 154 153
716.86840057373 335.68012714386 2538.00010681152 141 143 142
727.718055248261 337.510257959366 2552.00004577637 121 123 122
738.355219364166 339.20806646347 2565.00005722046 123 125 124
756.907165050507 344.476252794266 2605.00001907349 146 148 147
783.592700958252 353.314161300659 2671.99993133545 124 126 125
797.025859355927 356.0691177845 2693.00007820129 119 119 119
806.091964244843 356.84072971344 2698.99988174438 130 130 130
814.587593078613 357.348144054413 2703.00006866455 134 134 134
823.408544063568 357.98791050911 2707.99994468689 122 122 122
831.642687320709 358.363509178162 2710.99996566772 154 154 154
475.724041461945 338.961333036423 2609.99989509583 140 142 139
474.855899810791 333.355247974396 2566.99991226196 194 195 197
476.005584001541 329.30800318718 2536.00001335144 192 193 195
480.413317680359 327.59827375412 2523.00000190735 185 185 187
485.328733921051 326.278179883957 2513.00001144409 184 184 186
490.384697914124 325.088024139404 2503.99994850159 183 183 185
495.192140340805 323.768079280853 2493.99995803833 181 181 183
500.749349594116 322.967380285263 2487.99991607666 185 185 187
506.680905818939 322.426348924637 2483.99996757507 184 184 186
513.209819793701 322.274744510651 2483.00004005432 181 181 183
519.313395023346 321.863442659378 2480.00001907349 180 180 182
524.763345718384 321.06277346611 2473.99997711182 181 181 183
530.179798603058 320.262163877487 2467.99993515015 185 185 187
535.780191421509 319.591403007507 2463.00005912781 187 187 189
541.793048381805 319.18016076088 2460.00003814697 185 185 187
548.234522342682 319.028437137604 2459.00011062622 185 185 187
554.443955421448 318.746954202652 2457.00001716614 185 185 187
561.326682567596 318.854629993439 2457.99994468689 185 185 187
567.289531230927 318.443417549133 2454.99992370605 186 186 188
573.936581611633 318.421363830566 2454.99992370605 186 184 187
580.109775066376 318.139970302582 2453.00006866455 188 186 189
586.988806724548 318.247675895691 2453.9999961853 189 187 190
593.872368335724 318.355321884155 2454.99992370605 185 183 186
600.760459899902 318.463087081909 2456.00008964539 178 176 179
607.653081417084 318.570762872696 2457.00001716614 177 175 178
614.80039358139 318.808197975159 2459.00011062622 163 161 164
622.46310710907 319.304913282394 2463.00005912781 156 154 157
630.402088165283 319.931209087372 2467.99993515015 151 149 152
638.109147548676 320.427894592285 2471.99988365173 152 150 153
646.619737148285 321.313440799713 2479.00009155273 159 157 160
654.640376567841 321.939766407013 2483.99996757507 158 158 158
663.219809532166 322.825282812119 2490.9999370575 154 156 155
671.029388904572 323.321938514709 2494.99988555908 148 150 149
680.218398571014 324.466645717621 2503.99994850159 136 138 137
688.357889652252 325.093030929565 2509.0000629425 133 135 134
697.355091571808 326.108157634735 2516.99995994568 135 137 136
706.954419612885 327.382385730743 2526.99995040894 136 138 137
717.454552650452 329.045236110687 2539.99996185303 156 158 157
727.73939371109 330.578535795212 2552.00004577637 147 149 148
738.952159881592 332.500398159027 2566.99991226196 136 138 137
759.543657302856 338.566839694977 2614.00008201599 134 136 135
784.787595272064 346.575438976288 2676.00011825562 125 127 126
798.527240753174 349.40305352211 2697.99995422363 113 113 113
806.710779666901 349.770128726959 2700.99997520447 130 130 130
815.211534500122 350.266873836517 2704.99992370605 127 127 127
823.12536239624 350.504845380783 2707.00001716614 132 132 132
831.663489341736 351.002037525177 2710.99996566772 165 165 165
474.287658929825 330.84174990654 2601.99999809265 181 183 180
475.062519311905 326.497316360474 2568.00007820129 189 190 192
476.027101278305 322.407633066177 2536.00001335144 189 190 192
479.863494634628 320.35219669342 2519.99998092651 186 186 188
484.577775001526 318.932622671127 2509.0000629425 186 186 188
490.406215190887 318.275690078735 2503.99994850159 182 182 184
495.610862970352 317.237496376038 2496.00005149841 182 182 184
500.77098608017 316.19930267334 2487.99991607666 183 183 185
506.702601909637 315.669476985931 2483.99996757507 185 185 187
513.024866580963 315.393805503845 2482.00011253357 183 183 185
518.916308879852 314.86389040947 2477.9999256134 182 182 184
524.14882183075 313.9528632164 2470.99995613098 182 182 184
529.771983623505 313.296020030975 2466.00008010864 186 186 188
535.584509372711 312.766224145889 2461.99989318848 189 189 191
541.594624519348 312.363475561142 2459.00011062622 186 186 188
548.03341627121 312.214761972427 2457.99994468689 185 185 187
554.691433906555 312.193065881729 2457.99994468689 185 185 187
561.805367469788 312.425404787064 2460.00003814697 185 185 187
568.004667758942 312.14964389801 2457.99994468689 187 187 189
574.19228553772 311.873972415924 2456.00008964539 186 184 187
580.368161201477 311.598300933838 2453.9999961853 188 186 189
586.771488189697 311.449646949768 2453.00006866455 188 186 189
593.894183635712 311.681866645813 2454.99992370605 183 181 184
601.026833057404 311.91411614418 2457.00001716614 173 171 174
607.674837112427 311.892479658127 2457.00001716614 171 169 172
614.572048187256 311.99786067009 2457.99994468689 172 170 173
621.979355812073 312.357038259506 2460.99996566772 168 166 169
630.168318748474 313.097059726715 2467.00000762939 161 159 162
638.388991355896 313.836991786957 2473.00004959106 153 151 154
645.858824253082 314.196228981018 2476.0000705719 159 157 160
653.871238231659 314.809292554855 2480.99994659424 161 161 161
662.176251411438 315.549194812775 2486.99998855591 159 161 160
670.512974262238 316.289156675339 2493.00003051758 155 157 156
679.696559906006 317.409723997116 2502.00009346008 147 149 148
688.104867935181 318.149626255035 2507.99989700317 144 146 145
697.930455207825 319.523841142654 2519.00005340576 142 144 143
707.535088062286 320.771187543869 2529.00004386902 133 135 134
716.910839080811 321.891695261002 2538.00010681152 144 146 145
726.619780063629 323.139041662216 2548.00009727478 159 161 160
738.973021507263 325.527638196945 2566.99991226196 158 160 159
763.923406600952 333.36877822876 2628.99994850159 141 143 142
787.155210971832 340.321570634842 2684.00001525879 142 144 143
798.844635486603 342.202097177505 2698.99988174438 122 122 122
806.731939315796 342.434525489807 2700.99997520447 134 134 134
815.232396125793 342.920631170273 2704.99992370605 126 126 126
823.450267314911 343.280255794525 2707.99994468689 129 129 129
831.683933734894 343.640029430389 2710.99996566772 151 151 151
473.215311765671 323.013663291931 2595.99995613098 190 192 189
474.343776702881 319.010972976685 2563.99989128113 190 191 193
475.672721862793 315.257519483566 2533.99991989136 189 190 192
479.503780603409 313.246071338654 2517.99988746643 186 186 188
484.405755996704 311.981171369553 2507.99989700317 186 186 188
490.231603384018 311.33821606636 2503.00002098084 182 182 184
496.029227972031 310.695230960846 2497.99990653992 183 183 185
501.396119594574 309.803485870361 2490.9999370575 182 182 184
507.131934165955 309.160530567169 2486.00006103516 185 185 187
513.252913951874 308.766216039658 2483.00004005432 185 185 187
518.937766551971 308.123201131821 2477.9999256134 183 183 185
524.59454536438 307.480275630951 2473.00004959106 182 182 184
529.793441295624 306.588679552078 2466.00008010864 185 185 187
535.60596704483 306.070059537888 2461.99989318848 189 189 191
541.616141796112 305.675804615021 2459.00011062622 186 186 188
547.831952571869 305.405884981155 2457.00001716614 185 185 187
554.261684417725 305.260270833969 2456.00008964539 185 185 187
561.141788959503 305.363178253174 2457.00001716614 185 185 187
567.795157432556 305.341780185699 2457.00001716614 185 185 187
574.447631835938 305.320382118225 2457.00001716614 186 184 187
580.389618873596 304.926186800003 2453.9999961853 187 185 188
587.032198905945 304.904848337173 2453.9999961853 189 187 190
593.915641307831 305.007725954056 2454.99992370605 191 189 192
601.048350334167 305.234909057617 2457.00001716614 188 186 189
607.943654060364 305.337816476822 2457.99994468689 186 184 187
615.093529224396 305.564969778061 2460.00003814697 181 179 182
622.000753879547 305.66793680191 2460.99996566772 182 180 183
629.934310913086 306.267738342285 2466.00008010864 180 178 181
637.893974781036 306.867480278015 2470.99995613098 178 176 179
645.880043506622 307.467252016068 2476.0000705719 174 172 175
653.892457485199 308.067053556442 2480.99994659424 167 167 167
661.931216716766 308.666855096817 2486.00006103516 165 167 166
670.265197753906 309.390783309937 2492.00010299683 162 164 163
679.717659950256 310.611337423325 2502.00009346008 161 163 162
688.948929309845 311.707645654678 2510.99991798401 158 160 159
699.613869190216 313.424676656723 2525.00009536743 151 153 152
708.954870700836 314.520955085754 2533.99991989136 152 154 153
718.061506748199 315.493166446686 2542.00005531311 153 155 154
726.925671100616 316.34122133255 2549.00002479553 152 154 153
739.281713962555 318.678557872772 2568.00007820129 164 166 165
766.559660434723 327.344238758087 2638.00001144409 167 169 168
788.349628448486 333.527415990829 2687.99996376038 125 127 126
800.049841403961 335.367500782013 2703.00006866455 126 126 126
808.544993400574 335.842847824097 2707.00001716614 125 125 125
817.362904548645 336.44238114357 2711.99989318848 136 136 136
825.295209884644 336.670011281967 2713.99998664856 136 136 136
831.704199314117 336.277604103088 2710.99996566772 174 174 174
472.142547369003 315.21737575531 2589.99991416931 192 194 191
473.439633846283 311.423897743225 2559.00001525879 192 194 193
475.505769252777 308.239221572876 2532.99999237061 187 188 190
479.524523019791 306.393355131149 2517.99988746643 186 186 188
484.812825918198 305.39932847023 2509.99999046326 187 187 189
490.252465009689 304.52698469162 2503.00002098084 182 182 184
496.248781681061 304.019629955292 2499.00007247925 183 183 185
501.618385314941 303.147286176682 2492.00010299683 181 181 183
507.356941699982 302.518248558044 2486.99998855591 183 183 185
513.067305088043 301.889210939407 2482.00011253357 185 185 187
518.749475479126 301.260143518448 2476.99999809265 183 183 185
523.979246616364 300.387918949127 2470.00002861023 181 181 183
529.814541339874 299.880534410477 2466.00008010864 184 184 186
535.409510135651 299.251556396484 2460.99996566772 187 187 189
541.857540607452 299.109011888504 2460.00003814697 186 186 188
547.630190849304 298.601716756821 2456.00008964539 185 185 187
554.28284406662 298.58073592186 2456.00008964539 184 184 186
560.477733612061 298.316538333893 2453.9999961853 183 183 185
567.816376686096 298.660188913345 2457.00001716614 183 183 185
574.00119304657 298.396050930023 2454.99992370605 184 182 185
580.410838127136 298.253446817398 2453.9999961853 187 185 188
586.574852466583 297.989398241043 2451.99990272522 188 186 189
593.452990055084 298.089921474457 2453.00006866455 189 187 190
600.580215454102 298.311978578568 2454.99992370605 192 190 193
607.964754104614 298.655539751053 2457.99994468689 194 192 195
615.364730358124 298.999071121216 2460.99996566772 191 189 192
622.274518013 299.099653959274 2461.99989318848 190 188 191
630.210757255554 299.686163663864 2467.00000762939 188 186 189
638.947665691376 300.637066364288 2474.99990463257 193 191 194
647.727131843567 301.587909460068 2483.00004005432 191 189 192
655.758380889893 302.174359560013 2487.99991607666 171 171 171
663.815975189209 302.76083946228 2493.00003051758 167 169 168
672.706723213196 303.71156334877 2500.99992752075 163 165 164
682.183444499969 304.905205965042 2510.99991798401 157 159 158
691.987872123718 306.220173835754 2522.0000743866 155 157 156
701.297044754028 307.292282581329 2530.99989891052 151 153 152
710.374534130096 308.243006467819 2539.00003433228 146 148 147
719.211995601654 309.072285890579 2546.0000038147 149 151 150
728.942453861237 310.265839099884 2555.99999427795 149 151 150
741.029381752014 312.43035197258 2573.99988174438 158 160 159
763.67449760437 318.964213132858 2628.00002098084 172 174 173
786.904156208038 325.618773698807 2683.00008773804 129 131 130
798.886597156525 327.53974199295 2698.99988174438 130 130 130
808.864414691925 328.6112844944 2707.99994468689 126 126 126
817.383468151093 329.07623052597 2711.99989318848 136 136 136
825.011372566223 329.17732000351 2713.00005912781 133 133 133
471.98086977005 308.04780125618 2588.99998664856 188 190 185
472.90500998497 304.1011095047 2555.99999427795 187 189 188
474.963009357452 300.987660884857 2529.99997138977 188 190 189
479.354500770569 299.420863389969 2516.99995994568 185 186 188
485.026448965073 298.686891794205 2510.99991798401 187 188 190
490.468859672546 297.833919525146 2503.99994850159 182 183 185
496.269345283508 297.218888998032 2499.00007247925 182 183 185
501.437664031982 296.246975660324 2490.9999370575 179 181 180
507.173597812653 295.631945133209 2486.00006103516 185 186 188
512.881219387054 295.01685500145 2480.99994659424 184 185 189
518.351316452026 294.282883405685 2474.99990463257 182 183 187
523.999989032745 293.667852878571 2470.00002861023 180 181 185
530.050218105316 293.290585279465 2467.00000762939 181 182 187
536.083042621613 292.913347482681 2463.99998664856 182 183 187
542.539179325104 292.773813009262 2463.00005912781 188 187 192
548.319935798645 292.277723550797 2459.00011062622 185 184 189
554.529368877411 292.019337415695 2457.00001716614 184 184 186
560.498654842377 291.642129421234 2453.9999961853 182 182 184
567.14391708374 291.621446609497 2453.9999961853 180 180 182
574.022054672241 291.71958565712 2454.99992370605 185 183 188
580.668210983276 291.698902845383 2454.99992370605 185 183 186
587.31335401535 291.678220033646 2454.99992370605 188 186 189
593.715786933899 291.538774967194 2453.9999961853 181 179 180
601.334989070892 291.993290185928 2457.99994468689 205 205 205
608.727633953094 292.329013347626 2460.99996566772 203 203 203
616.135716438293 292.664736509323 2463.99998664856 194 194 194
623.306393623352 292.881667613983 2466.00008010864 174 174 176
631.508767604828 293.573617935181 2471.99988365173 150 150 152
640.775620937347 294.740617275238 2482.00011253357 130 131 135
649.834811687469 295.788705348969 2490.9999370575 136 135 140
657.887637615204 296.361833810806 2496.00005149841 137 137 139
665.966689586639 296.934932470322 2500.99992752075 137 137 137
675.148189067841 297.982960939407 2509.99999046326 134 136 135
684.649229049683 299.149662256241 2519.99998092651 127 129 128
694.752335548401 300.55370926857 2532.00006484985 126 128 127
704.36555147171 301.720261573792 2542.00005531311 130 132 131
713.192820549011 302.530765533447 2549.00002479553 124 126 125
722.057223320007 303.341269493103 2555.99999427795 133 135 134
731.244146823883 304.270505905151 2563.99989128113 125 129 128
741.913259029388 305.793106555939 2576.99990272522 122 126 125
761.079490184784 310.756653547287 2618.99995803833 131 135 134
785.751461982727 317.855387926102 2678.99990081787 149 153 152
800.683200359344 320.919662714005 2704.99992370605 141 143 140
810.676991939545 321.967005729675 2713.99998664856 130 132 129
818.00651550293 321.946829557419 2713.99998664856 135 137 134
825.031399726868 321.808278560638 2713.00005912781 138 140 137
471.45414352417 300.650298595428 2585.99996566772 190 192 187
473.480224609375 297.491371631622 2559.00001525879 188 190 189
475.921779870987 294.681519269943 2535.00008583069 189 191 190
479.945927858353 292.917996644974 2519.99998092651 186 187 189
485.432893037796 292.08442568779 2513.00001144409 187 188 190
490.880817174912 291.250854730606 2506.00004196167 182 183 185
496.488153934479 290.533542633057 2500 182 183 185
501.457929611206 289.467602968216 2490.9999370575 179 181 180
506.581842899323 288.51792216301 2483.00004005432 181 182 184
512.074649333954 287.80061006546 2476.99999809265 182 183 187
518.162250518799 287.431925535202 2473.99997711182 181 182 186
523.596048355103 286.71470284462 2467.99993515015 178 179 184
530.070543289185 286.578297615051 2467.00000762939 178 179 184
536.103427410126 286.209553480148 2463.99998664856 179 180 185
542.779922485352 286.189287900925 2463.99998664856 190 189 194
548.786401748657 285.820543766022 2460.99996566772 185 184 189
555.001258850098 285.567969083786 2459.00011062622 180 180 182
560.975968837738 285.199254751205 2456.00008964539 179 179 181
567.395508289337 285.062789916992 2454.99992370605 179 179 181
574.042558670044 285.042434930801 2454.99992370605 179 177 180
581.161797046661 285.254329442978 2457.00001716614 184 182 185
587.573170661926 285.117924213409 2456.00008964539 190 188 189
594.462096691132 285.213679075241 2457.00001716614 203 201 202
601.35543346405 285.30940413475 2457.99994468689 191 191 191
608.995378017426 285.75336933136 2461.99989318848 177 177 177
615.655958652496 285.733103752136 2461.99989318848 138 138 138
623.32671880722 286.177068948746 2466.00008010864 138 138 140
631.784737110138 286.969125270844 2473.00004959106 142 143 147
640.796065330505 287.993252277374 2482.00011253357 146 147 151
649.594366550446 288.901180028915 2490.00000953674 145 146 150
657.908022403717 289.577066898346 2496.00005149841 139 139 141
666.786015033722 290.484964847565 2503.99994850159 138 138 138
675.706446170807 291.392832994461 2512.00008392334 138 140 139
685.212910175323 292.532652616501 2522.0000743866 141 143 142
694.772601127625 293.672442436218 2532.00006484985 140 142 141
704.662799835205 294.928133487701 2542.99998283386 135 137 136
714.052259922028 295.951873064041 2552.00004577637 138 140 139
723.772346973419 297.091543674469 2562.00003623962 141 143 142
732.690155506134 297.88339138031 2569.00000572205 142 146 145
743.948578834534 299.602806568146 2584.00011062622 139 143 142
762.552618980408 304.220616817474 2624.00007247925 133 137 136
789.291501045227 311.968117952347 2690.99998474121 141 145 144
802.183508872986 314.150542020798 2710.00003814697 132 134 131
810.398519039154 314.47821855545 2713.00005912781 135 137 134
816.519320011139 313.994705677032 2709.00011062622 129 131 128
467.504113912582 295.558750629425 2602.9999256134 173 175 170
469.833076000214 292.587071657181 2576.99990272522 189 191 188
472.944855690002 290.183305740356 2555.99999427795 185 187 186
476.129144430161 287.893235683441 2536.00001335144 187 189 188
480.156064033508 286.170899868011 2520.99990844727 186 187 189
485.066294670105 285.016268491745 2510.99991798401 186 187 189
490.508794784546 284.20215845108 2503.99994850159 182 183 185
496.309399604797 283.615052700043 2499.00007247925 182 183 185
501.679182052612 282.8009724617 2492.00010299683 180 181 183
506.805777549744 281.873375177383 2483.99996757507 180 180 180
512.094616889954 281.059324741364 2476.99999809265 184 184 184
517.763316631317 280.472218990326 2471.99988365173 184 184 186
524.040400981903 280.225485563278 2470.00002861023 179 179 181
530.305504798889 279.97875213623 2467.99993515015 176 175 180
536.55868768692 279.73198890686 2466.00008010864 175 175 177
542.579829692841 279.371798038483 2463.00005912781 182 182 184
548.806548118591 279.124975204468 2460.99996566772 184 184 186
555.472791194916 279.105007648468 2460.99996566772 179 177 178
561.681270599365 278.858214616776 2459.00011062622 181 180 178
567.877948284149 278.611451387405 2457.00001716614 175 174 172
574.296593666077 278.47808599472 2456.00008964539 182 181 179
581.418514251709 278.684854507446 2457.99994468689 182 181 179
588.071823120117 278.664886951447 2457.99994468689 180 179 177
594.724118709564 278.644889593124 2457.99994468689 165 164 162
601.37552022934 278.624922037125 2457.99994468689 132 131 127
608.520865440369 278.83169054985 2460.00003814697 155 154 150
615.926206111908 279.151827096939 2463.00005912781 158 158 156
623.852372169495 279.698580503464 2467.99993515015 158 158 156
631.804764270782 280.245304107666 2473.00004959106 149 149 149
640.299677848816 281.018644571304 2480.00001907349 149 149 151
648.831725120544 281.791925430298 2486.99998855591 151 151 153
657.928109169006 282.791763544083 2496.00005149841 144 144 144
667.072355747223 283.791542053223 2505.00011444092 148 148 148
675.45747756958 284.451425075531 2510.99991798401 147 149 148
684.689462184906 285.451143980026 2519.99998092651 141 143 142
693.694889545441 286.337584257126 2528.00011634827 136 138 137
704.405546188354 287.903547286987 2542.00005531311 135 137 136
714.072108268738 289.016395807266 2552.00004577637 120 122 121
724.07454252243 290.242463350296 2562.99996376038 128 130 129
732.994973659515 291.015595197678 2569.9999332428 127 131 130
745.40776014328 293.147534132004 2588.99998664856 154 158 157
768.965840339661 299.581676721573 2645.99990844727 152 156 155
793.124735355377 306.128412485123 2703.9999961853 138 142 141
803.979754447937 307.466983795166 2716.00008010864 126 128 125
811.613082885742 307.560354471207 2717.00000762939 140 142 139
817.443192005157 306.974828243256 2711.99989318848 132 134 131
467.846930027008 284.350425004959 2565.99998474121 189 191 188
472.224086523056 282.779961824417 2552.00004577637 183 184 186
476.148515939713 280.987948179245 2536.00001335144 186 187 189
480.556398630142 279.528468847275 2523.00000190735 185 186 190
485.472083091736 278.401345014572 2513.00001144409 186 187 191
490.724205970764 277.495920658112 2505.00011444092 181 182 184
496.130287647247 276.701211929321 2497.99990653992 181 182 184
501.497268676758 275.906533002853 2490.9999370575 179 180 182
506.621301174164 275.001168251038 2483.00004005432 180 180 180
512.11416721344 274.317294359207 2476.99999809265 184 184 182
517.782926559448 273.744165897369 2471.99988365173 184 184 184
523.635685443878 273.281812667847 2467.99993515015 178 176 177
530.325174331665 273.262351751328 2467.99993515015 175 173 176
536.360800266266 272.910684347153 2464.99991416931 178 176 179
542.599499225616 272.669732570648 2463.00005912781 176 174 175
548.380255699158 272.207349538803 2459.00011062622 184 182 183
555.266857147217 272.298485040665 2460.00003814697 180 176 175
561.472594738007 272.057503461838 2457.99994468689 186 182 179
568.360030651093 272.148579359055 2459.00011062622 184 180 177
574.316382408142 271.796971559525 2456.00008964539 187 183 180
581.438302993774 271.998673677444 2457.99994468689 180 176 173
587.852358818054 271.868407726288 2457.00001716614 173 169 166
594.501972198486 271.848797798157 2457.00001716614 148 147 143
600.661277770996 271.607935428619 2454.99992370605 154 153 148
607.551157474518 271.699041128159 2456.00008964539 166 165 160
614.945650100708 272.011399269104 2459.00011062622 158 157 153
622.860908508301 272.544920444489 2463.99998664856 152 153 148
631.058037281036 273.189067840576 2470.00002861023 176 176 174
639.54484462738 273.9437520504 2476.99999809265 190 190 190
647.547006607056 274.47721362114 2482.00011253357 189 189 189
656.366229057312 275.342434644699 2490.00000953674 176 176 176
664.961516857147 276.096999645233 2496.99997901917 172 172 172
673.325061798096 276.740998029709 2503.00002098084 163 165 164
682.80702829361 277.827203273773 2513.00001144409 162 164 163
692.067921161652 278.802841901779 2522.0000743866 162 164 163
702.762424945831 280.331134796143 2536.00001335144 159 161 160
712.132811546326 281.306654214859 2545.00007629395 164 166 165
722.963929176331 282.834857702255 2559.00001525879 180 182 181
732.729077339172 283.920884132385 2569.00000572205 163 167 166
748.594164848328 287.327617406845 2599.99990463257 157 161 160
774.216711521149 294.380664825439 2664.00003433228 149 153 152
793.437838554382 298.891544342041 2704.99992370605 122 126 125
803.703367710114 299.976855516434 2714.99991416931 130 132 129
810.736536979675 299.846947193146 2713.99998664856 131 133 130
467.136532068253 276.929527521133 2562.00003623962 188 190 189
471.687883138657 275.505661964417 2549.00002479553 181 182 184
475.791901350021 273.865699768066 2533.99991989136 186 187 191
480.384886264801 272.550076246262 2522.0000743866 184 185 189
484.911531209946 271.234482526779 2509.99999046326 184 185 189
490.155518054962 270.351231098175 2502.00009346008 178 179 181
495.553463697433 269.575983285904 2494.99988555908 179 180 182
501.516461372375 269.124925136566 2490.9999370575 178 180 179
506.844520568848 268.349707126617 2483.99996757507 175 176 171
512.340128421783 267.682552337646 2477.9999256134 181 180 176
517.383217811584 266.799360513687 2470.00002861023 182 181 177
523.230612277985 266.348332166672 2466.00008010864 179 178 174
529.914736747742 266.329258680344 2466.00008010864 177 176 174
535.944998264313 265.986144542694 2463.00005912781 171 167 166
542.178273200989 265.751034021378 2460.99996566772 172 168 165
547.730565071106 265.191972255707 2456.00008964539 194 189 186
554.60911989212 265.280783176422 2457.00001716614 185 180 174
560.806751251221 265.045642852783 2454.99992370605 195 191 182
567.686021327972 265.134394168854 2456.00008964539 200 196 187
573.868095874786 264.899283647537 2453.9999961853 189 186 179
580.511569976807 264.88009095192 2453.9999961853 137 134 127
586.914718151093 264.752924442291 2453.00006866455 108 105 96
593.069553375244 264.517903327942 2450.99997520447 103 100 91
600.191354751587 264.714568853378 2453.00006866455 118 115 106
607.0756316185 264.803320169449 2453.9999961853 102 99 90
614.96490240097 265.323728322983 2459.00011062622 164 163 158
623.133063316345 265.951901674271 2464.99991416931 176 177 171
631.077408790588 266.472220420837 2470.00002861023 194 195 190
639.822363853455 267.316102981567 2477.9999256134 183 183 181
647.8271484375 267.836332321167 2483.00004005432 157 157 155
656.121850013733 268.464416265488 2489.00008201599 145 145 145
664.181888103485 268.984645605087 2493.99995803833 142 142 142
672.53714799881 269.612699747086 2500 156 158 157
682.011067867279 270.672112703323 2509.99999046326 175 177 176
692.087113857269 271.947175264359 2522.0000743866 188 190 189
702.504515647888 273.329943418503 2535.00008583069 188 190 189
710.752844810486 273.850113153458 2539.99996185303 193 195 194
721.005260944366 275.124996900558 2552.00004577637 160 164 163
731.892466545105 276.615470647812 2565.99998474121 169 173 172
750.052809715271 280.800640583038 2605.00001907349 178 182 181
778.886139392853 288.865745067596 2680.0000667572 164 168 167
793.163955211639 291.433185338974 2703.9999961853 126 130 129
802.834689617157 292.276173830032 2711.99989318848 129 131 128
810.15819311142 292.257070541382 2711.99989318848 127 129 126
467.702031135559 270.267188549042 2565.00005722046 186 188 187
472.26157784462 268.879115581512 2552.00004577637 179 180 182
475.998312234879 267.069697380066 2535.00008583069 184 185 189
480.593949556351 265.787124633789 2523.00000190735 183 184 188
485.123306512833 264.504581689835 2510.99991798401 183 184 188
490.174174308777 263.538151979446 2502.00009346008 178 179 181
494.976371526718 262.466430664063 2492.00010299683 178 179 181
500.729858875275 261.921316385269 2486.99998855591 178 180 179
506.659269332886 261.481523513794 2483.00004005432 174 175 170
512.358903884888 260.936379432678 2477.9999256134 181 180 176
517.82101392746 260.285973548889 2471.99988365173 183 182 178
522.825062274933 259.425044059753 2463.99998664856 181 180 176
529.50382232666 259.406358003616 2463.99998664856 180 179 175
535.093486309052 258.861273527145 2459.00011062622 186 182 179
541.095674037933 258.526772260666 2456.00008964539 178 175 170
546.411454677582 257.876515388489 2450.00004768372 182 177 173
553.047955036163 257.857739925385 2450.00004768372 105 101 92
559.455037117004 257.733732461929 2448.99988174438 78 74 63
566.318154335022 257.820218801498 2450.00004768372 36 32 21
572.250068187714 257.485747337341 2447.00002670288 34 30 19
579.111158847809 257.572203874588 2447.99995422363 27 25 13
585.737347602844 257.553428411484 2447.99995422363 26 24 12
592.604577541351 257.639855146408 2448.99988174438 32 30 17
598.986864089966 257.515907287598 2447.99995422363 26 24 12
606.352508068085 257.812768220901 2450.99997520447 36 34 22
613.983452320099 258.214712142944 2454.99992370605 32 32 20
622.393608093262 258.93223285675 2461.99989318848 30 30 20
630.840837955475 259.649664163589 2469.00010108948 19 19 11
639.583051204681 260.472148656845 2476.99999809265 23 22 17
647.32426404953 260.874032974243 2480.99994659424 32 31 27
655.877113342285 261.59131526947 2487.99991607666 65 65 63
663.40172290802 261.888056993485 2490.9999370575 76 76 74
671.7489361763 262.50022649765 2496.99997901917 67 69 66
680.943012237549 263.427734375 2506.00004196167 44 46 43
691.831409931183 264.985829591751 2520.99990844727 29 31 28
700.583398342133 265.703082084656 2528.00011634827 37 39 36
708.532929420471 266.104966402054 2532.00006484985 44 46 43
719.893753528595 267.767995595932 2548.00009727478 36 41 37
734.478116035461 270.586848258972 2575.00004768372 57 62 58
