ply
format ascii 1.0
comment KinectMotionCapture
element vertex 760
property float x
property float y
property float z
property uchar red
property uchar green
property uchar blue
end_header
106.686867773533 685.26303768158 2868.99995803833 146 145 141
114.484198391438 685.254156589508 2868.99995803833 150 149 145
122.366428375244 685.722291469574 2871.00005149841 171 170 166
130.213871598244 685.950934886932 2871.99997901917 177 176 172
138.114452362061 686.417877674103 2874.00007247925 155 154 149
145.873203873634 686.167597770691 2872.99990653992 147 146 141
153.733119368553 686.394453048706 2874.00007247925 144 143 138
161.316990852356 685.426652431488 2869.99988555908 145 144 139
169.11444067955 685.413479804993 2869.99988555908 146 145 140
176.788136363029 684.922158718109 2868.00003051758 147 148 143
184.836640954018 685.863077640533 2871.99997901917 146 147 142
192.638084292412 685.84817647934 2871.99997901917 155 156 151
200.369253754616 685.593962669373 2871.00005149841 168 169 164
208.23946595192 685.816764831543 2871.99997901917 158 159 154
216.716349124908 687.949359416962 2881.00004196167 161 162 157
225.241601467133 690.081238746643 2890.00010490417 171 167 164
233.73444378376 691.973567008972 2898.00000190735 154 153 149
241.769939661026 692.432820796967 2900.00009536743 160 159 155
249.901801347733 693.130254745483 2903.00011634827 159 158 154
258.138090372086 694.065809249878 2907.00006484985 147 146 142
266.486972570419 695.23948431015 2911.99994087219 167 166 162
275.239259004593 697.367608547211 2921.0000038147 148 147 143
283.264189958572 697.58528470993 2921.99993133545 148 149 144
291.592806577683 698.518574237823 2926.00011825562 152 153 148
300.249576568604 700.16747713089 2933.00008773804 168 169 164
-132.651031017303 706.067442893982 2990.00000953674 212 214 211
-124.441474676132 705.605447292328 2987.99991607666 184 183 179
-116.125665605068 704.434454441071 2983.00004005432 191 190 186
-107.691876590252 702.318072319031 2973.99997711182 188 187 183
-99.4741842150688 701.381862163544 2970.00002861023 190 189 185
-91.339498758316 700.917303562164 2967.99993515015 138 137 133
-83.2434967160225 700.688183307648 2967.00000762939 141 140 135
-75.1780271530151 700.694561004639 2967.00000762939 139 138 133
-67.1576038002968 701.172769069672 2969.00010108948 129 128 123
-59.1061972081661 701.413989067078 2970.00002861023 115 114 109
-50.8945547044277 699.529111385345 2961.99989318848 145 144 139
-42.5960943102837 695.51807641983 2944.9999332428 162 161 156
-34.4721637666225 693.159461021423 2934.99994277954 173 172 168
-26.3844579458237 690.328061580658 2923.00009727478 177 176 172
-18.3619242161512 687.495768070221 2911.00001335144 151 150 146
-10.4153547435999 685.371339321136 2901.99995040894 165 164 160
-2.5194357149303 683.718740940094 2894.99998092651 164 163 159
5.3439736366272 682.773888111115 2891.00003242493 155 154 150
13.1947519257665 682.300806045532 2888.99993896484 143 142 138
21.0273340344429 681.590855121613 2885.99991798401 179 178 174
28.8835614919662 681.82510137558 2887.00008392334 147 146 142
36.6815254092216 680.877566337585 2882.99989700317 141 140 136
44.4576404988766 679.929614067078 2878.99994850159 141 140 136
52.2118806838989 678.981125354767 2875 142 141 137
59.9859803915024 678.504109382629 2872.99990653992 145 144 140
67.8670257329941 679.207384586334 2875.99992752075 148 147 143
75.6326243281364 678.729295730591 2874.00007247925 138 137 133
83.3580940961838 678.014397621155 2871.00005149841 168 167 163
91.0352692008018 677.062690258026 2867.00010299683 143 142 138
98.8283306360245 677.054941654205 2867.00010299683 145 144 140
106.658294796944 677.282810211182 2868.00003051758 146 145 141
114.573240280151 677.98238992691 2871.00005149841 148 147 143
122.376285493374 677.972853183746 2871.00005149841 182 181 177
130.269676446915 678.434908390045 2872.99990653992 169 168 164
137.933284044266 677.71577835083 2869.99988555908 154 153 148
145.732536911964 677.704334259033 2869.99988555908 147 146 141
153.584912419319 677.928626537323 2871.00005149841 145 144 139
161.498486995697 678.388297557831 2872.99990653992 146 145 140
169.30465400219 678.37518453598 2872.99990653992 147 146 141
176.987051963806 677.889168262482 2871.00005149841 148 149 144
184.72246825695 677.638709545136 2869.99988555908 148 149 144
192.451998591423 677.387773990631 2868.99995803833 170 171 166
200.384989380836 677.844643592834 2871.00005149841 169 170 165
208.255767822266 678.064703941345 2871.99997901917 159 160 155
216.658011078835 679.93688583374 2880.00011444092 164 165 160
225.103169679642 681.808352470398 2888.00001144409 169 168 164
233.671873807907 683.915317058563 2897.0000743866 156 155 151
241.871953010559 684.841275215149 2901.00002288818 162 161 157
249.920979142189 685.294449329376 2903.00011634827 160 159 155
258.424252271652 686.927437782288 2910.00008583069 149 148 144
266.690313816071 687.85160779953 2914.00003433228 170 169 165
275.354325771332 689.719319343567 2921.99993133545 149 148 144
283.09166431427 689.22621011734 2920.00007629395 149 150 145
291.61474108696 690.620839595795 2926.00011825562 153 154 149
300.681531429291 693.194806575775 2937.00003623962 169 170 165
-132.395446300507 696.594715118408 2983.99996757507 211 213 210
-124.284893274307 696.605026721954 2983.99996757507 181 180 176
-116.096094250679 696.147859096527 2982.00011253357 187 186 182
-107.773013412952 694.756209850311 2976.0000705719 185 184 180
-99.5492115616798 693.830668926239 2971.99988365173 193 192 188
-91.3776755332947 693.138122558594 2969.00010108948 149 148 144
-83.3063647150993 693.145155906677 2969.00010108948 139 138 133
-75.2094760537148 692.918121814728 2967.99993515015 137 136 131
-67.2082901000977 693.624258041382 2970.99995613098 128 127 122
-59.1309107840061 693.629443645477 2970.99995613098 111 110 105
-50.9330667555332 691.999614238739 2963.99998664856 150 149 144
-42.7008233964443 689.201831817627 2951.99990272522 159 158 153
-34.5454514026642 686.636805534363 2940.99998474121 175 174 170
-26.422718539834 683.37070941925 2927.00004577637 178 177 173
-18.3823462575674 680.337369441986 2914.00003433228 147 146 142
-10.4233836755157 678.00384759903 2904.00004386902 164 163 159
-2.52312235534191 676.836907863617 2898.9999294281 165 164 160
5.35180466249585 675.902962684631 2894.99998092651 149 148 144
13.2003976032138 674.734950065613 2890.00010490417 150 149 145
21.0436228662729 674.266517162323 2888.00001144409 154 153 149
28.9059262722731 674.497961997986 2888.99993896484 136 135 131
36.7481373250484 674.261748790741 2888.00001144409 135 134 130
44.4921515882015 672.624230384827 2881.00004196167 141 140 136
52.2342920303345 671.452939510345 2875.99992752075 147 146 142
60.0117482244968 670.981407165527 2874.00007247925 150 149 145
67.8725466132164 671.443164348602 2875.99992752075 142 141 137
75.6650790572166 671.203911304474 2875 157 156 152
83.3648592233658 670.263588428497 2871.00005149841 171 170 166
91.1061391234398 669.789552688599 2868.99995803833 150 149 145
98.8708063960075 669.548511505127 2868.00003051758 148 147 143
106.666907668114 669.540166854858 2868.00003051758 147 146 142
114.58246409893 670.231640338898 2871.00005149841 147 146 142
122.428745031357 670.455515384674 2871.99997901917 181 180 176
130.234807729721 670.445382595062 2871.99997901917 156 155 151
137.84821331501 669.500946998596 2868.00003051758 151 150 145
145.591855049133 669.256150722504 2867.00010299683 147 146 141
153.490155935287 669.711053371429 2868.99995803833 145 144 139
161.398887634277 670.165359973907 2871.00005149841 145 144 139
169.318065047264 670.619070529938 2872.99990653992 145 144 139
176.939412951469 669.905126094818 2869.99988555908 148 149 144
184.737056493759 669.890820980072 2869.99988555908 152 153 148
192.534208297729 669.875919818878 2869.99988555908 174 175 170
200.749665498734 671.260952949524 2875.99992752075 170 171 166
208.707138895988 671.71174287796 2878.00002098084 159 160 155
217.126280069351 673.562228679657 2885.99991798401 169 170 165
225.198581814766 674.245238304138 2888.99993896484 170 169 165
233.689963817596 676.094591617584 2897.0000743866 159 158 154
241.890594363213 677.009701728821 2901.00002288818 164 163 159
250.112354755402 677.924275398254 2904.99997138977 161 160 156
258.443981409073 679.071605205536 2910.00008583069 151 150 146
266.802132129669 680.218398571014 2914.99996185303 173 172 168
275.186717510223 681.3645362854 2920.00007629395 149 150 145
283.016055822372 681.110084056854 2918.99991035461 149 150 145
291.337639093399 682.021856307983 2923.00009727478 156 157 152
300.396859645844 684.566199779511 2934.00001525879 170 171 166
-132.583558559418 689.460456371307 2987.99991607666 210 212 209
-124.25322085619 688.317120075226 2983.00004005432 179 178 174
-116.105459630489 688.096046447754 2982.00011253357 185 184 180
-107.709258794785 686.259031295776 2973.99997711182 183 182 178
-99.5907559990883 686.036646366119 2973.00004959106 188 187 183
-91.4158523082733 685.352146625519 2970.00002861023 161 160 156
-83.3692252635956 685.589849948883 2970.99995613098 140 139 134
-75.2662569284439 685.365557670593 2970.00002861023 136 135 130
-67.2816261649132 686.294376850128 2973.99997711182 128 127 122
-59.1954290866852 686.299502849579 2973.99997711182 108 107 102
-50.9887635707855 684.688627719879 2967.00000762939 148 147 142
-42.7332296967506 681.69242143631 2953.9999961853 158 157 152
-34.5247685909271 678.233981132507 2938.99989128113 175 174 170
-26.3977851718664 674.774944782257 2924.00002479553 177 176 172
-18.3712262660265 672.00756072998 2911.99994087219 150 149 145
-10.4314126074314 670.624077320099 2905.99989891052 163 162 158
-2.5250690523535 669.470727443695 2901.00002288818 166 165 161
5.35408966243267 668.316721916199 2895.99990844727 149 148 144
13.2060404866934 667.162120342255 2891.00003242493 164 163 159
21.0672002285719 667.16080904007 2891.00003242493 142 141 137
28.9282947778702 667.158722877502 2891.00003242493 141 140 136
36.763858050108 666.694521903992 2888.99993896484 136 135 131
44.5421040058136 665.537297725677 2884.0000629425 140 139 135
52.25670337677 663.918018341064 2877.00009346008 147 146 142
60.0375048816204 663.451969623566 2875 149 148 144
67.807249724865 662.98520565033 2872.99990653992 142 141 137
75.6185725331306 662.979364395142 2872.99990653992 166 165 161
83.3425596356392 662.280678749084 2869.99988555908 161 160 156
91.1135077476501 662.042856216431 2868.99995803833 147 146 142
98.9477336406708 662.265956401825 2869.99988555908 147 146 142
106.675505638123 661.796152591705 2868.00003051758 150 149 145
114.511869847775 662.018001079559 2868.99995803833 147 146 142
122.268058359623 661.777794361115 2868.00003051758 171 170 166
130.154520273209 662.229120731354 2869.99988555908 154 153 149
137.859240174294 661.756992340088 2868.00003051758 150 149 144
145.705029368401 661.976277828217 2868.99995803833 147 146 141
153.555870056152 662.195146083832 2869.99988555908 146 145 140
161.46793961525 662.644147872925 2871.99997901917 146 145 140
169.331505894661 662.861704826355 2872.99990653992 146 145 140
177.015051245689 662.38659620285 2871.00005149841 148 149 144
184.816002845764 662.372291088104 2871.00005149841 152 153 148
192.683517932892 662.588119506836 2871.99997901917 175 176 171
200.905025005341 663.956940174103 2878.00002098084 171 172 167
208.941012620926 664.63303565979 2881.00004196167 159 160 155
217.218428850174 666.000664234161 2887.00008392334 170 171 166
225.294023752213 666.675508022308 2890.00010490417 170 169 165
233.627319335938 668.041825294495 2895.99990844727 160 159 155
242.159381508827 669.868886470795 2904.00004386902 164 163 159
250.303715467453 670.542001724243 2907.00006484985 161 160 156
258.730202913284 671.906530857086 2913.00010681152 150 151 146
266.822427511215 672.347784042358 2914.99996185303 172 173 168
275.396049022675 673.941731452942 2921.99993133545 148 149 144
283.328264951706 673.920571804047 2921.99993133545 149 150 145
291.857868432999 675.282835960388 2927.99997329712 156 158 153
-141.611322760582 685.712993144989 3006.99996948242 213 218 214
-132.594183087349 681.39111995697 2987.99991607666 201 203 200
-124.221533536911 680.033147335052 2982.00011253357 179 178 174
-116.075843572617 679.814755916595 2980.99994659424 178 177 173
-107.826605439186 678.911626338959 2976.99999809265 186 185 181
-99.5987802743912 678.00772190094 2973.00004959106 184 183 179
-91.4847925305367 677.787303924561 2971.99988365173 177 176 172
-83.4321081638336 678.022503852844 2973.00004959106 136 135 130
-75.4244178533554 678.713083267212 2976.0000705719 137 136 131
-67.4002021551132 679.403066635132 2979.00009155273 125 124 119
-59.3196675181389 679.636299610138 2980.00001907349 111 110 105
-51.078837364912 677.816152572632 2971.99988365173 142 141 136
-42.8235083818436 675.083220005035 2960.00003814697 152 151 146
-34.5745719969273 671.209156513214 2943.00007820129 168 167 163
-26.4270193874836 667.562484741211 2927.00004577637 183 182 178
-18.4042677283287 665.283620357513 2917.00005531311 156 155 151
-10.4502113536 663.916349411011 2911.00001335144 161 160 156
-2.53049773164093 663.004636764526 2907.00006484985 166 165 161
5.36007201299071 661.179840564728 2898.9999294281 155 154 150
13.2253896445036 660.266876220703 2894.99998092651 189 188 184
21.0834871977568 659.809291362762 2892.99988746643 135 134 130
28.9306472986937 659.351170063019 2891.00003242493 141 140 136
36.7413945496082 658.436238765717 2887.00008392334 139 138 134
44.5302799344063 657.520651817322 2882.99989700317 146 145 141
52.2972755134106 656.604409217834 2878.99994850159 143 142 138
60.0632540881634 655.915677547455 2875.99992752075 146 145 141
67.7419304847717 654.542088508606 2869.99988555908 160 159 155
75.5457282066345 654.536366462708 2869.99988555908 164 163 159
83.3202600479126 654.301822185516 2868.99995803833 145 144 140
91.2161394953728 654.97899055481 2871.99997901917 143 142 138
98.9901944994926 654.743313789368 2871.00005149841 158 157 153
106.68408870697 654.050827026367 2868.00003051758 150 149 145
114.401318132877 653.585851192474 2865.9999370575 179 178 174
122.149959206581 653.348386287689 2865.00000953674 149 148 144
130.028888583183 653.794348239899 2867.00010299683 157 156 152
137.966379523277 654.467761516571 2869.99988555908 150 149 144
145.818248391151 654.68442440033 2871.00005149841 148 147 142
153.728619217873 655.128598213196 2872.99990653992 147 146 141
161.480754613876 654.888093471527 2871.99997901917 149 148 143
169.344887137413 655.102908611298 2872.99990653992 148 147 142
176.905691623688 654.177248477936 2868.99995803833 148 149 144
184.959277510643 655.075013637543 2872.99990653992 153 154 149
192.832842469215 655.288219451904 2874.00007247925 176 177 172
201.060369610786 656.640827655792 2880.00011444092 171 172 167
209.102347493172 657.30881690979 2882.99989700317 159 160 155
217.461049556732 658.888220787048 2890.00010490417 171 172 167
225.545346736908 659.554898738861 2892.99988746643 170 169 165
233.726024627686 660.449206829071 2897.0000743866 160 159 155
242.094606161118 661.798775196075 2903.00011634827 165 164 160
250.23677945137 662.463665008545 2905.99989891052 146 145 141
258.57225060463 663.584053516388 2911.00001335144 149 150 145
266.934216022491 664.703905582428 2915.99988937378 172 173 168
275.416880846024 666.051030158997 2921.99993133545 148 149 144
283.543556928635 666.485846042633 2924.00002479553 149 150 145
291.879743337631 667.375981807709 2927.99997329712 156 158 153
-141.198739409447 675.562858581543 2997.99990653992 210 215 211
-132.604792714119 673.320353031158 2987.99991607666 195 197 194
-124.273143708706 672.203898429871 2983.00004005432 173 172 168
-116.163037717342 672.213554382324 2983.00004005432 176 175 171
-107.943937182426 671.546518802643 2980.00001907349 185 184 180
-99.7408106923103 670.878767967224 2976.99999809265 181 180 176
-91.5845185518265 670.435726642609 2974.99990463257 181 180 176
-83.5230350494385 670.668244361877 2976.0000705719 137 136 131
-75.5065530538559 671.350717544556 2979.00009155273 136 135 130
-67.4735307693481 672.032535076141 2982.00011253357 125 124 119
-59.4240091741085 672.713756561279 2984.99989509583 111 110 105
-51.151730120182 670.69000005722 2976.0000705719 138 137 132
-42.8703874349594 667.764008045197 2963.00005912781 153 152 147
-34.5891229808331 663.485109806061 2944.00000572205 172 171 167
-26.4562536031008 660.332441329956 2930.0000667572 181 180 176
-18.412072211504 657.629787921906 2917.99998283386 158 157 153
-10.4582402855158 656.504154205322 2913.00010681152 165 164 160
-2.5315738748759 655.377864837646 2907.99999237061 163 162 158
5.36420568823814 653.800070285797 2901.00002288818 173 172 168
13.2447369396687 653.348624706268 2898.9999294281 182 181 177
21.092489361763 652.22042798996 2894.00005340576 139 138 134
28.9229862391949 651.316821575165 2890.00010490417 144 143 139
36.6934612393379 649.73658323288 2882.99989700317 144 143 139
44.5184372365475 649.507939815521 2881.99996948242 152 151 147
52.2833503782749 648.602604866028 2878.00002098084 139 138 134
60.0681155920029 648.147225379944 2875.99992752075 146 145 141
67.7710175514221 647.015333175659 2871.00005149841 170 169 165
75.6308063864708 647.460222244263 2872.99990653992 158 157 153
83.3560302853584 646.777749061584 2869.99988555908 149 148 144
91.1282151937485 646.545350551605 2868.99995803833 145 144 140
98.9291816949844 646.537721157074 2868.99995803833 147 146 142
106.581062078476 645.628094673157 2865.00000953674 147 146 142
114.45040255785 646.069884300232 2867.00010299683 189 188 184
122.074455022812 645.159065723419 2862.99991607666 155 154 150
130.129978060722 646.501004695892 2868.99995803833 151 150 146
138.073533773422 647.16637134552 2871.99997901917 149 148 143
145.982220768929 647.605717182159 2874.00007247925 147 146 141
153.794318437576 647.593855857849 2874.00007247925 145 144 139
161.437302827835 646.905422210693 2871.00005149841 146 145 140
169.417232275009 647.568345069885 2874.00007247925 148 147 142
177.042961120605 646.878659725189 2871.00005149841 148 149 144
185.038208961487 647.540390491486 2874.00007247925 158 159 154
192.915037274361 647.750854492188 2875 173 174 169
201.076075434685 648.86200428009 2880.00011444092 168 169 164
209.33623611927 650.197803974152 2885.99991798401 163 164 159
217.628419399261 651.533007621765 2891.99995994568 170 171 166
225.874662399292 652.642250061035 2897.0000743866 169 168 164
233.986094594002 653.300404548645 2900.00009536743 164 163 159
242.279946804047 654.408395290375 2904.99997138977 164 163 159
250.428140163422 655.065417289734 2907.99999237061 150 151 146
258.858442306519 656.397521495819 2914.00003433228 150 151 146
267.229110002518 657.50378370285 2918.99991035461 175 176 171
275.720477104187 658.834755420685 2924.99995231628 150 151 146
283.855825662613 659.264206886292 2927.00004577637 152 154 149
292.499750852585 660.819232463837 2934.00001525879 167 169 164
-132.526621222496 664.802968502045 2986.00006103516 179 181 178
-124.32474642992 664.367854595184 2983.99996757507 163 162 158
-116.172336041927 664.154827594757 2983.00004005432 174 173 169
-108.025036752224 663.941204547882 2982.00011253357 182 181 177
-99.815845489502 663.281559944153 2979.00009155273 162 161 157
-91.6842445731163 663.066506385803 2977.9999256134 177 176 172
-83.5858955979347 663.073599338531 2977.9999256134 140 139 134
-75.5886808037758 663.970708847046 2982.00011253357 133 132 127
-67.5921216607094 665.089726448059 2986.99998855591 122 121 116
-59.5482587814331 665.985465049744 2990.9999370575 109 108 103
-51.2418113648891 663.763344287872 2980.99994659424 121 120 115
-42.8883247077465 659.981846809387 2963.99998664856 152 151 146
-34.5801748335361 655.308961868286 2943.00007820129 182 181 177
-26.4493636786938 652.194023132324 2928.99990081787 172 171 167
-18.4072535485029 649.523854255676 2917.00005531311 170 169 165
-10.4590877890587 648.634374141693 2913.00010681152 168 167 163
-2.53177876584232 647.521495819092 2907.99999237061 160 159 155
5.36833936348557 646.408081054688 2903.00011634827 189 188 184
13.2549488916993 645.961999893188 2901.00002288818 164 163 159
21.1087744683027 644.847273826599 2895.99990844727 140 139 135
28.9253275841475 643.509209156036 2890.00010490417 143 142 138
36.6709791123867 641.502618789673 2881.00004196167 151 150 146
44.4911494851112 641.276657581329 2880.00011444092 156 155 151
52.2330664098263 640.159368515015 2875 137 136 132
60.0520819425583 640.154898166656 2875 147 146 142
67.823700606823 639.704406261444 2872.99990653992 180 179 175
75.6632313132286 639.921307563782 2874.00007247925 151 150 146
83.3917781710625 639.246881008148 2871.00005149841 152 151 147
91.10376983881 638.571918010712 2868.00003051758 148 147 143
98.9026501774788 638.564348220825 2868.00003051758 145 144 140
106.58960044384 637.888133525848 2865.00000953674 162 161 157
114.499486982822 638.547241687775 2868.00003051758 191 190 186
122.212134301662 638.092517852783 2865.9999370575 159 158 154
130.185723304749 638.972997665405 2869.99988555908 150 149 145
138.084515929222 639.407575130463 2871.99997901917 149 148 143
145.993813872337 639.841616153717 2874.00007247925 147 146 141
153.806522488594 639.829754829407 2874.00007247925 146 145 140
161.450073122978 639.149487018585 2871.00005149841 147 146 141
169.312670826912 639.358997344971 2871.99997901917 148 147 142
176.995202898979 638.900101184845 2869.99988555908 149 150 145
184.92391705513 639.331161975861 2871.99997901917 161 162 157
192.795917391777 639.539003372192 2872.99990653992 174 175 170
201.091736555099 641.081869602203 2880.00011444092 167 168 163
209.425032138824 642.624080181122 2887.00008392334 162 163 158
217.795804142952 644.165694713593 2894.00005340576 170 171 166
225.89211165905 644.816279411316 2897.0000743866 168 169 164
234.084770083427 645.688891410828 2901.00002288818 163 164 159
242.46534705162 647.006094455719 2907.00006484985 163 164 159
250.791758298874 648.100078105927 2911.99994087219 151 152 147
259.14466381073 649.193525314331 2917.00005531311 151 152 147
267.524003982544 650.286257266998 2921.99993133545 175 176 171
275.741249322891 650.93332529068 2924.99995231628 151 153 148
283.97411108017 651.579916477203 2927.99997329712 153 155 150
292.8207218647 653.561174869537 2937.00003623962 168 170 165
-140.703037381172 656.94385766983 2986.99998855591 202 207 203
-132.448390126228 656.294822692871 2983.99996757507 175 177 174
-124.292992055416 656.085133552551 2983.00004005432 162 161 157
-116.06477200985 655.434846878052 2980.00001907349 174 173 169
-107.961229979992 655.443847179413 2980.00001907349 179 178 174
-99.8238399624825 655.232131481171 2979.00009155273 154 153 149
-91.6916057467461 655.019819736481 2977.9999256134 174 173 169
-83.6487486958504 655.466794967651 2980.00001907349 144 143 138
-75.6454542279243 656.352996826172 2983.99996757507 132 131 126
-67.7107200026512 658.118426799774 2992.00010299683 120 119 114
-59.6725195646286 659.223318099976 2996.99997901917 109 108 103
-51.3319037854671 656.808257102966 2986.00006103516 110 109 104
-42.9207235574722 652.41277217865 2966.00008010864 149 148 143
-34.571211785078 647.136747837067 2941.99991226196 180 179 175
-26.4515001326799 644.279658794403 2928.99990081787 164 163 159
-18.4024292975664 641.421914100647 2915.99988937378 172 171 167
-10.4563422501087 640.543162822723 2911.99994087219 162 161 157
-2.53024185076356 639.22393321991 2905.99989891052 157 156 152
5.36877242848277 638.563930988312 2903.00011634827 185 184 180
13.2514499127865 637.903273105621 2900.00009536743 146 145 141
21.1177691817284 637.241959571838 2897.0000743866 142 141 137
28.9576910436153 636.360049247742 2892.99988746643 145 144 140
36.7375835776329 634.817600250244 2885.99991798401 167 166 162
44.5101819932461 633.714616298676 2881.00004196167 154 153 149
52.2372759878635 632.390916347504 2875 153 152 148
60.0151345133781 631.946504116058 2872.99990653992 158 157 153
67.8763687610626 632.38126039505 2875 168 167 163
75.6166502833366 631.715655326843 2871.99997901917 146 145 141
83.3694264292717 631.269335746765 2869.99988555908 147 146 142
90.9839943051338 629.942655563354 2864.00008201599 147 146 142
98.8415777683258 630.37496805191 2865.9999370575 150 149 145
106.449291110039 629.266977310181 2861.00006103516 196 195 191
114.388845860958 630.137920379639 2865.00000953674 164 163 159
122.093930840492 629.688680171967 2862.99991607666 148 147 143
130.059987306595 630.558431148529 2867.00010299683 149 148 144
137.951239943504 630.987703800201 2868.99995803833 148 147 142
145.802155137062 631.19637966156 2869.99988555908 148 147 142
153.551056981087 630.964577198029 2868.99995803833 148 147 142
161.237820982933 630.512356758118 2867.00010299683 149 148 143
169.031202793121 630.499422550201 2867.00010299683 150 149 144
176.885738968849 630.705773830414 2868.00003051758 151 152 147
184.938386082649 631.571233272552 2871.99997901917 164 165 160
192.878067493439 631.996333599091 2874.00007247925 173 174 169
201.107382774353 633.300423622131 2880.00011444092 166 167 162
209.658905863762 635.483384132385 2890.00010490417 165 166 161
217.963129281998 636.786222457886 2895.99990844727 172 173 168
226.143419742584 637.648582458496 2900.00009536743 168 169 164
234.183430671692 638.070702552795 2901.99995040894 164 165 160
242.650702595711 639.591574668884 2908.99991989136 163 164 159
250.896990299225 640.452206134796 2913.00010681152 155 156 151
259.253174066544 641.532182693481 2917.99998283386 152 154 149
267.544209957123 642.391622066498 2921.99993133545 173 175 170
275.856286287308 643.250584602356 2926.00011825562 152 154 149
284.189373254776 644.108891487122 2930.0000667572 151 153 148
293.540507555008 647.164940834045 2944.00000572205 169 171 166
-140.714168548584 648.87148141861 2986.99998855591 200 205 201
-132.281333208084 647.361695766449 2980.00001907349 170 172 169
-124.177858233452 647.371828556061 2980.00001907349 162 161 157
-115.918204188347 646.512389183044 2976.0000705719 172 171 167
-107.897371053696 646.955788135529 2977.9999256134 176 175 171
-99.7982919216156 646.964073181152 2977.9999256134 151 150 146
-91.7605236172676 647.406160831451 2980.00001907349 170 169 165
-83.7115868926048 647.847712039948 2982.00011253357 150 149 144
-75.7022276520729 648.723065853119 2986.00006103516 131 130 125
-67.7840486168861 650.684118270874 2994.99988555908 117 116 111
-59.7768798470497 652.210056781769 3002.00009346008 109 108 103
-51.4047890901566 649.607360363007 2990.00000953674 100 99 94
-42.9675951600075 645.048797130585 2969.00010108948 145 144 139
-34.5975011587143 639.620363712311 2944.00000572205 176 175 171
-26.4807250350714 637.015581130981 2931.99992179871 158 157 153
-18.4417795389891 634.844779968262 2921.99993133545 171 170 166
-10.4751400649548 633.759617805481 2917.00005531311 157 156 152
-2.53218738362193 631.804764270782 2907.99999237061 159 158 154
5.36735588684678 630.50103187561 2901.99995040894 170 169 165
13.2433781400323 629.631280899048 2898.00000190735 147 146 142
21.1121775209904 629.195332527161 2895.99990844727 142 141 137
28.960021212697 628.541469573975 2892.99988746643 144 143 139
36.7660000920296 627.452552318573 2888.00001144409 160 159 155
44.5137619972229 625.928461551666 2881.00004196167 147 146 142
52.2051341831684 624.186515808105 2872.99990653992 162 161 157
59.9572770297527 623.530268669128 2869.99988555908 168 167 163
67.7637681365013 623.525083065033 2869.99988555908 154 153 149
75.5173787474632 623.084843158722 2868.00003051758 148 147 143
83.2308456301689 622.426807880402 2865.00000953674 145 144 140
90.991273522377 622.202515602112 2864.00008201599 149 148 144
98.8149866461754 622.412264347076 2865.00000953674 148 147 143
106.569409370422 622.186839580536 2864.00008201599 186 185 181
114.278145134449 621.743559837341 2861.99998855591 163 162 158
122.103616595268 621.951401233673 2862.99991607666 150 149 145
129.888817667961 621.941387653351 2862.99991607666 148 147 143
137.769788503647 622.365355491638 2865.00000953674 148 147 142
145.508840680122 622.136950492859 2864.00008201599 148 147 142
153.349041938782 622.342348098755 2865.00000953674 148 147 142
161.138013005257 622.330009937286 2865.00000953674 150 149 144
168.926507234573 622.31707572937 2865.00000953674 150 149 144
176.837876439095 622.738003730774 2867.00010299683 153 154 149
184.759631752968 623.15833568573 2868.99995803833 165 166 161
192.825958132744 624.012470245361 2872.99990653992 172 173 168
201.053142547607 625.300347805023 2878.99994850159 167 168 163
209.529995918274 627.239227294922 2888.00001144409 167 168 163
217.904627323151 628.74299287796 2894.99998092651 172 173 168
225.926831364632 629.160344600677 2897.0000743866 168 169 164
233.95924270153 629.577100276947 2898.9999294281 164 165 160
242.418929934502 631.079137325287 2905.99989891052 163 164 159
250.743746757507 632.146179676056 2911.00001335144 157 158 153
259.183913469315 633.429825305939 2917.00005531311 154 156 151
267.28966832161 633.844196796417 2918.99991035461 173 175 170
275.87702870369 635.343909263611 2926.00011825562 152 154 149
284.501612186432 636.842846870422 2933.00008773804 151 153 148
294.060915708542 640.295326709747 2948.99988174438 170 172 167
-150.940537452698 649.796426296234 3029.00004386902 210 215 211
-140.77240228653 641.012251377106 2987.99991607666 199 204 200
-132.291793823242 639.306843280792 2980.00001907349 169 171 168
-124.146029353142 639.102399349213 2979.00009155273 164 163 159
-116.005301475525 638.897299766541 2977.9999256134 166 165 161
-108.014635741711 639.549851417542 2980.99994659424 164 163 159
-99.9067798256874 639.558076858521 2980.99994659424 139 138 134
-91.7986333370209 639.565765857697 2980.99994659424 152 151 147
-83.7463364005089 640.001833438873 2983.00004005432 157 156 151
-75.7843405008316 641.295492649078 2989.00008201599 130 129 124
-67.9252743721008 643.87583732605 3000.99992752075 114 113 108
-59.9011443555355 645.382821559906 3007.99989700317 110 109 104
-51.5292659401894 643.027186393738 2996.99997901917 87 86 81
-43.1012958288193 638.954401016235 2977.9999256134 139 138 133
-34.6942953765392 633.378922939301 2951.99990272522 178 177 173
-26.5280120074749 630.163013935089 2937.00003623962 159 158 154
-18.4685084968805 627.804696559906 2926.00011825562 169 168 164
-10.4903457686305 626.733005046844 2921.0000038147 165 164 160
-2.53587402403355 624.802470207214 2911.99994087219 172 171 167
5.37333590909839 623.300433158875 2904.99997138977 145 144 140
13.2490107789636 622.012317180634 2898.9999294281 147 146 142
21.1138725280762 621.367275714874 2895.99990844727 143 142 138
28.9523359388113 620.507061481476 2891.99995994568 148 147 143
36.7562174797058 619.431614875793 2887.00008392334 146 145 141
44.5173308253288 618.140995502472 2881.00004196167 152 151 147
52.2638261318207 617.064297199249 2875.99992752075 162 161 157
60.0038655102253 616.201639175415 2871.99997901917 184 183 179
67.7691772580147 615.767359733582 2869.99988555908 142 141 137
75.5234137177467 615.33260345459 2868.00003051758 152 151 147
83.2084342837334 614.468097686768 2864.00008201599 151 150 146
90.9985154867172 614.461183547974 2864.00008201599 149 148 144
98.7193658947945 614.024519920349 2861.99998855591 149 148 144
106.577880680561 614.445447921753 2864.00008201599 168 167 163
114.247292280197 613.793075084686 2861.00006103516 152 151 147
122.113287448883 614.212810993195 2862.99991607666 146 145 141
129.899084568024 614.202857017517 2862.99991607666 149 148 144
137.684464454651 614.192306995392 2862.99991607666 149 148 143
145.418673753738 613.966703414917 2861.99998855591 149 148 143
153.146982192993 613.740503787994 2861.00006103516 149 148 143
161.094382405281 614.371716976166 2864.00008201599 151 150 145
168.821781873703 614.144206047058 2862.99991607666 151 150 145
176.789984107018 614.774346351624 2865.9999370575 160 161 156
184.773996472359 615.403831005096 2868.99995803833 169 170 165
192.975118756294 616.676151752472 2875 170 171 166
201.348021626472 618.376851081848 2882.99989700317 167 168 163
209.836378693581 620.291411876678 2891.99995994568 169 170 165
218.071922659874 621.347427368164 2897.0000743866 167 168 163
226.178109645844 621.973872184753 2900.00009536743 167 168 163
234.219193458557 622.385203838348 2901.99995040894 165 166 161
242.687627673149 623.868346214294 2908.99991989136 163 164 159
250.762760639191 624.278604984283 2911.00001335144 159 160 155
259.203493595123 625.546097755432 2917.00005531311 155 157 152
267.401337623596 626.169621944427 2920.00007629395 172 174 169
275.897651910782 627.435922622681 2926.00011825562 153 155 150
284.619837999344 629.130482673645 2934.00001525879 152 154 149
294.182449579239 632.539749145508 2950.00004768372 172 177 171
-140.73634147644 632.722496986389 2986.99998855591 192 194 191
-132.124617695808 630.403161048889 2976.0000705719 168 168 166
-123.947434127331 629.989564418793 2973.99997711182 163 160 155
-115.936569869518 630.422711372375 2976.0000705719 163 160 155
-107.986964285374 631.278872489929 2980.00001907349 160 159 154
-99.9817401170731 631.922662258148 2983.00004005432 145 144 139
-91.8059200048447 631.506562232971 2980.99994659424 146 145 140
-83.7249308824539 631.725370883942 2982.00011253357 160 159 154
-75.7650136947632 633.002698421478 2987.99991607666 126 125 120
-67.8854137659073 635.338842868805 2999.00007247925 114 115 107
-59.9855855107307 638.097941875458 3012.00008392334 98 99 91
-51.6709424555302 636.619448661804 3005.00011444092 86 87 79
-43.235007673502 632.809817790985 2986.99998855591 133 134 128
-34.7323305904865 626.03360414505 2954.99992370605 167 166 162
-26.5301316976547 622.222661972046 2937.00003623962 168 167 163
-18.488921225071 620.529532432556 2928.99990081787 165 164 160
-10.5055524036288 619.68332529068 2924.99995231628 167 166 162
-2.53956043161452 617.777109146118 2915.99988937378 185 184 180
5.37746539339423 615.870296955109 2907.00006484985 141 140 136
13.2592124864459 614.598393440247 2901.00002288818 148 147 143
21.1155600845814 613.537669181824 2895.99990844727 140 139 135
28.9446413516998 612.476468086243 2891.00003242493 161 160 156
36.7209576070309 610.990822315216 2884.0000629425 145 144 140
44.4899760186672 609.92830991745 2878.99994850159 155 154 150
52.2316545248032 608.865201473236 2874.00007247925 164 163 159
59.9877573549747 608.225166797638 2871.00005149841 186 185 181
67.7037388086319 607.372760772705 2867.00010299683 147 146 142
75.5030885338783 607.367038726807 2867.00010299683 146 145 141
83.1569358706474 606.301546096802 2861.99998855591 155 154 150
90.9421965479851 606.294572353363 2861.99998855591 144 143 139
98.6237078905106 605.651557445526 2858.99996757507 171 170 166
106.66074603796 607.126295566559 2865.9999370575 151 150 146
114.33619260788 606.482088565826 2862.99991607666 156 155 151
122.20823764801 606.89640045166 2865.00000953674 148 147 143
129.909321665764 606.462836265564 2862.99991607666 149 148 144
137.743398547173 606.664180755615 2864.00008201599 152 149 144
145.430073142052 606.229424476624 2861.99998855591 151 148 143
153.31956744194 606.641411781311 2864.00008201599 152 149 144
161.219447851181 607.052683830261 2865.9999370575 149 148 144
169.12978887558 607.463479042053 2868.00003051758 150 149 145
177.050471305847 607.873678207397 2869.99988555908 164 163 159
184.981524944305 608.283281326294 2871.99997901917 169 168 164
193.057149648666 609.115839004517 2875.99992752075 170 170 168
201.43336057663 610.794961452484 2884.0000629425 168 168 166
209.779933094978 612.261712551117 2891.00003242493 169 169 167
218.013346195221 613.304197788239 2895.99990844727 170 170 168
225.961372256279 613.499104976654 2897.0000743866 168 168 166
234.075605869293 614.116966724396 2900.00009536743 167 167 165
242.622584104538 615.79293012619 2907.99999237061 164 164 162
250.86784362793 616.621315479279 2911.99994087219 157 157 155
259.578406810761 618.507862091064 2921.0000038147 154 154 152
267.970860004425 619.546830654144 2926.00011825562 173 173 171
276.389688253403 620.585203170776 2930.99999427795 151 153 150
285.028964281082 622.046411037445 2937.99996376038 157 159 156
294.10445690155 624.35394525528 2948.99988174438 176 178 175
-149.867728352547 628.816962242126 3006.99996948242 213 215 212
-140.935853123665 625.482320785522 2990.9999370575 188 188 186
-132.312595844269 623.192667961121 2980.00001907349 165 166 161
-124.123901128769 622.784495353699 2977.9999256134 159 156 151
-116.062581539154 623.003005981445 2979.00009155273 158 157 152
-108.067974448204 623.639285564423 2982.00011253357 156 155 150
-100.023165345192 624.065697193146 2983.99996757507 143 142 137
-91.9055789709091 624.073266983032 2983.99996757507 141 140 135
-83.7877169251442 624.080181121826 2983.99996757507 166 165 160
-75.8470967411995 625.550508499146 2990.9999370575 146 145 140
-67.9813548922539 628.065943717957 3003.00002098084 113 114 108
-60.1098537445068 631.208181381226 3017.99988746643 95 96 88
-51.847018301487 630.585312843323 3015.00010490417 104 105 97
-43.3108247816563 625.778615474701 2992.00010299683 133 134 126
-34.7821153700352 618.879735469818 2959.00011062622 173 172 168
-26.5503097325563 614.699065685272 2938.99989128113 166 165 161
-18.4967089444399 612.818539142609 2930.0000667572 175 174 170
-10.5063887313008 611.773908138275 2924.99995231628 161 160 156
-2.54063401371241 610.101222991943 2917.00005531311 192 191 187
5.38344355300069 608.636975288391 2910.00008583069 153 152 148
13.2739813998342 607.381343841553 2904.00004386902 142 141 137
21.1464129388332 606.543362140656 2900.00009536743 157 156 152
28.9569552987814 604.868113994598 2891.99995994568 165 164 160
36.6856791079044 602.564871311188 2881.00004196167 152 151 147
44.4007888436317 600.888431072235 2872.99990653992 165 164 160
52.1812811493874 600.466310977936 2871.00005149841 180 179 175
59.9716231226921 600.252687931061 2869.99988555908 169 168 164
67.7799582481384 600.247621536255 2869.99988555908 147 146 142
75.5880773067474 600.241899490356 2869.99988555908 146 145 141
83.1925719976425 598.771631717682 2862.99991607666 151 150 146
90.8222794532776 597.719132900238 2858.00004005432 159 158 154
98.5625013709068 597.502529621124 2857.00011253357 203 202 198
106.557503342628 598.749279975891 2862.99991607666 156 155 151
114.345200359821 598.740577697754 2862.99991607666 157 156 152
122.175186872482 598.940432071686 2864.00008201599 143 142 138
129.964888095856 598.930537700653 2864.00008201599 151 150 146
137.706071138382 598.710954189301 2862.99991607666 150 147 142
145.441427826881 598.490834236145 2861.99998855591 148 147 142
153.331503272057 598.897397518158 2864.00008201599 150 149 144
161.231994628906 599.303364753723 2865.9999370575 150 149 145
169.201865792274 599.917888641357 2868.99995803833 151 150 146
177.064180374146 600.1136302948 2869.99988555908 164 163 159
185.12462079525 600.936055183411 2874.00007247925 169 168 164
193.206295371056 601.757884025574 2878.00002098084 170 170 168
201.518684625626 603.206336498261 2884.99999046326 168 168 166
209.795981645584 604.445040225983 2891.00003242493 169 169 167
217.954680323601 605.265080928802 2894.99998092651 170 170 168
226.056545972824 605.875432491302 2898.00000190735 168 168 166
234.093323349953 606.276154518127 2900.00009536743 168 168 166
242.557480931282 607.721567153931 2907.00006484985 165 165 163
250.800549983978 608.539223670959 2911.00001335144 159 159 157
259.59786772728 610.610544681549 2921.0000038147 155 155 153
268.265634775162 612.263143062592 2928.99990081787 172 172 170
276.787459850311 613.497078418732 2934.99994277954 153 155 152
285.147100687027 614.312410354614 2938.99989128113 156 158 155
293.826967477798 615.754187107086 2946.00009918213 175 177 174
-149.530485272408 619.239807128906 3000 212 214 211
-140.711233019829 616.361320018768 2986.00006103516 188 188 186
-132.234126329422 614.720523357391 2977.9999256134 167 168 163
-124.175310134888 614.936947822571 2979.00009155273 158 155 150
-116.071693599224 614.94642496109 2979.00009155273 156 155 150
-108.0402135849 615.368008613586 2980.99994659424 154 153 148
-99.96397793293 615.582585334778 2982.00011253357 143 142 137
-91.9436141848564 616.209387779236 2984.99989509583 140 139 134
-83.9347317814827 617.042124271393 2989.00008201599 144 143 138
-75.9291723370552 618.080615997314 2993.99995803833 155 154 149
-68.0320113897324 620.357155799866 3005.00011444092 110 111 105
-60.1345300674438 623.252391815186 3019.00005340576 101 102 94
-51.9371032714844 623.463273048401 3019.99998092651 98 99 91
-43.2853028178215 617.2736287117 2990.00000953674 142 143 137
-34.796629101038 611.083328723907 2960.00003814697 172 171 167
-26.5795215964317 607.369720935822 2941.99991226196 170 169 165
-18.5297429561615 605.926394462585 2934.99994277954 170 169 165
-10.5072222650051 603.863000869751 2924.99995231628 173 172 168
-2.54083564504981 602.211952209473 2917.00005531311 183 182 178
5.38202049210668 600.560188293457 2908.99991989136 151 150 146
13.275034725666 599.5272397995 2904.00004386902 144 143 139
21.1407970637083 598.493635654449 2898.9999294281 168 167 163
28.9292111992836 596.427142620087 2888.99993896484 157 156 152
36.6631150245667 594.360113143921 2878.99994850159 156 155 151
44.3424843251705 592.292487621307 2868.99995803833 166 165 161
52.1126985549927 591.875731945038 2867.00010299683 185 184 180
59.9554739892483 592.284202575684 2868.99995803833 155 154 150
67.7853152155876 592.48560667038 2869.99988555908 148 147 143
75.567714869976 592.273533344269 2868.99995803833 148 147 143
83.1700712442398 590.822219848633 2861.99998855591 148 147 143
90.82942456007 589.989602565765 2858.00004005432 179 178 174
98.6047461628914 589.982211589813 2858.00004005432 197 196 192
106.454193592072 590.387046337128 2859.99989509583 157 156 152
114.234320819378 590.37834405899 2859.99989509583 153 152 148
122.056767344475 590.575635433197 2861.00006103516 145 144 140
129.884272813797 590.772151947021 2861.99998855591 148 147 143
137.716799974442 590.968132019043 2862.99991607666 150 147 142
145.401924848557 590.54434299469 2861.00006103516 149 148 143
153.50404381752 591.771245002747 2867.00010299683 150 149 144
161.357000470161 591.965436935425 2868.00003051758 150 149 145
169.39190030098 592.778265476227 2871.99997901917 154 153 149
177.077800035477 592.352092266083 2869.99988555908 167 166 162
185.074433684349 592.957377433777 2872.99990653992 170 169 165
193.086802959442 593.562066555023 2875.99992752075 169 169 167
201.394349336624 594.991683959961 2882.99989700317 168 168 166
209.521666169167 595.801651477814 2887.00008392334 169 169 167
217.820644378662 597.023606300354 2892.99988746643 169 169 167
225.995644927025 597.832262516022 2897.0000743866 166 166 164
233.949512243271 598.021268844604 2898.00000190735 169 169 167
242.158457636833 598.828792572021 2901.99995040894 167 167 165
250.388503074646 599.635779857636 2905.99989891052 162 162 160
259.528338909149 602.505505084991 2920.00007629395 156 156 154
268.560349941254 604.961931705475 2931.99992179871 169 169 167
276.902288198471 605.767071247101 2936.00010871887 155 157 154
285.362213850021 606.777906417847 2940.99998474121 150 152 149
-149.043589830399 609.087944030762 2990.00000953674 209 211 208
-140.627890825272 607.876896858215 2983.99996757507 182 182 180
-132.288828492165 606.868922710419 2979.00009155273 166 167 162
-124.226659536362 607.082605361938 2980.00001907349 157 156 151
-116.158679127693 607.295691967011 2980.99994659424 154 153 148
-108.121149241924 607.711911201477 2983.00004005432 150 149 144
-100.105926394463 608.331203460693 2986.00006103516 145 144 139
-92.0740440487862 608.949840068817 2989.00008201599 142 141 136
-84.025576710701 609.567999839783 2992.00010299683 139 140 134
-76.061949133873 611.00035905838 2999.00007247925 161 162 156
-68.1505650281906 613.247156143188 3009.99999046326 94 95 89
-60.3583864867687 617.32691526413 3029.99997138977 110 111 105
-51.8723987042904 614.478945732117 3016.00003242493 220 221 215
-43.1728959083557 607.555568218231 2982.00011253357 159 160 154
-34.8111279308796 603.280007839203 2960.99996566772 166 165 161
-26.5906546264887 599.615097045898 2943.00007820129 175 174 170
-18.5375194996595 598.190665245056 2936.00010871887 158 157 153
-10.5044590309262 595.746874809265 2924.00002479553 192 191 187
-2.541036112234 594.321131706238 2917.00005531311 150 149 145
5.38429617881775 592.894911766052 2910.00008583069 141 140 136
13.2852243259549 592.079102993011 2905.99989891052 154 153 149
21.1570505052805 591.05908870697 2901.00002288818 173 172 168
28.9615355432034 589.223384857178 2891.99995994568 146 145 141
36.6914793848991 586.979687213898 2881.00004196167 159 158 154
44.3459749221802 584.531605243683 2868.99995803833 166 165 161
52.062276750803 583.509147167206 2864.00008201599 182 181 177
59.9183887243271 584.115922451019 2867.00010299683 144 143 139
67.7434056997299 584.3146443367 2868.00003051758 150 149 145
75.5209699273109 584.105312824249 2867.00010299683 151 150 146
83.2637846469879 583.691596984863 2865.00000953674 147 146 142
90.963676571846 583.073616027832 2861.99998855591 197 196 192
98.7504795193672 583.066165447235 2861.99998855591 174 173 169
106.425285339355 582.446992397308 2858.99996757507 156 155 151
114.203296601772 582.438409328461 2858.99996757507 148 147 143
121.98094278574 582.42928981781 2858.99996757507 149 148 144
129.84898686409 582.826912403107 2861.00006103516 144 143 139
137.583181262016 582.612872123718 2859.99989509583 150 149 144
145.464017987251 583.009302616119 2861.99998855591 150 149 144
153.515890240669 584.0163230896 2867.00010299683 151 150 145
161.594495177269 585.022628307343 2871.99997901917 150 149 145
169.404909014702 585.009932518005 2871.99997901917 154 153 149
176.967993378639 584.181904792786 2868.00003051758 167 168 163
185.024172067642 584.982812404633 2871.99997901917 170 171 166
193.168699741364 585.986852645874 2877.00009346008 169 169 167
201.479569077492 587.397575378418 2884.0000629425 169 169 167
209.537550806999 587.993025779724 2887.00008392334 170 170 168
217.76182949543 588.995158672333 2891.99995994568 169 169 167
226.090684533119 590.200424194336 2898.00000190735 165 165 163
234.047800302505 590.386807918549 2898.9999294281 169 169 167
242.176577448845 590.979933738709 2901.99995040894 166 166 164
250.493347644806 591.97986125946 2907.00006484985 163 163 161
259.547621011734 594.608128070831 2920.00007629395 156 156 154
268.580228090286 597.032189369202 2931.99992179871 167 167 165
277.205646038055 598.437428474426 2938.99989128113 153 155 152
285.771280527115 599.638402462006 2944.9999332428 149 151 148
-148.80582690239 599.993824958801 2984.99989509583 207 209 206
-140.403121709824 598.798930644989 2979.00009155273 181 181 179
-132.165834307671 598.206400871277 2976.0000705719 167 168 163
-124.069549143314 598.21629524231 2976.0000705719 157 156 151
-116.089768707752 598.828613758087 2979.00009155273 152 151 146
-108.129560947418 599.641382694244 2983.00004005432 148 147 142
-100.147232413292 600.453495979309 2986.99998855591 146 145 140
-92.0504182577133 600.661993026733 2987.99991607666 143 144 138
-84.0321332216263 601.472973823547 2992.00010299683 146 147 141
-76.1186182498932 603.288471698761 3000.99992752075 157 158 152
-68.314403295517 606.510579586029 3016.99995994568 114 115 110
-60.6818608939648 612.345576286316 3046.0000038147 199 201 196
-51.9624650478363 607.324123382568 3020.99990844727 218 220 215
-43.0025346577168 597.07510471344 2970.00002861023 165 166 161
-34.7550772130489 594.26361322403 2956.00008964539 173 172 168
-26.5656355768442 591.049432754517 2940.00005722046 174 173 169
-18.5010880231857 589.040815830231 2930.0000667572 168 167 163
-10.4980980977416 587.433576583862 2921.99993133545 187 186 182
-2.54123588092625 586.428999900818 2917.00005531311 146 145 141
5.38656953722239 585.222601890564 2911.00001335144 145 144 140
