ply
format ascii 1.0
comment KinectMotionCapture
element vertex 761
property float x
property float y
property float z
property uchar red
property uchar green
property uchar blue
end_header
245.143234729767 834.694504737854 2851.99999809265 198 197 193
252.964675426483 834.969520568848 2852.9999256134 149 148 144
260.791063308716 835.243999958038 2854.00009155273 148 147 143
268.622368574142 835.518002510071 2855.00001907349 137 136 132
276.652216911316 836.376786231995 2858.00004005432 150 149 145
284.299790859222 836.064577102661 2857.00011253357 135 134 130
291.737020015717 835.166752338409 2854.00009155273 138 137 133
299.157410860062 834.268569946289 2851.0000705719 156 155 151
306.668698787689 833.662688732147 2848.99997711182 148 147 143
314.278990030289 833.34892988205 2848.00004959106 152 151 147
321.996331214905 833.327531814575 2848.00004959106 138 137 133
329.713135957718 833.305656909943 2848.00004959106 133 132 128
336.955487728119 832.113087177277 2844.00010108948 135 134 130
344.296842813492 831.212878227234 2841.00008010864 141 140 136
351.497381925583 830.01971244812 2836.99989318848 150 149 145
358.802437782288 829.118967056274 2834.00011062622 140 139 135
365.961253643036 827.925384044647 2829.99992370605 133 132 128
373.36191534996 827.316641807556 2828.00006866455 133 132 128
380.75116276741 826.707720756531 2825.99997520447 134 133 129
387.716740369797 825.220942497253 2821.00009918213 137 138 132
394.65457201004 823.733866214752 2815.99998474121 132 133 127
401.993364095688 823.124289512634 2813.99989128113 134 135 129
409.466356039047 822.806894779205 2812.99996376038 135 136 130
416.636794805527 821.904540061951 2809.99994277954 130 131 125
423.79042506218 821.001827716827 2806.99992179871 132 133 127
430.927217006683 820.099055767059 2803.99990081787 132 133 127
438.360035419464 819.781064987183 2802.99997329712 140 141 135
445.945978164673 819.755494594574 2802.99997329712 143 144 138
453.531324863434 819.729685783386 2802.99997329712 144 145 139
460.622608661652 818.82631778717 2799.99995231628 139 140 134
467.69705414772 817.923069000244 2796.99993133545 131 132 127
474.584877490997 816.72728061676 2792.99998283386 139 140 135
481.623083353043 815.8238530159 2789.99996185303 154 155 150
488.81995677948 815.212905406952 2788.00010681152 149 150 145
495.649367570877 814.017117023468 2783.99991989136 143 144 139
503.179550170898 813.990831375122 2783.99991989136 115 116 111
509.05829668045 811.333179473877 2775.00009536743 121 122 117
516.004741191864 810.429871082306 2772.0000743866 120 121 116
523.312091827393 810.111284255981 2770.99990844727 121 122 117
530.613660812378 809.792876243591 2769.99998092651 121 122 117
537.715017795563 809.182047843933 2767.99988746643 118 119 114
543.623447418213 806.817531585693 2759.99999046326 116 118 115
550.686120986938 806.207001209259 2757.99989700317 117 119 116
557.332873344421 805.012047290802 2753.99994850159 120 122 119
565.188050270081 805.57107925415 2756.00004196167 131 133 130
573.053538799286 806.130051612854 2757.99989700317 145 147 144
582.823932170868 809.319853782654 2769.00005340576 185 187 184
592.866480350494 812.801599502563 2780.99989891052 194 196 193
601.89425945282 814.822196960449 2788.00010681152 198 200 197
611.615300178528 817.719697952271 2798.00009727478 200 202 199
-121.458150446415 847.249984741211 2921.0000038147 225 227 226
-112.559631466866 840.007483959198 2895.99990844727 237 239 238
-104.375049471855 837.405323982239 2887.00008392334 206 206 206
-96.4731425046921 836.832940578461 2884.99999046326 204 204 204
-88.5511711239815 835.969805717468 2881.99996948242 180 180 180
-80.6452929973602 835.106074810028 2878.99994850159 196 196 196
-72.8061199188232 834.821999073029 2878.00002098084 211 211 211
-64.9948045611382 834.827303886414 2878.00002098084 202 202 202
-57.2429448366165 835.702121257782 2881.00004196167 218 216 217
-49.4232214987278 835.706353187561 2881.00004196167 214 212 213
-41.6322723031044 836.290001869202 2882.99989700317 218 216 217
-33.7600149214268 835.132598876953 2878.99994850159 222 220 221
-25.9905084967613 836.585342884064 2884.0000629425 223 223 225
-18.1182287633419 834.556519985199 2877.00009346008 221 221 223
-10.2910771965981 833.107233047485 2871.99997901917 215 216 218
-2.48844129964709 830.787062644959 2864.00008201599 213 213 213
5.28184371069074 830.206751823425 2861.99998855591 203 202 200
13.0321402102709 829.04577255249 2858.00004005432 204 200 197
20.7825154066086 828.754365444183 2857.00011253357 206 197 192
28.577359393239 829.912781715393 2861.00006103516 199 189 180
36.4065580070019 831.360578536987 2865.9999370575 138 121 113
44.1549047827721 830.777406692505 2864.00008201599 154 134 123
51.8560297787189 829.613387584686 2859.99989509583 149 123 108
59.6395581960678 829.89913225174 2861.00006103516 140 113 94
67.4283877015114 830.184280872345 2861.99998855591 135 108 89
75.1962214708328 830.178797245026 2861.99998855591 133 107 90
82.8769356012344 829.302430152893 2858.99996757507 135 109 92
90.5411764979362 828.425586223602 2855.99994659424 130 109 92
98.1545448303223 827.258050441742 2851.99999809265 132 113 98
105.82023859024 826.670169830322 2849.99990463257 116 102 91
113.554529845715 826.661765575409 2849.99990463257 166 153 144
121.203474700451 826.072692871094 2848.00004959106 174 164 155
128.931865096092 826.06315612793 2848.00004959106 166 159 151
136.851891875267 827.213227748871 2851.99999809265 152 147 143
144.691973924637 827.7827501297 2854.00009155273 163 160 155
152.649417519569 828.931629657745 2858.00004005432 155 152 147
160.123124718666 827.469706535339 2852.9999256134 172 168 165
168.040066957474 828.327476978302 2855.99994659424 186 185 183
175.788298249245 828.314602375031 2855.99994659424 176 175 173
183.536171913147 828.301250934601 2855.99994659424 170 169 165
191.216707229614 827.997267246246 2855.00001907349 192 191 187
198.891401290894 827.692747116089 2854.00009155273 192 193 185
206.849932670593 828.547894954681 2857.00011253357 171 172 164
214.223340153694 827.082335948944 2851.99999809265 147 147 139
222.036212682724 827.356457710266 2852.9999256134 149 146 139
229.531899094582 826.470077037811 2849.99990463257 150 147 142
237.593621015549 827.613055706024 2854.00009155273 141 138 133
245.246767997742 827.305614948273 2852.9999256134 147 144 139
252.982705831528 827.28773355484 2852.9999256134 144 141 136
260.626792907715 826.979517936707 2851.99999809265 141 138 133
268.641322851181 827.830612659454 2855.00001907349 143 140 135
276.574820280075 828.391313552856 2857.00011253357 133 130 125
284.31960940361 828.371524810791 2857.00011253357 136 133 128
291.961669921875 828.061461448669 2855.99994659424 150 147 142
299.597769975662 827.751040458679 2855.00001907349 139 136 131
306.905001401901 826.570510864258 2851.0000705719 143 142 138
314.300328493118 825.679361820221 2848.00004959106 146 145 141
322.244197130203 826.237559318542 2849.99990463257 136 135 131
329.851001501083 825.925529003143 2848.99997711182 133 132 128
337.096452713013 824.743747711182 2845.00002861023 137 136 132
344.319581985474 823.561429977417 2841.00008010864 146 145 141
351.520448923111 822.378873825073 2836.99989318848 140 139 135
358.952403068542 821.775853633881 2835.00003814697 133 132 128
366.24351143837 820.882737636566 2832.00001716614 134 133 129
373.913884162903 820.858716964722 2832.00001716614 133 132 128
381.314247846603 820.254862308502 2829.99992370605 129 128 124
388.5657787323 819.36103105545 2826.99990272522 136 135 130
395.660251379013 818.176925182343 2822.99995422363 133 133 125
402.732521295547 816.992819309235 2819.00000572205 136 136 128
409.928113222122 816.09833240509 2815.99998474121 136 136 128
416.958570480347 814.913809299469 2812.00003623962 133 133 125
423.966825008392 813.729166984558 2808.00008773804 135 135 127
431.413859128952 813.413739204407 2806.99992179871 136 136 128
438.854962587357 813.098251819611 2805.99999427795 141 141 133
446.767359972 813.65180015564 2808.00008773804 141 141 133
453.880965709686 812.756299972534 2805.0000667572 131 131 123
460.977762937546 811.860859394073 2802.00004577637 130 130 122
467.388868331909 809.806406497955 2795.00007629395 130 131 126
474.611133337021 809.200525283813 2792.99998283386 143 144 139
481.649458408356 808.304846286774 2789.99996185303 139 140 135
489.547699689865 808.857798576355 2792.00005531311 133 134 129
496.387958526611 807.672441005707 2788.00010681152 126 127 122
504.290461540222 808.225095272064 2789.99996185303 114 115 110
510.368824005127 805.881023406982 2782.00006484985 112 113 108
517.334222793579 804.985404014587 2779.00004386902 115 116 111
524.28275346756 804.089844226837 2776.00002288818 119 120 115
531.406223773956 803.48402261734 2773.9999294281 120 121 116
538.129866123199 802.298963069916 2769.99998092651 120 121 116
544.831454753876 801.114022731781 2766.00003242493 134 136 133
552.109956741333 800.798058509827 2765.00010490417 139 144 140
561.001658439636 802.799105644226 2772.0000743866 147 152 148
570.135831832886 805.089712142944 2779.99997138977 164 169 165
578.481733798981 806.221961975098 2783.99991989136 177 182 178
589.374721050262 810.829102993011 2799.99995231628 198 203 199
-129.704669117928 841.38810634613 2927.99997329712 208 213 209
-120.926856994629 835.650444030762 2907.99999237061 213 215 212
-112.451657652855 831.348955631256 2892.99988746643 215 217 214
-104.346908628941 829.34582233429 2885.99991798401 195 195 193
-96.5140089392662 829.35357093811 2885.99991798401 189 189 187
-88.6194556951523 828.78589630127 2884.0000629425 166 166 164
-80.7075500488281 827.930390834808 2881.00004196167 187 187 185
-72.7611556649208 826.499402523041 2875.99992752075 212 212 210
-64.9546682834625 826.504826545715 2875.99992752075 205 205 203
-57.1281611919403 826.22218132019 2875 211 210 208
-49.3927448987961 827.375769615173 2878.99994850159 219 218 216
-41.5777452290058 827.379405498505 2878.99994850159 216 215 213
-33.7157361209393 826.232850551605 2875 221 219 220
-25.9294398128986 826.809883117676 2877.00009346008 222 220 221
-18.0818513035774 825.087249279022 2871.00005149841 221 221 221
-10.2739613503218 823.938846588135 2867.00010299683 213 213 213
-2.48429016210139 821.640253067017 2858.99996757507 209 209 209
5.27671817690134 821.640133857727 2858.99996757507 210 209 207
13.0285946652293 821.064710617065 2857.00011253357 202 198 195
20.7623094320297 820.201218128204 2854.00009155273 193 186 180
28.5196453332901 820.486605167389 2855.00001907349 199 190 185
36.2823493778706 820.771396160126 2855.99994659424 159 146 140
44.0812408924103 821.630418300629 2858.99996757507 128 111 101
51.8237873911858 821.339428424835 2858.00004005432 149 127 113
59.5816448330879 821.335077285767 2858.00004005432 139 113 96
67.3158094286919 821.042776107788 2857.00011253357 139 113 96
75.0706642866135 821.037232875824 2857.00011253357 131 108 92
82.7963650226593 820.743680000305 2855.99994659424 136 115 98
90.4530510306358 819.874882698059 2852.9999256134 135 117 103
98.024420440197 818.430781364441 2848.00004959106 122 106 93
105.716958642006 818.135499954224 2846.99988365173 156 143 134
113.403856754303 817.839741706848 2845.99995613098 173 164 157
121.212750673294 818.405508995056 2848.00004959106 167 160 152
128.851145505905 817.821085453033 2845.99995613098 154 149 145
136.766329407692 818.96036863327 2849.99990463257 154 151 146
144.500151276588 818.949699401855 2849.99990463257 162 158 155
152.393892407417 819.800436496735 2852.9999256134 149 145 142
159.910693764687 818.639278411865 2848.99997711182 193 189 188
167.817339301109 819.488883018494 2851.99999809265 177 176 174
175.432145595551 818.901240825653 2849.99990463257 160 159 155
183.357074856758 819.749772548676 2852.9999256134 160 159 155
190.896019339561 818.873822689056 2849.99990463257 195 194 190
198.697075247765 819.146573543549 2851.0000705719 142 142 134
206.430748105049 819.131553173065 2851.0000705719 148 148 140
214.08885717392 818.828642368317 2849.99990463257 153 153 145
221.741154789925 818.525373935699 2848.99997711182 139 136 129
229.46809232235 818.508863449097 2848.99997711182 142 139 132
237.444326281548 819.353640079498 2851.99999809265 145 142 135
245.26447057724 819.623410701752 2852.9999256134 150 147 140
253.089547157288 819.892704486847 2854.00009155273 145 142 135
260.919570922852 820.161521434784 2855.00001907349 138 135 128
268.84862780571 820.717096328735 2857.00011253357 136 133 126
276.691198348999 820.985019207001 2858.00004005432 133 130 123
284.339636564255 820.677936077118 2857.00011253357 135 132 125
291.879862546921 820.083022117615 2855.00001907349 138 135 128
299.618571996689 820.062398910522 2855.00001907349 136 133 126
307.141453027725 819.466888904572 2852.9999256134 135 134 129
314.652979373932 818.870961666107 2851.0000705719 134 133 128
322.153091430664 818.274676799774 2848.99997711182 134 133 128
329.873323440552 818.252444267273 2848.99997711182 135 134 129
337.237536907196 817.36820936203 2845.99995613098 141 140 135
344.463735818863 816.19668006897 2842.00000762939 143 142 137
351.791560649872 815.311908721924 2838.99998664856 135 134 129
358.975917100906 814.139604568481 2835.00003814697 133 132 127
366.39666557312 813.541531562805 2832.99994468689 132 131 126
373.806029558182 812.94310092926 2831.00008964539 133 132 127
381.338685750961 812.631487846375 2829.99992370605 133 132 127
388.865351676941 812.319695949554 2828.9999961853 132 132 124
396.245807409287 811.720550060272 2826.99990272522 134 134 126
403.329133987427 810.546875 2822.99995422363 136 136 128
410.24461388588 809.08590555191 2818.00007820129 134 134 126
417.428970336914 808.199048042297 2815.00005722046 132 132 124
424.596428871155 807.31201171875 2812.00003623962 132 132 124
432.208240032196 807.286143302917 2812.00003623962 135 135 127
439.663052558899 806.972920894623 2811.00010871887 122 122 114
447.270900011063 806.946516036987 2811.00010871887 123 123 115
454.554617404938 806.34605884552 2809.00001525879 130 130 122
461.497783660889 805.171310901642 2805.0000667572 131 131 123
467.917054891586 803.135335445404 2798.00009727478 130 131 126
475.147545337677 802.534520626068 2796.0000038147 126 128 123
482.36671090126 801.933705806732 2793.99991035461 115 117 112
490.100473165512 802.193760871887 2795.00007629395 113 115 110
497.482985258102 801.879703998566 2793.99991035461 112 114 109
505.22118806839 802.13987827301 2795.00007629395 104 106 101
512.046813964844 800.964832305908 2790.99988937378 100 102 97
518.850266933441 799.789845943451 2786.99994087219 104 106 101
525.82049369812 798.901915550232 2783.99991989136 120 122 117
533.157110214233 798.5879778862 2782.99999237061 154 156 151
540.682137012482 798.561096191406 2782.99999237061 165 167 162
547.812700271606 797.960221767426 2780.99989891052 193 198 194
556.529521942139 799.655020236969 2786.99994087219 194 199 195
565.480589866638 801.636517047882 2793.99991035461 196 201 197
576.315104961395 806.200265884399 2809.99994277954 200 205 201
-129.094421863556 829.519271850586 2914.00003433228 215 220 216
-120.478704571724 824.689507484436 2897.0000743866 202 204 201
-112.188220024109 821.567118167877 2885.99991798401 192 194 191
-104.354970157146 821.575462818146 2885.99991798401 195 195 193
-96.5214967727661 821.583390235901 2885.99991798401 192 192 190
-88.6570736765862 821.305871009827 2884.99999046326 165 165 163
-80.6858092546463 819.889008998871 2880.00011444092 192 192 190
-72.6656094193459 817.617475986481 2871.99997901917 200 200 198
-64.8242086172104 817.053556442261 2869.99988555908 204 204 202
-57.0133924484253 816.773593425751 2868.99995803833 210 209 207
-49.2593497037888 817.347228527069 2871.00005149841 214 213 211
-41.4365641772747 816.781282424927 2868.99995803833 217 216 214
-33.6245484650135 816.214978694916 2867.00010299683 219 217 218
-25.8864052593708 817.640721797943 2871.99997901917 220 218 219
-18.0706698447466 816.78831577301 2868.99995803833 216 216 214
-10.2604301646352 815.081238746643 2862.99991607666 211 211 209
-2.48013995587826 812.519490718842 2854.00009155273 207 207 205
5.26605639606714 812.23464012146 2852.9999256134 196 196 194
13.0068110302091 811.94931268692 2851.99999809265 198 197 195
20.7421090453863 811.663329601288 2851.0000705719 184 180 177
28.4519474953413 810.807287693024 2848.00004959106 185 181 178
36.1835546791554 810.804724693298 2848.00004959106 194 186 183
43.9613312482834 811.655700206757 2851.0000705719 187 178 173
51.7371669411659 812.22128868103 2852.9999256134 142 124 112
59.502899646759 812.501668930054 2854.00009155273 138 120 108
67.2267898917198 812.211930751801 2852.9999256134 141 123 111
75.0502273440361 813.060581684113 2855.99994659424 128 110 98
82.802802324295 813.054323196411 2855.99994659424 129 113 100
90.3966575860977 811.624228954315 2851.0000705719 122 110 98
97.9287475347519 809.908807277679 2845.00002861023 148 138 128
105.613730847836 809.616267681122 2844.00010108948 168 161 153
113.33291977644 809.607744216919 2844.00010108948 155 150 144
121.094383299351 809.88335609436 2845.00002861023 159 154 148
128.815770149231 809.873759746552 2845.00002861023 154 151 146
136.632844805717 810.432851314545 2846.99988365173 158 154 151
144.409775733948 810.706734657288 2848.00004959106 158 154 151
152.245223522186 811.264634132385 2849.99990463257 153 149 146
160.035088658333 811.537444591522 2851.0000705719 191 187 186
167.771205306053 811.524987220764 2851.0000705719 175 174 172
175.322264432907 810.658097267151 2848.00004959106 156 155 151
183.049499988556 810.644507408142 2848.00004959106 160 159 155
190.709352493286 810.345709323883 2846.99988365173 203 202 197
198.50280880928 810.615837574005 2848.00004959106 135 135 127
206.228867173195 810.600697994232 2848.00004959106 140 140 132
213.954478502274 810.585081577301 2848.00004959106 136 136 128
221.601814031601 810.284316539764 2846.99988365173 143 140 133
229.565471410751 811.12140417099 2849.99990463257 143 140 133
237.461686134338 811.673581600189 2851.99999809265 145 142 135
245.3683167696 812.225162982941 2854.00009155273 149 146 139
253.196567296982 812.491536140442 2855.00001907349 148 145 138
261.121183633804 813.042163848877 2857.00011253357 142 139 132
268.961995840073 813.307642936707 2858.00004005432 135 132 125
276.61406993866 813.003540039063 2857.00011253357 132 129 122
284.359753131866 812.983512878418 2857.00011253357 135 132 125
292.002618312836 812.678456306458 2855.99994659424 135 132 125
299.744516611099 812.657713890076 2855.99994659424 134 131 124
307.162821292877 811.782836914063 2852.9999256134 135 134 129
314.674735069275 811.192095279694 2851.0000705719 134 133 128
321.949005126953 810.031950473785 2846.99988365173 135 134 129
329.780042171478 810.294210910797 2848.00004959106 137 136 131
337.260365486145 809.702455997467 2845.99995613098 140 139 134
344.85051035881 809.394776821136 2845.00002861023 141 140 135
351.938933134079 807.94894695282 2839.99991416931 135 134 129
359.252959489822 807.07174539566 2836.99989318848 133 132 127
366.55005812645 806.194305419922 2834.00011062622 133 132 127
374.226480722427 806.169986724854 2834.00011062622 135 134 129
381.632834672928 805.57656288147 2832.00001716614 135 134 129
389.302641153336 805.551648139954 2832.00001716614 133 133 125
396.551311016083 804.673135280609 2828.9999961853 132 132 124
403.640270233154 803.510069847107 2825.00004768372 132 132 124
410.270184278488 801.493525505066 2818.00007820129 132 132 124
417.602986097336 800.898790359497 2815.99998474121 130 130 122
424.924403429031 800.304055213928 2813.99989128113 129 129 121
432.849228382111 800.846636295319 2815.99998474121 119 119 111
440.471440553665 800.820231437683 2815.99998474121 120 120 112
448.252141475677 801.077902317047 2816.99991226196 121 121 113
455.066740512848 799.62944984436 2812.00003623962 133 133 125
462.182700634003 798.749446868896 2809.00001525879 135 135 127
468.445599079132 796.447694301605 2801.00011825562 119 121 116
475.684285163879 795.851945877075 2799.00002479553 114 116 111
483.084291219711 795.540571212769 2798.00009727478 107 109 104
491.705775260925 797.219097614288 2803.99990081787 105 107 102
500.181138515472 798.613369464874 2809.00001525879 103 105 100
507.417559623718 798.017263412476 2806.99992179871 100 102 97
513.725280761719 795.999825000763 2799.99995231628 94 96 91
520.739257335663 795.11946439743 2796.99993133545 129 131 126
528.680860996246 795.660614967346 2799.00002479553 151 153 148
536.441147327423 795.917332172394 2799.99995231628 181 183 178
544.595062732697 796.742677688599 2802.99997329712 188 190 185
553.946614265442 799.273371696472 2812.00003623962 198 200 195
-137.248530983925 823.072135448456 2918.99991035461 210 215 211
-128.749951720238 819.41682100296 2905.99989891052 217 222 218
-120.44645100832 816.606760025024 2895.99990844727 198 200 197
-112.235814332962 814.077913761139 2887.00008392334 185 187 184
-104.399263858795 814.086437225342 2887.00008392334 194 194 192
-96.4955687522888 813.530266284943 2884.99999046326 193 193 191
-88.6332541704178 813.255548477173 2884.0000629425 165 165 163
-80.7201340794563 812.416195869446 2881.00004196167 194 194 192
-72.747215628624 810.730338096619 2875 192 192 190
-64.8292899131775 809.325695037842 2869.99988555908 205 205 203
-56.9383725523949 807.920515537262 2865.00000953674 211 210 208
-49.1602644324303 807.924747467041 2865.00000953674 212 211 209
-41.3676053285599 807.646334171295 2864.00008201599 218 217 215
-33.5802771151066 807.367205619812 2862.99991607666 218 216 217
-25.7622450590134 805.959522724152 2858.00004005432 217 215 216
-18.0091019719839 806.243181228638 2858.99996757507 211 211 209
-10.2289831265807 804.834425449371 2854.00009155273 207 207 205
-2.47946614399552 804.552853107452 2852.9999256134 203 203 201
5.25908824056387 803.424715995789 2848.99997711182 197 197 195
12.9987141117454 803.706109523773 2849.99990463257 189 189 187
20.7146387547255 802.858710289001 2846.99988365173 190 189 185
28.4042302519083 801.72872543335 2842.99993515015 185 184 180
36.1101627349854 801.444172859192 2842.00000762939 179 175 172
43.8722632825375 802.287042140961 2845.00002861023 190 182 179
51.6505539417267 803.129315376282 2848.00004959106 160 146 137
59.4241619110107 803.688943386078 2849.99990463257 127 113 104
67.1849399805069 803.965985774994 2851.0000705719 122 108 99
75.0035420060158 804.806351661682 2854.00009155273 131 117 106
82.7222838997841 804.518103599548 2852.9999256134 127 114 105
90.2451574802399 802.537500858307 2845.99995613098 155 145 135
97.798690199852 801.120221614838 2841.00008010864 165 156 147
105.584792792797 801.676154136658 2842.99993515015 154 149 143
113.341704010963 801.949620246887 2844.00010108948 145 142 137
121.018633246422 801.658630371094 2842.99993515015 146 145 140
128.644600510597 801.084995269775 2841.00008010864 150 149 145
136.451378464699 801.638662815094 2842.99993515015 150 149 145
144.167318940163 801.627814769745 2842.99993515015 161 160 156
152.043208479881 802.462339401245 2845.99995613098 161 160 156
159.822762012482 802.732288837433 2846.99988365173 175 174 170
167.548581957817 802.719831466675 2846.99988365173 161 160 156
175.089314579964 801.860928535461 2844.00010108948 153 152 147
182.806238532066 801.847338676453 2844.00010108948 147 146 141
190.522775053978 801.833212375641 2844.00010108948 143 142 137
198.448017239571 802.664279937744 2846.99988365173 203 202 197
206.244289875031 802.931070327759 2848.00004959106 152 151 146
214.045539498329 803.197264671326 2848.99997711182 147 146 141
221.773952245712 803.180932998657 2848.99997711182 143 142 137
229.985222220421 804.855704307556 2855.00001907349 144 143 138
237.645700573921 804.556548595428 2854.00009155273 144 143 138
245.472222566605 804.820537567139 2855.00001907349 147 146 141
253.126323223114 804.520487785339 2854.00009155273 138 137 132
261.414289474487 806.193053722382 2859.99989509583 129 128 123
269.263714551926 806.455671787262 2861.00006103516 130 129 124
276.92437171936 806.154131889343 2859.99989509583 130 129 124
284.479558467865 805.570244789124 2858.00004005432 131 130 125
292.227804660797 805.549681186676 2858.00004005432 126 125 120
299.975514411926 805.528700351715 2858.00004005432 127 126 121
307.399690151215 804.661810398102 2855.00001907349 131 130 125
315.027743577957 804.358124732971 2854.00009155273 132 131 126
322.197407484055 802.92671918869 2848.99997711182 136 135 130
329.802662134171 802.622437477112 2848.00004959106 136 135 130
337.638884782791 802.881300449371 2848.99997711182 134 133 128
345.35875916481 802.858054637909 2848.99997711182 133 132 127
352.706164121628 801.989078521729 2845.99995613098 132 131 126
359.65684056282 800.274312496185 2839.99991416931 133 132 127
366.833031177521 799.122989177704 2835.99996566772 135 134 129
374.383151531219 798.816740512848 2835.00003814697 135 134 129
381.657630205154 797.946512699127 2832.00001716614 133 132 127
389.465272426605 798.20328950882 2832.99994468689 130 131 125
396.857082843781 797.614336013794 2831.00008964539 130 131 125
404.237419366837 797.025263309479 2828.9999961853 128 129 123
411.023944616318 795.309066772461 2822.99995422363 124 125 119
418.370515108109 794.719576835632 2821.00009918213 115 116 110
426.158726215363 794.97504234314 2822.00002670288 112 113 107
433.797985315323 794.948518276215 2822.00002670288 115 116 110
441.123753786087 794.358372688293 2819.9999332428 126 127 121
448.597222566605 794.049859046936 2819.00000572205 131 132 126
455.902874469757 793.459534645081 2816.99991226196 124 125 119
463.526099920273 793.432235717773 2816.99991226196 115 116 110
470.14519572258 791.715085506439 2811.00010871887 110 112 109
477.41112112999 791.124403476715 2809.00001525879 99 101 98
485.183537006378 791.378438472748 2809.99994277954 91 93 90
493.837654590607 793.040573596954 2815.99998474121 97 99 96
502.345621585846 794.420838356018 2821.00009918213 106 108 105
509.252965450287 793.266594409943 2816.99991226196 139 141 138
516.872048377991 793.238699436188 2816.99991226196 162 164 161
524.490594863892 793.210744857788 2816.99991226196 200 202 199
533.241927623749 794.872164726257 2822.99995422363 203 205 202
542.408406734467 797.09666967392 2831.00008964539 205 207 204
-136.741936206818 812.139093875885 2907.99999237061 215 220 216
-128.582745790482 810.473740100861 2901.99995040894 209 214 210
-120.497427880764 809.087038040161 2897.0000743866 193 195 192
-112.438969314098 807.699680328369 2891.99995994568 181 183 180
-104.479752480984 806.870341300964 2888.99993896484 178 178 176
-96.5365692973137 806.040287017822 2885.99991798401 193 193 191
-88.5172858834267 804.371953010559 2880.00011444092 170 170 168
-80.5863738059998 803.26122045517 2875.99992752075 191 191 189
-72.7023333311081 802.429497241974 2872.99990653992 179 179 177
-64.7892206907272 801.038384437561 2868.00003051758 206 206 204
-56.8832382559776 799.367427825928 2861.99998855591 208 207 205
-49.0268692374229 797.975063323975 2857.00011253357 211 210 208
-41.3130894303322 798.816561698914 2859.99989509583 217 216 214
-33.5242822766304 798.260867595673 2858.00004005432 216 215 213
-25.6921667605639 796.028792858124 2849.99990463257 216 215 213
-17.9412327706814 795.471906661987 2848.00004959106 208 208 206
-10.208286345005 795.472979545593 2848.00004959106 203 204 199
-2.47792457230389 796.311497688293 2851.0000705719 199 200 195
5.25396596640348 794.914782047272 2845.99995613098 195 196 191
12.9632540047169 793.796896934509 2842.00000762939 187 188 183
20.6871703267097 794.074714183807 2842.99993515015 188 188 186
28.3964909613132 793.793559074402 2842.00000762939 182 182 180
36.1130200326443 793.791055679321 2842.00000762939 168 167 165
43.8294634222984 793.787837028503 2842.00000762939 179 174 171
51.582083106041 794.342696666718 2844.00010108948 187 177 168
59.3454353511333 794.896900653839 2845.99995613098 157 147 138
67.0959502458572 795.171141624451 2846.99988365173 134 124 115
74.8254656791687 795.165538787842 2846.99988365173 110 100 90
82.5258046388626 794.880092144012 2845.99995613098 132 122 113
90.0936871767044 793.47687959671 2841.00008010864 177 168 159
97.7719128131866 793.190062046051 2839.99991416931 170 163 155
105.555914342403 793.740808963776 2842.00000762939 147 144 137
113.310687243938 794.011533260345 2842.99993515015 144 143 138
120.985470712185 793.722987174988 2842.00000762939 150 150 148
128.564015030861 792.875409126282 2838.99998664856 151 151 149
136.221960186958 792.585849761963 2838.00005912781 143 142 138
143.975615501404 792.854368686676 2838.99998664856 173 172 167
151.787787675858 793.401420116425 2841.00008010864 167 166 161
159.666627645493 794.227182865143 2844.00010108948 169 168 163
167.267128825188 793.65611076355 2842.00000762939 157 156 151
174.917966127396 793.363749980927 2841.00008010864 143 142 137
182.627290487289 793.350100517273 2841.00008010864 158 157 152
190.40322303772 793.615102767944 2842.00000762939 142 141 137
198.323577642441 794.438123703003 2845.00002861023 200 196 193
206.18736743927 794.981241226196 2846.99988365173 192 188 185
214.136689901352 795.803070068359 2849.99990463257 159 158 154
221.790492534637 795.507609844208 2848.99997711182 156 155 150
229.84117269516 796.607613563538 2852.9999256134 149 150 144
237.66328394413 796.869456768036 2854.00009155273 146 147 141
245.318338274956 796.572327613831 2852.9999256134 146 147 141
253.056138753891 796.55396938324 2852.9999256134 138 139 133
261.159121990204 797.652006149292 2857.00011253357 130 131 125
269.094973802567 798.191010951996 2858.99996757507 129 130 124
276.94433927536 798.450410366058 2859.99989509583 130 131 125
284.599483013153 798.150897026062 2858.99996757507 129 130 124
292.55548119545 798.688590526581 2861.00006103516 124 125 119
300.20672082901 798.388183116913 2859.99989509583 131 132 126
307.529002428055 797.250032424927 2855.99994659424 131 130 125
315.16021490097 796.949028968811 2855.00001907349 132 131 126
322.559148073196 796.089231967926 2851.99999809265 136 135 130
330.172896385193 795.787453651428 2851.0000705719 136 135 130
337.780594825745 795.485198497772 2849.99990463257 134 133 128
345.503479242325 795.461714267731 2849.99990463257 133 132 127
353.101819753647 795.158803462982 2848.99997711182 132 131 126
360.187590122223 793.739259243011 2844.00010108948 133 132 127
367.116212844849 792.040288448334 2838.00005912781 135 134 129
374.671965837479 791.736423969269 2836.99989318848 134 133 128
382.221817970276 791.432321071625 2835.99996566772 131 130 125
390.177994966507 791.965126991272 2838.00005912781 128 129 124
397.303253412247 790.823400020599 2834.00011062622 128 129 124
404.834866523743 790.518462657928 2832.99994468689 121 122 117
411.778032779694 789.097189903259 2828.00006866455 117 118 113
419.879943132401 789.907932281494 2831.00008964539 116 117 112
427.393406629562 789.602339267731 2829.99992370605 118 119 114
434.900790452957 789.296507835388 2828.9999961853 127 128 123
441.463530063629 787.316501140594 2822.00002670288 124 125 120
449.101775884628 787.289440631866 2822.00002670288 127 128 123
456.739336252213 787.262082099915 2822.00002670288 109 110 105
465.528160333633 789.18731212616 2828.9999961853 100 101 96
472.514361143112 788.043856620789 2825.00004768372 91 93 90
480.158150196075 788.016080856323 2825.00004768372 89 91 88
487.801313400269 787.988126277924 2825.00004768372 104 106 103
496.847003698349 790.191471576691 2832.99994468689 120 122 119
505.401015281677 791.557848453522 2838.00005912781 139 141 138
512.173593044281 790.134966373444 2832.99994468689 182 184 181
520.386517047882 790.943384170532 2835.99996566772 192 194 191
531.594276428223 796.213746070862 2855.00001907349 208 210 207
-146.138444542885 812.593162059784 2937.99996376038 206 211 207
-136.329352855682 801.817536354065 2898.9999294281 212 217 213
-128.504171967506 802.104532718658 2900.00009536743 195 200 196
-120.590038597584 801.837563514709 2898.9999294281 189 191 188
-112.48667538166 800.187230110168 2892.99988746643 176 178 175
-104.379460215569 798.259615898132 2885.99991798401 165 165 163
-96.3769182562828 796.884536743164 2881.00004196167 194 194 192
-88.370569050312 795.232176780701 2875 173 173 171
-80.4806649684906 794.409096240997 2871.99997901917 186 186 184
-72.6574659347534 794.138491153717 2871.00005149841 175 175 173
-64.771756529808 793.037533760071 2867.00010299683 206 206 204
-56.8479932844639 791.106045246124 2859.99989509583 205 204 202
-48.9792674779892 789.450645446777 2854.00009155273 210 209 207
-41.2441417574883 789.730906486511 2855.00001907349 215 214 212
-33.4682911634445 789.1805768013 2852.9999256134 211 210 206
-25.622084736824 786.140143871307 2842.00000762939 208 207 203
-17.9048590362072 786.141872406006 2842.00000762939 200 201 196
-10.1911751553416 786.419570446014 2842.99993515015 196 197 192
-2.47899093665183 788.909673690796 2851.99999809265 193 194 189
5.25623047724366 787.526488304138 2846.99988365173 184 186 181
12.9688465967774 786.419272422791 2842.99993515015 188 190 185
20.6742621958256 785.864770412445 2841.00008010864 175 177 174
28.3887535333633 785.862684249878 2841.00008010864 174 176 173
36.1285954713821 786.413431167603 2842.99993515015 177 177 177
43.8329428434372 786.133646965027 2842.00000762939 171 170 168
51.5498928725719 786.129832267761 2842.00000762939 170 165 159
59.2875815927982 786.402106285095 2842.99993515015 171 166 162
66.9834241271019 786.120414733887 2842.00000762939 181 176 170
74.6473968029022 785.561561584473 2839.99991416931 174 170 161
82.2713226079941 784.725487232208 2836.99989318848 174 167 161
89.9422094225883 784.442186355591 2835.99996566772 146 141 135
97.6418852806091 784.434735774994 2835.99996566772 147 144 137
105.415627360344 784.979939460754 2838.00005912781 146 145 140
113.160133361816 785.247921943665 2838.99998664856 143 144 139
120.952367782593 785.79193353653 2841.00008010864 142 144 141
128.574043512344 785.228967666626 2838.99998664856 145 147 144
136.280551552773 785.21865606308 2838.99998664856 156 157 152
143.936067819595 784.931182861328 2838.00005912781 169 168 163
151.639237999916 784.919679164886 2838.00005912781 168 167 162
159.285932779312 784.631073474884 2836.99989318848 173 172 167
166.926845908165 784.341812133789 2835.99996566772 158 157 152
174.808248877525 785.158455371857 2838.99998664856 153 152 147
182.641252875328 785.697758197784 2841.00008010864 144 143 138
190.48473238945 786.236643791199 2842.99993515015 145 141 138
198.338642716408 786.774933338165 2845.00002861023 146 142 141
206.202954053879 787.312626838684 2846.99988365173 160 156 155
214.077696204185 787.849843502045 2848.99997711182 163 162 158
221.884980797768 788.1098985672 2849.99990463257 156 157 152
229.697212576866 788.369476795197 2851.0000705719 142 144 139
237.597674131393 788.905143737793 2852.9999256134 137 139 134
245.336472988129 788.887023925781 2852.9999256134 138 140 135
253.340899944305 789.69818353653 2855.99994659424 137 139 134
261.269688606262 790.232181549072 2858.00004005432 132 134 129
269.302904605865 791.042268276215 2861.00006103516 130 132 127
277.158141136169 791.298747062683 2861.99998855591 130 132 127
284.91872549057 791.27836227417 2861.99998855591 125 127 122
292.780965566635 791.533946990967 2862.99991607666 130 132 127
300.753027200699 792.065620422363 2865.00000953674 131 133 128
308.089286088943 790.938138961792 2861.00006103516 133 132 127
315.513610839844 790.08674621582 2858.00004005432 133 132 127
322.921067476273 789.234817028046 2855.00001907349 132 131 126
330.427467823029 788.659036159515 2852.9999256134 133 132 127
338.27805519104 788.912236690521 2854.00009155273 135 134 129
345.648497343063 788.059413433075 2851.0000705719 136 135 130
353.249847888947 787.759006023407 2849.99990463257 134 133 128
360.338598489761 786.352694034576 2845.00002861023 132 131 126
367.658317089081 785.498917102814 2842.00000762939 130 129 124
375.093191862106 784.921228885651 2839.99991416931 128 127 122
382.516652345657 784.343183040619 2838.00005912781 125 124 119
390.478581190109 784.870445728302 2839.99991416931 122 123 118
398.03010225296 784.568309783936 2838.99998664856 117 119 116
406.004250049591 785.094857215881 2841.00008010864 113 115 112
413.551688194275 784.792065620422 2839.99991416931 117 119 116
421.389788389206 785.041868686676 2841.00008010864 124 126 123
428.628444671631 784.185945987701 2838.00005912781 125 127 124
435.850262641907 783.329963684082 2835.00003814697 113 115 112
442.74228811264 781.92126750946 2829.99992370605 143 145 142
450.243175029755 781.617522239685 2828.9999961853 138 140 137
459.19468998909 783.800005912781 2836.99989318848 131 133 130
468.682676553726 786.811232566834 2848.00004959106 137 139 136
477.058559656143 787.88810968399 2851.99999809265 155 157 154
484.435558319092 787.30720281601 2849.99990463257 169 171 168
491.110473871231 785.621404647827 2844.00010108948 183 185 182
499.155312776566 786.145389080048 2845.99995613098 196 198 195
507.566571235657 787.221670150757 2849.99990463257 205 207 204
517.625987529755 790.783584117889 2862.99991607666 211 213 210
-144.806742668152 797.284126281738 2911.00001335144 205 210 206
-136.434093117714 794.556260108948 2901.00002288818 208 213 209
-128.381296992302 793.471157550812 2897.0000743866 186 188 185
-120.474725961685 793.206930160522 2895.99990844727 185 187 184
-112.301111221313 791.024923324585 2888.00001144409 172 172 170
-104.279197752476 789.663970470428 2882.99989700317 156 156 154
-96.2841734290123 788.302481174469 2878.00002098084 194 194 192
-88.3160829544067 786.940217018127 2872.99990653992 174 174 172
-80.4029703140259 785.851240158081 2868.99995803833 183 183 181
-72.5873112678528 785.583436489105 2868.00003051758 172 172 170
-64.7769123315811 785.314977169037 2867.00010299683 205 205 203
-56.8922758102417 783.95026922226 2861.99998855591 203 202 200
-48.9831753075123 781.763195991516 2854.00009155273 210 209 207
-41.2040911614895 781.219005584717 2851.99999809265 213 212 210
-33.4357656538486 780.674040317535 2849.99990463257 206 205 201
-25.6331451237202 778.758943080902 2842.99993515015 204 203 199
-17.899988219142 778.21284532547 2841.00008010864 196 197 192
-10.1884063333273 778.487980365753 2842.00000762939 193 194 189
-2.47658113949001 780.405879020691 2848.99997711182 191 192 187
5.25665050372481 779.857933521271 2846.99988365173 186 187 182
12.9653215408325 778.48756313324 2842.00000762939 182 184 179
20.6759143620729 778.212308883667 2841.00008010864 181 183 180
28.3810254186392 777.936398983002 2839.99991416931 179 179 177
36.1314788460732 778.75554561615 2842.99993515015 170 170 168
43.774738907814 777.382791042328 2838.00005912781 171 170 168
51.5177175402641 777.926862239838 2839.99991416931 162 159 154
59.2505931854248 778.196334838867 2841.00008010864 149 146 141
66.9416040182114 777.917385101318 2839.99991416931 158 155 150
74.5744630694389 777.090013027191 2836.99989318848 167 164 157
82.2198539972305 776.535987854004 2835.00003814697 162 157 151
89.9176150560379 776.529133319855 2835.00003814697 146 143 136
97.6840406656265 777.069509029388 2836.99989318848 149 146 139
105.386793613434 777.061462402344 2836.99989318848 141 140 135
113.16904425621 777.600646018982 2838.99998664856 139 140 134
120.961867272854 778.139233589172 2841.00008010864 147 149 144
128.67471575737 778.129458427429 2841.00008010864 147 149 144
136.339232325554 777.845084667206 2839.99991416931 166 167 162
143.998026847839 777.560293674469 2838.99998664856 158 157 152
151.651054620743 777.274966239929 2838.00005912781 164 163 158
159.35443341732 777.26274728775 2838.00005912781 176 175 170
166.93976521492 776.702404022217 2835.99996566772 157 156 151
174.821719527245 777.510702610016 2838.99998664856 151 150 145
182.655304670334 778.044700622559 2841.00008010864 151 150 145
190.432295203209 778.304159641266 2842.00000762939 142 138 135
198.144614696503 778.289318084717 2842.00000762939 146 142 141
205.856502056122 778.27388048172 2842.00000762939 144 140 139
213.793337345123 779.079496860504 2845.00002861023 148 147 143
221.668124198914 779.610574245453 2846.99988365173 145 146 141
229.472756385803 779.86752986908 2848.00004959106 141 142 137
237.282261252403 780.123710632324 2848.99997711182 140 141 135
245.268732309341 780.927121639252 2851.99999809265 142 143 138
253.625810146332 782.825350761414 2858.99996757507 136 137 132
261.380344629288 782.806158065796 2858.99996757507 128 130 125
269.322633743286 783.334374427795 2861.00006103516 131 133 128
276.887804269791 782.766699790955 2858.99996757507 130 132 127
285.138517618179 784.115135669708 2864.00008201599 125 127 122
293.108880519867 784.641623497009 2865.9999370575 132 134 129
300.879597663879 784.62028503418 2865.9999370575 128 129 124
308.111250400543 783.229649066925 2861.00006103516 130 131 125
315.535962581635 782.386124134064 2858.00004005432 130 129 124
323.056936264038 781.815946102142 2855.99994659424 129 128 123
330.798089504242 781.792879104614 2855.99994659424 130 129 124
338.301569223404 781.2220454216 2854.00009155273 134 133 128
345.551043748856 780.103325843811 2849.99990463257 136 135 130
352.902203798294 779.258131980896 2846.99988365173 132 131 126
360.616445541382 779.233694076538 2846.99988365173 130 129 124
368.20062994957 778.935194015503 2845.99995613098 126 125 120
376.04296207428 779.183804988861 2846.99988365173 124 123 118
383.350878953934 778.337299823761 2844.00010108948 121 120 115
391.466826200485 779.132544994354 2846.99988365173 117 119 116
399.037569761276 778.832793235779 2845.99995613098 114 116 113
407.173961400986 779.627442359924 2848.99997711182 118 120 117
414.452075958252 778.779864311218 2845.99995613098 126 128 125
422.009974718094 778.479397296906 2845.00002861023 121 123 120
429.561823606491 778.178751468658 2844.00010108948 114 116 113
437.261253595352 778.151333332062 2844.00010108948 122 124 121
444.80362534523 777.850151062012 2842.99993515015 187 189 186
453.135669231415 778.916716575623 2846.99988365173 181 183 180
461.974412202835 780.803859233856 2854.00009155273 178 180 177
472.166895866394 784.879148006439 2868.99995803833 186 188 185
480.599790811539 785.944819450378 2872.99990653992 189 191 188
488.033831119537 785.368978977203 2871.00005149841 202 204 201
-145.017102360725 790.526509284973 2914.99996185303 214 216 213
-136.632949113846 787.825584411621 2904.99997138977 179 179 177
-128.480046987534 786.208868026733 2898.9999294281 183 183 181
-120.442643761635 785.133898258209 2894.99998092651 185 184 180
-112.193331122398 782.431066036224 2884.99999046326 171 170 166
-104.178942739964 781.083643436432 2880.00011444092 161 160 156
-96.1914584040642 779.735565185547 2875 172 171 167
-88.3538573980331 779.471755027771 2874.00007247925 180 179 175
-80.4373994469643 778.393507003784 2869.99988555908 184 183 179
-72.5677907466888 777.586042881012 2867.00010299683 169 168 164
-64.7142976522446 776.777863502502 2864.00008201599 207 206 202
-56.8769499659538 775.96914768219 2861.00006103516 201 200 196
-48.9870980381966 774.074733257294 2854.00009155273 194 193 189
-41.1640405654907 772.722184658051 2848.99997711182 198 197 193
-33.3680510520935 771.369099617004 2844.00010108948 194 193 191
-25.5991350859404 770.015299320221 2838.99998664856 191 190 188
-17.8888216614723 770.017027854919 2838.99998664856 187 186 184
-10.1748816668987 769.746899604797 2838.00005912781 187 186 184
-2.47156387194991 771.103620529175 2842.99993515015 187 186 184
5.24599384516478 770.561099052429 2841.00008010864 185 184 180
12.9526741802692 770.017862319946 2838.99998664856 184 183 179
20.6484608352184 769.474029541016 2836.99989318848 180 179 175
28.3433254808187 769.200801849365 2835.99996566772 178 177 173
36.0708273947239 769.740700721741 2838.00005912781 170 169 165
43.7473952770233 769.195020198822 2835.99996566772 167 166 162
51.4855645596981 769.733726978302 2838.00005912781 162 161 157
59.2136047780514 770.000398159027 2838.99998664856 157 156 152
66.9469460844994 770.266652107239 2839.99991416931 150 149 145
74.6066942811012 769.718587398529 2838.00005912781 148 147 142
82.2843983769417 769.440948963165 2836.99989318848 147 146 141
90.0199189782143 769.705355167389 2838.00005912781 143 142 137
97.6573526859283 769.155502319336 2835.99996566772 144 143 138
105.357989668846 769.147455692291 2835.99996566772 145 145 137
113.018527626991 768.867671489716 2835.00003814697 145 145 137
120.886243879795 769.943058490753 2838.99998664856 147 147 139
128.548949956894 769.662141799927 2838.00005912781 149 149 141
136.301919817925 769.922852516174 2838.99998664856 158 157 153
143.907845020294 769.369542598724 2836.99989318848 156 155 151
151.60945057869 769.357919692993 2836.99989318848 164 163 159
159.198388457298 768.803358078003 2835.00003814697 165 164 160
166.834980249405 768.519520759583 2834.00011062622 163 162 158
174.650505185127 769.048571586609 2835.99996566772 165 164 160
182.476505637169 769.577145576477 2838.00005912781 164 163 159
190.312922000885 770.105004310608 2839.99991416931 160 159 155
198.020339012146 770.089983940125 2839.99991416931 152 151 147
205.87220788002 770.616948604584 2842.00000762939 149 148 144
213.809564709663 771.414279937744 2845.00002861023 145 144 139
221.762776374817 772.211194038391 2848.00004959106 145 142 137
229.570642113686 772.465288639069 2848.99997711182 143 140 133
237.300097942352 772.447645664215 2848.99997711182 144 141 134
245.545089244843 774.056255817413 2855.00001907349 143 143 135
254.088282585144 776.477634906769 2864.00008201599 139 139 131
262.039721012115 777.000665664673 2865.9999370575 137 137 129
269.624888896942 776.438772678375 2864.00008201599 130 129 124
277.198642492294 775.876402854919 2861.99998855591 128 129 123
285.457998514175 777.211308479309 2867.00010299683 128 129 123
293.232440948486 777.190208435059 2867.00010299683 129 130 124
300.901263952255 776.897549629211 2865.9999370575 129 130 124
308.025628328323 775.249183177948 2859.99989509583 134 135 130
315.558433532715 774.68466758728 2858.00004005432 128 129 124
323.079824447632 774.119913578033 2855.99994659424 134 135 130
331.053048372269 774.638772010803 2858.00004005432 130 131 126
338.680893182755 774.344265460968 2857.00011253357 127 128 123
346.302628517151 774.049282073975 2855.99994659424 132 133 128
353.91828417778 773.754000663757 2855.00001907349 129 130 125
361.527889966965 773.458361625671 2854.00009155273 128 129 124
369.00195479393 772.891342639923 2851.99999809265 125 126 121
376.596689224243 772.5949883461 2851.0000705719 118 119 114
384.320139884949 772.569358348846 2851.0000705719 115 116 111
392.042934894562 772.543430328369 2851.0000705719 109 111 108
399.905234575272 772.788107395172 2851.99999809265 117 119 116
407.772213220596 773.032486438751 2852.9999256134 129 131 128
415.498375892639 773.005604743958 2852.9999256134 125 127 124
423.223793506622 772.978484630585 2852.9999256134 124 126 123
431.250661611557 773.493051528931 2855.00001907349 146 148 145
440.210163593292 775.632619857788 2862.99991607666 188 190 187
-145.0285166502 782.672345638275 2914.99996185303 216 218 215
-136.784851551056 780.804038047791 2907.99999237061 170 170 168
-128.623157739639 779.203414916992 2901.99995040894 177 177 175
-120.618604123592 778.40781211853 2898.9999294281 181 180 176
-112.435601651669 776.269018650055 2891.00003242493 172 171 167
-104.404285550117 774.935126304626 2885.99991798401 166 165 161
-96.2660387158394 772.526502609253 2877.00009346008 162 161 157
-88.3609056472778 771.728217601776 2874.00007247925 177 176 172
-80.4158002138138 770.392298698425 2868.99995803833 185 184 180
-72.5989118218422 770.129978656769 2868.00003051758 158 157 153
-64.7420883178711 769.329965114594 2865.00000953674 201 200 196
-56.8815097212791 768.260717391968 2861.00006103516 196 195 191
-49.0081906318665 766.653776168823 2855.00001907349 189 188 184
-41.1817990243435 765.314757823944 2849.99990463257 188 187 183
