ply
format ascii 1.0
comment KinectMotionCapture
element vertex 794
property float x
property float y
property float z
property uchar red
property uchar green
property uchar blue
end_header
586.576759815216 211.176738142967 2450.99997520447 25 21 9
592.968106269836 211.074709892273 2450.00004768372 28 24 12
599.842369556427 211.144953966141 2450.99997520447 30 26 14
606.226325035095 211.042925715446 2450.00004768372 35 31 19
612.854063510895 211.027100682259 2450.00004768372 46 42 30
620.492279529572 211.355775594711 2453.9999961853 51 47 35
627.384543418884 211.426079273224 2454.99992370605 40 36 24
635.572552680969 211.926981806755 2460.99996566772 39 35 23
640.921592712402 211.480662226677 2456.00008964539 28 26 14
653.361737728119 213.359177112579 2477.9999256134 27 27 19
662.190854549408 214.032188057899 2486.00006103516 27 28 22
660.568594932556 211.347654461861 2454.99992370605 28 31 24
669.649004936218 212.106883525848 2463.99998664856 27 30 23
687.834918498993 215.706586837769 2506.00004196167 21 24 17
703.47535610199 218.445166945457 2538.00010681152 18 21 14
710.611820220947 218.515440821648 2539.00003433228 21 24 17
708.145141601563 215.659871697426 2506.00004196167 29 34 27
716.625511646271 216.160774230957 2512.00008392334 30 35 28
729.745507240295 218.038469552994 2533.99991989136 29 34 27
413.911253213882 204.975008964539 2451.99990272522 195 196 198
418.861120939255 204.125300049782 2441.99991226196 194 198 201
423.581302165985 203.191980719566 2430.99999427795 175 178 183
429.125308990479 202.676564455032 2424.99995231628 177 180 185
435.174554586411 202.411830425262 2421.99993133545 175 178 183
441.753596067429 202.397719025612 2421.99993133545 173 176 181
448.146343231201 202.299922704697 2421.0000038147 159 162 167
454.532533884048 202.202066779137 2420.00007629395 158 162 165
460.912048816681 202.104106545448 2418.99991035461 154 155 157
467.671573162079 202.173158526421 2420.00007629395 148 150 149
474.827349185944 202.409192919731 2423.00009727478 142 144 143
482.395499944687 202.812150120735 2427.99997329712 130 132 127
490.996658802032 203.632608056068 2437.99996376038 92 94 89
501.283824443817 205.121010541916 2456.00008964539 16 15 11
508.97878408432 205.523490905762 2460.99996566772 15 14 9
514.604508876801 205.090776085854 2456.00008964539 13 12 7
520.201921463013 204.658031463623 2450.99997520447 16 15 10
528.780460357666 205.394253134727 2460.00003814697 19 19 11
536.971271038055 205.963328480721 2467.00000762939 15 15 5
543.876707553864 206.031382083893 2467.99993515015 15 15 5
548.555731773376 205.264672636986 2459.00011062622 18 18 6
553.636372089386 204.664930701256 2451.99990272522 21 21 9
561.648488044739 205.150291323662 2457.99994468689 24 24 12
568.536102771759 205.218270421028 2459.00011062622 28 28 16
574.492394924164 204.95243370533 2456.00008964539 28 26 14
579.958140850067 204.519703984261 2450.99997520447 21 19 7
586.353182792664 204.420819878578 2450.00004768372 21 19 7
592.01568365097 204.071670770645 2446.00009918213 25 23 11
599.12383556366 204.223081469536 2447.99995422363 27 25 13
606.984317302704 204.624757170677 2453.00006866455 31 29 17
615.121066570282 205.109789967537 2459.00011062622 35 33 21
623.03638458252 205.51136136055 2463.99998664856 36 34 22
628.677845001221 205.162301659584 2460.00003814697 34 32 20
637.137651443481 205.730691552162 2467.00000762939 34 32 20
643.285810947418 205.548509955406 2464.99991416931 33 30 21
653.904616832733 206.783920526505 2480.00001907349 27 27 19
657.411634922028 205.768033862114 2467.99993515015 30 31 25
665.158271789551 206.086277961731 2471.99988365173 41 44 37
671.02324962616 205.821022391319 2469.00010108948 44 47 40
681.811809539795 207.056254148483 2483.99996757507 42 45 38
696.284174919128 209.374949336052 2512.00008392334 40 43 36
713.705956935883 212.526813149452 2549.99995231628 29 32 25
715.507626533508 211.011409759521 2532.00006484985 18 23 16
716.640710830688 209.329634904861 2512.00008392334 40 45 38
724.576950073242 209.648042917252 2516.00003242493 47 52 45
736.603796482086 211.132988333702 2533.99991989136 48 53 46
730.830490589142 207.535669207573 2490.9999370575 78 83 79
411.576747894287 200.403988361359 2477.9999256134 194 198 199
415.275305509567 198.934927582741 2460.00003814697 196 200 203
419.389367103577 197.708532214165 2444.9999332428 194 199 203
424.291968345642 196.886464953423 2434.99994277954 190 195 201
429.669976234436 196.306943893433 2427.99997329712 178 183 189
435.727477073669 196.050778031349 2424.99995231628 158 163 169
442.132383584976 195.956215262413 2424.00002479553 159 164 170
448.345512151718 195.780709385872 2421.99993133545 162 165 170
454.734474420547 195.685997605324 2421.0000038147 155 159 162
461.307406425476 195.672005414963 2421.0000038147 147 148 150
468.2657122612 195.819556713104 2423.00009727478 142 144 143
475.429713726044 196.047842502594 2426.00011825562 139 141 140
483.204782009125 196.518376469612 2431.99992179871 132 134 129
492.219775915146 197.473585605621 2444.00000572205 43 46 39
502.931594848633 199.074938893318 2463.99998664856 20 19 14
509.200572967529 198.898658156395 2461.99989318848 10 9 4
514.200329780579 198.237672448158 2453.9999961853 12 11 6
518.30667257309 197.253599762917 2441.99991226196 18 17 12
527.290821075439 198.127344250679 2453.00006866455 23 23 15
535.898089408875 198.839336633682 2461.99989318848 19 19 9
543.010413646698 198.985904455185 2463.99998664856 20 20 10
547.455430030823 198.163390159607 2453.9999961853 25 25 15
553.199946880341 197.825461626053 2450.00004768372 27 27 15
559.607207775116 197.729766368866 2448.99988174438 29 29 17
566.470503807068 197.795525193214 2450.00004768372 29 29 17
572.870194911957 197.699800133705 2448.99988174438 31 31 21
579.026877880096 197.523355484009 2447.00002670288 32 32 24
584.932386875153 197.266235947609 2444.00000572205 33 33 23
590.336501598358 196.847707033157 2438.99989128113 31 31 21
597.670495510101 197.074875235558 2441.99991226196 30 30 22
606.257140636444 197.705522179604 2450.00004768372 31 31 23
615.136325359344 198.416769504547 2459.00011062622 27 27 17
620.522975921631 197.998329997063 2453.9999961853 25 25 17
626.393020153046 197.741359472275 2450.99997520447 29 29 21
636.119842529297 198.694542050362 2463.00005912781 26 26 16
645.127773284912 199.40559566021 2471.99988365173 28 28 20
651.546716690063 199.310004711151 2470.99995613098 28 29 23
658.758580684662 199.456438422203 2473.00004959106 30 31 25
665.980458259583 199.602901935577 2474.99990463257 36 39 32
673.212468624115 199.749425053596 2476.99999809265 39 42 35
681.552290916443 200.218513607979 2483.00004005432 41 44 37
708.40322971344 204.059183597565 2530.99989891052 45 48 41
713.827013969421 203.641325235367 2526.00002288818 39 44 37
705.529093742371 199.354201555252 2473.00004959106 23 28 21
717.391669750214 200.790837407112 2490.9999370575 56 61 54
721.502363681793 200.051203370094 2482.00011253357 53 58 51
414.782047271729 191.991031169891 2457.00001716614 173 181 184
419.402599334717 191.040381789207 2444.9999332428 166 173 179
424.305289983749 190.246015787125 2434.99994277954 156 163 169
430.214256048203 189.920350909233 2430.99999427795 149 156 162
436.280012130737 189.672768115997 2427.99997329712 147 152 158
442.693144083023 189.581349492073 2427.00004577637 155 160 166
448.544263839722 189.255490899086 2423.00009727478 169 174 178
455.311715602875 189.320117235184 2424.00002479553 163 166 171
461.892873048782 189.306542277336 2424.00002479553 165 166 168
469.245910644531 189.605221152306 2427.99997329712 167 169 168
476.423561573029 189.825713634491 2430.99999427795 158 158 156
484.21236872673 190.280348062515 2437.00003623962 105 106 100
494.248062372208 191.593632102013 2453.9999961853 46 47 41
501.721322536469 191.891774535179 2457.99994468689 16 15 10
509.21505689621 192.189782857895 2461.99989318848 13 12 7
514.84352350235 191.785201430321 2457.00001716614 17 16 11
519.382417201996 190.99035859108 2447.00002670288 13 12 7
525.37077665329 190.741911530495 2444.00000572205 18 18 10
537.001132965088 192.522451281548 2467.00000762939 17 17 7
544.788241386414 192.898094654083 2471.99988365173 19 19 9
551.039695739746 192.727476358414 2470.00002861023 25 25 15
554.117918014526 191.464528441429 2453.9999961853 26 26 14
560.307502746582 191.293954849243 2451.99990272522 25 25 13
566.716432571411 191.201388835907 2450.99997520447 24 24 14
573.820650577545 191.342875361443 2453.00006866455 29 29 21
581.407964229584 191.640272736549 2457.00001716614 32 32 24
584.707736968994 190.533801913261 2443.00007820129 33 34 26
589.383065700531 189.895406365395 2434.99994277954 32 33 25
594.014048576355 189.257100224495 2427.00004577637 31 31 23
603.549897670746 190.178394317627 2438.99989128113 31 31 23
611.898958683014 190.709725022316 2446.00009918213 28 29 21
616.744816303253 190.149500966072 2438.99989128113 28 28 20
623.596429824829 190.213054418564 2440.00005722046 30 30 22
630.968987941742 190.432518720627 2443.00007820129 27 28 20
640.966832637787 191.431432962418 2456.00008964539 26 27 19
649.451971054077 191.962614655495 2463.00005912781 18 19 13
656.908631324768 192.182034254074 2466.00008010864 21 24 17
666.264176368713 192.946940660477 2476.0000705719 25 28 21
670.237302780151 192.153409123421 2466.00008010864 30 33 26
679.919838905334 192.996248602867 2476.99999809265 40 43 36
686.611950397491 192.982017993927 2476.99999809265 43 46 39
688.825070858002 191.72140955925 2460.99996566772 33 36 29
685.581803321838 188.981056213379 2426.00011825562 39 44 37
708.110809326172 193.329349160194 2482.00011253357 25 30 23
711.357831954956 192.3808157444 2470.00002861023 52 57 50
729.365170001984 195.40448486805 2509.0000629425 48 53 46
737.606823444366 195.779994130135 2513.99993896484 46 51 47
409.277260303497 185.82957983017 2463.99998664856 194 199 202
414.626032114029 185.213714838028 2456.00008964539 186 194 197
419.415414333344 184.371620416641 2444.9999332428 182 189 195
425.189465284348 183.981955051422 2440.00005722046 176 183 189
431.28913640976 183.743000030518 2437.00003623962 171 178 184
437.191545963287 183.428600430489 2433.00008773804 150 155 161
443.253517150879 183.189511299133 2430.0000667572 140 145 151
449.298053979874 182.950362563133 2427.00004577637 123 128 132
455.888569355011 182.937294244766 2427.00004577637 124 128 131
462.668478488922 182.999476790428 2427.99997329712 120 122 121
469.839245080948 183.212354779243 2430.99999427795 118 120 117
478.004992008209 183.801844716072 2438.99989128113 103 104 99
486.809134483337 184.617295861244 2450.00004768372 32 33 27
497.68590927124 186.186000704765 2470.99995613098 0 1 0
503.164112567902 185.720175504684 2464.99991416931 9 10 4
508.608639240265 185.254350304604 2459.00011062622 15 16 10
516.114890575409 185.541838407516 2463.00005912781 13 14 8
520.033299922943 184.548690915108 2450.00004768372 18 19 13
523.880124092102 183.555632829666 2437.00003623962 12 13 5
534.185588359833 184.822127223015 2453.9999961853 18 19 11
542.15794801712 185.259997844696 2460.00003814697 20 21 13
547.484517097473 184.794142842293 2453.9999961853 24 26 15
551.874101161957 184.027105569839 2444.00000572205 26 28 17
557.808101177216 183.787196874619 2440.99998474121 26 28 17
568.580567836761 185.128346085548 2459.00011062622 25 26 18
575.706481933594 185.264766216278 2460.99996566772 25 28 21
583.552122116089 185.626983642578 2466.00008010864 23 26 19
586.397469043732 184.408470988274 2450.00004768372 22 25 18
589.397311210632 183.265432715416 2434.99994277954 20 23 16
594.762444496155 182.875141501427 2430.0000667572 20 23 16
603.069186210632 183.387920260429 2437.00003623962 19 22 15
609.661638736725 183.37394297123 2437.00003623962 22 25 18
615.241765975952 183.059021830559 2433.00008773804 21 24 17
623.099386692047 183.421239256859 2437.99996376038 22 25 18
629.175126552582 183.256879448891 2436.00010871887 27 30 23
637.84921169281 183.844789862633 2444.00000572205 29 32 25
647.092878818512 184.583067893982 2453.9999961853 33 34 28
656.389951705933 185.321301221848 2463.99998664856 31 34 27
663.318276405334 185.382604598999 2464.99991416931 31 34 27
672.153949737549 185.970395803452 2473.00004959106 33 36 29
682.953357696533 187.08448112011 2487.99991607666 41 44 37
688.566386699677 186.769902706146 2483.99996757507 43 46 39
692.197680473328 185.929134488106 2473.00004959106 53 56 49
696.899354457855 185.389295220375 2466.00008010864 30 35 28
708.124577999115 186.57860159874 2482.00011253357 37 42 35
720.587611198425 188.068479299545 2502.00009346008 54 59 52
731.995165348053 189.257577061653 2517.99988746643 57 62 55
744.662225246429 190.747261047363 2538.00010681152 49 54 50
409.455597400665 179.1802495718 2464.99991416931 193 197 198
414.63840007782 178.51397395134 2456.00008964539 186 190 193
419.770896434784 177.847668528557 2447.00002670288 180 185 189
425.376206636429 177.399337291718 2440.99998474121 178 183 187
431.4786195755 177.168995141983 2437.99996376038 176 181 185
437.563538551331 176.938578486443 2434.99994277954 162 165 170
443.813532590866 176.780790090561 2433.00008773804 156 159 164
449.866235256195 176.550224423409 2430.0000667572 155 159 162
456.464976072311 176.537573337555 2430.0000667572 147 148 152
463.253200054169 176.597461104393 2430.99999427795 132 134 133
470.625430345535 176.875188946724 2434.99994277954 131 133 130
479.782164096832 177.806481719017 2447.99995422363 126 127 122
489.206880331039 178.810223937035 2461.99989318848 9 10 4
499.512195587158 180.104210972786 2480.00001907349 12 13 5
504.402458667755 179.437294602394 2470.99995613098 13 14 8
511.311113834381 179.496511816978 2471.99988365173 13 14 8
518.014490604401 179.483070969582 2471.99988365173 12 13 7
523.443102836609 179.033949971199 2466.00008010864 14 15 9
526.903331279755 177.931532263756 2450.99997520447 15 16 10
534.199357032776 178.135827183723 2453.9999961853 20 21 13
539.526998996735 177.686765789986 2447.99995422363 23 24 16
544.374823570251 177.092626690865 2440.00005722046 28 29 21
548.952281475067 176.425948739052 2430.99999427795 29 30 22
556.907832622528 176.847875118256 2437.00003623962 30 31 23
568.132042884827 178.285583853722 2457.00001716614 31 32 24
573.848962783813 177.981704473495 2453.00006866455 31 34 27
580.489695072174 177.968040108681 2453.00006866455 27 29 24
584.017872810364 177.01131105423 2440.00005722046 28 30 25
590.137243270874 176.852643489838 2437.99996376038 27 29 24
597.223818302155 176.984131336212 2440.00005722046 27 29 24
606.052577495575 177.623316645622 2448.99988174438 25 27 22
612.427294254303 177.537202835083 2447.99995422363 25 27 22
618.79575252533 177.451118826866 2447.00002670288 26 28 23
625.413417816162 177.437573671341 2447.00002670288 26 28 23
629.705488681793 176.771506667137 2437.99996376038 25 27 22
637.862920761108 177.193075418472 2444.00000572205 24 26 21
648.688852787018 178.339585661888 2460.00003814697 29 30 24
656.403660774231 178.61607670784 2463.99998664856 28 31 24
661.179184913635 178.095236420631 2457.00001716614 30 33 26
668.362319469452 178.226858377457 2459.00011062622 36 39 32
681.594431400299 179.952919483185 2483.00004005432 46 49 42
688.579916954041 180.012047290802 2483.99996757507 48 51 44
689.132153987885 178.404554724693 2461.99989318848 46 49 42
703.130006790161 180.275350809097 2487.99991607666 43 48 41
715.841174125671 181.783705949783 2509.0000629425 39 44 37
725.49706697464 182.495012879372 2519.00005340576 39 44 37
730.264246463776 181.974783539772 2512.00008392334 51 56 49
737.046778202057 181.96177482605 2512.00008392334 56 61 57
747.382164001465 182.818055152893 2523.9999294281 77 82 78
410.630285739899 172.9446798563 2471.99988365173 192 194 191
415.32564163208 172.093480825424 2460.00003814697 177 178 180
420.469135046005 171.45211994648 2450.99997520447 181 182 184
426.085352897644 171.020567417145 2444.9999332428 181 182 184
432.021766901016 170.728862285614 2440.99998474121 178 179 181
438.11497092247 170.507073402405 2437.99996376038 163 164 166
444.008231163025 170.215249061584 2434.00001525879 156 157 159
450.61919093132 170.203119516373 2434.00001525879 153 153 153
456.853151321411 170.051008462906 2431.99992179871 153 153 153
463.837444782257 170.178547501564 2434.00001525879 126 126 124
470.831423997879 170.305967330933 2436.00010871887 127 128 123
479.598999023438 171.062469482422 2447.00002670288 120 121 116
489.418566226959 172.168284654617 2463.00005912781 13 14 6
499.928176403046 173.483550548553 2482.00011253357 9 10 2
505.232095718384 172.981396317482 2474.99990463257 13 14 8
512.56537437439 173.178106546402 2477.9999256134 13 14 8
518.656373023987 172.955453395844 2474.99990463257 13 14 8
524.093210697174 172.52317070961 2469.00010108948 16 17 11
525.841653347015 170.903071761131 2446.00009918213 18 19 13
532.253384590149 170.820221304893 2444.9999332428 21 22 16
537.556707859039 170.38805782795 2438.99989128113 23 24 18
543.495655059814 170.165479183197 2436.00010871887 26 27 21
547.836482524872 169.453948736191 2426.00011825562 26 27 21
558.520793914795 170.698150992393 2444.00000572205 26 27 21
567.914187908173 171.523109078407 2456.00008964539 26 27 21
575.266003608704 171.719416975975 2459.00011062622 22 24 19
578.846573829651 170.798450708389 2446.00009918213 23 25 20
582.355678081512 169.877618551254 2433.00008773804 23 25 20
591.360926628113 170.562699437141 2443.00007820129 19 21 16
597.971558570862 170.549586415291 2443.00007820129 20 22 17
606.313467025757 171.025097370148 2450.00004768372 26 28 23
612.440705299377 170.87234556675 2447.99995422363 26 28 23
618.556201457977 170.719653367996 2446.00009918213 27 29 24
625.426650047302 170.7763671875 2447.00002670288 30 32 27
630.235254764557 170.274823904037 2440.00005722046 31 33 28
639.180958271027 170.88982462883 2448.99988174438 34 36 31
647.383570671082 171.29547894001 2454.99992370605 29 30 24
653.486490249634 171.142980456352 2453.00006866455 30 33 26
655.272006988525 169.874310493469 2434.99994277954 29 32 25
664.026439189911 170.419588685036 2443.00007820129 26 29 22
675.842821598053 171.732112765312 2461.99989318848 28 31 24
683.325946331024 171.928554773331 2464.99991416931 29 32 25
691.944181919098 172.404021024704 2471.99988365173 45 48 41
700.034260749817 172.740012407303 2476.99999809265 44 49 42
714.427649974823 174.610137939453 2503.99994850159 44 49 42
722.917795181274 175.015792250633 2509.99999046326 38 43 36
724.753499031067 173.817873001099 2493.00003051758 46 51 44
731.484591960907 173.805385828018 2493.00003051758 59 64 60
733.181357383728 172.607928514481 2476.0000705719 69 74 70
416.518986225128 165.852233767509 2467.00000762939 165 165 163
421.681553125381 165.235832333565 2457.99994468689 167 167 165
426.794081926346 164.619401097298 2448.99988174438 177 176 174
432.387501001358 164.204612374306 2443.00007820129 174 173 171
438.306450843811 163.924217224121 2438.99989128113 165 164 162
444.567412137985 163.778156042099 2437.00003623962 160 160 158
451.001405715942 163.699224591255 2436.00010871887 155 155 155
457.428753376007 163.620218634605 2434.99994277954 140 140 140
464.230716228485 163.675531744957 2436.00010871887 128 128 126
471.423447132111 163.865119218826 2438.99989128113 127 128 123
480.003267526627 164.524868130684 2448.99988174438 105 106 100
489.232361316681 165.386006236076 2461.99989318848 15 16 8
498.530805110931 166.24690592289 2474.99990463257 15 16 8
505.857169628143 166.43600165844 2477.9999256134 12 13 7
510.0958943367 165.61758518219 2466.00008010864 12 13 7
518.878757953644 166.276663541794 2476.0000705719 13 14 8
524.742782115936 165.995463728905 2471.99988365173 16 17 11
524.779438972473 163.901373744011 2440.99998474121 18 19 13
531.177699565887 163.821741938591 2440.00005722046 22 23 17
538.671493530273 164.077773690224 2444.00000572205 23 24 18
543.285250663757 163.46101462841 2434.99994277954 26 27 21
548.752546310425 163.112863898277 2430.0000667572 26 27 21
558.076560497284 163.90572488308 2441.99991226196 27 28 22
569.083333015442 165.168270468712 2460.99996566772 27 28 22
576.448678970337 165.356859564781 2463.99998664856 22 24 19
578.149497509003 163.934946060181 2443.00007820129 23 25 20
582.129180431366 163.184180855751 2431.99992179871 23 25 20
588.226914405823 163.03738951683 2430.0000667572 16 18 13
596.515715122223 163.494423031807 2437.00003623962 18 20 15
605.336546897888 164.085566997528 2446.00009918213 20 22 17
612.703800201416 164.274141192436 2448.99988174438 20 22 17
618.06321144104 163.926109671593 2444.00000572205 23 25 20
624.1614818573 163.779377937317 2441.99991226196 26 28 23
631.022870540619 163.833886384964 2443.00007820129 28 30 25
638.149797916412 163.955464959145 2444.9999332428 32 34 29
643.440783023834 163.607686758041 2440.00005722046 30 31 25
644.974112510681 162.321344017982 2421.0000038147 33 36 29
651.247918605804 162.242025136948 2420.00007629395 31 34 27
659.690022468567 162.699028849602 2427.00004577637 24 27 20
672.012329101563 164.094462990761 2447.99995422363 25 28 21
682.22963809967 164.953529834747 2460.99996566772 27 30 23
689.997315406799 165.209338068962 2464.99991416931 38 41 34
699.19890165329 165.800273418427 2473.99997711182 34 39 32
714.154899120331 167.731434106827 2503.00002098084 36 41 34
723.794400691986 168.38926076889 2513.00001144409 35 40 33
726.510107517242 167.43902862072 2499.00007247925 39 44 37
731.79018497467 167.091965675354 2493.99995803833 43 48 44
743.261456489563 168.151915073395 2509.99999046326 42 47 43
752.129137516022 168.608918786049 2516.99995994568 44 49 45
417.374312877655 159.44330394268 2471.99988365173 126 121 115
422.722160816193 158.916369080544 2463.99998664856 103 96 90
428.373873233795 158.518373966217 2457.99994468689 171 164 158
433.814764022827 158.055856823921 2450.99997520447 176 169 163
439.755529165268 157.786756753922 2447.00002670288 176 171 167
445.673435926437 157.517611980438 2443.00007820129 170 166 163
452.123761177063 157.441809773445 2441.99991226196 160 156 153
458.567559719086 157.36597776413 2440.99998474121 149 145 144
465.38582444191 157.418981194496 2441.99991226196 143 144 139
472.208470106125 157.471910119057 2443.00007820129 126 127 122
480.995237827301 158.169284462929 2453.9999961853 65 66 60
490.03928899765 158.930957317352 2466.00008010864 12 15 6
497.737228870392 159.241318702698 2470.99995613098 17 20 11
503.419756889343 158.907204866409 2466.00008010864 10 13 6
511.762976646423 159.410715103149 2473.99997711182 10 13 6
517.005026340485 158.947661519051 2467.00000762939 11 14 7
523.481547832489 158.871188759804 2466.00008010864 14 17 10
528.661489486694 158.408150076866 2459.00011062622 16 19 12
532.931566238403 157.687485218048 2447.99995422363 17 20 13
536.920487880707 156.902477145195 2436.00010871887 19 22 15
542.628228664398 156.632795929909 2431.99992179871 21 24 17
548.53892326355 156.427532434464 2428.99990081787 22 25 18
558.54606628418 157.381385564804 2444.00000572205 24 27 20
566.320836544037 157.691165804863 2448.99988174438 25 28 21
574.823498725891 158.194050192833 2457.00001716614 30 33 26
580.055177211761 157.795533537865 2450.99997520447 30 33 26
579.7478556633 155.916422605515 2421.99993133545 30 33 26
585.092306137085 155.582502484322 2417.00005531311 24 27 20
593.59073638916 156.085357069969 2424.99995231628 26 29 22
605.348944664001 157.424852252007 2446.00009918213 28 31 24
613.717019557953 157.863169908524 2453.00006866455 28 31 24
619.5929646492 157.657906413078 2450.00004768372 28 31 24
626.729846000671 157.774433493614 2451.99990272522 24 27 20
632.584989070892 157.569274306297 2448.99988174438 25 28 21
637.118101119995 157.042503356934 2440.99998474121 27 30 23
638.969957828522 155.872538685799 2423.00009727478 28 29 23
647.650301456451 156.375244259834 2430.99999427795 32 35 28
656.104028224945 156.813591718674 2437.99996376038 31 34 27
663.779318332672 157.058969140053 2441.99991226196 25 28 21
672.298908233643 157.497301697731 2448.99988174438 26 29 22
686.122834682465 159.157425165176 2474.99990463257 28 31 24
689.169585704803 158.309638500214 2461.99989318848 38 41 34
698.08042049408 158.812239766121 2470.00002861023 30 35 28
710.172355175018 160.022065043449 2489.00008201599 41 46 39
721.790254116058 161.103203892708 2506.00004196167 30 35 28
728.266358375549 161.02722287178 2505.00011444092 25 30 23
736.496806144714 161.336958408356 2509.99999046326 31 36 32
750.083982944489 162.803664803505 2532.99999237061 38 43 39
762.001991271973 163.884654641151 2549.99995231628 39 44 40
754.11069393158 160.72416305542 2500.99992752075 56 61 57
419.073522090912 153.315424919128 2482.00011253357 140 133 125
424.620091915131 152.872458100319 2474.99990463257 106 97 90
429.953247308731 152.3677110672 2467.00000762939 97 88 81
435.772657394409 152.048215270042 2461.99989318848 101 92 85
441.024512052536 151.543393731117 2453.9999961853 157 150 144
447.143912315369 151.347324252129 2450.99997520447 176 171 167
453.245788812637 151.151195168495 2447.99995422363 166 163 158
459.893763065338 151.140242815018 2447.99995422363 160 156 153
466.540575027466 151.129215955734 2447.99995422363 148 149 144
474.34601187706 151.488497853279 2453.9999961853 115 116 111
484.142899513245 152.46494114399 2470.00002861023 36 39 32
493.429154157639 153.255984187126 2483.00004005432 3 6 0
497.950345277786 152.565628290176 2471.99988365173 15 18 11
502.20650434494 151.813626289368 2460.00003814697 11 14 7
511.154174804688 152.480944991112 2470.99995613098 11 14 7
516.178488731384 151.975780725479 2463.00005912781 13 16 9
523.281037807465 152.087599039078 2464.99991416931 15 18 11
530.393302440643 152.199387550354 2467.00000762939 17 20 13
538.603782653809 152.619555592537 2473.99997711182 18 21 14
541.561007499695 151.559174060822 2457.00001716614 19 22 15
547.325670719147 151.300773024559 2453.00006866455 21 24 17
551.712512969971 150.672361254692 2443.00007820129 21 23 18
557.643830776215 150.475680828094 2440.00005722046 23 25 20
562.401533126831 149.970680475235 2431.99992179871 24 26 21
569.220542907715 150.020718574524 2433.00008773804 26 29 22
575.333893299103 149.885758757591 2430.99999427795 26 29 22
579.280972480774 149.195954203606 2420.00007629395 28 31 24
582.199156284332 148.259654641151 2404.99997138977 27 30 23
592.62353181839 149.234429001808 2421.0000038147 28 31 24
603.380918502808 150.270640850067 2437.99996376038 30 33 26
614.229261875153 151.306733489037 2454.99992370605 31 34 27
622.639715671539 151.7264097929 2461.99989318848 32 35 28
627.508521080017 151.283293962479 2454.99992370605 32 35 28
633.888423442841 151.210010051727 2453.9999961853 30 33 26
638.173937797546 150.643840432167 2444.9999332428 27 30 23
642.146170139313 150.016188621521 2434.99994277954 27 28 22
647.928357124329 149.819880723953 2431.99992179871 26 29 22
659.883379936218 151.040449738503 2451.99990272522 26 29 22
664.062798023224 150.474607944489 2443.00007820129 26 29 22
671.761512756348 150.709584355354 2447.00002670288 26 29 22
685.30285358429 152.237847447395 2471.99988365173 26 29 22
692.820131778717 152.411177754402 2474.99990463257 26 29 22
695.830941200256 151.5993475914 2461.99989318848 28 33 26
704.477369785309 152.019113302231 2469.00010108948 42 47 40
717.193305492401 153.300806879997 2490.00000953674 41 46 39
727.114796638489 153.966799378395 2500.99992752075 37 42 35
735.334455966949 154.26342189312 2506.00004196167 40 45 41
747.430324554443 155.360281467438 2523.9999294281 45 50 46
760.818064212799 156.703263521194 2546.0000038147 46 51 47
765.278339385986 156.19982779026 2538.00010681152 43 48 44
420.772284269333 147.132441401482 2492.00010299683 138 124 113
425.145208835602 146.295726299286 2477.9999256134 129 113 100
431.183665990829 146.049365401268 2473.99997711182 124 105 88
437.022179365158 145.743936300278 2469.00010108948 117 98 81
442.832320928574 145.438447594643 2463.99998664856 110 91 76
448.431611061096 145.073905587196 2457.99994468689 108 89 74
454.922914505005 145.004421472549 2457.00001716614 103 85 73
461.783230304718 145.052894949913 2457.99994468689 99 82 72
469.219624996185 145.278319716454 2461.99989318848 33 23 13
478.609532117844 146.093681454659 2476.0000705719 23 16 6
487.290143966675 146.67284488678 2486.00006103516 16 13 4
493.042886257172 146.366938948631 2480.99994659424 10 11 3
500.378847122192 146.532937884331 2483.99996757507 10 13 4
506.096661090851 146.226987242699 2479.00009155273 10 13 4
505.786955356598 144.210532307625 2444.9999332428 12 15 6
519.12385225296 146.086841821671 2476.99999809265 14 17 8
523.716986179352 145.485982298851 2467.00000762939 17 20 11
529.329717159271 145.179986953735 2461.99989318848 18 21 12
537.526667118073 145.581588149071 2469.00010108948 22 25 16
544.658362865448 145.68829536438 2470.99995613098 22 25 16
551.799714565277 145.794942975044 2473.00004959106 22 25 18
556.014776229858 145.135208964348 2461.99989318848 21 23 18
559.940695762634 144.416600465775 2450.00004768372 22 24 19
563.800513744354 143.69809627533 2437.99996376038 24 26 21
569.231927394867 143.392220139503 2433.00008773804 21 24 17
574.161946773529 142.96855032444 2426.00011825562 21 24 17
579.052865505219 142.544895410538 2418.99991035461 26 29 22
586.567997932434 142.769500613213 2423.00009727478 26 29 22
593.613982200623 142.876192927361 2424.99995231628 27 30 23
602.649867534637 143.45420897007 2434.99994277954 27 30 23
611.738860607147 144.032150506973 2444.9999332428 29 32 25
622.398257255554 144.963398575783 2460.99996566772 31 34 27
628.798067569733 144.893258810043 2460.00003814697 34 37 30
634.674727916718 144.705355167389 2457.00001716614 34 37 30
638.185322284698 143.987491726875 2444.9999332428 31 34 27
645.322144031525 144.094169139862 2447.00002670288 29 32 25
650.870263576508 143.847584724426 2443.00007820129 26 29 22
655.588686466217 143.424436450005 2436.00010871887 25 28 21
666.520297527313 144.355446100235 2451.99990272522 26 29 22
674.24339056015 144.579976797104 2456.00008964539 26 29 22
683.650672435761 145.157679915428 2466.00008010864 25 28 19
690.311968326569 145.146757364273 2466.00008010864 25 28 21
691.037178039551 143.899947404861 2444.9999332428 29 32 25
698.210954666138 144.006967544556 2447.00002670288 35 40 33
709.715485572815 144.996717572212 2463.99998664856 42 47 40
724.799931049347 146.692499518394 2493.00003051758 48 53 46
728.889882564545 146.152287721634 2483.99996757507 52 57 51
743.887662887573 147.789061069489 2512.00008392334 50 55 49
760.23131608963 149.660989642143 2543.99991035461 42 47 43
419.262528419495 139.824450016022 2483.00004005432 138 122 109
424.983590841293 139.476910233498 2476.99999809265 132 114 100
431.019425392151 139.241918921471 2473.00004959106 131 110 89
437.032341957092 139.006897807121 2469.00010108948 127 105 84
442.482948303223 138.602882623672 2461.99989318848 122 96 79
448.441803455353 138.367772102356 2457.99994468689 119 93 76
454.192578792572 138.076335191727 2453.00006866455 110 87 71
461.229979991913 138.178840279579 2454.99992370605 104 82 69
468.467742204666 138.337552547455 2457.99994468689 43 29 18
478.620052337646 139.340311288834 2476.0000705719 24 16 5
483.380436897278 138.767242431641 2466.00008010864 15 11 0
492.059916257858 139.319553971291 2476.0000705719 11 12 4
499.180912971497 139.421612024307 2477.9999256134 10 13 4
502.840936183929 138.567209243774 2463.00005912781 12 15 4
508.900761604309 138.387933373451 2460.00003814697 13 16 7
516.829371452332 138.714894652367 2466.00008010864 17 20 11
522.241830825806 138.366803526878 2460.00003814697 21 24 15
527.620553970337 138.01871240139 2453.9999961853 25 28 19
534.054219722748 137.951865792274 2453.00006866455 27 30 21
542.465090751648 138.391077518463 2460.99996566772 27 30 21
549.35622215271 138.436585664749 2461.99989318848 25 28 21
553.993225097656 137.919828295708 2453.00006866455 24 27 20
557.437598705292 137.121975421906 2438.99989128113 26 29 22
562.65515089035 136.774018406868 2433.00008773804 28 31 24
567.605078220367 136.36988401413 2426.00011825562 26 27 21
574.409484863281 136.415421962738 2427.00004577637 25 26 20
578.345656394959 135.786533355713 2415.99988937378 23 24 18
585.85262298584 136.000722646713 2420.00007629395 23 24 18
593.869745731354 136.327266693115 2426.00011825562 24 25 19
602.165758609772 136.709943413734 2433.00008773804 26 27 21
609.497964382172 136.867851018906 2436.00010871887 27 28 22
620.1331615448 137.756064534187 2451.99990272522 29 30 24
626.50865316391 137.689173221588 2450.99997520447 28 29 23
632.619261741638 137.566134333611 2448.99988174438 28 29 23
638.457119464874 137.386977672577 2446.00009918213 29 32 25
647.970259189606 137.994155287743 2457.00001716614 27 30 23
649.548947811127 136.916488409042 2437.99996376038 25 28 21
657.214164733887 137.130603194237 2441.99991226196 24 27 20
667.34653711319 137.850061058998 2454.99992370605 27 28 20
677.548468112946 138.569489121437 2467.99993515015 30 30 20
685.324788093567 138.783544301987 2471.99988365173 32 32 22
691.162407398224 138.604670763016 2469.00010108948 32 32 22
691.612958908081 137.359321117401 2447.00002670288 26 27 19
699.362754821777 137.573599815369 2450.99997520447 30 33 26
715.486645698547 139.415547251701 2483.99996757507 28 31 24
724.228918552399 139.798134565353 2490.9999370575 27 32 25
733.888685703278 140.349105000496 2500.99992752075 37 40 33
743.305742740631 140.843942761421 2509.99999046326 47 50 43
756.954491138458 142.124325037003 2532.99999237061 35 40 33
762.284100055695 141.833692789078 2528.00011634827 38 43 37
420.11621594429 133.315280079842 2487.99991607666 137 119 107
424.478381872177 132.555931806564 2473.99997711182 138 119 104
430.5060505867 132.332310080528 2470.00002861023 135 113 92
436.510890722275 132.10865855217 2466.00008010864 136 111 91
442.133247852325 131.777837872505 2460.00003814697 140 113 96
447.539329528809 131.393387913704 2453.00006866455 140 113 96
453.276515007019 131.116047501564 2447.99995422363 135 109 94
460.112571716309 131.160035729408 2448.99988174438 125 101 89
468.09646487236 131.525278091431 2456.00008964539 79 62 52
477.470338344574 132.265225052834 2470.00002861023 28 18 8
484.762668609619 132.416024804115 2473.00004959106 16 12 1
492.467552423477 132.673799991608 2477.9999256134 13 14 6
499.191164970398 132.663801312447 2477.9999256134 11 14 5
505.913555622101 132.653772830963 2477.9999256134 13 16 5
507.049143314362 131.198421120644 2450.99997520447 13 16 7
517.678022384644 132.205367088318 2470.00002861023 18 21 12
522.889077663422 131.820604205132 2463.00005912781 23 26 17
528.706014156342 131.596386432648 2459.00011062622 29 32 23
534.935474395752 131.47921860218 2457.00001716614 33 36 27
541.152954101563 131.361991167068 2454.99992370605 32 35 26
548.697352409363 131.565824151039 2459.00011062622 29 32 25
553.100287914276 131.020575761795 2448.99988174438 28 31 24
558.590829372406 130.742892622948 2444.00000572205 30 33 26
563.821852207184 130.411744117737 2437.99996376038 32 35 28
571.125030517578 130.561992526054 2440.99998474121 31 32 26
575.839996337891 130.123928189278 2433.00008773804 30 31 25
581.70747756958 129.953294992447 2430.0000667572 27 28 22
587.799668312073 129.836156964302 2427.99997329712 27 28 22
595.104038715363 129.986390471458 2430.99999427795 27 28 22
603.413701057434 130.350470542908 2437.99996376038 25 26 20
611.009657382965 130.554139614105 2441.99991226196 26 27 21
618.120312690735 130.650848150253 2444.00000572205 29 30 24
624.729692935944 130.640655755997 2444.00000572205 28 29 23
632.887959480286 130.951181054115 2450.00004768372 28 29 23
641.338884830475 131.315141916275 2457.00001716614 29 32 25
645.34330368042 130.770534276962 2447.00002670288 29 32 25
654.355108737946 131.241381168365 2456.00008964539 27 30 23
662.60701417923 131.551846861839 2461.99989318848 27 30 23
670.618951320648 131.808906793594 2467.00000762939 35 36 28
678.931474685669 132.119402289391 2473.00004959106 40 40 30
685.335040092468 132.055938243866 2471.99988365173 43 43 33
690.612733364105 131.778866052628 2467.00000762939 33 33 23
696.993231773376 131.715536117554 2466.00008010864 24 25 17
705.364942550659 132.026135921478 2471.99988365173 29 32 25
714.92063999176 132.5503885746 2482.00011253357 22 25 18
730.635285377502 134.196028113365 2513.00001144409 19 24 17
737.126529216766 134.132787585258 2512.00008392334 33 36 29
742.131173610687 133.802682161331 2506.00004196167 43 46 39
744.413137435913 132.992178201675 2490.9999370575 36 41 34
743.598461151123 131.648063659668 2466.00008010864 34 39 33
418.177843093872 128.007739782333 2516.99995994568 203 189 180
419.956415891647 126.473292708397 2486.99998855591 139 121 109
424.144238233566 125.701725482941 2471.99988365173 140 121 106
429.469406604767 125.286117196083 2463.99998664856 137 112 92
435.811996459961 125.175550580025 2461.99989318848 137 110 91
441.423505544662 124.861568212509 2456.00008964539 143 114 98
447.001218795776 124.54754114151 2450.00004768372 145 118 101
452.73032784462 124.284327030182 2444.9999332428 144 118 103
459.746181964874 124.376885592937 2447.00002670288 136 112 100
467.915296554565 124.774321913719 2454.99992370605 93 76 66
477.286577224731 125.476568937302 2469.00010108948 36 26 16
485.752403736115 125.924542546272 2477.9999256134 20 13 3
492.676049470901 125.965937972069 2479.00009155273 15 15 7
499.200969934464 125.905618071556 2477.9999256134 11 12 4
505.106687545776 125.692844390869 2473.99997711182 13 16 5
506.438255310059 124.362416565418 2447.99995422363 14 17 8
514.544069766998 124.708488583565 2454.99992370605 18 21 12
525.234282016754 125.663995742798 2473.99997711182 20 23 14
531.726062297821 125.603511929512 2473.00004959106 21 24 15
534.945428371429 124.781221151352 2457.00001716614 22 25 16
540.722072124481 124.568410217762 2453.00006866455 22 25 16
545.806467533112 124.203279614449 2446.00009918213 19 22 15
551.303505897522 123.939707875252 2440.99998474121 18 21 14
556.543707847595 123.625390231609 2434.99994277954 21 24 17
564.756870269775 123.971082270145 2441.99991226196 23 26 19
571.368932723999 123.961359262466 2441.99991226196 24 25 19
578.453421592712 124.053157866001 2444.00000572205 23 24 18
583.871901035309 123.78965318203 2438.99989128113 22 23 17
589.746415615082 123.627685010433 2436.00010871887 20 21 15
595.11399269104 123.364232480526 2430.99999427795 20 21 15
602.6811003685 123.557515442371 2434.99994277954 18 19 13
610.519170761108 123.801521956921 2440.00005722046 20 21 15
616.359889507294 123.63962829113 2437.00003623962 22 23 17
624.484002590179 123.934336006641 2443.00007820129 22 23 17
632.897913455963 124.279744923115 2450.00004768372 23 24 18
638.477504253387 124.067172408104 2446.00009918213 24 27 20
645.616888999939 124.158971011639 2447.99995422363 18 21 14
651.434063911438 123.997211456299 2444.9999332428 22 25 18
661.271274089813 124.596171081066 2457.00001716614 25 28 21
671.987950801849 125.347182154655 2471.99988365173 30 31 23
678.117632865906 125.236183404922 2470.00002861023 32 32 22
683.95859003067 125.074535608292 2467.00000762939 32 32 22
690.622389316559 125.065043568611 2467.00000762939 27 27 17
700.959861278534 125.714614987373 2480.00001907349 26 27 19
707.657337188721 125.705182552338 2480.00001907349 19 22 15
717.522621154785 126.253336668015 2490.9999370575 20 23 16
724.24852848053 126.243978738785 2490.9999370575 20 25 18
735.37540435791 126.994863152504 2506.00004196167 24 27 20
739.475250244141 126.529529690742 2496.99997901917 28 31 24
742.928326129913 125.963032245636 2486.00006103516 30 35 28
738.481163978577 124.079361557961 2448.99988174438 33 38 32
758.781969547272 126.350328326225 2493.99995803833 22 29 22
413.628697395325 121.818669140339 2530.99989891052 203 193 183
416.691064834595 120.703399181366 2507.99989700317 183 169 158
420.30268907547 119.780704379082 2489.00008201599 144 125 111
424.3243932724 119.002416729927 2473.00004959106 143 121 107
429.129391908646 118.464730679989 2461.99989318848 141 114 95
435.466647148132 118.360087275505 2460.00003814697 139 112 93
441.252470016479 118.111044168472 2454.99992370605 143 114 98
446.827560663223 117.813885211945 2448.99988174438 146 117 101
452.924370765686 117.660999298096 2446.00009918213 145 117 103
459.567219018936 117.652371525764 2446.00009918213 142 115 104
467.73374080658 118.028454482555 2453.9999961853 98 80 70
476.71577334404 118.596807122231 2466.00008010864 36 23 14
485.761672258377 119.165003299713 2477.9999256134 20 11 2
492.287814617157 119.107969105244 2476.99999809265 12 12 4
498.807311058044 119.050875306129 2476.0000705719 11 12 4
504.095256328583 118.705287575722 2469.00010108948 15 18 7
511.619567871094 118.888512253761 2473.00004959106 17 20 11
516.649305820465 118.494816124439 2464.99991416931 20 23 14
525.668323040009 119.014449417591 2476.0000705719 20 23 14
532.3805809021 119.005255401134 2476.0000705719 19 22 13
535.825729370117 118.275120854378 2460.99996566772 22 25 16
540.070176124573 117.737308144569 2450.00004768372 22 25 16
544.92324590683 117.343701422215 2441.99991226196 21 24 17
548.150956630707 116.613812744617 2427.00004577637 20 23 16
557.924568653107 117.277301847935 2440.99998474121 22 25 18
564.766347408295 117.316141724586 2441.99991226196 23 26 19
573.484301567078 117.739260196686 2450.99997520447 26 27 21
579.172968864441 117.53786355257 2447.00002670288 24 25 19
586.275219917297 117.624670267105 2448.99988174438 23 24 18
594.59787607193 117.951601743698 2456.00008964539 19 20 14
600.019574165344 117.702208459377 2450.99997520447 18 19 13
603.433072566986 117.068700492382 2437.99996376038 18 19 13
609.02738571167 116.867445409298 2434.00001525879 19 20 14
616.116404533386 116.954296827316 2436.00010871887 21 22 16
625.771522521973 117.521204054356 2447.99995422363 21 22 16
633.940696716309 117.800027132034 2453.9999961853 21 22 16
642.141401767731 118.078835308552 2460.00003814697 22 25 18
641.934037208557 116.821743547916 2434.00001525879 21 24 17
646.647572517395 116.476729512215 2427.00004577637 24 27 20
660.20405292511 117.715410888195 2453.00006866455 25 28 21
669.550836086273 118.186183273792 2463.00005912781 25 26 18
675.656080245972 118.081130087376 2460.99996566772 24 24 14
679.809153079987 117.640316486359 2451.99990272522 23 23 13
687.272250652313 117.775291204453 2454.99992370605 27 27 17
699.838519096375 118.773758411407 2476.0000705719 28 29 21
707.951843738556 119.004651904106 2480.99994659424 16 19 12
715.227365493774 119.091689586639 2483.00004005432 19 22 15
721.059322357178 118.938975036144 2480.00001907349 18 23 16
730.689227581024 119.409762322903 2490.00000953674 21 24 17
736.818850040436 119.305126368999 2487.99991607666 29 32 25
741.144001483917 118.912875652313 2480.00001907349 29 34 27
743.013083934784 118.137195706367 2463.99998664856 27 32 26
752.097189426422 118.512310087681 2471.99988365173 29 36 29
409.387677907944 113.727986812592 2505.00011444092 193 180 171
414.871543645859 113.356992602348 2496.99997901917 143 126 116
419.973015785217 112.895213067532 2486.99998855591 151 128 114
425.190359354019 112.478785216808 2477.9999256134 147 121 106
429.660469293594 111.88081651926 2464.99991416931 144 115 97
435.474842786789 111.645929515362 2460.00003814697 146 115 97
441.260755062103 111.41100525856 2454.99992370605 150 118 103
447.565704584122 111.312188208103 2453.00006866455 150 118 103
453.673362731934 111.167944967747 2450.00004768372 142 113 99
459.951370954514 111.069023609161 2447.99995422363 140 112 101
467.361003160477 111.242286860943 2451.99990272522 94 76 66
476.144373416901 111.733019351959 2463.00005912781 31 17 8
487.338602542877 112.767957150936 2486.00006103516 22 13 4
492.892771959305 112.487316131592 2480.00001907349 16 13 6
499.218970537186 112.388081848621 2477.9999256134 18 19 11
507.574915885925 112.742334604263 2486.00006103516 14 17 6
512.249052524567 112.280242145061 2476.0000705719 16 19 10
520.221292972565 112.543672323227 2482.00011253357 20 23 14
520.581781864166 111.174777150154 2451.99990272522 21 24 15
526.583969593048 111.030161380768 2448.99988174438 22 25 16
533.874988555908 111.157521605492 2451.99990272522 20 23 14
539.638161659241 110.967546701431 2447.99995422363 22 25 16
543.593347072601 110.41497439146 2436.00010871887 25 28 21
545.449495315552 109.454534947872 2414.99996185303 24 27 20
551.762223243713 109.400629997253 2414.00003433228 24 27 20
562.925100326538 110.298335552216 2434.00001525879 25 28 21
571.153461933136 110.606834292412 2440.99998474121 25 26 20
576.341688632965 110.326267778873 2434.99994277954 25 26 20
585.326731204987 110.770620405674 2444.9999332428 25 26 20
595.333218574524 111.396111547947 2459.00011062622 23 24 18
602.231860160828 111.432611942291 2460.00003814697 22 23 17
604.927241802216 110.699124634266 2444.00000572205 23 24 18
609.286427497864 110.282771289349 2434.99994277954 25 26 20
615.366578102112 110.183537006378 2433.00008773804 26 27 21
625.524878501892 110.808834433556 2447.00002670288 25 26 20
635.241329669952 111.343510448933 2459.00011062622 25 26 20
641.628205776215 111.289516091347 2457.99994468689 25 28 21
638.250470161438 109.560459852219 2420.00007629395 22 27 20
643.725335597992 109.370850026608 2415.99988937378 25 28 21
658.867120742798 110.810868442059 2447.99995422363 25 28 21
668.200373649597 111.254930496216 2457.99994468689 27 28 20
672.370254993439 110.839039087296 2448.99988174438 25 25 15
679.540693759918 110.921069979668 2450.99997520447 25 25 15
687.00098991394 111.048370599747 2453.9999961853 27 27 17
699.281930923462 111.944921314716 2473.99997711182 25 26 18
709.672689437866 112.524665892124 2486.99998855591 17 20 13
717.252373695374 112.651951611042 2490.00000953674 18 21 14
724.266171455383 112.688802182674 2490.9999370575 18 23 16
732.458472251892 112.906649708748 2496.00005149841 23 26 19
736.827254295349 112.536512315273 2487.99991607666 31 34 27
736.669540405273 111.488074064255 2464.99991416931 30 35 28
741.212069988251 111.163467168808 2457.99994468689 28 33 27
758.190512657166 112.693071365356 2492.00010299683 24 31 24
738.518178462982 108.796276152134 2405.99989891052 14 21 14
407.924324274063 106.504276394844 2496.00005149841 156 142 131
414.380699396133 106.41161352396 2493.99995803833 145 123 110
419.811844825745 106.062926352024 2486.00006103516 149 123 110
425.369709730148 105.756863951683 2479.00009155273 151 123 109
430.016815662384 105.237491428852 2467.00000762939 146 115 97
435.482621192932 104.931406676769 2460.00003814697 146 115 97
441.268593072891 104.710593819618 2454.99992370605 148 115 100
447.573572397232 104.617707431316 2453.00006866455 148 115 100
453.681319952011 104.482121765614 2450.00004768372 143 114 100
459.771484136581 104.346506297588 2447.00002670288 141 113 102
467.368990182877 104.551963508129 2451.99990272522 92 74 64
478.279024362564 105.482168495655 2473.99997711182 26 12 3
489.699244499207 106.497444212437 2497.99990653992 22 13 4
495.286047458649 106.233634054661 2492.00010299683 15 15 7
500.637531280518 105.927184224129 2484.99989509583 11 12 4
506.766617298126 105.791240930557 2482.00011253357 14 17 6
515.774548053741 106.251947581768 2493.00003051758 16 19 10
518.343329429626 105.391442775726 2473.00004959106 20 23 14
521.227061748505 104.616239666939 2454.99992370605 20 23 14
524.227023124695 103.883743286133 2437.99996376038 21 24 15
531.052887439728 103.918261826038 2438.99989128113 24 27 18
540.087521076202 104.378797113895 2450.00004768372 24 27 18
543.824851512909 103.816822171211 2437.00003623962 23 26 19
545.683681964874 102.91413962841 2415.99988937378 23 26 19
552.913308143616 103.033818304539 2418.99991035461 25 28 21
561.777114868164 103.451609611511 2428.99990081787 25 28 21
568.822026252747 103.528626263142 2430.99999427795 25 28 21
574.92995262146 103.435277938843 2428.99990081787 23 26 19
583.898782730103 103.852905333042 2438.99989128113 22 25 18
593.889117240906 104.440785944462 2453.00006866455 24 27 20
599.057853221893 104.177080094814 2447.00002670288 24 27 20
607.163369655609 104.424275457859 2453.00006866455 19 22 15
