ply
format ascii 1.0
comment KinectMotionCapture
element vertex 762
property float x
property float y
property float z
property uchar red
property uchar green
property uchar blue
end_header
234.860777854919 877.31009721756 2917.00005531311 175 174 172
242.519557476044 876.390933990479 2914.00003433228 195 194 190
250.07575750351 875.170886516571 2910.00008583069 176 175 171
257.343888282776 873.048067092896 2903.00011634827 177 176 172
264.847606420517 871.827006340027 2898.9999294281 187 186 182
272.61146903038 871.507883071899 2898.00000190735 185 184 180
280.466169118881 871.488988399506 2898.00000190735 167 166 161
288.220912218094 871.169030666351 2897.0000743866 149 148 143
295.867592096329 870.548009872437 2894.99998092651 143 142 137
303.817600011826 870.828568935394 2895.99990844727 126 125 120
311.772614717484 871.108949184418 2897.0000743866 140 137 130
319.622129201889 871.087968349457 2897.0000743866 148 145 138
326.905965805054 869.563400745392 2891.99995994568 132 129 122
334.277957677841 868.339240550995 2888.00001144409 135 132 125
341.746181249619 867.415308952332 2884.99999046326 139 136 129
349.197655916214 866.491258144379 2881.99996948242 136 133 126
356.508433818817 865.266263484955 2878.00002098084 134 131 124
363.670438528061 863.740265369415 2872.99990653992 131 128 121
371.192693710327 863.116025924683 2871.00005149841 133 130 123
378.835588693619 862.792193889618 2869.99988555908 130 127 120
386.472553014755 862.468063831329 2868.99995803833 129 126 119
393.966138362885 861.843109130859 2867.00010299683 129 129 121
401.86870098114 862.119734287262 2868.00003051758 133 133 125
409.204840660095 861.193776130676 2865.00000953674 130 129 124
416.815221309662 860.868752002716 2864.00008201599 130 129 124
424.123167991638 859.942436218262 2861.00006103516 140 139 134
431.867182254791 859.91758108139 2861.00006103516 126 127 121
439.764350652695 860.193252563477 2861.99998855591 110 111 105
447.666376829147 860.468685626984 2862.99991607666 119 120 115
455.891489982605 861.345052719116 2865.9999370575 125 126 121
463.485181331635 861.019194126129 2865.00000953674 127 128 123
-26.6782827675343 882.829666137695 2960.99996566772 249 250 245
-18.6303406953812 882.235169410706 2959.00011062622 253 254 249
-10.6075406074524 882.832467556 2960.99996566772 250 250 248
-2.56344163790345 879.851460456848 2950.99997520447 249 248 246
5.43376803398132 878.062427043915 2944.9999332428 249 245 244
13.4257525205612 878.061652183533 2944.9999332428 247 243 242
21.417710930109 878.060340881348 2944.9999332428 243 238 235
29.3097626417875 875.076949596405 2934.99994277954 236 231 227
37.1220782399178 871.496558189392 2923.00009727478 234 229 225
45.0695678591728 871.79160118103 2924.00002479553 213 204 195
52.9861375689507 871.489763259888 2923.00009727478 187 171 155
61.0430538654327 873.274326324463 2928.99990081787 173 151 130
68.8497573137283 871.480524539948 2923.00009727478 158 133 111
76.623760163784 869.686245918274 2917.00005531311 144 114 88
84.4230055809021 868.487656116486 2913.00010681152 147 116 88
92.2320410609245 867.586553096771 2910.00008583069 144 113 84
100.127868354321 867.579340934753 2910.00008583069 128 94 66
108.097709715366 868.167757987976 2911.99994087219 120 86 58
115.998528897762 868.159234523773 2911.99994087219 116 85 57
123.728916049004 866.957783699036 2907.99999237061 115 85 57
131.482630968094 866.053998470306 2904.99997138977 119 89 63
139.411672949791 866.342008113861 2905.99989891052 119 85 60
147.548615932465 867.821991443634 2911.00001335144 126 95 74
155.338600277901 867.214560508728 2908.99991989136 125 98 77
163.061305880547 866.308510303497 2905.99989891052 134 111 93
170.943930745125 866.296291351318 2905.99989891052 140 126 113
178.887724876404 866.581618785858 2907.00006484985 183 173 161
187.157854437828 868.356883525848 2913.00010681152 186 183 174
195.19230723381 868.939161300659 2914.99996185303 175 172 165
203.724965453148 871.607542037964 2924.00002479553 190 189 187
211.582198739052 871.294498443604 2923.00009727478 176 175 173
219.583764672279 871.577024459839 2924.00002479553 186 185 183
226.890116930008 869.1765666008 2915.99988937378 173 172 170
234.635800123215 868.564128875732 2914.00003433228 182 181 177
242.203652858734 867.354869842529 2910.00008583069 190 189 185
249.749436974525 866.145372390747 2905.99989891052 178 177 173
257.007122039795 864.041268825531 2898.9999294281 162 161 157
264.500468969345 862.830877304077 2894.99998092651 162 161 157
272.25387096405 862.514317035675 2894.00005340576 174 173 168
280.291736125946 863.091349601746 2895.99990844727 154 153 148
288.340002298355 863.668024539948 2898.00000190735 141 140 135
296.091943979263 863.350093364716 2897.0000743866 136 135 130
303.942918777466 863.329768180847 2897.0000743866 124 123 118
311.578094959259 862.713098526001 2894.99998092651 131 131 123
319.532930850983 862.990021705627 2895.99990844727 140 140 132
327.266544103622 862.670660018921 2894.99998092651 129 129 121
335.110008716583 862.648844718933 2894.99998092651 133 133 125
342.479079961777 861.434996128082 2891.00003242493 132 132 124
349.825948476791 860.220670700073 2887.00008392334 134 134 126
357.026606798172 858.708024024963 2881.99996948242 132 132 124
364.452928304672 857.791244983673 2878.99994850159 130 130 122
371.991723775864 857.172191143036 2877.00009346008 132 132 124
379.519134759903 856.552720069885 2875 129 129 121
387.03516125679 855.933010578156 2872.99990653992 129 129 121
394.402384757996 855.015277862549 2869.99988555908 128 127 122
402.593612670898 855.884730815887 2872.99990653992 131 130 125
409.800589084625 854.668498039246 2868.99995803833 129 128 123
417.276531457901 854.048013687134 2867.00010299683 132 131 126
424.592733383179 853.1294465065 2864.00008201599 138 137 132
432.496041059494 853.402256965637 2865.00000953674 116 117 111
440.71152806282 854.27051782608 2868.00003051758 118 119 114
448.786318302155 854.840695858002 2869.99988555908 132 133 128
457.348704338074 856.304287910461 2875 130 131 126
-58.9823760092258 877.211630344391 2969.00010108948 254 255 253
-50.7191903889179 873.670220375061 2957.00001716614 254 255 253
-42.6509939134121 872.787475585938 2953.9999961853 243 245 242
-34.6106998622417 872.199416160584 2951.99990272522 242 244 239
-26.5451595187187 870.42909860611 2946.00009918213 234 234 232
-18.5499023646116 870.430767536163 2946.00009918213 235 235 233
-10.5617744848132 871.022760868073 2947.99995422363 235 235 233
-2.5566874537617 869.546055793762 2943.00007820129 236 234 235
5.41942054405808 867.773175239563 2937.00003623962 235 234 232
13.3766271173954 866.885960102081 2934.00001525879 234 233 231
21.3466137647629 867.180109024048 2934.99994277954 235 231 228
29.3119959533215 867.178201675415 2934.99994277954 229 224 220
37.1249057352543 863.63011598587 2923.00009727478 223 218 214
45.0421720743179 863.33155632019 2921.99993133545 221 214 206
52.8995208442211 862.145960330963 2917.99998283386 212 200 188
60.9226413071156 863.618910312653 2923.00009727478 166 149 133
68.7607526779175 862.43212223053 2918.99991035461 170 152 132
76.6032859683037 861.540138721466 2915.99988937378 164 139 117
84.4293832778931 860.647797584534 2913.00010681152 160 132 110
92.1756252646446 859.16393995285 2907.99999237061 153 123 99
99.9289453029633 857.974767684937 2904.00004386902 138 107 79
107.957348227501 859.148740768433 2907.99999237061 131 99 74
115.887723863125 859.435677528381 2908.99991989136 126 94 69
123.780727386475 859.42667722702 2908.99991989136 125 93 68
131.537705659866 858.530759811401 2905.99989891052 123 95 73
139.565974473953 859.406888484955 2908.99991989136 118 91 72
147.660970687866 860.578000545502 2913.00010681152 131 108 92
155.403524637222 859.680354595184 2910.00008583069 144 125 110
163.017243146896 858.191430568695 2904.99997138977 128 110 96
170.780032873154 857.588350772858 2903.00011634827 190 180 170
178.777754306793 858.166217803955 2904.99997138977 174 167 157
186.850249767303 859.039068222046 2907.99999237061 187 184 177
194.871693849564 859.615921974182 2910.00008583069 171 170 165
202.973276376724 860.487520694733 2913.00010681152 181 180 176
210.801184177399 860.177099704742 2911.99994087219 186 185 181
218.998730182648 861.343085765839 2915.99988937378 190 189 185
226.439476013184 859.554886817932 2910.00008583069 180 179 175
234.330385923386 859.538316726685 2910.00008583069 175 174 170
241.721421480179 857.749104499817 2904.00004386902 176 175 171
249.337300658226 856.845498085022 2901.00002288818 179 178 174
256.847828626633 855.646312236786 2897.0000743866 150 149 145
264.518916606903 855.037152767181 2894.99998092651 146 145 141
272.366851568222 855.018436908722 2894.99998092651 151 150 145
280.407905578613 855.589926242828 2897.0000743866 139 138 133
288.459271192551 856.160998344421 2898.9999294281 139 138 133
296.214371919632 855.84557056427 2898.00000190735 127 126 121
304.06841635704 855.825126171112 2898.00000190735 129 128 123
311.814337968826 855.508983135223 2897.0000743866 120 120 112
319.995671510696 856.373608112335 2900.00009536743 132 132 124
327.740460634232 856.056571006775 2898.9999294281 128 128 120
335.710883140564 856.329917907715 2900.00009536743 131 131 123
342.73836016655 854.240477085114 2892.99988746643 131 131 123
350.212156772614 853.332102298737 2890.00010490417 127 127 119
357.297420501709 851.537525653839 2884.0000629425 130 130 122
365.235775709152 851.809501647949 2884.99999046326 130 130 122
372.532486915588 850.604951381683 2881.00004196167 130 130 122
380.335062742233 850.581169128418 2881.00004196167 130 130 122
387.598097324371 849.376142024994 2877.00009346008 130 130 122
395.113855600357 848.761320114136 2875 129 128 123
402.89843082428 848.736643791199 2875 129 128 123
410.253942012787 847.826242446899 2871.99997901917 134 133 128
418.029218912125 847.801208496094 2871.99997901917 128 129 123
425.507456064224 847.185552120209 2869.99988555908 115 116 110
433.578163385391 847.75048494339 2871.99997901917 121 122 116
441.812813282013 848.61034154892 2875 126 127 122
450.063139200211 849.46995973587 2878.00002098084 121 123 118
-75.0518217682838 868.624687194824 2967.00000762939 226 231 227
-66.6608288884163 864.238679409027 2951.99990272522 253 255 252
-58.4504567086697 861.315786838531 2941.99991226196 247 249 246
-50.4657737910748 861.320018768311 2941.99991226196 237 239 236
-42.4954257905483 861.616432666779 2943.00007820129 241 243 240
-34.5312803983688 862.204909324646 2944.9999332428 236 238 233
-26.4751072973013 860.157787799835 2937.99996376038 232 232 230
-18.4820611029863 859.281241893768 2934.99994277954 234 234 232
-10.5231739580631 859.867930412292 2937.00003623962 235 235 233
-2.55254004150629 860.161244869232 2937.99996376038 234 232 233
5.42168272659183 860.161125659943 2937.99996376038 233 232 230
13.3639769628644 858.110964298248 2930.99999427795 233 232 230
21.3118884712458 857.816874980927 2930.0000667572 235 231 230
29.2543172836304 857.522070407867 2928.99990081787 226 221 217
37.0896533131599 854.884684085846 2920.00007629395 219 214 210
44.9993722140789 854.588747024536 2918.99991035461 209 202 194
52.831057459116 853.121161460876 2914.00003433228 216 206 196
60.8230791985989 854.28786277771 2917.99998283386 162 146 133
68.6482116580009 853.111803531647 2914.00003433228 158 141 125
76.4777734875679 852.227985858917 2911.00001335144 162 140 119
84.2618942260742 851.050794124603 2907.00006484985 159 132 111
91.9290408492088 848.994851112366 2900.00009536743 143 113 89
99.8677089810371 849.572956562042 2901.99995040894 138 106 81
108.00264030695 851.614236831665 2908.99991989136 132 100 77
116.055861115456 852.776765823364 2913.00010681152 131 99 76
124.045394361019 853.353142738342 2914.99996185303 130 100 76
131.728678941727 851.879835128784 2910.00008583069 128 101 80
139.720395207405 852.455019950867 2911.99994087219 125 102 86
147.621333599091 852.444231510162 2911.99994087219 130 112 98
155.41510283947 851.847350597382 2910.00008583069 125 109 96
162.861004471779 849.493622779846 2901.99995040894 183 169 158
170.557349920273 848.603069782257 2898.9999294281 179 172 162
178.544789552689 849.175572395325 2901.00002288818 162 158 149
186.60694360733 850.040078163147 2904.00004386902 167 164 157
194.618105888367 850.611507892609 2905.99989891052 170 169 164
202.430635690689 850.304186344147 2904.99997138977 187 186 182
210.309743881226 850.289046764374 2904.99997138977 178 177 173
218.113332986832 849.980771541595 2904.00004386902 190 189 185
225.988879799843 849.964678287506 2904.00004386902 165 164 160
233.944550156593 850.240767002106 2904.99997138977 166 165 161
241.322457790375 848.467528820038 2898.9999294281 178 177 173
248.753353953362 846.986711025238 2894.00005340576 170 169 165
256.511300802231 846.676051616669 2892.99988746643 147 146 142
264.446169137955 846.95029258728 2894.00005340576 147 146 142
272.479981184006 847.516655921936 2895.99990844727 147 146 141
280.427396297455 847.789943218231 2897.0000743866 137 136 131
288.678228855133 848.94061088562 2901.00002288818 138 137 132
296.43914103508 848.627746105194 2900.00009536743 122 121 116
304.089158773422 848.021864891052 2898.00000190735 128 127 122
311.727821826935 847.415566444397 2895.99990844727 120 120 112
319.796532392502 847.979366779327 2898.00000190735 133 133 125
327.649354934692 847.957611083984 2898.00000190735 129 129 121
335.50164103508 847.935318946838 2898.00000190735 131 131 123
342.642486095428 846.157133579254 2891.99995994568 130 130 122
350.477427244186 846.134305000305 2891.99995994568 127 127 119
358.187884092331 845.81845998764 2891.00003242493 129 129 121
366.145581007004 846.087515354156 2891.99995994568 131 131 123
373.46151471138 844.893515110016 2888.00001144409 129 129 121
380.623161792755 843.406558036804 2882.99989700317 131 131 123
388.430863618851 843.382239341736 2882.99989700317 131 131 123
395.963102579117 842.772603034973 2881.00004196167 125 124 119
403.624027967453 842.455089092255 2880.00011444092 134 133 128
410.707533359528 840.96747636795 2875 137 136 131
418.345659971237 840.649545192719 2874.00007247925 118 119 113
425.977766513824 840.331554412842 2872.99990653992 117 118 112
434.207797050476 841.183245182037 2875.99992752075 124 125 119
442.914515733719 842.912137508392 2881.99996948242 125 126 121
-83.0262750387192 859.761893749237 2963.99998664856 245 247 244
-74.4504556059837 853.676557540894 2943.00007820129 252 254 251
-66.2820488214493 851.361393928528 2934.99994277954 220 222 219
-58.2363978028297 850.205838680267 2930.99999427795 226 228 225
-50.3324270248413 851.080358028412 2934.00001525879 194 196 193
-42.3976257443428 851.664066314697 2936.00010871887 214 216 213
-34.4753190875053 852.827370166779 2940.00005722046 220 221 216
-26.4771543443203 852.249562740326 2937.99996376038 215 215 213
-18.4897892177105 851.671159267426 2936.00010871887 219 219 217
-10.5060720816255 850.511968135834 2931.99992179871 227 227 227
-2.54665547981858 850.22234916687 2930.99999427795 230 228 229
5.4110293276608 850.512325763702 2931.99992179871 227 225 226
13.346771709621 849.061250686646 2927.00004577637 229 227 228
21.2626159191132 847.899556159973 2923.00009727478 226 225 223
29.1566960513592 846.737265586853 2918.99991035461 220 216 213
37.0162986218929 845.284283161163 2914.00003433228 221 218 213
44.9103489518166 844.991147518158 2913.00010681152 206 203 198
52.798867225647 844.697237014771 2911.99994087219 197 190 184
60.7026889920235 844.692826271057 2911.99994087219 187 177 168
68.5828179121017 844.397783279419 2911.00001335144 149 136 127
76.4573812484741 844.102144241333 2910.00008583069 149 130 116
84.3263417482376 843.80578994751 2908.99991989136 144 121 107
92.062883079052 842.348754405975 2904.00004386902 138 111 92
99.9785885214806 842.631340026855 2904.99997138977 134 107 86
108.159430325031 844.944000244141 2913.00010681152 132 104 83
116.184219717979 845.805466175079 2915.99988937378 136 108 87
124.097369611263 845.796287059784 2915.99988937378 134 107 86
131.693378090858 843.756198883057 2908.99991989136 131 108 90
139.491051435471 843.165814876556 2907.00006484985 123 107 94
147.125467658043 841.704785823822 2901.99995040894 163 153 144
154.999509453773 841.693341732025 2901.99995040894 183 173 164
162.648722529411 840.521275997162 2898.00000190735 169 160 153
170.393571257591 839.928686618805 2895.99990844727 168 165 158
178.311869502068 840.205729007721 2897.0000743866 164 161 156
186.106696724892 839.902102947235 2895.99990844727 147 146 141
194.230630993843 841.048061847687 2900.00009536743 186 185 181
201.957702636719 840.453207492828 2898.00000190735 168 167 162
210.1079672575 841.598153114319 2901.99995040894 179 178 173
217.753663659096 840.712368488312 2898.9999294281 173 172 167
225.616186857224 840.696215629578 2898.9999294281 164 163 159
233.075574040413 839.229643344879 2894.00005340576 164 163 159
240.673840045929 838.342428207397 2891.00003242493 167 166 162
248.427346348763 838.034808635712 2890.00010490417 150 149 145
256.618291139603 839.176595211029 2894.00005340576 155 154 149
264.556288719177 839.447975158691 2894.99998092651 138 137 132
272.499203681946 839.718878269196 2895.99990844727 144 143 138
280.350238084793 839.699327945709 2895.99990844727 133 132 127
288.598835468292 840.839147567749 2900.00009536743 134 133 128
296.357452869415 840.528786182404 2898.9999294281 126 126 118
304.215043783188 840.507984161377 2898.9999294281 134 134 126
311.964452266693 840.196907520294 2898.00000190735 119 118 113
319.928586483002 840.465009212494 2898.9999294281 133 132 127
327.219218015671 838.993549346924 2894.00005340576 129 128 123
334.829449653625 838.391244411469 2891.99995994568 131 130 125
342.546880245209 838.078796863556 2891.00003242493 130 129 124
350.864201784134 839.215099811554 2894.99998092651 128 127 122
358.70698094368 839.191734790802 2894.99998092651 129 128 123
366.67588353157 839.457750320435 2895.99990844727 132 131 126
374.002903699875 838.274300098419 2891.99995994568 129 128 123
381.703764200211 837.959945201874 2891.00003242493 132 131 126
389.129191637039 837.065815925598 2888.00001144409 132 131 126
396.812677383423 836.751103401184 2887.00008392334 128 129 123
404.490083456039 836.435914039612 2885.99991798401 129 130 124
412.161529064178 836.120665073395 2884.99999046326 126 127 121
419.826954603195 835.805296897888 2884.0000629425 114 115 109
427.486300468445 835.489451885223 2882.99989700317 119 120 114
435.743659734726 836.332738399506 2885.99991798401 129 130 125
-82.6685056090355 848.046720027924 2950.99997520447 220 222 219
-74.3550136685371 844.604194164276 2938.99989128113 242 244 241
-66.1968514323235 842.310726642609 2930.99999427795 206 208 205
-58.2409203052521 842.315495014191 2930.99999427795 210 210 208
-50.2848662436008 842.31972694397 2930.99999427795 187 187 185
-42.3142723739147 842.036008834839 2930.0000667572 217 217 215
-34.3724600970745 842.326462268829 2930.99999427795 213 213 211
-26.4251343905926 842.616081237793 2931.99992179871 214 214 212
-18.4723343700171 842.905282974243 2933.00008773804 223 223 221
-10.5033060535789 842.33158826828 2930.99999427795 227 227 227
-2.54077115096152 840.320408344269 2924.00002479553 232 232 232
5.40037686005235 840.895116329193 2926.00011825562 229 227 228
13.3295701816678 840.032279491425 2923.00009727478 227 225 226
21.249720826745 839.456081390381 2921.0000038147 221 220 218
29.099028557539 837.155044078827 2913.00010681152 218 217 213
36.917544901371 835.140645503998 2905.99989891052 215 214 210
44.8059029877186 835.13742685318 2905.99989891052 211 208 203
52.7304336428642 835.708498954773 2907.99999237061 201 197 194
60.6240071356297 835.70408821106 2907.99999237061 205 198 192
68.5410127043724 835.986435413361 2908.99991989136 192 182 173
76.3581916689873 835.118651390076 2905.99989891052 142 126 113
84.2168927192688 834.825038909912 2904.99997138977 154 135 121
92.006579041481 833.956182003021 2901.99995040894 144 121 105
100.020699203014 835.098206996918 2905.99989891052 136 110 93
108.093462884426 836.527049541473 2911.00001335144 133 106 87
116.033740341663 836.805820465088 2911.99994087219 142 117 97
123.979195952415 837.083995342255 2913.00010681152 138 113 93
131.522342562675 834.77520942688 2904.99997138977 138 116 102
139.261722564697 833.902835845947 2901.99995040894 125 112 103
146.883144974709 832.455217838287 2897.0000743866 174 165 158
154.851004481316 833.018362522125 2898.9999294281 169 162 156
162.604883313179 832.431733608246 2897.0000743866 156 149 143
170.406386256218 832.131743431091 2895.99990844727 164 161 156
178.32525074482 832.405984401703 2897.0000743866 151 150 146
186.249136924744 832.679569721222 2898.00000190735 174 173 169
194.111123681068 832.66544342041 2898.00000190735 183 182 178
201.763600111008 831.788599491119 2894.99998092651 179 178 173
209.689021110535 832.060635089874 2895.99990844727 182 181 176
217.394098639488 831.470251083374 2894.00005340576 161 160 155
225.165724754333 831.166684627533 2892.99988746643 160 159 155
232.850924134254 830.575346946716 2891.00003242493 167 166 162
240.524768829346 829.983413219452 2888.99993896484 157 156 151
248.445272445679 830.253005027771 2890.00010490417 148 147 142
256.548017263412 831.096529960632 2892.99988746643 146 145 140
264.575183391571 831.652343273163 2894.99998092651 143 142 137
272.518575191498 831.920385360718 2895.99990844727 142 141 136
280.466914176941 832.188069820404 2897.0000743866 136 136 128
288.718670606613 833.31698179245 2901.00002288818 128 128 120
296.787112951279 833.870828151703 2903.00011634827 129 129 121
304.446071386337 833.275318145752 2901.00002288818 127 127 119
312.308937311172 833.253920078278 2901.00002288818 127 128 122
319.729804992676 832.083165645599 2897.0000743866 125 126 120
327.015340328217 830.624878406525 2891.99995994568 131 132 126
334.620535373688 830.027937889099 2890.00010490417 131 132 126
342.688322067261 830.579400062561 2891.99995994568 127 128 122
351.251184940338 832.2793841362 2898.00000190735 129 130 124
358.978569507599 831.968545913696 2897.0000743866 132 133 127
366.573303937912 831.370055675507 2894.99998092651 126 127 121
374.156564474106 830.771446228027 2892.99988746643 132 133 127
381.992518901825 830.746829509735 2892.99988746643 128 129 123
389.558345079422 830.147624015808 2891.00003242493 127 128 122
397.387683391571 830.122411251068 2891.00003242493 131 132 126
405.496686697006 830.671191215515 2892.99988746643 124 125 119
413.615971803665 831.219673156738 2894.99998092651 114 115 110
421.308696269989 830.906510353088 2894.00005340576 127 128 123
429.291933774948 831.16739988327 2894.99998092651 126 127 122
-90.869665145874 841.802954673767 2957.00001716614 224 226 223
-82.3667645454407 836.970031261444 2940.00005722046 209 211 208
-74.1583928465843 834.413945674896 2930.99999427795 196 198 195
-66.1116614937782 833.280801773071 2927.00004577637 207 207 205
-58.2057274878025 833.854973316193 2928.99990081787 211 211 209
-50.2373315393925 833.574533462524 2927.99997329712 182 182 180
-42.2598086297512 833.008766174316 2926.00011825562 221 221 219
-34.3165062367916 833.011865615845 2926.00011825562 201 201 199
-26.4091826975346 834.152936935425 2930.0000667572 215 215 215
-18.4548851102591 834.154725074768 2930.0000667572 224 224 224
-10.4862106963992 833.01705121994 2926.00011825562 226 226 226
-2.53662513568997 831.024587154388 2918.99991035461 229 229 231
5.38049591705203 829.885721206665 2914.99996185303 224 224 224
13.2986884564161 830.16973733902 2915.99988937378 222 222 222
21.1859066039324 829.029679298401 2911.99994087219 216 216 214
29.0313754230738 827.319502830505 2905.99989891052 213 214 209
36.8569120764732 825.893461704254 2901.00002288818 210 211 206
44.7014719247818 825.320839881897 2898.9999294281 204 205 200
52.6076145470142 825.886428356171 2901.00002288818 182 182 180
60.4828000068665 825.882017612457 2901.00002288818 189 185 182
68.3814063668251 826.161623001099 2901.99995040894 191 186 182
76.1801823973656 825.302004814148 2898.9999294281 182 172 163
84.0204954147339 825.011014938354 2898.00000190735 139 125 114
91.9185876846313 825.288891792297 2898.9999294281 146 128 116
99.9940261244774 826.989471912384 2904.99997138977 139 121 107
108.027532696724 828.120052814484 2908.99991989136 133 115 101
115.803599357605 827.257394790649 2905.99989891052 131 113 99
123.563095927238 826.394200325012 2903.00011634827 132 111 94
131.124943494797 824.391663074493 2895.99990844727 128 110 98
138.984441757202 824.381351470947 2895.99990844727 158 148 139
146.74223959446 823.800981044769 2894.00005340576 173 166 160
154.702514410019 824.358701705933 2895.99990844727 161 156 150
162.617206573486 824.631333351135 2897.0000743866 153 148 144
170.419290661812 824.334025382996 2895.99990844727 156 155 151
178.215578198433 824.036180973053 2894.99998092651 150 149 145
185.941785573959 823.453068733215 2892.99988746643 177 176 172
193.790718913078 823.438763618469 2892.99988746643 176 175 171
201.708972454071 823.708653450012 2894.00005340576 172 171 166
209.487393498421 823.408603668213 2892.99988746643 182 181 176
217.25994348526 823.1081366539 2891.99995994568 162 162 154
224.948823451996 822.522580623627 2890.00010490417 162 161 156
232.868000864983 822.790205478668 2891.00003242493 165 164 160
240.708887577057 822.772920131683 2891.00003242493 153 152 147
248.8072514534 823.608815670013 2894.00005340576 147 146 141
257.010042667389 824.728727340698 2898.00000190735 145 144 139
264.68563079834 824.140667915344 2895.99990844727 141 140 135
272.349894046783 823.552250862122 2894.00005340576 141 140 135
280.390024185181 824.101507663727 2895.99990844727 137 137 129
289.037674665451 826.35772228241 2904.00004386902 129 129 121
297.216951847076 827.190637588501 2907.00006484985 129 129 121
305.097103118896 827.169477939606 2907.00006484985 127 127 119
312.86895275116 826.86322927475 2905.99989891052 127 128 122
320.30376791954 825.703084468842 2901.99995040894 126 127 121
327.490091323853 823.973536491394 2895.99990844727 130 131 125
335.222333669662 823.666334152222 2894.99998092651 130 131 125
343.422561883926 824.496746063232 2898.00000190735 127 128 122
351.638436317444 825.32662153244 2901.00002288818 130 131 125
359.002500772476 824.164867401123 2897.0000743866 130 131 125
366.597592830658 823.571681976318 2894.99998092651 128 129 123
374.310463666916 823.262631893158 2894.00005340576 132 133 127
382.545560598373 824.091196060181 2897.0000743866 130 131 125
390.257298946381 823.781669139862 2895.99990844727 128 129 123
398.512840270996 824.609518051147 2898.9999294281 119 120 114
406.643837690353 825.152635574341 2901.00002288818 107 108 102
415.21367430687 826.54869556427 2905.99989891052 112 113 108
423.373192548752 827.091217041016 2907.99999237061 118 119 114
-90.8767431974411 833.840727806091 2957.00001716614 227 229 226
-82.3451802134514 828.771591186523 2938.99989128113 208 210 207
-74.1895064711571 826.803922653198 2931.99992179871 177 179 176
-66.139429807663 825.681447982788 2927.99997329712 207 207 205
-58.1705458462238 825.404345989227 2927.00004577637 213 213 211
-50.1897968351841 824.844598770142 2924.99995231628 181 181 179
-42.1909093856812 823.720276355743 2921.0000038147 219 219 217
-34.2605635523796 823.723256587982 2921.0000038147 197 197 195
-26.3661872595549 824.853599071503 2924.99995231628 219 219 219
-18.4311419725418 825.137376785278 2926.00011825562 225 225 225
-10.4834530502558 824.856519699097 2924.99995231628 224 224 224
-2.53247958607972 821.755051612854 2914.00003433228 226 226 228
5.3753824904561 821.19083404541 2911.99994087219 223 223 223
13.2678104564548 820.344209671021 2908.99991989136 221 221 221
21.1584717035294 820.060849189758 2907.99999237061 213 213 211
29.0136784315109 818.930804729462 2904.00004386902 210 211 206
36.8343964219093 817.518174648285 2898.9999294281 207 208 203
44.7049848735332 817.514955997467 2898.9999294281 200 201 196
52.5573417544365 817.229211330414 2898.00000190735 188 188 186
60.4249909520149 817.2248005867 2898.00000190735 189 188 186
68.2689473032951 816.937744617462 2897.0000743866 182 178 175
76.0810300707817 816.367983818054 2894.99998092651 202 193 186
83.8240906596184 815.233767032623 2891.00003242493 187 174 165
91.6720926761627 815.226972103119 2891.00003242493 124 110 99
99.7264385223389 816.911399364471 2897.0000743866 126 112 99
107.775963842869 818.313121795654 2901.99995040894 134 120 107
115.493752062321 817.176520824432 2898.00000190735 130 116 105
123.189568519592 816.039443016052 2894.00005340576 125 113 101
130.772814154625 814.33767080307 2888.00001144409 174 164 155
138.755172491074 815.173208713531 2891.00003242493 170 163 155
146.804213523865 816.290020942688 2894.99998092651 151 148 141
154.82123196125 817.124366760254 2898.00000190735 150 147 140
162.685766816139 817.112147808075 2898.00000190735 153 150 145
170.373424887657 816.25360250473 2894.99998092651 146 145 141
178.105965256691 815.676331520081 2892.99988746643 157 156 152
186.020120978355 815.944492816925 2894.00005340576 175 174 170
193.872332572937 815.930128097534 2894.00005340576 162 161 157
201.863527297974 816.479027271271 2895.99990844727 164 165 159
209.285825490952 814.772069454193 2890.00010490417 170 171 165
217.125877737999 814.756095409393 2890.00010490417 162 163 155
225.043341517448 815.021455287933 2891.00003242493 164 163 158
233.207434415817 816.132128238678 2894.99998092651 159 158 153
240.726590156555 814.987003803253 2891.00003242493 145 144 139
248.567491769791 814.968883991241 2891.00003242493 145 144 139
256.585270166397 815.514206886292 2892.99988746643 144 143 138
264.704793691635 816.340923309326 2895.99990844727 139 138 133
272.651851177216 816.603362560272 2897.0000743866 140 140 132
280.89427947998 817.710936069489 2901.00002288818 137 137 129
289.257377386093 819.099724292755 2905.99989891052 131 131 123
297.340244054794 819.642543792725 2907.99999237061 128 128 120
305.118560791016 819.339394569397 2907.00006484985 127 127 119
312.890887260437 819.035768508911 2905.99989891052 129 130 124
320.546805858612 818.449854850769 2904.00004386902 128 129 123
328.191250562668 817.863583564758 2901.99995040894 127 128 122
336.055934429169 817.840695381165 2901.99995040894 128 129 123
344.038516283035 818.099200725555 2903.00011634827 130 131 125
351.904690265656 818.075478076935 2903.00011634827 131 132 126
359.274476766586 816.924214363098 2898.9999294281 130 131 125
366.622030735016 815.772593021393 2894.99998092651 125 126 120
374.335259199142 815.466165542603 2894.00005340576 126 127 121
382.702767848969 816.568195819855 2898.00000190735 128 129 123
391.360819339752 818.2333111763 2904.00004386902 123 124 118
399.775862693787 819.33468580246 2907.99999237061 117 118 113
408.071666955948 820.153772830963 2911.00001335144 121 122 117
416.240245103836 820.690989494324 2913.00010681152 113 114 109
-99.1791114211082 828.104436397552 2964.99991416931 221 223 220
-90.5458033084869 822.805464267731 2946.00009918213 217 219 216
-82.2395756840706 819.739818572998 2934.99994277954 207 207 205
-74.1953477263451 818.908214569092 2931.99992179871 176 176 174
-66.1446452140808 817.796528339386 2927.99997329712 194 194 192
-58.1751391291618 817.52222776413 2927.00004577637 218 218 216
-50.1422807574272 816.129803657532 2921.99993133545 190 190 188
-42.1798005700111 815.575003623962 2920.00007629395 203 203 201
-34.2163518071175 814.740061759949 2917.00005531311 189 189 187
-26.3322181999683 815.85967540741 2921.0000038147 221 221 221
-18.3759033679962 814.744234085083 2917.00005531311 225 225 225
-10.4341022670269 813.069462776184 2911.00001335144 224 224 224
-2.52572726458311 811.673521995544 2905.99989891052 224 224 226
5.36288507282734 811.394035816193 2904.99997138977 222 222 222
13.2414950057864 810.834765434265 2903.00011634827 219 219 219
21.0946556180716 809.715986251831 2898.9999294281 211 211 209
28.9460364729166 809.155523777008 2897.0000743866 207 208 203
36.7864854633808 808.594286441803 2894.99998092651 204 205 200
44.6930974721909 809.428930282593 2898.00000190735 197 198 193
52.4889379739761 808.307945728302 2894.00005340576 190 192 191
60.3046379983425 807.744801044464 2891.99995994568 191 191 189
68.0857747793198 806.901812553406 2888.99993896484 193 192 188
75.9556069970131 807.175517082214 2890.00010490417 186 181 175
83.7726816534996 806.889832019806 2888.99993896484 204 195 186
91.5841460227966 806.603670120239 2888.00001144409 153 140 131
99.4932502508163 807.154715061188 2890.00010490417 136 123 114
107.450120151043 807.984530925751 2892.99988746643 115 105 95
115.223780274391 807.417273521423 2891.00003242493 124 115 106
122.943714261055 806.570053100586 2888.00001144409 147 138 129
130.647122859955 805.722296237946 2884.99999046326 179 172 164
138.717919588089 807.108223438263 2890.00010490417 162 158 149
146.764859557152 808.214366436005 2894.00005340576 153 150 143
154.779732227325 809.040427207947 2897.0000743866 154 151 144
162.585973739624 808.74890089035 2895.99990844727 153 150 145
170.151054859161 807.33984708786 2891.00003242493 148 144 141
177.811712026596 806.488692760468 2888.00001144409 166 162 159
185.648575425148 806.47486448288 2888.00001144409 167 166 162
193.686038255692 807.298123836517 2891.00003242493 161 160 156
201.739341020584 808.120846748352 2894.00005340576 167 168 162
209.301561117172 806.988418102264 2890.00010490417 162 163 157
217.066988348961 806.693017482758 2888.99993896484 162 163 155
225.137963891029 807.514190673828 2891.99995994568 162 161 156
233.144193887711 808.055579662323 2894.00005340576 156 155 150
240.744397044182 807.200253009796 2891.00003242493 144 143 138
248.41383099556 806.623756885529 2888.99993896484 146 145 140
256.604075431824 807.72191286087 2892.99988746643 145 145 137
264.906942844391 809.098839759827 2898.00000190735 140 140 132
273.236364126205 810.47523021698 2903.00011634827 140 140 132
281.398683786392 811.292588710785 2905.99989891052 137 137 129
289.5767390728 812.109410762787 2908.99991989136 133 133 125
297.259271144867 811.53017282486 2907.00006484985 128 128 118
305.140227079391 811.508595943451 2907.00006484985 127 127 117
312.805235385895 810.928344726563 2904.99997138977 129 130 124
320.900440216064 811.464428901672 2907.00006484985 129 130 125
328.666508197784 811.162412166595 2905.99989891052 127 128 123
336.7740213871 811.697602272034 2907.99999237061 127 128 123
344.299167394638 810.836672782898 2904.99997138977 131 132 127
352.049887180328 810.533702373505 2904.00004386902 131 132 127
359.546661376953 809.672057628632 2901.00002288818 126 127 122
367.406517267227 809.647500514984 2901.00002288818 126 127 122
375.007003545761 809.064388275146 2898.9999294281 128 129 124
383.916646242142 811.271727085114 2907.00006484985 125 126 121
393.138587474823 814.036726951599 2917.00005531311 118 119 114
401.726573705673 815.405905246735 2921.99993133545 112 114 109
-99.0196764469147 818.735957145691 2960.00003814697 215 217 214
-90.5836820602417 815.147578716278 2947.00002670288 205 207 204
-82.3301449418068 812.664985656738 2937.99996376038 199 199 197
-74.2771327495575 811.841309070587 2934.99994277954 181 181 179
-66.1724731326103 810.187220573425 2928.99990081787 180 180 178
-58.1399947404861 809.085786342621 2924.99995231628 217 217 215
-50.0947684049606 807.430326938629 2918.99991035461 198 198 196
-42.1253629028797 806.604266166687 2915.99988937378 193 193 191
-34.1721475124359 805.777490139008 2913.00010681152 211 211 209
-26.2712016701698 806.056439876556 2914.00003433228 220 220 220
-18.3206647634506 804.398477077484 2907.99999237061 220 220 220
-10.4134241119027 803.569734096527 2904.99997138977 221 221 223
-2.51897471025586 801.634073257446 2898.00000190735 215 215 217
5.3540812805295 802.187204360962 2900.00009536743 211 211 213
13.2014928385615 800.526738166809 2894.00005340576 209 209 209
21.0308413952589 799.418926239014 2890.00010490417 203 205 202
28.8983713835478 799.970030784607 2891.99995994568 201 203 198
36.7385745048523 799.690961837769 2891.00003242493 195 197 192
44.6503758430481 800.794124603271 2894.99998092651 193 195 192
52.4205453693867 799.407184123993 2890.00010490417 188 192 191
60.2677166461945 799.402832984924 2890.00010490417 187 189 188
68.0204629898071 798.291146755219 2885.99991798401 179 179 177
75.9090408682823 798.83873462677 2888.00001144409 185 182 175
83.7213024497032 798.555791378021 2887.00008392334 171 167 158
91.5596559643745 798.548877239227 2887.00008392334 178 171 163
99.3633568286896 798.264682292938 2885.99991798401 192 185 177
107.235699892044 798.533141613007 2887.00008392334 193 186 178
115.033514797688 798.247814178467 2885.99991798401 168 163 157
122.953332960606 798.791646957397 2888.00001144409 168 165 160
130.70259988308 798.228561878204 2885.99991798401 143 142 137
138.680711388588 799.047827720642 2888.99993896484 144 141 132
146.573379635811 799.313306808472 2890.00010490417 146 142 133
154.524549841881 799.854695796967 2891.99995994568 148 144 135
162.430107593536 800.119042396545 2892.99988746643 152 147 141
170.105293393135 799.276471138 2890.00010490417 170 167 162
177.886933088303 798.986494541168 2888.99993896484 181 178 173
185.598492622375 798.419415950775 2887.00008392334 159 155 152
193.633794784546 799.234569072723 2890.00010490417 154 153 148
201.406091451645 798.942923545837 2888.99993896484 160 161 155
209.244951605797 798.927366733551 2888.99993896484 158 159 153
217.008218169212 798.634707927704 2888.00001144409 156 159 150
225.154861807823 799.724161624908 2891.99995994568 151 150 145
233.000457286835 799.706876277924 2891.99995994568 149 148 143
240.679055452347 799.136340618134 2890.00010490417 148 147 142
248.260229825974 798.288464546204 2887.00008392334 148 148 140
256.35689496994 799.099385738373 2890.00010490417 144 144 136
264.926344156265 801.29212141037 2898.00000190735 143 143 135
273.538678884506 803.484320640564 2905.99989891052 139 139 131
282.000154256821 805.122971534729 2911.99994087219 137 137 129
289.796769618988 804.825782775879 2911.00001335144 135 135 127
297.485083341599 804.251551628113 2908.99991989136 127 127 117
305.161952972412 803.677082061768 2907.00006484985 126 126 116
313.150525093079 803.931534290314 2907.99999237061 128 129 123
321.364641189575 804.738402366638 2911.00001335144 130 131 126
329.481303691864 805.268347263336 2913.00010681152 127 128 123
337.260723114014 804.968535900116 2911.99994087219 127 128 123
344.441473484039 803.286194801331 2905.99989891052 132 133 128
352.316528558731 803.262174129486 2905.99989891052 130 131 126
359.943032264709 802.685022354126 2904.00004386902 133 134 129
368.571311235428 804.31854724884 2910.00008583069 129 130 125
376.584589481354 804.569780826569 2911.00001335144 124 125 120
385.791271924973 807.308077812195 2921.0000038147 106 107 102
394.781976938248 809.493005275726 2928.99990081787 129 130 125
-107.281342148781 812.398016452789 2966.00008010864 214 216 213
-98.6929535865784 808.023750782013 2950.00004768372 208 210 207
-90.4678925871849 806.113839149475 2943.00007820129 196 198 195
-82.3366791009903 804.751098155975 2937.99996376038 192 192 190
-74.3336528539658 804.483413696289 2937.00003623962 184 184 182
-66.1777332425117 802.297711372375 2928.99990081787 170 170 168
-58.1247434020042 800.933122634888 2924.00002479553 215 215 213
-50.0472746789455 798.746109008789 2915.99988937378 202 202 200
-42.1142801642418 798.475921154022 2914.99996185303 187 187 185
-34.1514088213444 797.383189201355 2911.00001335144 215 215 213
-26.228217408061 796.837747097015 2908.99991989136 221 221 219
-18.2717237621546 794.374227523804 2900.00009536743 218 218 218
-10.3855784982443 793.55376958847 2897.0000743866 217 217 217
-2.51482939347625 792.458474636078 2892.99988746643 209 209 209
5.34158386290073 792.458355426788 2892.99988746643 207 207 207
13.1751755252481 791.088044643402 2888.00001144409 205 205 205
20.9961328655481 790.264844894409 2884.99999046326 200 202 199
28.8607068359852 791.08464717865 2888.00001144409 200 201 196
36.6906709969044 790.808081626892 2887.00008392334 196 197 192
44.6076616644859 792.174398899078 2891.99995994568 193 195 190
52.3884408175945 791.074931621552 2888.00001144409 189 193 192
60.2516531944275 791.344285011292 2888.99993896484 187 189 186
68.0258721113205 790.517449378967 2885.99991798401 188 188 186
75.8624970912933 790.511786937714 2885.99991798401 180 179 174
83.6989358067513 790.505409240723 2885.99991798401 177 174 167
91.5351808071136 790.498435497284 2885.99991798401 166 161 155
99.4056537747383 790.764808654785 2887.00008392334 166 162 153
107.132725417614 789.934933185577 2884.0000629425 175 172 165
114.962846040726 789.926171302795 2884.0000629425 171 168 163
122.877836227417 790.464520454407 2885.99991798401 157 156 151
130.803436040878 791.00239276886 2888.00001144409 147 146 141
138.691559433937 791.265666484833 2888.99993896484 146 143 136
146.381929516792 790.432870388031 2885.99991798401 147 143 134
154.322847723961 790.969014167786 2888.00001144409 148 145 138
162.21809387207 791.230440139771 2888.99993896484 154 151 144
170.059576630592 791.217625141144 2888.99993896484 176 173 168
177.777498960495 790.656387805939 2887.00008392334 177 174 169
185.291305184364 789.273023605347 2881.99996948242 159 155 152
193.246573209763 789.806187152863 2884.0000629425 149 148 143
201.072871685028 789.791107177734 2884.0000629425 153 154 148
208.97114276886 790.049314498901 2884.99999046326 159 160 154
216.724067926407 789.759337902069 2884.0000629425 154 155 147
224.782556295395 790.564060211182 2887.00008392334 146 145 140
232.695683836937 790.820717811584 2888.00001144409 147 146 141
240.697011351585 791.350543498993 2890.00010490417 150 149 144
248.536705970764 791.332185268402 2890.00010490417 148 148 140
256.641983985901 792.134881019592 2892.99988746643 143 143 135
265.037298202515 793.75833272934 2898.9999294281 143 143 135
273.558735847473 795.655190944672 2905.99989891052 138 138 130
282.020717859268 797.277569770813 2911.99994087219 138 138 130
289.917349815369 797.256708145142 2911.99994087219 135 135 127
297.711104154587 796.961605548859 2911.00001335144 127 127 117
305.498838424683 796.666145324707 2910.00008583069 126 126 118
313.495934009552 796.917676925659 2911.00001335144 127 128 122
321.718633174896 797.716319561005 2914.00003433228 130 131 126
329.617619514465 797.693192958832 2914.00003433228 127 128 123
337.284326553345 797.122180461884 2911.99994087219 128 129 124
344.702512025833 796.003401279449 2907.99999237061 132 133 128
352.583318948746 795.979142189026 2907.99999237061 129 130 125
360.587477684021 796.228289604187 2908.99991989136 131 132 127
369.73637342453 798.940360546112 2918.99991035461 125 126 121
378.680020570755 801.104485988617 2927.00004577637 117 118 113
388.194680213928 804.362952709198 2938.99989128113 115 116 111
-107.000447809696 802.237987518311 2957.99994468689 218 220 217
-98.6338779330254 799.534022808075 2947.99995422363 184 184 182
-90.3828591108322 797.371923923492 2940.00005722046 195 196 191
-82.2591558098793 796.022653579712 2934.99994277954 192 193 188
-74.2130279541016 795.215249061584 2931.99992179871 179 180 175
-66.1604255437851 794.135987758636 2927.99997329712 175 176 171
-58.1095144152641 792.784988880157 2923.00009727478 195 194 189
-50.0512830913067 790.890634059906 2915.99988937378 189 188 183
-42.1032011508942 790.351867675781 2914.00003433228 191 190 185
-34.1541469097137 789.541304111481 2911.00001335144 211 210 206
-26.2213051319122 788.730025291443 2907.99999237061 214 213 209
-18.2794909924269 786.833167076111 2901.00002288818 209 208 204
-10.3899957612157 786.020576953888 2898.00000190735 201 200 196
-2.5159006472677 784.936308860779 2894.00005340576 202 201 197
5.33647416159511 783.851325511932 2890.00010490417 197 196 192
13.153419829905 781.951904296875 2882.99989700317 195 194 190
20.9687054157257 781.408071517944 2881.00004196167 192 191 187
28.8130473345518 781.948447227478 2882.99989700317 193 192 188
36.6554819047451 782.217144966125 2884.0000629425 192 191 187
44.5032566785812 782.485067844391 2884.99999046326 191 190 186
52.3200742900372 782.209992408752 2884.0000629425 189 188 183
60.1938925683498 782.747864723206 2885.99991798401 186 185 180
68.0548772215843 783.014059066772 2887.00008392334 185 184 179
75.8159682154655 782.1946144104 2884.0000629425 179 178 173
83.6475938558578 782.188177108765 2884.0000629425 175 174 169
91.4472863078117 781.909942626953 2882.99989700317 166 165 160
99.3790924549103 782.716035842896 2885.99991798401 159 158 153
107.029750943184 781.351864337921 2881.00004196167 149 148 143
114.892199635506 781.614303588867 2881.99996948242 153 152 147
122.717201709747 781.604766845703 2881.99996948242 156 155 150
130.677849054337 782.408475875854 2884.99999046326 143 142 137
138.462394475937 782.126665115356 2884.0000629425 144 143 138
146.089047193527 781.030774116516 2880.00011444092 145 144 139
154.014259576797 781.561374664307 2881.99996948242 152 151 146
161.83765232563 781.548917293549 2881.99996948242 178 177 172
169.896170496941 782.6207280159 2885.99991798401 178 177 172
177.606508135796 782.064914703369 2884.0000629425 167 166 161
185.369893908501 781.779706478119 2882.99989700317 154 153 148
193.261444568634 782.036244869232 2884.0000629425 153 152 147
201.227724552155 782.563269138336 2885.99991798401 157 156 151
209.059521555901 782.547652721405 2885.99991798401 157 156 151
216.665357351303 781.717836856842 2882.99989700317 148 147 142
224.488079547882 781.70108795166 2882.99989700317 145 144 139
232.3909252882 781.955063343048 2884.0000629425 150 149 144
240.465208888054 782.750606536865 2887.00008392334 150 149 144
248.727276921272 784.087777137756 2891.99995994568 148 147 142
256.7498087883 784.611165523529 2894.00005340576 143 142 137
265.239804983139 786.489486694336 2901.00002288818 142 141 136
273.578852415085 787.824988365173 2905.99989891052 140 139 134
281.944543123245 789.160072803497 2911.00001335144 138 137 132
289.838910102844 789.139151573181 2911.00001335144 137 136 131
297.630399465561 788.846671581268 2910.00008583069 134 133 128
305.520832538605 788.824856281281 2910.00008583069 131 130 125
313.626110553741 789.344668388367 2911.99994087219 132 133 127
321.851938962936 790.134966373444 2914.99996185303 128 129 123
329.980373382568 790.654003620148 2917.00005531311 129 130 124
337.88725733757 790.630280971527 2917.00005531311 130 131 125
345.437914133072 789.793193340302 2914.00003433228 129 130 125
353.456646203995 790.039777755737 2914.99996185303 126 127 122
362.099915742874 791.641116142273 2921.0000038147 134 136 131
371.661812067032 795.139014720917 2934.00001525879 127 129 124
-115.780279040337 799.361050128937 2976.99999809265 214 216 213
-106.900438666344 793.462634086609 2954.99992370605 217 219 216
-98.5413491725922 790.785670280457 2944.9999332428 176 176 174
-90.3285816311836 788.913488388062 2937.99996376038 190 191 186
-82.1536108851433 787.040770053864 2930.99999427795 189 190 185
-74.1683468222618 786.778569221497 2930.0000667572 179 180 175
-66.1205425858498 785.710096359253 2926.00011825562 174 175 170
-58.0942928791046 784.640908241272 2921.99993133545 181 180 175
-50.0381328165531 782.765567302704 2914.99996185303 182 181 176
-42.0632362365723 781.695187091827 2911.00001335144 186 185 180
-34.1216921806335 780.892610549927 2907.99999237061 205 204 200
-26.1963605880737 780.089437961578 2904.99997138977 208 207 203
-18.2746630162001 778.748631477356 2900.00009536743 203 202 198
-10.3836599737406 777.675569057465 2895.99990844727 192 191 187
-2.51349504105747 776.333451271057 2891.00003242493 194 193 189
5.33505668863654 775.796294212341 2888.99993896484 191 190 186
13.159042224288 774.452924728394 2884.0000629425 190 189 185
20.9849495440722 774.182975292206 2882.99989700317 188 187 183
28.805373236537 773.91242980957 2881.99996948242 189 188 184
36.6584286093712 774.446845054626 2884.0000629425 189 188 184
