ply
format ascii 1.0
comment KinectMotionCapture
element vertex 799
property float x
property float y
property float z
property uchar red
property uchar green
property uchar blue
end_header
610.697627067566 -274.475365877151 2496.00005149841 20 23 16
625.119566917419 -277.864247560501 2526.99995040894 20 23 16
632.20602273941 -277.954280376434 2528.00011634827 12 15 8
646.12203836441 -281.012654304504 2555.99999427795 8 11 4
665.809571743011 -286.489278078079 2605.99994659424 7 9 4
679.053544998169 -289.107084274292 2630.00011444092 8 10 5
687.730133533478 -289.745986461639 2635.99991798401 10 12 7
695.647776126862 -290.055155754089 2638.99993896484 14 15 10
698.787212371826 -288.386136293411 2624.00007247925 13 16 9
706.417858600616 -288.585633039474 2625.99992752075 13 16 9
708.081007003784 -286.36771440506 2605.99994659424 14 17 10
712.928116321564 -285.468697547913 2598.00004959106 14 17 8
729.924559593201 -289.404392242432 2634.0000629425 15 18 9
733.963370323181 -288.175910711288 2622.99990653992 13 16 9
753.198266029358 -292.880117893219 2665.99988937378 10 15 9
768.386542797089 -295.936048030853 2694.00000572205 13 18 14
460.863620042801 -289.640069007874 2565.99998474121 24 26 23
474.031239748001 -293.45828294754 2599.99990463257 11 13 8
480.906218290329 -293.325692415237 2598.99997711182 6 9 2
483.45622420311 -290.597349405289 2575.00004768372 10 13 6
490.44594168663 -290.577560663223 2575.00004768372 13 16 9
495.502769947052 -289.429277181625 2565.00005722046 13 16 9
501.483619213104 -288.845181465149 2559.99994277954 11 14 7
504.457056522369 -286.568701267242 2539.99996185303 11 14 7
508.931457996368 -285.195022821426 2528.00011634827 10 13 4
515.788018703461 -285.175055265427 2528.00011634827 10 13 4
517.888247966766 -282.560646533966 2505.00011444092 13 16 7
518.18710565567 -279.044210910797 2473.99997711182 15 18 9
525.742530822754 -279.475599527359 2477.9999256134 19 22 13
534.822821617126 -280.696302652359 2489.00008201599 19 22 13
544.396698474884 -282.142281532288 2502.00009346008 18 21 12
547.43105173111 -280.205219984055 2484.99989509583 19 22 13
549.257457256317 -277.70471572876 2463.00005912781 18 21 12
559.314787387848 -279.375910758972 2477.9999256134 17 20 11
566.939890384674 -279.806852340698 2482.00011253357 15 18 9
569.963037967682 -277.983158826828 2466.00008010864 12 15 6
579.913556575775 -279.541224241257 2480.00001907349 13 16 7
591.83132648468 -282.000809907913 2502.00009346008 16 19 10
599.082171916962 -282.205939292908 2503.99994850159 17 20 11
608.036696910858 -283.199936151505 2513.00001144409 19 22 13
619.730174541473 -285.433351993561 2532.99999237061 24 27 20
611.98890209198 -278.764873743057 2473.99997711182 23 26 19
626.184105873108 -282.125055789948 2503.99994850159 12 15 8
637.760102748871 -284.245491027832 2523.00000190735 8 11 4
662.723064422607 -292.223662137985 2594.00010108948 6 8 3
680.581748485565 -296.934008598328 2635.99991798401 7 9 4
688.753008842468 -297.363579273224 2640.00010490417 8 10 5
687.455594539642 -293.738454580307 2608.00004005432 14 15 10
696.36994600296 -294.506192207336 2615.00000953674 14 17 10
702.362418174744 -294.035166501999 2611.00006103516 14 17 10
705.887138843536 -292.550802230835 2598.00004959106 15 18 11
712.633609771729 -292.417943477631 2596.99988365173 15 18 9
723.253726959229 -293.861538171768 2609.99989509583 13 16 9
735.902190208435 -296.093136072159 2630.00011444092 13 16 9
755.720734596252 -301.138907670975 2674.99995231628 14 19 13
760.665535926819 -300.21807551384 2667.00005531311 10 15 11
765.278697013855 -299.18497800827 2657.99999237061 8 13 9
455.99502325058 -293.506383895874 2539.00003433228 19 21 18
460.520297288895 -291.984170675278 2526.00002288818 13 15 10
474.04021024704 -296.125680208206 2562.00003623962 23 26 19
484.187245368958 -298.070549964905 2578.9999961853 13 16 9
490.235418081284 -297.472476959229 2573.99988174438 16 19 12
493.937313556671 -295.48767209053 2556.99992179871 16 19 12
493.432193994522 -291.076421737671 2519.00005340576 15 18 11
495.102882385254 -288.052201271057 2493.00003051758 15 18 11
497.637957334518 -285.60596704483 2471.99988365173 18 21 12
509.443044662476 -288.474321365356 2496.99997901917 17 20 11
516.21425151825 -288.454174995422 2496.99997901917 13 16 7
520.261645317078 -286.93225979805 2483.99996757507 13 16 7
525.510430335999 -286.103546619415 2476.99999809265 18 21 12
532.224178314209 -286.083340644836 2476.99999809265 19 22 13
541.330277919769 -287.333458662033 2487.99991607666 18 21 12
552.036881446838 -289.391696453094 2506.00004196167 18 21 12
552.136301994324 -285.907000303268 2476.0000705719 18 21 12
559.068918228149 -286.002099514008 2476.99999809265 17 20 11
565.549194812775 -285.866260528564 2476.0000705719 17 20 11
570.405066013336 -284.922242164612 2467.99993515015 13 16 7
580.828607082367 -286.748915910721 2483.99996757507 14 17 8
586.843550205231 -286.382138729095 2480.99994659424 14 17 8
590.927541255951 -285.092055797577 2470.00002861023 14 17 8
601.967394351959 -287.149131298065 2487.99991607666 15 18 9
617.99693107605 -291.514098644257 2526.00002288818 23 26 19
612.7108335495 -285.838842391968 2476.99999809265 24 27 20
625.913679599762 -288.818657398224 2503.00002098084 12 15 8
651.641964912415 -297.451704740524 2578.00006866455 7 10 3
668.067097663879 -301.699429750443 2615.00000953674 5 7 2
681.851506233215 -304.67763543129 2641.00003242493 5 7 2
685.862123966217 -303.271949291229 2628.99994850159 8 10 5
691.915690898895 -302.789330482483 2625 10 11 6
693.95250082016 -300.576716661453 2605.99994659424 12 15 8
700.996816158295 -300.555855035782 2605.99994659424 13 16 9
702.878057956696 -298.343926668167 2586.99989318848 15 18 11
712.887704372406 -299.591869115829 2598.00004959106 14 17 8
725.173234939575 -301.762312650681 2617.00010299683 14 17 10
739.519238471985 -304.739594459534 2642.99988746643 12 15 8
750.615179538727 -306.333184242249 2657.00006484985 11 16 10
757.222771644592 -306.082099676132 2654.99997138977 9 14 10
760.652005672455 -304.563134908676 2641.99995994568 10 15 11
766.626000404358 -304.082006216049 2638.00001144409 95 99 100
457.052975893021 -301.129460334778 2545.00007629395 18 20 17
455.213844776154 -295.430481433868 2496.99997901917 10 12 7
477.350503206253 -305.230259895325 2579.99992370605 15 18 11
480.975449085236 -303.080409765244 2562.00003623962 14 17 10
491.738677024841 -305.425822734833 2582.00001716614 18 21 14
486.576765775681 -297.953277826309 2519.00005340576 18 21 14
492.699712514877 -293.418407440186 2480.99994659424 18 21 14
495.202332735062 -290.91477394104 2460.00003814697 22 25 18
502.486288547516 -291.249394416809 2463.00005912781 18 21 12
514.333367347717 -294.185191392899 2487.99991607666 16 19 10
524.848937988281 -296.292871236801 2506.00004196167 15 18 9
521.034955978394 -290.360897779465 2456.00008964539 17 20 11
528.55122089386 -290.813356637955 2460.00003814697 19 22 13
538.9164686203 -292.802423238754 2476.99999809265 18 21 12
551.795959472656 -296.091347932816 2505.00011444092 18 21 12
558.582425117493 -296.070426702499 2505.00011444092 17 20 11
559.499800205231 -292.976677417755 2479.00009155273 17 20 11
566.4421916008 -293.074071407318 2480.00001907349 17 20 11
572.002291679382 -292.462408542633 2474.99990463257 14 17 8
582.210838794708 -294.21404004097 2490.00000953674 15 18 9
584.930777549744 -292.184621095657 2473.00004959106 14 17 8
589.232385158539 -290.98242521286 2463.00005912781 14 17 8
604.366183280945 -295.096457004547 2497.99990653992 15 18 9
608.434796333313 -293.776154518127 2486.99998855591 17 20 13
615.163862705231 -293.755352497101 2486.99998855591 21 24 17
628.143429756165 -296.687304973602 2512.00008392334 11 14 7
656.170427799225 -306.586742401123 2595.99995613098 7 10 3
667.279243469238 -308.454662561417 2611.99998855591 5 7 2
677.957236766815 -310.086160898209 2625.99992752075 6 8 3
685.057997703552 -310.064524412155 2625.99992752075 9 11 6
693.739414215088 -310.75131893158 2631.99996948242 9 10 5
698.458194732666 -309.667259454727 2622.99990653992 9 12 5
698.823928833008 -306.694656610489 2598.00004959106 11 14 7
711.551368236542 -309.152483940125 2618.99995803833 12 15 8
718.354880809784 -309.013307094574 2618.00003051758 12 15 6
726.260900497437 -309.346467256546 2621.00005149841 16 19 12
734.741926193237 -309.915691614151 2625.99992752075 16 19 12
749.181866645813 -312.96318769455 2651.99995040894 18 23 17
754.920542240143 -312.352389097214 2647.0000743866 22 27 23
763.222813606262 -312.803775072098 2651.00002288818 20 25 21
459.187924861908 -309.510618448257 2556.99992179871 22 24 21
462.485909461975 -307.069540023804 2536.99994087219 17 19 14
469.744443893433 -307.291299104691 2539.00003433228 13 15 10
484.521687030792 -312.353640794754 2581.00008964539 15 18 11
486.575931310654 -309.186428785324 2555.0000667572 20 23 16
495.827704668045 -310.617566108704 2566.99991226196 21 24 17
502.831220626831 -302.206456661224 2497.99990653992 23 26 19
504.50599193573 -299.161374568939 2473.00004959106 22 25 16
514.726161956787 -301.197052001953 2490.00000953674 21 24 15
518.335700035095 -299.361795186996 2474.99990463257 20 23 14
528.863608837128 -301.518052816391 2493.00003051758 18 21 12
528.745412826538 -297.626942396164 2460.99996566772 18 21 12
537.590265274048 -298.81539940834 2470.99995613098 19 22 13
549.792349338531 -301.817446947098 2496.00005149841 18 21 12
556.108474731445 -301.554411649704 2493.99995803833 18 21 12
564.895272254944 -302.621304988861 2503.00002098084 18 21 12
567.563116550446 -300.423860549927 2484.99989509583 18 21 12
575.447976589203 -301.007091999054 2490.00000953674 18 21 12
578.448832035065 -299.051821231842 2473.99997711182 15 18 9
584.673285484314 -298.788905143738 2471.99988365173 16 19 10
597.584366798401 -301.910221576691 2497.99990653992 16 19 10
607.248246669769 -303.339153528214 2509.99999046326 16 19 10
613.795816898346 -303.196966648102 2509.0000629425 14 17 10
619.100391864777 -302.450627088547 2503.00002098084 17 20 13
641.124844551086 -309.799790382385 2563.99989128113 14 17 10
658.92893075943 -314.973294734955 2607.00011253357 7 10 3
665.213763713837 -314.588874578476 2604.00009155273 7 9 4
674.579203128815 -315.654128789902 2612.99991607666 9 11 6
683.731853961945 -316.598564386368 2621.00005149841 10 12 7
697.40754365921 -319.596260786057 2645.99990844727 14 15 10
702.164471149445 -318.487286567688 2637.00008392334 12 15 8
708.754777908325 -318.223923444748 2634.99999046326 12 15 8
718.050181865692 -319.168269634247 2642.99988746643 12 15 8
726.290822029114 -319.629669189453 2647.0000743866 12 15 6
727.34808921814 -316.951751708984 2625 11 14 7
733.881533145905 -316.689044237137 2622.99990653992 13 16 9
746.053457260132 -318.841129541397 2641.00003242493 16 21 15
757.181227207184 -320.510178804398 2654.99997138977 18 23 19
767.520487308502 -321.817010641098 2665.99988937378 17 22 18
462.040662765503 -318.451344966888 2572.99995422363 23 23 21
467.3872590065 -317.316681146622 2563.99989128113 21 22 17
472.683936357498 -316.182076931 2555.0000667572 16 17 11
480.183124542236 -316.5323138237 2558.00008773804 18 21 14
486.745327711105 -316.26370549202 2555.99999427795 22 25 18
487.694382667542 -312.40701675415 2525.00009536743 21 23 18
498.985916376114 -306.653261184692 2479.00009155273 19 21 16
505.5051445961 -306.508541107178 2477.9999256134 19 22 15
510.777652263641 -305.621683597565 2470.99995613098 20 23 16
526.272714138031 -310.794919729233 2513.00001144409 21 24 17
528.630256652832 -308.176457881927 2492.00010299683 18 21 14
529.154121875763 -304.568976163864 2463.00005912781 16 19 12
535.17609834671 -304.176837205887 2460.00003814697 17 20 11
545.365810394287 -306.133836507797 2476.0000705719 19 22 11
555.864095687866 -308.214157819748 2493.00003051758 20 23 12
565.325140953064 -309.676080942154 2505.00011444092 21 24 13
571.881115436554 -309.530735015869 2503.99994850159 20 23 12
567.107141017914 -303.3287525177 2453.9999961853 21 24 15
576.089441776276 -304.543405771255 2463.99998664856 22 25 16
584.179043769836 -305.263608694077 2470.00002861023 22 25 16
598.041355609894 -308.949589729309 2500 20 23 14
608.436346054077 -310.781508684158 2515.00010490417 17 20 11
616.465151309967 -311.37752532959 2519.99998092651 12 15 8
633.671760559082 -316.545069217682 2562.00003623962 13 16 9
644.353449344635 -318.376123905182 2576.99990272522 12 15 8
660.676002502441 -322.924852371216 2614.00008201599 10 13 6
666.724264621735 -322.408258914948 2609.99989509583 9 11 6
673.524498939514 -322.262465953827 2608.99996757507 11 13 8
682.405471801758 -323.104798793793 2615.9999370575 11 13 8
698.966681957245 -327.528685331345 2651.99995040894 17 19 14
704.272508621216 -326.641827821732 2644.99998092651 14 17 10
714.112222194672 -327.854454517365 2654.99997138977 13 16 9
722.918510437012 -328.573137521744 2661.00001335144 12 13 7
727.092146873474 -327.19287276268 2650.00009536743 13 14 6
729.543268680573 -325.072139501572 2632.99989700317 6 7 1
729.104101657867 -321.717321872711 2605.99994659424 16 19 12
744.054853916168 -325.152546167374 2634.0000629425 11 13 8
752.882421016693 -325.871884822845 2640.00010490417 6 11 7
462.019741535187 -325.454503297806 2572.99995422363 20 20 18
467.73087978363 -324.547976255417 2565.99998474121 27 28 23
475.437730550766 -325.032562017441 2569.9999332428 30 31 25
475.65683722496 -320.458471775055 2533.99991989136 21 24 17
475.679397583008 -315.884828567505 2497.99990653992 21 24 17
485.162407159805 -317.634046077728 2512.00008392334 22 24 19
489.236414432526 -315.842539072037 2497.99990653992 22 24 19
487.077832221985 -310.131907463074 2453.00006866455 20 22 17
493.127703666687 -309.731602668762 2450.00004768372 15 18 11
502.832114696503 -311.606705188751 2464.99991416931 13 16 9
516.750752925873 -316.00958108902 2500 14 17 10
527.298092842102 -318.262964487076 2517.99988746643 15 18 11
530.305624008179 -315.966129302979 2500 17 20 13
529.132843017578 -311.268359422684 2463.00005912781 15 18 11
534.28453207016 -310.362249612808 2456.00008964539 16 19 10
543.362021446228 -311.730682849884 2467.00000762939 17 20 9
552.275002002716 -312.972545623779 2476.99999809265 20 23 12
562.595248222351 -314.972192049026 2493.00003051758 20 23 12
562.952518463135 -311.412930488586 2464.99991416931 21 24 13
567.547857761383 -310.25430560112 2456.00008964539 21 24 15
574.665188789368 -310.485273599625 2457.99994468689 21 24 15
585.576474666595 -312.737166881561 2476.0000705719 19 22 13
590.843260288239 -311.957567930222 2470.00002861023 18 21 12
609.14009809494 -317.99778342247 2517.99988746643 16 19 10
627.940356731415 -324.163407087326 2566.99991226196 14 17 10
627.466261386871 -320.352733135223 2536.99994087219 14 17 10
648.581683635712 -327.527523040771 2594.00010108948 13 16 9
662.9279255867 -331.16626739502 2622.99990653992 10 13 6
670.533359050751 -331.395924091339 2625 9 11 6
675.567269325256 -330.363273620605 2617.00010299683 11 13 8
685.252368450165 -331.602931022644 2627.00009346008 12 14 9
696.04504108429 -333.347350358963 2641.00003242493 9 14 8
705.581367015839 -334.460616111755 2650.00009536743 10 13 6
716.510474681854 -336.204886436462 2664.00003433228 9 12 5
716.104626655579 -332.648813724518 2635.99991798401 9 10 4
723.777592182159 -332.878947257996 2638.00001144409 9 10 2
728.13606262207 -331.595122814178 2628.00002098084 9 10 4
736.636400222778 -332.204043865204 2632.99989700317 14 15 9
739.796161651611 -330.416023731232 2618.99995803833 7 9 4
742.309510707855 -328.376144170761 2602.9999256134 10 15 11
455.354869365692 -327.676028013229 2536.00001335144 17 17 15
469.532161951065 -332.822859287262 2575.99997520447 24 25 20
476.89613699913 -333.059579133987 2578.00006866455 29 30 24
476.198613643646 -327.741175889969 2536.99994087219 23 26 19
470.326602458954 -319.064766168594 2470.00002861023 21 24 17
483.595907688141 -323.435306549072 2503.99994850159 23 25 20
489.998370409012 -323.155403137207 2502.00009346008 24 26 21
497.381627559662 -323.521196842194 2505.00011444092 21 23 18
502.767384052277 -322.595357894897 2497.99990653992 18 21 14
507.910192012787 -321.540504693985 2490.00000953674 16 19 12
518.175721168518 -323.713719844818 2506.99996948242 14 17 10
526.438415050507 -324.59545135498 2513.99993896484 15 18 11
527.102053165436 -320.829182863235 2484.99989509583 16 19 10
528.251826763153 -317.450642585754 2459.00011062622 16 19 10
535.350501537323 -317.686945199966 2460.99996566772 14 17 8
546.643793582916 -320.375740528107 2482.00011253357 13 16 7
551.807165145874 -319.450080394745 2474.99990463257 13 16 5
555.126309394836 -317.492127418518 2460.00003814697 14 17 6
565.899431705475 -319.793045520782 2477.9999256134 15 18 7
573.302924633026 -320.158034563065 2480.99994659424 15 18 9
583.293378353119 -321.942329406738 2494.99988555908 15 18 9
587.919414043427 -320.758789777756 2486.00006103516 14 17 8
597.518861293793 -322.284787893295 2497.99990653992 13 16 7
597.022533416748 -318.392246961594 2467.99993515015 14 17 10
614.953279495239 -324.304223060608 2513.99993896484 15 18 11
641.541004180908 -334.601104259491 2594.00010108948 12 15 8
647.058725357056 -333.804130554199 2588.00005912781 11 14 7
663.410425186157 -338.553190231323 2625 8 11 4
680.216908454895 -343.430638313293 2663.00010681152 8 10 5
680.44900894165 -339.925438165665 2635.99991798401 8 10 5
686.533749103546 -339.386522769928 2631.99996948242 10 12 7
694.440960884094 -339.750319719315 2634.99999046326 10 15 9
703.694760799408 -340.758830308914 2642.99988746643 14 17 10
704.115808010101 -337.512999773026 2618.00003051758 15 18 11
711.19236946106 -337.490499019623 2618.00003051758 16 17 11
717.993855476379 -337.33919262886 2617.00010299683 16 17 9
728.945195674896 -339.121490716934 2631.00004196167 18 19 13
738.572835922241 -340.259253978729 2640.00010490417 20 21 15
744.293987751007 -339.592784643173 2634.99999046326 7 9 4
755.976021289825 -341.632783412933 2651.00002288818 18 23 19
467.363327741623 -343.416094779968 2602.9999256134 18 18 16
466.411978006363 -337.589412927628 2559.00001525879 17 18 13
474.099546670914 -338.095247745514 2562.99996376038 18 19 13
483.121454715729 -339.524120092392 2573.99988174438 22 25 18
484.776228666306 -335.808783769608 2546.0000038147 21 24 17
486.471056938171 -332.225620746613 2519.00005340576 24 27 20
493.305742740631 -332.203596830368 2519.00005340576 24 27 20
499.742209911346 -331.917703151703 2516.99995994568 23 26 19
505.160570144653 -330.97243309021 2509.99999046326 21 24 17
512.579560279846 -331.345736980438 2513.00001144409 19 22 15
514.019906520844 -327.895402908325 2486.99998855591 14 17 10
519.71560716629 -327.214032411575 2482.00011253357 14 17 10
529.200911521912 -328.905433416367 2494.99988555908 15 18 9
529.948353767395 -325.192213058472 2467.00000762939 14 17 8
539.243936538696 -326.751619577408 2479.00009155273 16 19 10
547.722697257996 -327.783674001694 2486.99998855591 15 18 9
555.129051208496 -328.156530857086 2490.00000953674 12 15 6
558.263301849365 -326.025485992432 2473.99997711182 12 15 6
564.050257205963 -325.475990772247 2470.00002861023 12 15 4
576.977670192719 -329.011172056198 2496.99997901917 11 14 5
585.608720779419 -330.042541027069 2505.00011444092 12 15 6
594.282031059265 -331.073760986328 2513.00001144409 13 16 7
595.104515552521 -327.757596969604 2487.99991607666 13 16 7
596.758484840393 -324.968844652176 2467.00000762939 12 15 8
610.283315181732 -328.63461971283 2494.99988555908 11 14 7
635.087668895721 -338.226795196533 2568.00007820129 11 14 7
652.03583240509 -343.471646308899 2608.00004005432 10 13 6
667.683184146881 -347.925662994385 2641.99995994568 7 10 3
677.128076553345 -349.0871489048 2651.00002288818 7 9 4
689.718306064606 -351.828634738922 2671.99993133545 7 9 4
684.945523738861 -345.748335123062 2625.99992752075 9 11 6
693.100094795227 -346.25169634819 2630.00011444092 9 14 8
699.678122997284 -345.9652364254 2628.00002098084 13 16 9
704.899966716766 -345.020800828934 2621.00005149841 14 17 10
707.638382911682 -342.891901731491 2605.00001907349 16 17 11
719.068765640259 -344.975233078003 2621.00005149841 16 17 9
731.41622543335 -347.453266382217 2640.00010490417 14 15 9
734.63386297226 -345.588266849518 2625.99992752075 20 21 15
741.164803504944 -345.302820205688 2624.00007247925 14 16 11
751.676559448242 -346.859753131866 2635.99991798401 17 22 18
766.282737255096 -350.25879740715 2661.99994087219 10 15 11
461.954981088638 -346.458613872528 2572.99995422363 16 16 14
467.665821313858 -345.493972301483 2565.99998474121 17 18 13
472.967535257339 -344.260007143021 2556.99992179871 16 17 11
480.846911668777 -344.910830259323 2562.00003623962 18 21 12
475.805282592773 -336.407482624054 2499.00007247925 20 23 14
489.731818437576 -341.365933418274 2536.00001335144 21 24 15
493.283480405808 -339.055240154266 2519.00005340576 20 23 14
499.918401241302 -338.898181915283 2517.99988746643 20 23 16
505.943179130554 -338.337302207947 2513.99993896484 19 22 15
512.3530626297 -338.045507669449 2512.00008392334 17 20 13
514.824211597443 -335.196971893311 2490.9999370575 14 17 10
521.368265151978 -335.039854049683 2490.00000953674 13 16 7
528.329968452454 -335.151731967926 2490.9999370575 12 15 6
536.155343055725 -335.801750421524 2496.00005149841 11 14 5
540.308952331543 -334.164589643478 2483.99996757507 15 18 9
548.360705375671 -334.948927164078 2490.00000953674 15 18 9
556.444048881531 -335.733205080032 2496.00005149841 16 19 10
560.948431491852 -334.365248680115 2486.00006103516 16 19 10
568.366408348084 -334.74588394165 2489.00008201599 15 18 9
569.792091846466 -331.629931926727 2466.00008010864 14 17 8
585.81954240799 -336.986094713211 2506.00004196167 14 17 8
587.874352931976 -334.273844957352 2486.00006103516 12 15 6
591.972529888153 -332.772016525269 2474.99990463257 11 14 5
606.411516666412 -337.051510810852 2506.99996948242 11 14 5
618.576765060425 -339.986115694046 2529.00004386902 10 13 6
641.49421453476 -348.700672388077 2594.00010108948 11 14 7
656.012296676636 -352.709472179413 2624.00007247925 10 13 6
667.659401893616 -355.104953050613 2641.99995994568 7 10 3
674.294650554657 -354.812145233154 2640.00010490417 7 9 4
679.627656936646 -353.847503662109 2632.99989700317 8 10 5
692.746818065643 -356.914579868317 2655.99989891052 9 11 6
689.914464950562 -351.7846763134 2618.00003051758 9 14 8
695.395231246948 -350.955098867416 2611.99998855591 12 15 8
703.801095485687 -351.60368680954 2617.00010299683 13 16 9
716.036319732666 -354.133158922195 2635.99991798401 15 16 10
721.240699291229 -353.169679641724 2628.99994850159 16 17 9
729.731142520905 -353.818416595459 2634.0000629425 15 16 10
735.450565814972 -353.123992681503 2628.99994850159 19 20 14
737.470746040344 -350.683897733688 2611.00006103516 14 16 11
465.164303779602 -355.930894613266 2591.00008010864 14 14 12
470.923960208893 -354.946792125702 2584.00011062622 17 18 12
477.199226617813 -354.374587535858 2579.99992370605 16 17 11
476.320147514343 -348.583281040192 2538.00010681152 16 19 10
482.827544212341 -348.286032676697 2536.00001335144 19 22 13
486.812651157379 -346.2033867836 2520.99990844727 19 22 13
492.477625608444 -345.35676240921 2515.00010490417 18 21 12
499.300181865692 -345.334023237228 2515.00010490417 18 21 14
504.712998867035 -344.350069761276 2507.99989700317 19 22 15
512.534201145172 -345.013678073883 2513.00001144409 17 20 13
515.628159046173 -342.519551515579 2494.99988555908 15 18 11
522.392332553864 -342.496633529663 2494.99988555908 15 18 9
531.488478183746 -343.983560800552 2506.00004196167 13 16 7
542.791068553925 -346.842736005783 2526.99995040894 12 15 6
545.288741588593 -344.07439827919 2506.99996948242 10 13 4
548.337757587433 -341.718107461929 2490.00000953674 12 15 6
557.535529136658 -343.204438686371 2500.99992752075 14 17 8
564.30995464325 -343.181192874908 2500.99992752075 16 19 10
569.028377532959 -341.92305803299 2492.00010299683 17 20 11
576.469659805298 -342.311382293701 2494.99988555908 18 21 12
580.419957637787 -340.641915798187 2483.00004005432 16 19 10
578.629195690155 -335.680276155472 2447.00002670288 11 14 5
588.840425014496 -337.715059518814 2461.99989318848 10 13 4
605.420827865601 -343.315809965134 2503.00002098084 10 13 4
620.999336242676 -348.230063915253 2539.00003433228 12 15 8
639.739215373993 -354.789406061172 2586.99989318848 12 15 8
661.988139152527 -363.130688667297 2648.00000190735 11 14 7
664.602756500244 -360.638022422791 2630.00011444092 8 11 4
668.651700019836 -358.968496322632 2618.00003051758 8 10 5
694.287657737732 -364.952892065048 2661.99994087219 10 12 7
692.526042461395 -360.267728567123 2628.00002098084 7 12 6
697.767794132233 -359.284460544586 2621.00005149841 8 11 4
709.156394004822 -361.454039812088 2637.00008392334 8 11 4
719.544172286987 -363.075196743011 2648.9999294281 11 12 6
730.544865131378 -364.970445632935 2663.00010681152 12 13 5
731.647372245789 -361.931979656219 2641.00003242493 19 20 14
738.225221633911 -361.634790897369 2638.99993896484 7 8 2
749.593198299408 -363.667279481888 2654.00004386902 17 19 14
751.631855964661 -361.1781001091 2635.99991798401 12 17 13
464.423477649689 -362.41814494133 2586.99989318848 6 6 4
472.359031438828 -363.095730543137 2592.00000762939 10 11 5
477.176338434219 -361.391663551331 2579.99992370605 17 18 12
480.801492929459 -358.847409486771 2562.00003623962 13 16 7
479.377835988998 -352.661788463593 2517.99988746643 14 17 6
486.403673887253 -352.779000997543 2519.00005340576 18 21 10
490.300923585892 -350.65546631813 2503.99994850159 20 23 12
498.681664466858 -351.752728223801 2512.00008392334 21 24 15
506.702244281769 -352.569699287415 2517.99988746643 21 24 15
509.248018264771 -349.606275558472 2496.99997901917 20 23 14
513.331949710846 -347.763031721115 2483.99996757507 18 21 12
519.647538661957 -347.459971904755 2482.00011253357 17 20 11
532.101392745972 -351.216316223145 2509.0000629425 14 17 8
538.901448249817 -351.192831993103 2509.0000629425 14 17 8
546.787798404694 -351.869076490402 2513.99993896484 13 16 7
548.534691333771 -348.626494407654 2490.9999370575 12 15 6
556.843400001526 -349.582642316818 2497.99990653992 11 14 5
563.383996486664 -349.419176578522 2496.99997901917 13 16 9
569.233357906342 -348.835945129395 2493.00003051758 14 17 10
573.904812335968 -347.553163766861 2483.99996757507 15 18 9
576.890408992767 -345.291167497635 2467.99993515015 15 18 9
583.57185125351 -345.267921686172 2467.99993515015 14 17 8
599.579632282257 -350.700289011002 2506.99996948242 15 18 9
608.54172706604 -351.935654878616 2516.00003242493 14 17 8
614.372134208679 -351.352512836456 2512.00008392334 16 19 12
650.842785835266 -368.112146854401 2631.99996948242 13 16 9
662.963449954987 -370.884567499161 2651.99995040894 10 13 6
667.610704898834 -369.461387395859 2641.99995994568 7 10 3
665.051996707916 -364.12325501442 2604.00009155273 9 11 6
671.320378780365 -363.679647445679 2601.0000705719 10 12 7
681.744694709778 -365.473240613937 2614.00008201599 9 11 6
696.191251277924 -369.363754987717 2641.99995994568 9 14 8
699.607610702515 -367.382436990738 2628.00002098084 12 15 8
709.67036485672 -368.896216154099 2638.99993896484 12 15 8
721.150159835815 -371.108770370483 2654.99997138977 13 14 8
729.423761367798 -371.644020080566 2658.99991989136 12 13 5
735.225439071655 -370.921552181244 2654.00004386902 11 12 4
749.950587749481 -374.671310186386 2680.99999427795 15 16 10
755.218684673309 -373.669594526291 2674.00002479553 10 12 7
761.018633842468 -372.947633266449 2668.99991035461 3 8 4
761.609971523285 -369.710952043533 2645.99990844727 16 21 17
461.528331041336 -367.16902256012 2571.00009918213 3 3 1
469.055742025375 -367.574363946915 2573.99988174438 12 13 7
476.968199014664 -368.265092372894 2578.9999961853 18 19 13
482.091814279556 -366.813808679581 2569.00000572205 14 17 6
482.400864362717 -361.79319024086 2533.99991989136 13 16 5
484.642863273621 -358.343541622162 2509.99999046326 16 19 8
488.711535930634 -356.321781873703 2496.00005149841 19 22 11
494.489699602127 -355.584859848022 2490.9999370575 21 24 13
497.623890638351 -352.992326021194 2473.00004959106 23 26 15
502.494871616364 -351.684629917145 2463.99998664856 22 25 16
509.58913564682 -351.946949958801 2466.00008010864 20 23 14
516.065061092377 -351.780951023102 2464.99991416931 19 22 13
525.079488754272 -353.327363729477 2476.0000705719 16 19 10
538.877725601196 -358.012676239014 2509.0000629425 16 19 10
542.84930229187 -356.133997440338 2496.00005149841 15 18 9
546.529352664948 -354.112863540649 2482.00011253357 13 16 9
553.699016571045 -354.374498128891 2483.99996757507 12 15 8
554.787039756775 -350.784480571747 2459.00011062622 12 15 8
566.013157367706 -353.613883256912 2479.00009155273 12 15 8
570.646822452545 -352.306485176086 2470.00002861023 14 17 8
576.633334159851 -351.855039596558 2467.00000762939 14 17 8
582.366228103638 -351.260989904404 2463.00005912781 15 18 9
591.424703598022 -352.663576602936 2473.00004959106 16 19 10
614.322543144226 -362.19397187233 2539.99996185303 17 20 11
624.86469745636 -364.308595657349 2555.0000667572 18 21 14
651.559889316559 -375.690519809723 2634.99999046326 14 17 10
660.688757896423 -376.806110143662 2642.99988746643 12 15 8
667.080581188202 -376.35350227356 2640.00010490417 9 12 5
667.326152324677 -372.479885816574 2612.99991607666 9 11 6
670.263767242432 -370.174765586853 2596.99988365173 10 12 7
684.067606925964 -373.856276273727 2622.99990653992 10 12 7
693.004906177521 -374.829590320587 2630.00011444092 9 14 8
701.979339122772 -375.802874565125 2637.00008392334 13 16 9
708.570778369904 -375.493615865707 2634.99999046326 14 17 10
716.780304908752 -376.039564609528 2638.99993896484 17 18 12
722.54204750061 -375.303149223328 2634.0000629425 16 17 9
736.032843589783 -378.556430339813 2657.00006484985 16 17 9
745.731115341187 -379.814803600311 2665.99988937378 11 12 6
759.431481361389 -383.067667484283 2688.99989128113 7 9 4
754.437446594238 -376.918762922287 2645.99990844727 10 15 11
462.043762207031 -374.596923589706 2573.99988174438 3 3 1
467.756867408752 -373.554885387421 2566.99991226196 15 16 10
475.280314683914 -373.967975378037 2569.9999332428 18 19 11
481.130063533783 -373.07134270668 2563.99989128113 17 20 9
483.519703149796 -369.555741548538 2539.99996185303 16 20 6
482.881873846054 -363.858193159103 2500.99992752075 17 21 7
486.730366945267 -361.652702093124 2486.00006103516 16 20 6
491.091847419739 -359.883725643158 2473.99997711182 12 16 2
495.588541030884 -358.2603931427 2463.00005912781 17 20 9
503.899097442627 -359.400629997253 2470.99995613098 19 22 11
510.185599327087 -359.086215496063 2469.00010108948 20 23 12
513.110816478729 -356.444954872131 2450.99997520447 22 25 16
523.359477519989 -358.893632888794 2467.99993515015 23 26 17
534.558415412903 -361.923575401306 2489.00008201599 23 26 17
539.345800876617 -360.591024160385 2480.00001907349 19 22 13
544.083476066589 -359.258621931076 2470.99995613098 18 21 14
551.000416278839 -359.380215406418 2471.99988365173 12 15 8
560.629069805145 -361.246168613434 2484.99989509583 11 14 7
563.249588012695 -358.605653047562 2467.00000762939 10 13 6
565.540671348572 -355.820149183273 2447.99995422363 13 16 7
579.414308071136 -360.302060842514 2479.00009155273 14 17 8
584.706902503967 -359.406173229218 2473.00004959106 16 19 10
597.618758678436 -363.160669803619 2499.00007247925 17 20 11
613.814532756805 -368.803828954697 2538.00010681152 17 20 11
634.378015995026 -376.916408538818 2594.00010108948 17 20 13
647.82577753067 -380.669116973877 2619.99988555908 14 17 10
658.413946628571 -382.678061723709 2634.0000629425 13 16 9
666.550278663635 -383.234024047852 2638.00001144409 9 12 5
672.664403915405 -382.627904415131 2634.0000629425 9 11 6
676.69141292572 -380.859851837158 2621.99997901917 10 12 7
684.825479984283 -381.416141986847 2625.99992752075 11 13 8
691.399455070496 -381.100982427597 2624.00007247925 7 12 6
698.494374752045 -381.076484918594 2624.00007247925 12 15 8
707.202017307281 -381.923466920853 2630.00011444092 13 16 9
715.126633644104 -382.334798574448 2632.99989700317 15 16 10
721.969544887543 -382.165491580963 2631.99996948242 15 16 8
732.130706310272 -383.73863697052 2642.99988746643 15 16 10
745.707154273987 -387.053906917572 2665.99988937378 12 13 7
735.402584075928 -378.029406070709 2604.00009155273 18 20 15
742.724537849426 -378.151416778564 2605.00001907349 12 17 13
763.866722583771 -385.241121053696 2654.00004386902 7 12 8
465.251266956329 -384.264081716537 2592.00000762939 7 7 5
470.28437256813 -382.609605789185 2581.00008964539 19 20 14
472.667664289474 -378.879934549332 2555.99999427795 20 21 13
476.978242397308 -376.781016588211 2542.00005531311 18 21 10
480.069667100906 -373.792976140976 2522.0000743866 17 21 7
485.947489738464 -373.028218746185 2516.99995994568 17 21 7
492.776066064835 -373.004406690598 2516.99995994568 15 19 5
500.199019908905 -373.425036668777 2519.99998092651 10 14 0
504.015684127808 -371.178358793259 2505.00011444092 12 15 4
511.828243732452 -371.895164251328 2509.99999046326 13 16 5
512.021660804749 -367.130041122437 2477.9999256134 16 19 8
517.483294010162 -366.217195987701 2471.99988365173 17 20 11
525.668263435364 -367.230266332626 2479.00009155273 20 23 14
532.172024250031 -367.058128118515 2477.9999256134 21 24 15
542.3663854599 -369.403839111328 2493.99995803833 20 23 14
546.701729297638 -367.750406265259 2483.00004005432 20 23 16
552.98238992691 -367.429971694946 2480.99994659424 17 20 13
559.702575206757 -367.405772209167 2480.99994659424 16 19 12
573.270976543427 -371.823877096176 2510.99991798401 16 19 12
572.67826795578 -367.061197757721 2479.00009155273 14 17 8
585.233271121979 -370.738446712494 2503.99994850159 14 17 8
590.120792388916 -369.529634714127 2496.00005149841 15 18 9
593.051016330719 -367.136657238007 2480.00001907349 15 18 9
611.129760742188 -374.06986951828 2526.99995040894 15 18 9
631.907522678375 -382.482469081879 2584.00011062622 16 19 12
648.295044898987 -388.081759214401 2621.99997901917 13 16 9
674.385905265808 -399.304449558258 2697.99995422363 13 16 9
675.620853900909 -395.72662115097 2674.00002479553 10 13 6
676.725149154663 -392.149388790131 2650.00009536743 8 10 5
681.569933891296 -390.792340040207 2641.00003242493 9 11 6
686.625957489014 -389.583438634872 2632.99989700317 10 12 7
691.638290882111 -388.374924659729 2625 9 14 8
700.333118438721 -389.237821102142 2631.00004196167 12 15 8
707.177579402924 -389.065235853195 2630.00011444092 13 16 9
712.929546833038 -388.301074504852 2625 14 15 9
723.865449428558 -390.347570180893 2638.99993896484 14 15 7
728.505671024323 -388.992220163345 2630.00011444092 17 18 12
733.655989170074 -387.932956218719 2622.99990653992 20 21 15
728.036761283875 -381.254374980927 2578.00006866455 15 17 12
739.565253257751 -383.597314357758 2594.00010108948 16 21 17
484.611809253693 -407.615214586258 2700.00004768372 13 14 9
466.980755329132 -386.908710002899 2562.99996376038 22 23 15
470.574885606766 -378.558844327927 2507.99989700317 18 21 10
472.051441669464 -374.309062957764 2480.00001907349 16 20 6
484.186053276062 -378.511250019073 2507.99989700317 15 19 5
494.709759950638 -381.354570388794 2526.99995040894 16 20 6
500.571846961975 -380.575805902481 2522.0000743866 16 19 8
506.607055664063 -379.94784116745 2517.99988746643 15 18 7
511.396169662476 -378.414660692215 2507.99989700317 12 15 4
518.609344959259 -378.692001104355 2509.99999046326 14 17 6
521.017968654633 -375.499397516251 2489.00008201599 15 18 7
525.856137275696 -374.117344617844 2480.00001907349 17 20 11
533.006846904755 -374.394744634628 2482.00011253357 17 20 11
540.602326393127 -374.973684549332 2486.00006103516 17 20 13
548.438668251038 -375.703275203705 2490.9999370575 17 20 13
550.06068944931 -372.209995985031 2467.99993515015 17 20 13
558.099150657654 -373.090535402298 2473.99997711182 17 20 13
565.484344959259 -373.518466949463 2476.99999809265 16 18 13
581.201016902924 -379.374653100967 2516.00003242493 13 16 7
584.975004196167 -377.389758825302 2503.00002098084 13 16 7
590.569078922272 -376.611232757568 2497.99990653992 13 16 7
596.135377883911 -375.832855701447 2493.00003051758 14 17 8
603.124678134918 -375.959068536758 2493.99995803833 16 19 12
620.389044284821 -382.416218519211 2536.99994087219 17 20 13
643.324673175812 -392.188549041748 2601.99999809265 13 16 9
662.112236022949 -399.246782064438 2648.9999294281 13 16 9
673.826456069946 -401.93372964859 2667.00005531311 10 13 6
677.72114276886 -399.948805570602 2654.00004386902 7 9 4
686.705827713013 -400.977969169617 2661.00001335144 7 9 4
689.990818500519 -398.692190647125 2645.99990844727 10 12 7
693.720996379852 -396.708190441132 2632.99989700317 8 13 7
703.502297401428 -398.189723491669 2642.99988746643 12 15 8
706.615030765533 -395.905017852783 2628.00002098084 14 17 10
713.71978521347 -395.880311727524 2628.00002098084 16 17 11
721.372425556183 -396.157056093216 2630.00011444092 16 17 9
731.528401374817 -397.789537906647 2641.00003242493 18 19 13
728.038251399994 -392.042011022568 2602.9999256134 17 18 12
730.837464332581 -389.759302139282 2588.00005912781 14 16 11
750.660717487335 -396.512567996979 2632.99989700317 15 20 16
468.254297971725 -400.968879461288 2608.99996757507 12 13 8
466.774523258209 -393.721550703049 2562.00003623962 16 17 9
473.174422979355 -393.236339092255 2559.00001525879 24 25 17
470.175921916962 -385.068088769913 2506.00004196167 19 21 10
477.547407150269 -385.505020618439 2509.0000629425 18 20 9
487.250804901123 -387.785524129868 2523.9999294281 16 18 7
493.706613779068 -387.453824281693 2522.0000743866 16 18 7
497.967332601547 -385.43227314949 2509.0000629425 16 17 9
503.564834594727 -384.486138820648 2503.00002098084 13 16 7
510.148286819458 -384.308010339737 2502.00009346008 13 16 7
514.659225940704 -382.593929767609 2490.9999370575 16 19 10
523.086667060852 -383.797973394394 2499.00007247925 17 20 11
527.740001678467 -382.237583398819 2489.00008201599 16 19 10
530.190765857697 -379.141747951508 2469.00010108948 16 19 10
537.968277931213 -379.884898662567 2473.99997711182 16 19 10
545.111656188965 -380.167424678802 2476.0000705719 16 19 10
550.704836845398 -379.375100135803 2470.99995613098 14 17 8
554.691016674042 -377.508282661438 2459.00011062622 13 16 7
566.829442977905 -381.167978048325 2483.00004005432 11 14 5
579.097032546997 -384.827226400375 2506.99996948242 8 11 4
586.352407932281 -385.109275579453 2509.0000629425 9 12 5
594.090521335602 -385.698229074478 2513.00001144409 10 13 6
600.175619125366 -385.212779045105 2509.99999046326 12 15 8
600.439965724945 -381.044417619705 2483.00004005432 16 19 12
626.966178417206 -393.449366092682 2563.99989128113 17 20 13
656.587779521942 -403.064996004105 2627.00009346008 9 11 6
666.221082210541 -404.573351144791 2637.00008392334 7 9 4
672.84369468689 -404.240727424622 2634.99999046326 8 10 5
679.196417331696 -403.75480055809 2631.99996948242 8 10 5
690.226256847382 -406.030207872391 2647.0000743866 7 9 4
698.438167572021 -406.618148088455 2651.00002288818 8 13 7
702.944815158844 -405.059009790421 2641.00003242493 12 15 8
709.010064601898 -404.420375823975 2637.00008392334 13 16 9
712.065696716309 -402.095019817352 2621.99997901917 16 17 11
720.525085926056 -402.837097644806 2627.00009346008 16 17 9
725.964248180389 -401.892513036728 2621.00005149841 18 19 13
732.20956325531 -401.40825510025 2618.00003051758 12 13 7
736.179113388062 -399.697721004486 2607.00011253357 13 15 10
752.917766571045 -404.886484146118 2641.00003242493 13 18 14
470.203936100006 -409.780234098434 2619.99988555908 9 10 5
469.665199518204 -403.186738491058 2578.00006866455 21 22 14
472.410410642624 -399.565249681473 2555.0000667572 23 24 16
483.284592628479 -402.824580669403 2575.99997520447 19 21 10
484.565198421478 -398.108690977097 2546.0000038147 18 20 9
487.419366836548 -394.800424575806 2525.00009536743 16 17 9
491.137325763702 -392.274290323257 2509.0000629425 16 17 9
498.935014009476 -393.031269311905 2513.99993896484 16 17 9
504.344940185547 -391.912221908569 2506.99996948242 13 16 7
509.715795516968 -390.793144702911 2500 15 18 9
515.047788619995 -389.674246311188 2493.00003051758 15 18 9
525.573551654816 -392.462760210037 2510.99991798401 16 19 10
529.199361801147 -390.093356370926 2496.00005149841 16 19 10
529.09243106842 -385.067492723465 2463.99998664856 16 19 10
533.159911632538 -383.167594671249 2451.99990272522 15 18 9
543.545842170715 -385.799378156662 2469.00010108948 15 18 9
548.451542854309 -384.524583816528 2460.99996566772 14 17 8
556.245267391205 -385.280936956406 2466.00008010864 13 16 7
568.402469158173 -389.005571603775 2490.00000953674 12 15 6
577.224135398865 -390.386551618576 2499.00007247925 11 14 7
587.495744228363 -392.704486846924 2513.99993896484 11 14 7
596.192955970764 -393.928796052933 2522.0000743866 11 14 7
603.019833564758 -393.903493881226 2522.0000743866 11 14 7
603.316903114319 -389.661371707916 2494.99988555908 14 17 10
611.047148704529 -390.261173248291 2499.00007247925 15 18 11
661.060452461243 -413.008809089661 2644.99998092651 9 11 6
668.216168880463 -412.982612848282 2644.99998092651 7 9 4
663.880884647369 -405.930757522583 2599.99990463257 8 10 5
675.55820941925 -408.715337514877 2618.00003051758 8 10 5
689.678907394409 -412.904620170593 2644.99998092651 7 9 4
693.670392036438 -411.005735397339 2632.99989700317 7 12 6
702.919483184814 -412.228912115097 2641.00003242493 12 15 8
708.178222179413 -411.11096739769 2634.0000629425 14 17 10
711.497604846954 -408.900827169418 2619.99988555908 18 19 13
716.934859752655 -407.939672470093 2614.00008201599 18 19 13
724.001109600067 -407.915055751801 2614.00008201599 15 16 10
729.108870029449 -406.798362731934 2607.00011253357 12 13 7
735.308110713959 -406.306177377701 2604.00009155273 10 12 9
747.762262821198 -409.24671292305 2622.99990653992 14 18 17
459.77047085762 -407.670915126801 2562.00003623962 8 9 4
468.36531162262 -409.078389406204 2571.00009918213 22 23 15
478.302180767059 -411.599189043045 2586.99989318848 19 20 12
481.571227312088 -408.39222073555 2566.99991226196 19 21 10
483.017921447754 -403.753787279129 2538.00010681152 18 20 9
487.394660711288 -401.660919189453 2525.00009536743 16 17 9
491.89555644989 -399.72722530365 2513.00001144409 16 17 9
498.513340950012 -399.543285369873 2512.00008392334 16 17 9
504.923522472382 -399.200141429901 2509.99999046326 15 18 9
509.894847869873 -397.743791341782 2500.99992752075 14 17 8
519.774377346039 -400.10404586792 2516.00003242493 13 16 7
529.315769672394 -402.145951986313 2529.00004386902 14 17 8
528.750240802765 -396.555334329605 2493.99995803833 16 19 10
532.288432121277 -394.145250320435 2479.00009155273 16 19 10
538.136065006256 -393.484175205231 2474.99990463257 14 17 8
540.879249572754 -390.597611665726 2457.00001716614 14 17 8
553.774952888489 -395.023614168167 2484.99989509583 14 17 8
560.280323028564 -394.839435815811 2483.99996757507 14 17 8
567.236006259918 -394.973188638687 2484.99989509583 14 17 8
580.432534217834 -399.398058652878 2513.00001144409 15 18 11
586.068212985992 -398.577928543091 2507.99989700317 14 17 10
595.694720745087 -400.459498167038 2519.99998092651 12 15 8
594.865143299103 -395.349055528641 2487.99991607666 12 15 8
596.521496772766 -391.987234354019 2467.00000762939 13 16 9
608.08801651001 -395.139962434769 2486.99998855591 13 16 9
649.427711963654 -417.357087135315 2627.00009346008 10 12 7
662.03373670578 -420.825660228729 2648.9999294281 9 11 6
667.432010173798 -419.687241315842 2641.99995994568 7 9 4
665.387153625488 -413.942575454712 2605.99994659424 8 10 5
671.661913394928 -413.44028711319 2602.9999256134 8 10 5
687.30640411377 -418.655753135681 2635.99991798401 7 9 4
695.488810539246 -419.265151023865 2640.00010490417 6 11 5
695.974051952362 -415.269374847412 2615.00000953674 10 13 6
707.346379756927 -417.784750461578 2631.00004196167 12 15 8
709.571719169617 -414.901256561279 2612.99991607666 17 18 12
716.635763645172 -414.876312017441 2612.99991607666 18 19 13
724.807381629944 -415.486633777618 2617.00010299683 17 18 12
734.957575798035 -417.208343744278 2628.00002098084 15 16 10
736.978113651276 -414.326399564743 2609.99989509583 14 16 13
741.466701030731 -412.873715162277 2601.0000705719 17 21 20
460.463613271713 -415.279507637024 2565.99998474121 9 10 5
470.344245433807 -417.843967676163 2582.00001716614 22 23 15
475.873589515686 -416.524231433868 2573.99988174438 18 19 11
476.668685674667 -411.159247159958 2540.99988937378 19 21 10
479.186803102493 -407.412827014923 2517.99988746643 18 20 9
486.404567956924 -407.71147608757 2519.99998092651 16 17 9
495.785176753998 -409.789532423019 2532.99999237061 16 17 9
499.480456113815 -407.175868749619 2516.99995994568 16 17 9
503.691434860229 -405.047684907913 2503.99994850159 15 18 9
508.850395679474 -403.728455305099 2496.00005149841 14 17 8
519.749045372009 -406.938016414642 2516.00003242493 13 16 7
522.383689880371 -403.677880764008 2496.00005149841 13 16 7
530.420958995819 -404.622793197632 2502.00009346008 15 18 9
534.625053405762 -402.656823396683 2490.00000953674 16 19 10
538.980543613434 -400.852680206299 2479.00009155273 14 17 8
545.476913452148 -400.665611028671 2477.9999256134 14 17 8
553.526818752289 -401.610344648361 2483.99996757507 14 17 8
563.187122344971 -403.686612844467 2496.99997901917 14 17 8
569.721460342407 -403.499394655228 2496.00005149841 14 17 8
573.939859867096 -401.695638895035 2484.99989509583 14 17 10
583.939671516418 -403.933197259903 2499.00007247925 14 17 10
591.650724411011 -404.554158449173 2503.00002098084 12 15 8
587.906539440155 -397.417455911636 2459.00011062622 13 16 9
597.70542383194 -399.493247270584 2471.99988365173 14 17 10
624.688684940338 -412.880718708038 2555.0000667572 15 18 11
662.00715303421 -428.017228841782 2648.9999294281 9 11 6
669.173896312714 -427.990555763245 2648.9999294281 7 9 4
666.12720489502 -421.501725912094 2608.99996757507 8 10 5
673.958301544189 -421.960294246674 2611.99998855591 8 10 5
689.62687253952 -427.265077829361 2644.99998092651 7 9 4
696.25324010849 -426.915913820267 2642.99988746643 6 11 5
702.335774898529 -426.243841648102 2638.99993896484 8 11 4
706.245481967926 -424.280017614365 2627.00009346008 8 11 4
708.188891410828 -421.186119318008 2608.00004005432 9 10 4
712.771415710449 -419.707655906677 2598.99997711182 10 11 5
725.33643245697 -422.912418842316 2618.99995803833 13 14 8
738.009095191956 -426.11700296402 2638.99993896484 13 14 8
743.165731430054 -424.962073564529 2631.99996948242 13 15 12
746.28883600235 -422.677397727966 2618.00003051758 16 20 19
464.565843343735 -426.035404205322 2588.99998664856 14 15 10
469.772577285767 -424.364656209946 2578.9999961853 18 19 11
476.587802171707 -424.174785614014 2578.00006866455 20 21 13
477.769136428833 -419.048964977264 2546.99993133545 19 21 10
482.967734336853 -417.542994022369 2538.00010681152 18 20 9
491.204619407654 -418.669164180756 2545.00007629395 16 17 9
496.346950531006 -417.163103818893 2536.00001335144 16 17 9
504.812777042389 -418.453395366669 2543.99991035461 16 17 9
503.263890743256 -411.519646644592 2502.00009346008 14 17 8
506.786465644836 -408.862739801407 2486.00006103516 14 17 8
511.460721492767 -407.192796468735 2476.0000705719 14 17 8
519.637644290924 -408.318608999252 2483.00004005432 14 17 8
526.791572570801 -408.621996641159 2484.99989509583 13 16 7
534.170150756836 -409.089714288712 2487.99991607666 13 16 7
540.042161941528 -408.406406641006 2483.99996757507 15 18 9
546.772241592407 -408.380836248398 2483.99996757507 14 17 8
557.512164115906 -411.314308643341 2502.00009346008 13 16 7
563.386917114258 -410.630911588669 2497.99990653992 13 16 7
566.956877708435 -408.303916454315 2483.99996757507 14 17 8
572.759628295898 -407.620817422867 2480.00001907349 13 16 9
577.371537685394 -406.116038560867 2470.99995613098 13 16 9
584.770381450653 -406.583666801453 2473.99997711182 13 16 9
590.750157833099 -406.065165996552 2470.99995613098 13 16 9
600.097954273224 -407.847374677658 2482.00011253357 16 19 12
629.307806491852 -422.938615083694 2573.99988174438 17 20 13
655.80153465271 -435.892224311829 2653.00011634827 10 12 7
