ply
format ascii 1.0
comment KinectMotionCapture
element vertex 777
property float x
property float y
property float z
property uchar red
property uchar green
property uchar blue
end_header
127.400636672974 1014.84000682831 2819.00000572205 88 70 46
135.085612535477 1015.19322395325 2819.9999332428 73 58 37
142.978295683861 1016.9860124588 2825.00004768372 67 52 33
150.57797729969 1016.61837100983 2823.99988174438 70 53 35
157.891944050789 1014.45066928864 2818.00007820129 71 54 36
165.466889739037 1014.08243179321 2816.99991226196 77 58 43
173.404946923256 1015.87378978729 2822.00002670288 87 68 53
181.690663099289 1019.46473121643 2832.00001716614 89 73 58
189.294874668121 1019.09554004669 2831.00008964539 68 56 42
196.963027119637 1019.08588409424 2831.00008964539 31 25 13
221.986368298531 1028.41424942017 2857.00011253357 11 14 5
296.769261360168 993.728637695313 2760.99991798401 182 183 178
303.362876176834 990.836441516876 2753.00002098084 176 175 171
310.251533985138 989.023745059967 2747.99990653992 132 131 127
317.228555679321 987.570881843567 2743.99995803833 135 134 130
324.18367266655 986.118078231812 2740.00000953674 130 129 125
330.874770879745 983.94513130188 2733.99996757507 133 132 128
337.904363870621 982.851982116699 2730.99994659424 123 122 118
345.044016838074 982.118666172028 2729.00009155273 121 120 116
352.301597595215 981.745064258575 2727.9999256134 116 115 111
359.817326068878 982.091248035431 2729.00009155273 113 112 108
367.472767829895 982.797086238861 2730.99994659424 115 114 110
375.138849020004 983.503043651581 2733.00004005432 121 122 117
382.815450429916 984.208762645721 2734.99989509583 126 127 122
391.64412021637 987.793326377869 2744.99988555908 133 135 130
52.2568933665752 1031.60154819489 2887.00008392334 85 65 54
59.4970174133778 1021.59321308136 2858.99996757507 157 131 114
67.0792609453201 1019.0886259079 2851.99999809265 171 146 126
74.7283920645714 1018.01264286041 2848.99997711182 120 95 73
82.2165012359619 1015.14995098114 2841.00008010864 108 83 63
89.8193791508675 1014.07325267792 2838.00005912781 101 76 56
97.1653908491135 1010.49506664276 2828.00006866455 80 54 39
104.790687561035 1010.13219356537 2826.99990272522 82 56 43
112.211585044861 1007.9824924469 2821.00009918213 88 62 45
119.897216558456 1008.33356380463 2822.00002670288 93 68 46
127.407357096672 1007.25507736206 2819.00000572205 80 56 32
135.140597820282 1007.96270370483 2821.00009918213 70 49 30
143.086984753609 1010.09905338287 2826.99990272522 63 45 25
150.852411985397 1010.80596446991 2828.9999961853 60 39 20
158.348336815834 1009.72592830658 2825.99997520447 61 40 21
165.710389614105 1007.9311132431 2821.00009918213 51 28 10
173.536702990532 1008.99410247803 2823.99988174438 74 53 36
181.828215718269 1012.55786418915 2834.00011062622 80 61 46
190.039977431297 1015.40660858154 2842.00000762939 110 92 78
198.016539216042 1016.82591438293 2845.99995613098 26 14 0
204.496577382088 1010.74182987213 2828.9999961853 25 15 3
297.749817371368 989.508152008057 2769.99998092651 183 183 181
303.927063941956 985.208034515381 2757.99989700317 186 185 181
310.603648424149 982.694029808044 2750.99992752075 132 131 127
317.473292350769 980.894386768341 2746.00005149841 132 131 127
324.433922767639 979.451715946198 2742.00010299683 133 132 128
331.251591444016 977.651834487915 2736.99998855591 129 128 124
338.536888360977 977.280676364899 2736.00006103516 125 124 120
345.437198877335 975.837707519531 2732.00011253357 122 121 117
352.832168340683 975.823521614075 2732.00011253357 118 117 113
360.226929187775 975.809395313263 2732.00011253357 115 114 110
368.42879652977 977.937817573547 2737.99991607666 115 114 110
376.525670289993 979.709446430206 2743.00003051758 117 118 113
384.789347648621 981.837928295136 2749.00007247925 122 123 118
52.9476553201675 1037.31155395508 2924.99995231628 94 70 60
59.7292445600033 1017.80331134796 2869.99988555908 180 148 133
67.0829638838768 1011.4164352417 2851.99999809265 169 138 120
74.5226740837097 1007.51149654388 2841.00008010864 101 70 49
81.9894894957542 1004.66990470886 2832.99994468689 97 69 48
89.6660536527634 1004.66525554657 2832.99994468689 105 76 60
97.2737818956375 1003.95083427429 2831.00008964539 92 63 47
104.796409606934 1002.52664089203 2826.99990272522 96 67 53
112.177900969982 1000.03838539124 2819.9999332428 116 87 71
119.818732142448 1000.03206729889 2819.9999332428 111 84 63
127.595022320747 1001.08909606934 2822.99995422363 90 64 41
135.435298085213 1002.50041484833 2826.99990272522 77 55 34
143.246501684189 1003.55672836304 2829.99992370605 78 57 38
151.127099990845 1004.96733188629 2834.00011062622 70 48 27
159.19728577137 1007.44116306305 2841.00008010864 77 52 32
166.659012436867 1006.01387023926 2836.99989318848 75 50 30
174.283236265182 1005.65028190613 2835.99996566772 93 67 50
181.901857256889 1005.28633594513 2835.00003814697 96 73 57
190.384179353714 1009.53161716461 2846.99988365173 128 106 92
198.722526431084 1012.71271705627 2855.99994659424 36 20 7
206.748023629189 1014.12057876587 2859.99989509583 38 24 13
228.380426764488 1042.11032390594 2938.99989128113 30 15 8
298.945814371109 985.948920249939 2780.99989891052 184 184 182
304.60199713707 979.908049106598 2763.99993896484 189 188 184
311.069130897522 976.703464984894 2755.00011444092 134 133 129
317.71844625473 974.207580089569 2747.99990653992 132 131 127
324.566334486008 972.420871257782 2743.00003051758 133 132 128
331.870973110199 972.052037715912 2742.00010299683 129 128 124
339.293628931046 972.037553787231 2742.00010299683 125 124 120
346.33669257164 970.959365367889 2739.00008201599 121 120 116
353.621542453766 970.590114593506 2737.99991607666 118 117 113
361.032605171204 970.575273036957 2737.99991607666 116 115 111
369.25083398819 972.687363624573 2743.99995803833 115 114 110
377.775877714157 975.508213043213 2752.00009346008 117 118 113
386.62388920784 979.037821292877 2762.00008392334 121 122 117
46.147596091032 1055.13858795166 2997.99990653992 203 200 193
53.5842627286911 1041.7617559433 2960.00003814697 59 32 23
59.9615722894669 1013.9547586441 2881.00004196167 166 133 118
67.2043859958649 1005.50448894501 2857.00011253357 146 113 94
74.6580436825752 1001.62887573242 2845.99995613098 140 108 85
82.167774438858 999.160885810852 2838.99998664856 140 108 87
89.7027403116226 997.396349906921 2834.00011062622 108 75 58
97.244881093502 995.983183383942 2829.99992370605 104 71 54
104.691058397293 993.86590719223 2823.99988174438 124 92 77
112.144373357296 992.100119590759 2819.00000572205 127 98 80
119.825385510921 992.445468902588 2819.9999332428 102 74 53
127.602070569992 993.494391441345 2822.99995422363 114 88 65
135.394856333733 994.542837142944 2825.99997520447 107 80 59
143.254339694977 995.942771434784 2829.99992370605 96 69 50
151.241987943649 998.046159744263 2835.99996566772 97 69 48
159.261971712112 1000.14925003052 2842.00000762939 98 70 49
166.961759328842 1000.14019012451 2842.00000762939 103 72 52
174.661353230476 1000.13089179993 2842.00000762939 107 79 58
182.360723614693 1000.12123584747 2842.00000762939 120 93 76
190.594926476479 1002.92634963989 2849.99990463257 145 118 101
198.872223496437 1005.73122501373 2858.00004005432 152 129 115
207.55410194397 1010.2950334549 2871.00005149841 53 31 18
216.45613014698 1015.56217670441 2885.99991798401 25 6 0
228.625357151031 1035.25638580322 2941.99991226196 40 13 6
238.283038139343 1042.63389110565 2963.00005912781 38 10 6
298.744857311249 977.757155895233 2779.00004386902 187 187 185
305.608004331589 975.631892681122 2773.00000190735 190 189 185
311.873763799667 971.747279167175 2762.00008392334 138 137 133
318.426579236984 968.918085098267 2753.99994850159 134 133 129
325.409144163132 967.496156692505 2750 131 130 126
332.974910736084 967.83310174942 2750.99992752075 133 132 128
340.050846338272 966.762661933899 2747.99990653992 122 121 117
347.11030125618 965.692162513733 2744.99988555908 119 118 114
354.282319545746 964.973390102386 2743.00003051758 119 118 114
361.70706152916 964.958131313324 2743.00003051758 116 115 111
369.669765233994 966.349899768829 2746.99997901917 115 114 110
378.065675497055 968.796730041504 2753.99994850159 121 122 117
387.479156255722 973.705947399139 2767.99988746643 126 127 122
53.6235719919205 1034.49833393097 2961.99989318848 61 37 27
60.0274913012981 1007.25328922272 2884.0000629425 166 134 119
67.3494040966034 999.91500377655 2862.99991607666 150 119 99
74.7672840952873 995.37056684494 2849.99990463257 134 104 80
82.2882726788521 992.921233177185 2842.99993515015 128 96 75
89.7712111473084 990.471541881561 2835.99996566772 92 59 40
97.3879098892212 989.767551422119 2834.00011062622 111 80 62
104.808248579502 987.316966056824 2826.99990272522 138 106 91
112.469024956226 987.310826778412 2826.99990272522 107 78 60
120.044656097889 986.605644226074 2825.00004768372 92 65 44
127.835303544998 987.646281719208 2828.00006866455 109 85 61
135.642051696777 988.686501979828 2831.00008964539 106 79 58
143.464878201485 989.726305007935 2834.00011062622 95 67 46
151.250436902046 990.416347980499 2835.99996566772 106 78 57
159.10267829895 991.455316543579 2838.99998664856 109 78 58
166.735976934433 991.096913814545 2838.00005912781 103 72 52
174.670964479446 992.484271526337 2842.00000762939 105 74 54
182.434886693954 992.823660373688 2842.99993515015 122 93 75
190.672159194946 995.607078075409 2851.0000705719 147 118 102
198.743790388107 997.342467308044 2855.99994659424 141 115 100
207.348346710205 1001.52182579041 2868.00003051758 60 34 21
217.517793178558 1012.68494129181 2900.00009536743 44 20 8
227.160915732384 1020.70450782776 2923.00009727478 76 46 38
299.511790275574 972.719132900238 2786.00001335144 187 186 184
306.394070386887 970.609486103058 2779.99997138977 187 186 182
313.017696142197 967.801511287689 2772.0000743866 138 137 133
319.366455078125 964.295148849487 2762.00008392334 133 132 128
326.252460479736 962.534308433533 2756.99996948242 128 127 123
333.595305681229 962.169945240021 2756.00004196167 132 131 127
340.808629989624 961.45623922348 2753.99994850159 123 122 118
348.263829946518 961.440622806549 2753.99994850159 120 119 115
355.460345745087 960.726797580719 2752.00009346008 120 119 115
362.645745277405 960.012674331665 2750 118 117 113
370.223760604858 960.345864295959 2750.99992752075 117 116 112
378.493368625641 962.424397468567 2756.99996948242 122 123 118
388.195097446442 967.993438243866 2773.00000190735 128 129 124
53.1741306185722 1017.86744594574 2937.00003623962 122 104 94
60.1143017411232 1000.88238716125 2888.00001144409 157 131 116
67.4004405736923 992.907643318176 2865.00000953674 147 122 102
74.8241692781448 988.39795589447 2851.99999809265 121 95 70
82.3510065674782 985.967397689819 2845.00002861023 102 76 51
89.934766292572 984.576165676117 2841.00008010864 78 50 29
97.5997969508171 984.223961830139 2839.99991416931 87 60 41
105.073913931847 982.138693332672 2834.00011062622 67 40 23
112.674489617348 981.438994407654 2832.00001716614 66 43 25
120.221607387066 980.392694473267 2828.9999961853 73 52 31
127.933099865913 980.731904506683 2829.99992370605 49 27 4
135.841503739357 982.456982135773 2835.00003814697 84 57 38
143.675595521927 983.488500118256 2838.00005912781 78 47 27
151.259064674377 982.78683423996 2835.99996566772 95 64 44
158.943578600883 982.777893543243 2835.99996566772 109 78 58
166.686654090881 983.115077018738 2836.99989318848 120 87 68
174.619317054749 984.491586685181 2841.00008010864 124 91 72
182.701796293259 986.560642719269 2846.99988365173 124 91 72
190.816506743431 988.629102706909 2852.9999256134 134 103 85
199.381098151207 992.77651309967 2865.00000953674 149 117 102
208.227381110191 997.963011264801 2880.00011444092 49 20 6
218.354761600494 1008.69297981262 2911.00001335144 54 22 11
227.017790079117 1012.14587688446 2921.0000038147 137 102 96
294.183373451233 972.509026527405 2806.99992179871 186 186 186
300.064146518707 966.950833797455 2790.99988937378 200 199 197
306.960135698318 964.85698223114 2785.00008583069 174 173 169
313.597470521927 962.070107460022 2776.99995040894 145 144 140
320.191204547882 959.283173084259 2769.00005340576 131 130 126
326.859623193741 956.842482089996 2762.00008392334 132 131 127
334.216117858887 956.480264663696 2760.99991798401 127 126 122
341.44315123558 955.771565437317 2759.0000629425 123 122 118
348.659038543701 955.062627792358 2756.99996948242 119 118 114
356.122136116028 955.046534538269 2756.99996948242 119 118 114
363.189339637756 953.991055488586 2753.99994850159 119 118 114
371.047496795654 955.013751983643 2756.99996948242 118 117 113
379.333466291428 957.075595855713 2763.00001144409 119 120 115
53.0143901705742 1006.87325000763 2927.99997329712 148 134 125
60.2220110595226 994.834184646606 2892.99988746643 153 131 117
67.4515590071678 985.889613628387 2867.00010299683 139 118 99
74.8024359345436 980.383276939392 2851.0000705719 113 89 65
82.3270007967949 977.971374988556 2844.00010108948 105 81 57
89.9717882275581 977.278351783752 2842.00000762939 81 54 33
97.6056158542633 976.58497095108 2839.99991416931 81 54 35
105.080164968967 974.515855312347 2834.00011062622 71 44 27
112.641401588917 973.47766160965 2831.00008964539 66 43 27
120.356194674969 973.814368247986 2832.00001716614 63 42 23
128.031060099602 973.807036876678 2832.00001716614 49 28 7
135.801568627357 974.486947059631 2834.00011062622 64 37 18
143.582731485367 975.166320800781 2835.99996566772 79 50 32
151.214525103569 974.813878536224 2835.00003814697 92 63 45
158.952787518501 975.148558616638 2835.99996566772 104 73 53
166.578769683838 974.795281887054 2835.00003814697 121 90 70
174.567878246307 976.504504680634 2839.99991416931 126 95 75
182.583853602409 978.213369846344 2845.00002861023 126 95 75
191.028028726578 981.984794139862 2855.99994659424 138 105 88
199.809953570366 987.131118774414 2871.00005149841 145 112 97
210.118979215622 999.153196811676 2905.99989891052 62 30 15
219.267129898071 1004.98616695404 2923.00009727478 60 26 14
227.574437856674 1006.69264793396 2927.99997329712 131 101 93
294.827282428741 967.015504837036 2812.99996376038 191 191 189
300.724446773529 961.499810218811 2796.99993133545 165 164 160
307.416439056396 958.734333515167 2789.00003433228 154 153 149
314.064770936966 955.9685587883 2780.99989891052 141 140 136
320.900738239288 953.890264034271 2775.00009536743 129 128 124
327.34888792038 950.780510902405 2766.00003242493 127 126 122
334.353238344193 949.389457702637 2762.00008392334 126 125 121
341.583132743835 948.685646057129 2759.99999046326 122 121 117
349.307805299759 949.356615543365 2762.00008392334 119 118 114
356.913685798645 949.683606624603 2763.00001144409 119 118 114
364.129096269608 948.979437351227 2760.99991798401 117 116 112
371.73718214035 949.30624961853 2762.00008392334 117 116 112
380.311340093613 952.038705348969 2769.99998092651 129 130 125
53.0357621610165 999.339759349823 2928.99990081787 163 153 144
60.1632632315159 986.029922962189 2890.00010490417 140 124 109
67.4086436629295 977.496325969696 2865.00000953674 144 127 109
74.8594850301743 973.397672176361 2852.9999256134 119 97 74
82.4767798185349 972.028076648712 2848.99997711182 107 83 59
90.2305543422699 972.363889217377 2849.99990463257 74 47 28
97.8177860379219 970.993518829346 2845.99995613098 84 57 40
105.086535215378 966.893076896667 2834.00011062622 91 63 49
112.449258565903 964.157044887543 2825.99997520447 74 48 35
120.235957205296 965.173482894897 2828.9999961853 81 58 42
127.948328852654 965.507090091705 2829.99992370605 62 41 20
135.809704661369 966.863751411438 2834.00011062622 70 43 24
143.692582845688 968.220055103302 2838.00005912781 84 55 37
151.436880230904 968.55229139328 2838.99998664856 92 63 45
159.186393022537 968.884110450745 2839.99991416931 99 70 52
166.94113612175 969.215631484985 2841.00008010864 117 86 66
175.131350755692 971.934676170349 2848.99997711182 127 96 76
183.364674448967 974.653303623199 2857.00011253357 135 104 84
191.841810941696 978.39480638504 2868.00003051758 136 103 86
201.07427239418 985.547244548798 2888.99993896484 145 112 95
210.926443338394 995.087146759033 2917.00005531311 103 70 55
219.729736447334 999.168276786804 2928.99990081787 113 79 67
227.975979447365 1000.51999092102 2933.00008773804 111 82 74
289.062678813934 965.598523616791 2831.00008964539 190 190 188
295.261979103088 960.807740688324 2816.99991226196 194 194 192
300.847589969635 954.311788082123 2798.00009727478 148 147 143
307.652682065964 951.90840959549 2790.99988937378 146 145 141
314.080744981766 948.481738567352 2780.99989891052 139 138 134
321.26384973526 947.442412376404 2778.00011634827 130 129 125
327.838599681854 944.697499275208 2769.99998092651 125 124 120
334.975004196167 943.657696247101 2766.99995994568 126 125 121
341.971039772034 942.276835441589 2763.00001144409 120 119 115
349.830448627472 943.282961845398 2766.00003242493 119 118 114
357.964098453522 944.970965385437 2770.99990844727 120 119 115
365.596979856491 945.294737815857 2772.0000743866 116 115 111
373.234897851944 945.618271827698 2773.00000190735 117 116 112
381.839036941528 948.328733444214 2780.99989891052 136 137 132
59.9588416516781 974.872350692749 2880.00011444092 140 126 113
67.4834474921227 970.806360244751 2868.00003051758 137 120 102
74.9428868293762 966.73995256424 2855.99994659424 123 101 78
82.5977176427841 965.71946144104 2852.9999256134 106 81 59
90.2361646294594 964.698553085327 2849.99990463257 79 50 32
97.651980817318 961.646258831024 2841.00008010864 70 41 27
104.944698512554 957.916676998138 2829.99992370605 69 39 28
112.41639405489 956.217467784882 2825.00004768372 67 39 27
120.328344404697 958.241105079651 2831.00008964539 66 40 27
128.046587109566 958.571791648865 2832.00001716614 82 59 43
135.817989706993 959.240794181824 2834.00011062622 69 43 28
143.80256831646 961.262941360474 2839.99991416931 80 53 36
151.60608291626 961.930930614471 2842.00000762939 96 69 52
159.420222043991 962.598323822021 2844.00010108948 106 79 60
167.186215519905 962.926864624023 2845.00002861023 108 80 59
175.510659813881 966.301202774048 2855.00001907349 120 92 71
183.889046311378 969.674825668335 2865.00000953674 137 109 88
192.789644002914 975.41731595993 2881.99996948242 146 115 97
201.990947127342 982.174575328827 2901.99995040894 149 118 100
211.734220385551 990.961909294128 2927.99997329712 118 85 70
220.192641019821 993.318319320679 2934.99994277954 152 118 106
288.874059915543 957.30185508728 2828.9999961853 196 197 191
295.487463474274 953.902125358582 2819.00000572205 178 181 174
301.186144351959 947.795271873474 2801.00011825562 132 131 127
307.999581098557 945.410311222076 2793.99991035461 142 141 137
314.435929059982 942.010283470154 2783.99991989136 136 135 131
321.6273188591 940.978467464447 2780.99989891052 132 131 127
328.210383653641 938.25489282608 2773.00000190735 123 122 118
335.476130247116 937.56103515625 2770.99990844727 128 127 123
342.483162879944 936.190545558929 2766.99995994568 118 117 113
350.733071565628 938.20321559906 2773.00000190735 118 117 113
358.885854482651 939.877331256866 2778.00011634827 121 120 116
366.933524608612 941.212832927704 2782.00006484985 115 114 110
374.464094638824 941.194951534271 2782.00006484985 121 120 116
383.641958236694 945.236444473267 2793.99991035461 132 133 128
60.0875802338123 969.141483306885 2885.99991798401 129 115 102
67.5818547606468 964.436054229736 2871.99997901917 136 119 103
75.0526115298271 960.401833057404 2859.99989509583 130 108 85
82.6898142695427 959.053635597229 2855.99994659424 106 79 58
90.3051942586899 957.704901695251 2851.99999809265 68 39 21
97.7956354618073 955.348253250122 2845.00002861023 66 34 21
105.17381131649 952.319622039795 2835.99996566772 67 35 24
112.542830407619 949.626445770264 2828.00006866455 57 27 17
120.3358694911 950.62643289566 2831.00008964539 46 18 6
128.190234303474 951.961815357208 2835.00003814697 67 41 26
136.257752776146 954.639673233032 2842.99993515015 64 38 23
144.216567277908 956.310033798218 2848.00004959106 84 58 41
152.04219520092 956.972181797028 2849.99990463257 95 69 52
159.710288047791 956.626832485199 2848.99997711182 105 80 60
167.72535443306 958.29564332962 2854.00009155273 107 80 61
176.259085536003 962.650120258331 2867.00010299683 113 86 67
185.055568814278 968.011260032654 2882.99989700317 137 108 90
194.3399310112 975.386440753937 2904.99997138977 153 121 106
203.534409403801 981.753885746002 2924.00002479553 149 117 102
212.470024824142 986.441910266876 2937.99996376038 134 100 88
220.880925655365 988.443374633789 2944.00000572205 153 117 105
288.787871599197 949.351966381073 2828.00006866455 190 191 185
295.503586530685 946.314632892609 2819.00000572205 160 163 154
301.417499780655 940.927147865295 2802.99997329712 130 129 124
308.346837759018 938.896477222443 2796.99993133545 142 141 137
315.130323171616 936.529934406281 2789.99996185303 132 131 127
321.87557220459 934.163093566895 2782.99999237061 130 129 125
328.582555055618 931.796312332153 2776.00002288818 122 121 117
335.735559463501 930.771887302399 2773.00000190735 129 128 124
343.367099761963 931.08993768692 2773.9999294281 117 116 112
351.889163255692 933.757364749908 2782.00006484985 117 116 112
359.937340021133 935.081899166107 2786.00001335144 121 120 116
368.006765842438 936.406135559082 2789.99996185303 116 115 111
375.693738460541 936.723351478577 2790.99988937378 123 122 118
60.2788627147675 964.377760887146 2894.99998092651 128 116 104
67.6568225026131 957.711219787598 2875 130 113 97
75.0837028026581 953.042984008789 2861.00006103516 118 93 71
82.6372355222702 950.70618391037 2854.00009155273 100 72 48
90.1210084557533 948.035538196564 2845.99995613098 115 87 65
97.6644083857536 946.364045143127 2841.00008010864 107 79 58
105.291791260242 945.691168308258 2838.99998664856 93 64 46
112.788788974285 944.018661975861 2834.00011062622 78 51 32
120.598562061787 945.010364055634 2836.99989318848 83 54 36
128.334000706673 945.335566997528 2838.00005912781 91 63 42
136.218443512917 946.659564971924 2842.00000762939 69 42 23
144.023075699806 947.316825389862 2844.00010108948 82 55 34
152.051731944084 949.305951595306 2849.99990463257 96 69 48
159.776300191879 949.296116828918 2849.99990463257 102 75 54
167.853310704231 951.284348964691 2855.99994659424 106 79 58
176.51592195034 956.269919872284 2871.00005149841 113 86 67
185.773089528084 963.919401168823 2894.00005340576 126 103 85
195.288464426994 972.234308719635 2918.99991035461 138 116 102
204.382210969925 977.884292602539 2936.00010871887 119 100 86
282.635480165482 946.75213098526 2842.99993515015 200 203 196
289.518982172012 944.071829319 2835.00003814697 151 154 145
295.939385890961 940.059185028076 2822.99995422363 125 128 117
301.971882581711 935.047447681427 2808.00008773804 126 125 120
308.914929628372 933.032512664795 2802.00004577637 139 138 133
315.938085317612 931.350290775299 2796.99993133545 131 130 125
322.933852672577 929.668128490448 2792.00005531311 131 130 126
329.310297966003 926.320791244507 2782.00006484985 121 120 116
336.479753255844 925.304055213928 2779.00004386902 128 127 123
344.25151348114 925.951957702637 2780.99989891052 118 119 114
352.666258811951 928.264379501343 2788.00010681152 120 120 118
360.472440719604 928.911745548248 2789.99996185303 118 118 116
368.289142847061 929.559111595154 2792.00005531311 116 116 114
377.05859541893 932.536602020264 2801.00011825562 127 127 125
60.4285895824432 958.90474319458 2901.99995040894 126 114 102
67.8730756044388 952.952861785889 2884.0000629425 132 116 100
75.298584997654 947.991669178009 2868.99995803833 124 100 76
82.7295035123825 944.021463394165 2857.00011253357 117 89 65
90.1902243494987 941.041886806488 2848.00004959106 114 86 62
97.6707711815834 938.722789287567 2841.00008010864 101 75 52
105.298638343811 938.055336475372 2838.99998664856 84 57 36
112.955309450626 937.717795372009 2838.00005912781 64 37 16
120.818920433521 939.031779766083 2842.00000762939 71 44 23
128.568381071091 939.354002475739 2842.99993515015 93 65 43
136.418908834457 940.33670425415 2845.99995613098 83 56 35
144.33616399765 941.649258136749 2849.99990463257 90 64 41
152.328193187714 943.29172372818 2855.00001907349 100 74 51
160.235002636909 944.272935390472 2858.00004005432 106 80 57
168.392911553383 946.575224399567 2865.00000953674 108 81 60
177.14187502861 951.850533485413 2881.00004196167 113 88 68
186.298280954361 958.777070045471 2901.99995040894 125 104 87
195.835903286934 967.024683952332 2927.00004577637 129 111 97
277.175039052963 946.714699268341 2865.9999370575 198 201 192
282.751232385635 939.431190490723 2844.00010108948 187 190 181
289.53555226326 936.441838741302 2835.00003814697 143 146 137
296.061009168625 932.791411876678 2823.99988174438 123 126 115
302.526593208313 929.141044616699 2812.99996376038 124 123 118
309.593707323074 927.472174167633 2808.00008773804 136 135 130
316.633373498917 925.803184509277 2802.99997329712 129 128 123
323.529899120331 923.803627490997 2796.99993133545 129 128 124
330.156832933426 921.143472194672 2789.00003433228 120 119 115
337.34542131424 920.134365558624 2786.00001335144 126 125 121
345.260143280029 921.10675573349 2789.00003433228 115 116 111
353.190779685974 922.078907489777 2792.00005531311 118 118 116
361.008018255234 922.720432281494 2793.99991035461 117 117 115
369.09955739975 924.022436141968 2798.00009727478 118 118 116
378.423988819122 928.296267986298 2811.00010871887 138 138 136
68.3012455701828 951.095521450043 2901.99995040894 138 125 108
75.61856508255 944.208264350891 2881.00004196167 135 113 89
82.9956233501434 939.286828041077 2865.9999370575 133 107 84
90.1645198464394 933.054149150848 2846.99988365173 120 94 71
97.5740775465965 930.098354816437 2838.00005912781 113 89 65
105.083018541336 928.452908992767 2832.99994468689 106 81 59
112.843319773674 929.1011095047 2835.00003814697 97 72 50
120.656788349152 930.076599121094 2838.00005912781 93 68 46
128.576785326004 931.70702457428 2842.99993515015 90 66 42
136.42780482769 932.681500911713 2845.99995613098 97 72 50
144.446805119514 934.638559818268 2851.99999809265 93 68 46
152.444779872894 936.26743555069 2857.00011253357 99 74 52
160.581737756729 938.551247119904 2864.00008201599 106 79 58
168.873935937881 941.489815711975 2872.99990653992 111 86 64
177.522137761116 946.066558361053 2887.00008392334 112 90 69
186.63115799427 952.608704566956 2907.00006484985 126 109 93
276.611149311066 937.036097049713 2859.99989509583 187 188 180
282.966703176498 932.432651519775 2845.99995613098 154 155 147
290.063112974167 930.450022220612 2839.99991416931 133 134 126
296.916902065277 927.811741828918 2832.00001716614 130 130 122
303.40439081192 924.190640449524 2821.00009918213 123 122 117
310.162633657455 921.552062034607 2812.99996376038 133 132 127
316.764205694199 918.585777282715 2803.99990081787 129 128 123
324.126362800598 917.912423610687 2802.00004577637 128 127 123
331.003755331039 915.928423404694 2796.0000038147 121 120 116
338.69594335556 916.237473487854 2796.99993133545 124 123 119
346.269279718399 916.218638420105 2796.99993133545 113 114 109
353.968799114227 916.527211666107 2798.00009727478 117 117 115
361.93174123764 917.490541934967 2801.00011825562 116 116 114
370.438188314438 919.7638630867 2808.00008773804 123 123 121
68.8943043351173 951.416671276093 2927.00004577637 134 121 104
76.2273967266083 943.935573101044 2904.00004386902 140 118 94
83.3777040243149 935.804009437561 2878.99994850159 133 107 84
90.4239639639854 927.997052669525 2855.00001907349 126 102 78
97.7181568741798 923.765182495117 2842.00000762939 110 88 64
105.127148330212 921.158015727997 2834.00011062622 96 74 51
112.850844860077 921.475768089294 2835.00003814697 91 69 48
120.664812624454 922.443032264709 2838.00005912781 93 71 48
128.720998764038 925.034880638123 2845.99995613098 100 75 53
136.86828315258 927.951276302338 2855.00001907349 99 74 54
145.266756415367 932.167232036591 2868.00003051758 95 70 50
153.468638658524 934.757471084595 2875.99992752075 98 73 53
161.545470356941 936.37228012085 2881.00004196167 104 79 57
169.825464487076 938.961386680603 2888.99993896484 109 87 66
178.45606803894 943.175137042999 2901.99995040894 110 89 68
187.606275081635 949.663460254669 2921.99993133545 96 80 64
270.195752382278 933.905422687531 2874.00007247925 193 194 188
276.821225881577 929.989337921143 2861.99998855591 157 157 149
283.381342887878 926.07307434082 2849.99990463257 135 135 127
290.591031312943 924.431324005127 2845.00002861023 124 124 116
297.458618879318 921.814262866974 2836.99989318848 128 125 118
303.959876298904 918.222367763519 2825.99997520447 122 121 116
310.511380434036 914.955139160156 2815.99998474121 127 126 121
317.234247922897 912.33766078949 2808.00008773804 131 130 125
324.376136064529 911.019563674927 2803.99990081787 126 125 121
331.495970487595 909.701228141785 2799.99995231628 125 124 120
339.320331811905 910.332083702087 2802.00004577637 122 121 117
347.155064344406 910.962641239166 2803.99990081787 120 121 116
355.000257492065 911.592900753021 2805.99999427795 118 118 116
363.243490457535 913.19751739502 2811.00010871887 116 116 114
372.305005788803 916.751086711884 2822.00002670288 133 133 131
69.5581063628197 952.569901943207 2954.99992370605 122 111 93
76.8626183271408 943.861305713654 2927.99997329712 136 118 98
84.0785056352615 935.796976089478 2903.00011634827 136 112 88
90.9369140863419 925.475597381592 2871.00005149841 91 69 45
98.1718152761459 920.311450958252 2855.00001907349 83 61 37
105.468153953552 916.43625497818 2842.99993515015 77 56 35
113.137148320675 916.106522083282 2842.00000762939 77 59 39
120.8855509758 916.420876979828 2842.99993515015 76 58 36
129.046276211739 919.635772705078 2852.9999256134 97 75 52
137.260988354683 922.850131988525 2862.99991607666 102 77 57
145.631030201912 926.708698272705 2875 100 75 55
153.852432966232 929.277241230011 2882.99989700317 101 76 56
161.892652511597 930.556058883667 2887.00008392334 104 79 57
170.307025313377 933.768272399902 2897.0000743866 107 86 65
179.144293069839 938.913822174072 2913.00010681152 106 88 68
264.525651931763 933.600008487701 2897.0000743866 202 204 199
270.212411880493 926.17130279541 2874.00007247925 188 189 183
277.225077152252 923.576295375824 2865.9999370575 138 138 130
283.796310424805 919.692099094391 2854.00009155273 125 125 117
291.221410036087 918.707847595215 2851.0000705719 120 117 110
297.686159610748 914.823174476624 2838.99998664856 126 123 116
304.300636053085 911.582827568054 2828.9999961853 120 119 114
310.750186443329 908.02001953125 2818.00007820129 122 121 116
317.704737186432 906.068205833435 2812.00003623962 130 129 124
324.973374605179 905.082643032074 2809.00001525879 124 123 119
331.988573074341 903.452634811401 2803.99990081787 125 124 120
339.702934026718 903.755486011505 2805.0000667572 120 119 115
347.546011209488 904.380261898041 2806.99992179871 124 125 120
355.779200792313 905.971348285675 2812.00003623962 118 118 116
364.426583051682 908.528566360474 2819.9999332428 117 117 115
373.908579349518 913.018643856049 2834.00011062622 130 130 128
69.8454305529594 948.457837104797 2967.00000762939 124 111 94
77.2092342376709 940.141260623932 2940.99998474121 133 115 93
84.4898223876953 932.463824748993 2917.00005531311 132 108 82
91.6083976626396 924.466013908386 2891.99995994568 114 90 64
99.0038812160492 920.303702354431 2878.99994850159 80 60 35
106.477089226246 917.419731616974 2869.99988555908 77 56 35
114.060565829277 915.813863277435 2865.00000953674 71 53 33
121.914379298687 916.445136070251 2867.00010299683 68 50 30
129.869297146797 917.714953422546 2871.00005149841 88 66 45
138.085409998894 920.58265209198 2880.00011444092 93 68 48
146.350100636482 923.449695110321 2888.99993896484 99 74 54
154.663354158401 926.316320896149 2898.00000190735 100 75 55
162.856891751289 928.223431110382 2904.00004386902 100 75 55
171.200275421143 930.769145488739 2911.99994087219 101 80 61
180.324777960777 937.149882316589 2931.99992179871 100 83 65
256.958097219467 926.779389381409 2900.00009536743 203 204 198
264.176994562149 924.525797367096 2892.99988746643 203 204 198
270.417332649231 919.076204299927 2875.99992752075 127 126 121
277.532517910004 916.822135448456 2868.99995803833 133 130 123
283.913254737854 912.330746650696 2855.00001907349 130 127 120
291.545689105988 911.993443965912 2854.00009155273 128 123 117
297.704219818115 907.182097434998 2838.99998664856 128 123 117
304.534107446671 904.607474803925 2831.00008964539 123 120 115
311.209917068481 901.713132858276 2822.00002670288 120 119 114
318.288445472717 900.096476078033 2816.99991226196 133 132 127
325.339585542679 898.479878902435 2812.00003623962 125 124 120
332.363128662109 896.862745285034 2806.99992179871 130 129 125
339.843660593033 896.523714065552 2805.99999427795 120 119 115
348.061203956604 898.101210594177 2811.00010871887 124 125 120
356.558501720428 900.317430496216 2818.00007820129 113 113 111
365.73937535286 904.130756855011 2829.99992370605 118 118 116
69.6855336427689 938.258171081543 2960.00003814697 127 114 95
77.4509459733963 935.083389282227 2950.00004768372 134 116 94
85.1329937577248 931.590795516968 2938.99989128113 137 113 87
92.3750847578049 924.294114112854 2915.99988937378 118 94 68
99.7329950332642 919.215857982636 2900.00009536743 86 66 41
107.189446687698 915.721893310547 2888.99993896484 78 57 36
114.984214305878 915.397226810455 2888.00001144409 72 54 32
122.815847396851 915.388882160187 2888.00001144409 69 51 29
130.737781524658 916.014015674591 2890.00010490417 84 62 41
138.814151287079 917.589485645294 2894.99998092651 92 67 47
146.968066692352 919.481337070465 2901.00002288818 95 68 49
155.261009931564 922.006547451019 2908.99991989136 99 74 52
163.597077131271 924.531221389771 2917.00005531311 100 75 53
172.152608633041 928.006112575531 2927.99997329712 100 79 60
180.952027440071 932.431280612946 2941.99991226196 99 82 64
249.63104724884 920.893251895905 2905.99989891052 207 208 202
256.35427236557 916.757225990295 2892.99988746643 185 186 180
263.919919729233 915.789902210236 2890.00010490417 155 156 150
270.434439182281 911.336362361908 2875.99992752075 133 132 127
277.743488550186 909.734725952148 2871.00005149841 131 128 121
284.12988781929 905.280768871307 2857.00011253357 128 125 118
291.563808917999 904.312133789063 2854.00009155273 127 122 116
297.932326793671 900.174677371979 2841.00008010864 130 125 119
305.090606212616 898.571789264679 2835.99996566772 121 118 113
312.111079692841 896.651685237885 2829.99992370605 121 120 115
318.98558139801 894.414722919464 2822.99995422363 126 125 120
325.937479734421 892.494261264801 2816.99991226196 127 126 122
333.211660385132 891.524076461792 2813.99989128113 125 124 120
340.953648090363 891.820847988129 2815.00005722046 124 123 119
349.319696426392 893.701374530792 2821.00009918213 118 119 114
357.591301202774 895.264804363251 2825.99997520447 108 108 106
367.05270409584 899.678945541382 2839.99991416931 133 133 131
62.495119869709 942.872285842896 3000 221 214 198
69.5963129401207 929.038763046265 2956.00008964539 143 126 106
77.2201269865036 924.319326877594 2940.99998474121 143 121 97
85.081085562706 923.056304454803 2937.00003623962 133 106 79
92.8885042667389 921.478569507599 2931.99992179871 124 97 70
100.393496453762 917.385995388031 2918.99991035461 99 75 51
107.939094305038 914.235830307007 2908.99991989136 93 71 48
115.549728274345 912.028014659882 2901.99995040894 90 68 47
123.462408781052 912.333965301514 2903.00011634827 86 64 43
131.470754742622 913.26767206192 2905.99989891052 89 64 42
139.639005064964 915.14378786087 2911.99994087219 94 67 46
147.839561104774 917.019307613373 2917.99998283386 96 68 46
156.019017100334 918.580114841461 2923.00009727478 95 69 46
164.393573999405 921.083033084869 2930.99999427795 96 69 48
172.752425074577 923.271119594574 2937.99996376038 105 83 62
181.271970272064 926.087260246277 2947.00002670288 109 91 71
242.769733071327 916.859984397888 2917.99998283386 163 163 155
249.389663338661 912.130653858185 2903.00011634827 163 163 155
256.459593772888 909.286260604858 2894.00005340576 140 140 132
263.845652341843 907.698273658752 2888.99993896484 132 132 124
270.639926195145 904.224872589111 2878.00002098084 129 126 119
277.761220932007 902.007937431335 2871.00005149841 132 129 122
284.645199775696 899.162292480469 2861.99998855591 132 129 122
291.99081659317 897.887289524078 2858.00004005432 125 122 115
298.789948225021 895.041227340698 2848.99997711182 125 122 115
305.862605571747 893.137335777283 2842.99993515015 121 120 115
313.122928142548 891.861379146576 2838.99998664856 122 121 116
319.909125566483 889.328718185425 2831.00008964539 126 125 120
326.998651027679 887.738287448883 2825.99997520447 126 125 121
334.534287452698 887.403964996338 2825.00004768372 122 121 117
342.185199260712 887.383639812469 2825.00004768372 121 120 116
350.702494382858 889.561831951141 2832.00001716614 118 119 114
359.257310628891 891.7396068573 2838.99998664856 131 131 129
62.0204471051693 927.635133266449 2976.99999809265 221 212 197
69.3894028663635 918.282508850098 2947.00002670288 149 131 109
77.0943760871887 914.849579334259 2936.00010871887 149 125 99
85.0292295217514 914.532065391541 2934.99994277954 133 103 75
92.8951352834702 913.590908050537 2931.99992179871 126 96 68
100.60703754425 911.402881145477 2924.99995231628 106 80 55
108.058102428913 907.344818115234 2911.99994087219 100 76 52
115.836657583714 906.401991844177 2908.99991989136 96 71 49
123.811401426792 907.016694545746 2911.00001335144 92 67 45
131.977736949921 908.877074718475 2917.00005531311 92 66 43
140.368193387985 911.983251571655 2927.00004577637 93 65 43
148.660644888878 914.153933525085 2934.00001525879 94 66 44
156.617119908333 914.143204689026 2934.00001525879 91 65 42
164.461120963097 913.508832454681 2931.99992179871 92 66 43
172.470420598984 913.808643817902 2933.00008773804 108 83 61
180.669352412224 915.042579174042 2937.00003623962 113 92 71
189.082354307175 917.210638523102 2944.00000572205 126 113 97
228.211283683777 914.023697376251 2934.00001525879 198 197 192
234.876558184624 909.023582935333 2917.99998283386 201 201 193
242.120295763016 906.51547908783 2910.00008583069 138 138 130
249.148473143578 903.383851051331 2900.00009536743 159 156 149
256.476491689682 901.497960090637 2894.00005340576 139 139 131
263.771593570709 899.61177110672 2888.00001144409 128 128 120
270.845621824265 897.102296352386 2880.00011444092 127 124 117
277.972638607025 894.903779029846 2872.99990653992 132 129 122
285.359740257263 893.639743328094 2868.99995803833 133 130 123
292.520314455032 891.752243041992 2862.99991607666 124 121 114
299.543023109436 889.55295085907 2855.99994659424 125 122 115
306.527405977249 887.353479862213 2848.99997711182 121 120 115
313.804298639297 886.088132858276 2845.00002861023 122 121 116
320.832967758179 884.199559688568 2838.99998664856 126 125 120
327.828735113144 882.310748100281 2832.99994468689 126 125 121
335.265249013901 881.667494773865 2831.00008964539 122 121 117
342.811554670334 881.335318088531 2829.99992370605 121 120 116
351.218849420547 883.182764053345 2835.99996566772 116 117 112
360.164433717728 886.27564907074 2845.99995613098 130 130 128
54.5107126235962 929.206848144531 3007.99989700317 210 200 188
61.629094183445 913.757026195526 2957.99994468689 157 139 119
69.4179832935333 910.663187503815 2947.99995422363 158 134 110
77.1524831652641 907.568693161011 2937.99996376038 151 124 97
85.0353837013245 906.63605928421 2934.99994277954 138 105 74
92.806801199913 904.776155948639 2928.99990081787 127 94 63
100.614294409752 903.533697128296 2924.99995231628 108 78 50
108.362764120102 901.981592178345 2920.00007629395 96 68 44
116.123728454113 900.737822055817 2915.99988937378 87 61 38
124.160543084145 901.655912399292 2918.99991035461 88 62 39
132.439643144608 904.11788225174 2927.00004577637 88 60 36
140.713885426521 906.270205974579 2934.00001525879 88 60 36
148.772537708282 906.87769651413 2936.00010871887 89 61 37
156.521424651146 905.631244182587 2931.99992179871 96 68 44
164.360523223877 905.002176761627 2930.0000667572 104 76 52
172.306105494499 904.990315437317 2930.0000667572 125 99 76
180.558949708939 906.522214412689 2934.99994277954 129 107 86
189.159750938416 909.597754478455 2944.9999332428 123 106 90
197.814434766769 912.672936916351 2954.99992370605 122 108 97
215.068355202675 917.894721031189 2971.99988365173 205 202 197
221.098676323891 909.540832042694 2944.9999332428 193 192 188
227.837890386581 904.583871364594 2928.99990081787 150 145 141
234.650999307632 900.244534015656 2914.99996185303 183 178 172
241.803765296936 897.448778152466 2905.99989891052 146 141 135
249.079242348671 895.270466804504 2898.9999294281 154 149 143
256.670862436295 894.327104091644 2895.99990844727 136 131 125
263.971775770187 892.456769943237 2890.00010490417 134 131 124
271.051555871964 889.968514442444 2881.99996948242 127 124 117
277.990877628326 887.17120885849 2872.99990653992 128 128 120
285.477757453918 886.226296424866 2869.99988555908 132 132 124
292.845726013184 884.972274303436 2865.9999370575 123 123 115
300.191581249237 883.718073368073 2861.99998855591 125 125 117
307.407736778259 882.154643535614 2857.00011253357 120 119 114
314.485996961594 880.28222322464 2851.0000705719 122 121 116
321.5312063694 878.409564495087 2845.00002861023 126 125 120
328.427761793137 876.227796077728 2838.00005912781 126 125 121
335.996508598328 875.89830160141 2836.99989318848 123 122 118
343.680530786514 875.877320766449 2836.99989318848 122 121 117
352.230995893478 878.017067909241 2844.00010108948 126 127 122
361.451715230942 881.700038909912 2855.99994659424 129 129 127
45.8299554884434 910.706341266632 2973.99997711182 211 204 194
53.7172965705395 907.64045715332 2963.99998664856 204 192 178
61.4252537488937 902.736604213715 2947.99995422363 158 137 116
69.3288743495941 901.506900787354 2944.00000572205 159 133 110
77.2106572985649 900.276660919189 2940.00005722046 148 118 92
85.0415974855423 898.739576339722 2934.99994277954 141 106 76
92.7818790078163 896.589636802673 2927.99997329712 130 95 65
100.621603429317 895.663857460022 2924.99995231628 109 78 50
108.519077301025 895.349979400635 2924.00002479553 97 67 43
116.450764238834 895.341873168945 2924.00002479553 86 58 36
124.424740672112 895.63924074173 2924.99995231628 88 60 38
132.44916498661 896.242320537567 2927.00004577637 88 58 34
140.388265252113 896.232485771179 2927.00004577637 94 64 40
148.428454995155 896.834373474121 2928.99990081787 95 65 39
156.319051980972 896.517276763916 2927.99997329712 104 74 48
164.372220635414 897.118270397186 2930.0000667572 114 84 60
172.435954213142 897.718489170074 2931.99992179871 128 102 79
180.448681116104 898.012220859528 2933.00008773804 131 106 84
188.787654042244 899.836122989655 2938.99989128113 128 109 94
196.89105451107 900.434792041779 2940.99998474121 186 170 157
205.701544880867 904.094576835632 2953.00006866455 205 192 183
212.912201881409 900.712192058563 2941.99991226196 182 177 173
220.288082957268 898.247838020325 2934.00001525879 167 163 160
226.997897028923 893.333911895752 2917.99998283386 161 154 148
234.10353064537 890.256583690643 2907.99999237061 183 176 168
241.570621728897 888.709604740143 2903.00011634827 140 133 127
249.096125364304 887.468338012695 2898.9999294281 146 139 133
256.688147783279 886.532664299011 2895.99990844727 134 129 123
263.989448547363 884.678423404694 2890.00010490417 133 128 122
271.35181427002 883.129835128784 2884.99999046326 126 123 116
278.299540281296 880.35649061203 2875.99992752075 126 126 118
285.596013069153 878.807306289673 2871.00005149841 132 132 124
292.864859104156 877.257645130157 2865.9999370575 123 124 116
300.52575469017 876.932203769684 2865.00000953674 124 125 119
307.857930660248 875.688135623932 2861.00006103516 122 121 116
314.947336912155 873.831570148468 2855.00001907349 124 123 118
321.89068198204 871.668636798859 2848.00004959106 127 126 121
329.027116298676 870.117664337158 2842.99993515015 127 126 122
336.965054273605 870.708703994751 2845.00002861023 124 123 119
345.03448009491 871.605455875397 2848.00004959106 122 121 117
353.738903999329 874.032080173492 2855.99994659424 115 116 111
29.6448320150375 901.192545890808 2969.00010108948 253 248 244
37.7006083726883 901.190102100372 2969.00010108948 246 241 235
45.6792414188385 899.669229984283 2963.99998664856 197 187 177
53.5762906074524 897.237360477448 2956.00008964539 194 177 161
61.4089705049992 894.501268863678 2947.00002670288 169 144 124
69.3340003490448 893.585741519928 2944.00000572205 155 128 107
77.2426202893257 892.669856548309 2940.99998474121 143 115 91
85.0478708744049 890.842616558075 2934.99994277954 144 113 85
92.9471701383591 890.229046344757 2933.00008773804 130 96 68
100.801020860672 889.31131362915 2930.0000667572 115 84 55
108.712613582611 888.999998569489 2928.99990081787 106 76 48
116.578780114651 888.384819030762 2927.00004577637 97 70 43
124.433822929859 887.768745422363 2924.99995231628 94 66 42
132.458820939064 888.366460800171 2927.00004577637 93 63 37
140.206590294838 887.142479419708 2923.00009727478 100 70 44
148.287162184715 888.042509555817 2926.00011825562 99 69 43
156.116768717766 887.424409389496 2924.00002479553 106 78 54
164.327919483185 888.930261135101 2928.99990081787 115 87 65
172.330677509308 889.221727848053 2930.0000667572 123 101 80
180.338501930237 889.512538909912 2930.99999427795 123 102 83
188.544109463692 890.713155269623 2934.99994277954 166 150 137
196.637213230133 891.306400299072 2937.00003623962 199 187 175
204.740762710571 891.899049282074 2938.99989128113 182 173 164
211.913928389549 888.546168804169 2927.99997329712 152 147 143
219.252288341522 886.103391647339 2920.00007629395 159 155 152
226.391330361366 883.053183555603 2910.00008583069 153 146 140
233.71721804142 880.912899971008 2903.00011634827 176 169 161
241.420820355415 880.289554595947 2901.00002288818 139 134 128
249.199122190475 879.969120025635 2900.00009536743 139 132 126
256.705641746521 878.737986087799 2895.99990844727 125 120 114
264.007329940796 876.899719238281 2890.00010490417 125 122 115
271.370083093643 875.364422798157 2884.99999046326 125 122 115
278.511762619019 873.221933841705 2878.00002098084 126 126 118
285.813987255096 871.685981750488 2872.99990653992 133 133 125
293.088614940643 870.149612426758 2868.00003051758 124 125 117
300.860226154327 870.130062103271 2868.00003051758 122 123 117
308.308452367783 869.199812412262 2865.00000953674 124 123 118
315.409004688263 867.359101772308 2858.99996757507 126 125 120
322.589576244354 865.821599960327 2854.00009155273 128 127 122
330.089747905731 865.193784236908 2851.99999809265 128 127 123
338.7630879879 867.599308490753 2859.99989509583 123 122 118
347.115784883499 869.094371795654 2865.00000953674 121 120 116
355.990529060364 871.802389621735 2874.00007247925 126 127 122
5.60309132561088 913.665056228638 3036.99994087219 255 254 255
13.6936875060201 903.736472129822 3003.99994850159 255 252 253
21.6415263712406 895.311534404755 2976.0000705719 255 249 251
29.5671708881855 890.796899795532 2960.99996566772 250 245 242
37.57643699646 890.192687511444 2959.00011062622 249 244 240
45.5285422503948 888.685405254364 2953.9999961853 195 185 175
53.3627793192863 885.673224925995 2944.00000572205 194 177 161
61.3718815147877 885.969698429108 2944.9999332428 166 143 125
69.2920759320259 885.062396526337 2941.99991226196 147 122 100
77.2483721375465 884.756028652191 2940.99998474121 145 119 96
84.9962458014488 882.343292236328 2933.00008773804 148 118 92
92.9540768265724 882.336735725403 2933.00008773804 138 107 79
100.842900574207 881.727874279022 2930.99999427795 118 87 58
108.75777900219 881.41918182373 2930.0000667572 109 80 50
116.627208888531 880.809128284454 2927.99997329712 101 74 45
124.272808432579 878.694415092468 2921.0000038147 101 76 46
132.151737809181 878.384232521057 2920.00007629395 102 76 49
