ply
format ascii 1.0
comment KinectMotionCapture
element vertex 800
property float x
property float y
property float z
property uchar red
property uchar green
property uchar blue
end_header
464.286804199219 45.3277081251144 2506.99996948242 21 24 15
473.350793123245 45.5412864685059 2519.00005340576 16 19 10
479.238003492355 45.4474836587906 2513.99993896484 15 18 9
485.290169715881 45.3717522323132 2509.99999046326 16 19 10
490.927249193192 45.2598594129086 2503.99994850159 17 20 11
493.747651576996 44.8949337005615 2483.99996757507 18 21 12
500.286519527435 44.8734126985073 2483.00004005432 18 21 12
501.101195812225 44.3459004163742 2453.9999961853 16 19 12
506.51615858078 44.2340411245823 2447.99995422363 17 20 13
513.574421405792 44.2667379975319 2450.00004768372 22 25 16
521.703958511353 44.3897359073162 2457.00001716614 27 30 21
527.504801750183 44.3139933049679 2453.00006866455 26 29 20
531.976163387299 44.1298671066761 2443.00007820129 29 32 23
538.596868515015 44.1263802349567 2443.00007820129 24 27 16
545.216381549835 44.1228821873665 2443.00007820129 23 26 15
550.479352474213 44.0110191702843 2437.00003623962 22 25 14
557.080328464508 44.007521122694 2437.00003623962 21 24 13
564.14270401001 44.0401211380959 2438.99989128113 20 23 12
570.278763771057 44.0004914999008 2437.00003623962 23 24 16
575.692772865295 43.906707316637 2431.99992179871 24 25 17
582.275748252869 43.9031943678856 2431.99992179871 23 24 16
591.763138771057 44.1162884235382 2444.00000572205 21 22 14
599.110901355743 44.1669039428234 2447.00002670288 20 21 13
606.721460819244 44.2355647683144 2450.99997520447 19 20 12
610.598921775818 44.0335161983967 2440.00005722046 19 20 12
618.210077285767 44.1021732985973 2444.00000572205 19 20 12
624.563634395599 44.0806150436401 2443.00007820129 18 19 11
632.460832595825 44.1673137247562 2447.99995422363 21 22 14
641.167461872101 44.3081296980381 2456.00008964539 22 23 15
646.487355232239 44.21441629529 2450.99997520447 20 23 12
651.512920856476 44.1026911139488 2444.9999332428 21 24 13
654.890120029449 43.88277977705 2433.00008773804 21 24 13
663.639068603516 44.0236106514931 2440.99998474121 19 22 11
673.528671264648 44.2365705966949 2453.00006866455 16 19 10
688.196003437042 44.7560623288155 2482.00011253357 19 22 13
698.53949546814 44.9869930744171 2494.99988555908 20 23 14
707.256615161896 45.1097302138805 2502.00009346008 21 24 15
713.727533817291 45.088242739439 2500.99992752075 19 22 13
728.546738624573 45.5895476043224 2529.00004386902 18 21 12
741.771757602692 45.9826551377773 2551.00011825562 17 20 13
746.017038822174 45.8169803023338 2542.00005531311 14 15 9
742.808818817139 45.2007837593555 2507.99989700317 19 20 14
757.050096988678 45.6479676067829 2532.99999237061 10 13 6
776.854038238525 46.4194715023041 2575.99997520447 15 20 14
778.937518596649 46.1277887225151 2559.99994277954 11 16 10
447.675079107285 39.4317805767059 2568.00007820129 26 29 20
446.333765983582 38.707297295332 2520.99990844727 30 33 24
449.948936700821 38.4281314909458 2503.00002098084 26 29 20
457.114636898041 38.4560152888298 2505.00011444092 20 23 14
466.327100992203 38.6527329683304 2517.99988746643 11 14 5
474.105596542358 38.7266017496586 2523.00000190735 17 20 11
481.528729200363 38.7697406113148 2526.00002288818 17 20 11
484.906643629074 38.4905636310577 2507.99989700317 20 23 14
491.910755634308 38.5029911994934 2509.0000629425 22 25 16
497.726291418076 38.4233295917511 2503.99994850159 20 23 14
500.088274478912 38.0828194320202 2482.00011253357 17 20 11
502.125382423401 37.7270020544529 2459.00011062622 13 16 7
505.277812480927 37.4632701277733 2441.99991226196 15 18 9
511.481404304504 37.4296754598618 2440.00005722046 20 23 14
520.433187484741 37.5954695045948 2450.99997520447 24 27 18
525.787651538849 37.5004932284355 2444.9999332428 24 27 16
530.019581317902 37.3288355767727 2434.00001525879 21 24 13
535.954475402832 37.2798778116703 2430.99999427795 18 21 10
544.550061225891 37.4149270355701 2440.00005722046 18 21 10
551.837980747223 37.4579541385174 2443.00007820129 21 25 11
558.226525783539 37.4396368861198 2441.99991226196 21 25 11
564.145982265472 37.3906567692757 2438.99989128113 21 25 11
570.048034191132 37.3416841030121 2436.00010871887 23 24 16
575.932800769806 37.2927114367485 2433.00008773804 24 25 17
581.800222396851 37.2437499463558 2430.0000667572 23 24 16
587.892413139343 37.2101105749607 2427.99997329712 21 22 14
596.665799617767 37.3450443148613 2437.00003623962 18 19 11
604.496777057648 37.4186709523201 2441.99991226196 19 20 12
613.605141639709 37.5688932836056 2451.99990272522 18 19 11
622.260570526123 37.6884527504444 2460.00003814697 17 18 10
629.935681819916 37.746723741293 2463.99998664856 19 20 12
634.014189243317 37.590529769659 2453.9999961853 21 22 14
640.126407146454 37.5569052994251 2451.99990272522 22 23 15
649.91956949234 37.737712264061 2463.99998664856 17 20 9
658.177852630615 37.8266125917435 2470.00002861023 20 23 12
662.699282169342 37.7011224627495 2461.99989318848 21 24 13
669.351577758789 37.6981571316719 2461.99989318848 18 21 12
674.355566501617 37.6033447682858 2456.00008964539 16 19 10
687.08997964859 37.9372164607048 2477.9999256134 18 21 12
697.702944278717 38.1485968828201 2492.00010299683 17 20 11
711.782515048981 38.5436378419399 2517.99988746643 17 20 13
722.862958908081 38.7702733278275 2532.99999237061 17 20 13
732.871115207672 38.9356650412083 2543.99991035461 17 20 13
742.938160896301 39.1010567545891 2555.0000667572 16 19 12
748.074531555176 39.0062928199768 2549.00002479553 15 16 10
755.54758310318 39.033979177475 2551.00011825562 15 16 10
766.617238521576 39.2452888190746 2565.00005722046 14 17 10
776.55565738678 39.3953919410706 2575.00004768372 11 16 9
779.853522777557 39.2089448869228 2562.99996376038 9 14 7
445.58572769165 32.2677567601204 2555.99999427795 31 34 25
443.857729434967 31.6468812525272 2506.99996948242 28 31 22
456.243276596069 32.0358723402023 2538.00010681152 19 22 13
461.49680018425 31.9199301302433 2529.00004386902 16 19 10
467.070549726486 31.8292230367661 2522.0000743866 16 19 10
478.054404258728 32.1044847369194 2543.99991035461 14 17 8
475.240617990494 31.4585231244564 2493.00003051758 17 20 11
484.522640705109 31.6201746463776 2506.00004196167 18 21 12
488.972514867783 31.4663723111153 2493.99995803833 18 21 12
494.747370481491 31.4008891582489 2489.00008201599 13 16 7
505.128085613251 31.6255427896976 2506.99996948242 11 14 5
508.254051208496 31.3960500061512 2489.00008201599 14 17 8
508.591115474701 31.0026090592146 2457.99994468689 16 19 10
512.322545051575 30.8236256241798 2444.00000572205 21 24 15
520.648181438446 30.9220999479294 2451.99990272522 25 28 19
528.155922889709 30.970111489296 2456.00008964539 22 25 14
531.764328479767 30.7911410927773 2441.99991226196 20 23 12
537.279963493347 30.7256653904915 2437.00003623962 18 21 10
544.106364250183 30.7358335703611 2437.99996376038 17 20 9
552.744209766388 30.846843495965 2447.00002670288 20 24 10
559.143662452698 30.8317821472883 2446.00009918213 21 25 11
565.767824649811 30.8293178677559 2446.00009918213 17 21 7
571.688890457153 30.7890456169844 2443.00007820129 23 25 14
577.829241752625 30.7613741606474 2440.99998474121 23 25 14
582.760572433472 30.670702457428 2434.00001525879 21 23 12
589.347898960114 30.6682456284761 2434.00001525879 20 22 11
595.689237117767 30.6531880050898 2433.00008773804 19 21 10
604.994654655457 30.7893082499504 2444.00000572205 19 21 10
614.608764648438 30.9380050748587 2456.00008964539 18 20 9
624.792814254761 31.1118718236685 2470.00002861023 20 22 11
630.449652671814 31.059006229043 2466.00008010864 22 24 13
634.533703327179 30.9305917471647 2456.00008964539 19 21 10
640.651345252991 30.9029407799244 2453.9999961853 17 19 8
654.406368732452 31.2404669821262 2480.99994659424 16 19 10
665.641725063324 31.4520373940468 2497.99990653992 17 20 11
666.739583015442 31.1851650476456 2476.99999809265 19 22 13
672.616839408875 31.1449486762285 2473.99997711182 19 22 13
675.181984901428 30.9536885470152 2459.00011062622 17 20 11
687.647342681885 31.2155950814486 2480.00001907349 13 16 9
700.505316257477 31.4900651574135 2502.00009346008 14 17 10
716.873466968536 31.9155193865299 2536.00001335144 15 18 11
726.860880851746 32.0514924824238 2546.99993133545 15 18 11
738.9235496521 32.2755388915539 2565.00005722046 13 16 9
749.337911605835 32.4240736663342 2576.99990272522 12 15 8
760.109782218933 32.585185021162 2589.99991416931 15 16 8
765.02788066864 32.4946865439415 2582.99994468689 8 9 1
770.206391811371 32.416794449091 2576.99990272522 12 15 8
776.859879493713 32.4018336832523 2575.99997520447 6 11 4
432.975977659225 24.9631851911545 2523.00000190735 9 12 5
429.026395082474 24.3479982018471 2460.99996566772 30 33 24
444.213837385178 24.8210933059454 2509.0000629425 26 29 20
459.30141210556 25.2743270248175 2555.0000667572 18 21 12
466.97336435318 25.3120325505733 2559.00001525879 17 20 11
464.109480381012 24.7859582304955 2506.00004196167 19 22 13
467.721253633499 24.6159825474024 2489.00008201599 23 26 17
475.814610719681 24.6833581477404 2496.00005149841 22 25 16
482.591360807419 24.681493639946 2496.00005149841 20 23 14
487.40616440773 24.5807413011789 2486.00006103516 16 19 10
495.345860719681 24.6381834149361 2492.00010299683 14 17 8
501.503467559814 24.6066283434629 2489.00008201599 12 15 6
514.178037643433 24.8914044350386 2517.99988746643 15 18 11
515.007615089417 24.6028173714876 2489.00008201599 16 19 12
514.001667499542 24.2351945489645 2451.99990272522 19 22 13
519.801020622253 24.1937655955553 2447.99995422363 22 25 16
527.297854423523 24.2313928902149 2451.99990272522 19 22 11
535.903871059418 24.3184119462967 2460.99996566772 20 23 12
539.927780628204 24.1979192942381 2448.99988174438 18 21 10
544.778168201447 24.1169594228268 2440.99998474121 18 21 10
551.391065120697 24.1150408983231 2440.99998474121 23 27 13
558.688640594482 24.1427514702082 2444.00000572205 22 26 12
565.307438373566 24.1408217698336 2444.00000572205 18 22 8
572.393119335175 24.1586472839117 2446.00009918213 22 24 13
579.015016555786 24.1567101329565 2446.00009918213 22 24 13
586.114704608917 24.1745226085186 2447.99995422363 21 23 12
592.739939689636 24.1725854575634 2447.99995422363 20 22 11
598.139822483063 24.1212770342827 2443.00007820129 20 22 11
602.768898010254 24.0403600037098 2434.99994277954 18 20 9
614.861309528351 24.255620315671 2457.00001716614 18 20 9
625.047922134399 24.3918746709824 2470.99995613098 19 21 10
632.241487503052 24.4096666574478 2473.00004959106 20 22 11
637.377858161926 24.3484992533922 2467.00000762939 18 20 9
645.352602005005 24.395901709795 2471.99988365173 16 18 7
657.04619884491 24.5814584195614 2490.9999370575 16 19 10
663.512170314789 24.5696417987347 2490.00000953674 17 20 11
668.895184993744 24.5183706283569 2484.99989509583 18 21 12
667.725205421448 24.2303349077702 2456.00008964539 18 21 12
679.028272628784 24.396138265729 2473.00004959106 16 19 10
692.363262176514 24.6309749782085 2496.99997901917 13 16 7
707.506895065308 24.9249618500471 2526.99995040894 14 17 10
717.723786830902 25.0413902103901 2539.00003433228 13 16 9
736.851394176483 25.4635289311409 2582.00001716614 13 16 9
743.823051452637 25.46158246696 2582.00001716614 12 15 8
755.737245082855 25.6272759288549 2598.99997711182 12 15 8
760.699093341827 25.5563277751207 2592.00000762939 10 11 3
766.214787960052 25.5051180720329 2586.99989318848 13 14 6
770.507454872131 25.4145003855228 2578.00006866455 9 12 5
776.861965656281 25.3929123282433 2575.99997520447 15 20 13
430.060118436813 17.9510768502951 2506.00004196167 31 34 27
433.386206626892 17.8065355867147 2486.00006103516 29 32 23
440.497398376465 17.8195741027594 2487.99991607666 25 28 19
463.257819414139 18.4556655585766 2576.99990272522 18 21 12
464.967668056488 18.2466357946396 2548.00009727478 17 20 11
461.703389883041 17.8514495491982 2493.00003051758 21 24 15
463.964492082596 17.678277567029 2469.00010108948 25 28 19
472.956776618958 17.762865871191 2480.99994659424 21 24 15
482.012897729874 17.8474318236113 2493.00003051758 18 21 12
488.780230283737 17.8460739552975 2493.00003051758 13 16 7
494.552344083786 17.8089179098606 2487.99991607666 11 14 5
499.288737773895 17.7359748631716 2477.9999256134 11 14 5
500.906586647034 17.5556838512421 2453.00006866455 15 18 11
504.870474338531 17.4612887203693 2440.00005722046 15 18 11
518.195807933807 17.6889076828957 2471.99988365173 17 20 11
520.864367485046 17.5515729933977 2453.00006866455 20 23 14
527.514576911926 17.5501946359873 2453.00006866455 17 20 11
535.687804222107 17.5988860428333 2460.00003814697 21 24 15
541.252195835114 17.561724409461 2454.99992370605 21 24 15
544.556677341461 17.4530390650034 2440.00005722046 20 23 12
550.489187240601 17.4301918596029 2437.00003623962 25 28 17
556.40435218811 17.4073446542025 2434.00001525879 25 28 17
562.996029853821 17.405953258276 2434.00001525879 22 25 14
572.394728660584 17.4903683364391 2446.00009918213 19 21 10
581.857323646545 17.5747666507959 2457.99994468689 19 21 10
589.94722366333 17.6162552088499 2463.99998664856 19 21 10
594.920814037323 17.5647996366024 2457.00001716614 20 22 11
599.120795726776 17.4919050186872 2447.00002670288 21 23 12
603.513240814209 17.4261722713709 2437.99996376038 18 20 9
613.111197948456 17.5105426460505 2450.00004768372 20 22 11
623.531997203827 17.6163390278816 2464.99991416931 20 22 11
631.476163864136 17.6506582647562 2470.00002861023 17 19 8
639.446437358856 17.6849756389856 2474.99990463257 15 17 6
649.270296096802 17.7693068981171 2486.99998855591 16 18 7
657.311737537384 17.8036168217659 2492.00010299683 16 19 10
665.112674236298 17.830777913332 2496.00005149841 17 20 11
664.590060710907 17.6365058869123 2469.00010108948 19 22 13
671.261310577393 17.635116353631 2469.00010108948 18 21 12
680.95189332962 17.7122931927443 2480.00001907349 16 19 12
698.742270469666 17.9965700954199 2519.99998092651 14 17 10
710.028469562531 18.1094259023666 2536.00001335144 11 14 7
726.488530635834 18.3507986366749 2569.9999332428 10 13 6
738.850772380829 18.4850450605154 2588.99998664856 10 13 6
752.755224704742 18.6549741774797 2612.99991607666 10 13 6
758.646726608276 18.6250023543835 2608.99996757507 11 13 8
763.048529624939 18.5593515634537 2599.99990463257 8 9 3
764.735579490662 18.429484218359 2582.00001716614 6 7 0
771.405816078186 18.4209793806076 2581.00008964539 21 24 15
775.355756282806 18.348254263401 2571.00009918213 13 18 11
437.571197748184 11.1240390688181 2509.99999046326 26 29 20
447.580456733704 11.203003115952 2528.00011634827 24 27 18
451.214551925659 11.1224250867963 2509.99999046326 19 22 13
454.567193984985 11.0374195501208 2490.9999370575 18 21 12
456.70410990715 10.9258377924562 2466.00008010864 23 26 17
464.153498411179 10.9427450224757 2470.00002861023 24 27 18
472.00471162796 10.9685016795993 2476.0000705719 19 22 13
480.853945016861 11.0163986682892 2486.99998855591 16 19 10
489.565581083298 11.0598532482982 2496.99997901917 11 14 5
493.559598922729 10.9970020130277 2483.00004005432 11 14 5
497.476428747177 10.9341563656926 2469.00010108948 13 16 9
498.457223176956 10.8093190938234 2440.99998474121 15 17 12
505.699217319489 10.8217624947429 2444.00000572205 16 19 12
513.794779777527 10.8519112691283 2450.99997520447 18 21 14
522.351801395416 10.8909057453275 2460.00003814697 21 24 17
526.655435562134 10.8413528650999 2448.99988174438 19 22 15
532.640337944031 10.827218182385 2446.00009918213 21 24 17
537.725865840912 10.7953762635589 2438.99989128113 23 26 17
545.227289199829 10.8122229576111 2443.00007820129 22 25 16
550.716161727905 10.7892341911793 2437.99996376038 25 28 19
557.319819927216 10.7883736491203 2437.99996376038 25 28 19
561.609327793121 10.7432641088963 2427.99997329712 23 26 17
568.885624408722 10.7556758448482 2430.99999427795 18 20 9
578.307688236237 10.80790348351 2443.00007820129 18 20 9
587.554097175598 10.8556961640716 2453.9999961853 18 20 9
592.742741107941 10.8282854780555 2447.99995422363 19 21 10
600.101232528687 10.8406851068139 2450.99997520447 21 23 12
604.504525661469 10.8000114560127 2441.99991226196 19 21 10
616.866052150726 10.9008569270372 2464.99991416931 21 23 12
623.533070087433 10.8999842777848 2464.99991416931 20 22 11
634.289622306824 10.9698567539454 2480.99994659424 17 19 8
641.256153583527 10.9734022989869 2482.00011253357 16 18 7
645.094335079193 10.9238969162107 2470.99995613098 17 19 8
653.620064258575 10.9539730474353 2477.9999256134 15 18 9
659.784436225891 10.9442640095949 2476.0000705719 17 20 11
669.436275959015 10.9920157119632 2486.99998855591 18 21 12
672.349870204926 10.9292790293694 2473.00004959106 19 22 15
685.620844364166 11.0344784334302 2496.99997901917 17 20 13
700.407087802887 11.1617613583803 2526.00002288818 15 18 11
709.749639034271 11.2006589770317 2535.00008583069 9 12 5
724.510908126831 11.3234966993332 2562.99996376038 10 13 6
739.993453025818 11.455156840384 2592.99993515015 11 14 7
751.316010951996 11.52054220438 2608.00004005432 10 12 7
757.775485515594 11.5108313038945 2605.99994659424 9 11 6
758.940935134888 11.4216282963753 2585.99996566772 16 17 11
761.182427406311 11.350111104548 2569.9999332428 9 10 2
772.0046043396 11.4066768437624 2582.99994468689 10 13 4
445.939660072327 4.35124943032861 2558.00008773804 25 28 19
449.705541133881 4.32031834498048 2539.99996185303 23 26 17
449.057877063751 4.24857018515468 2497.99990653992 20 23 14
452.560395002365 4.21764608472586 2480.00001907349 20 23 14
462.445855140686 4.24624281004071 2496.99997901917 24 27 18
464.71780538559 4.20511653646827 2473.00004959106 20 23 14
471.814602613449 4.20820107683539 2474.99990463257 17 20 11
481.241196393967 4.23168577253819 2489.00008201599 16 19 10
490.154355764389 4.25006356090307 2500 14 17 8
493.758976459503 4.22254018485546 2483.99996757507 14 17 8
493.648707866669 4.16442332789302 2450.00004768372 13 15 10
501.725018024445 4.17599873617291 2457.00001716614 15 17 12
511.079609394073 4.19776747003198 2470.00002861023 15 17 12
516.52055978775 4.18724399060011 2463.99998664856 18 20 15
523.414134979248 4.18861443176866 2464.99991416931 22 24 19
527.946352958679 4.17129369452596 2454.99992370605 21 23 18
533.511936664581 4.16246987879276 2450.00004768372 20 23 16
539.710640907288 4.15874226018786 2447.99995422363 22 25 18
546.566903591156 4.16011037304997 2448.99988174438 20 23 16
552.297949790955 4.15298482403159 2444.9999332428 20 23 16
557.320415973663 4.14076447486877 2437.99996376038 20 23 16
560.684740543365 4.11665765568614 2424.00002479553 18 20 9
567.482173442841 4.11802576854825 2424.99995231628 18 20 9
575.94108581543 4.13128035143018 2433.00008773804 17 19 8
587.07582950592 4.16320841759443 2451.99990272522 16 18 7
592.985391616821 4.15778066962957 2448.99988174438 17 19 8
600.101888179779 4.16084239259362 2450.99997520447 19 21 10
606.733083724976 4.16050897911191 2450.99997520447 20 22 11
614.113986492157 4.16526710614562 2453.9999961853 19 21 10
627.07507610321 4.20736335217953 2479.00009155273 17 19 8
635.312855243683 4.21720882877707 2484.99989509583 17 19 8
642.031729221344 4.21687169000506 2484.99989509583 16 18 7
646.922409534454 4.20465832576156 2477.9999256134 15 17 6
652.565538883209 4.19753696769476 2473.99997711182 14 17 8
660.317897796631 4.20399010181427 2477.9999256134 15 18 9
671.859502792358 4.23419335857034 2496.00005149841 15 18 9
678.331732749939 4.23216307535768 2494.99988555908 14 17 10
692.211270332336 4.27592964842916 2520.99990844727 11 14 7
700.407683849335 4.28407592698932 2526.00002288818 13 16 9
708.910286426544 4.29391814395785 2532.00006484985 8 11 4
723.946094512939 4.34276228770614 2561.00010871887 10 13 6
735.142469406128 4.36786143109202 2575.99997520447 11 14 7
746.131062507629 4.39126370474696 2589.99991416931 10 12 7
750.215768814087 4.37397696077824 2579.99992370605 9 11 6
755.419731140137 4.36347490176558 2573.99988174438 10 11 5
763.848721981049 4.37162397429347 2578.9999961853 13 14 6
448.031634092331 -2.64664296992123 2569.9999332428 24 27 18
450.767874717712 -2.62173777446151 2546.0000038147 23 26 17
452.473521232605 -2.59168609045446 2516.99995994568 21 24 15
453.290402889252 -2.55751889199018 2483.99996757507 21 24 15
457.630753517151 -2.54394626244903 2470.99995613098 24 27 18
465.657442808151 -2.55096214823425 2477.9999256134 17 20 11
473.149091005325 -2.55488837137818 2482.00011253357 16 19 10
485.301554203033 -2.58351536467671 2509.99999046326 15 18 9
492.703199386597 -2.58640642277896 2513.00001144409 14 17 8
493.162661790848 -2.55327625200152 2480.99994659424 14 17 8
494.05175447464 -2.52323690801859 2451.99990272522 14 17 10
500.908315181732 -2.5240711402148 2453.00006866455 15 17 12
513.562679290771 -2.55371304228902 2482.00011253357 15 17 12
516.1013007164 -2.5329370982945 2461.99989318848 18 20 15
521.715521812439 -2.5275950320065 2457.00001716614 22 25 18
526.656091213226 -2.51916656270623 2448.99988174438 21 24 17
534.818589687347 -2.52616801299155 2456.00008964539 18 21 14
540.372133255005 -2.52082524821162 2450.99997520447 20 23 16
549.022018909454 -2.52988073043525 2460.00003814697 18 21 12
552.975654602051 -2.51733907498419 2447.99995422363 18 21 12
561.435282230377 -2.52536428160965 2456.00008964539 18 21 12
567.161321640015 -2.52104992978275 2451.99990272522 16 19 10
572.162508964539 -2.51365127041936 2444.9999332428 18 20 9
579.255282878876 -2.51550623215735 2447.00002670288 17 19 8
586.357593536377 -2.51735979691148 2448.99988174438 16 18 7
592.016935348511 -2.51304637640715 2444.9999332428 17 19 8
599.367439746857 -2.51592812128365 2447.99995422363 19 21 10
604.752838611603 -2.51058791764081 2443.00007820129 20 22 11
615.615546703339 -2.52785533666611 2460.00003814697 18 20 9
626.569211483002 -2.54512019455433 2476.99999809265 16 18 7
637.102603912354 -2.56032822653651 2492.00010299683 17 19 8
642.290234565735 -2.55395937711 2486.00006103516 16 18 7
647.183656692505 -2.54656514152884 2479.00009155273 14 16 5
653.356909751892 -2.54430808126926 2476.99999809265 15 18 9
662.449836730957 -2.55335005931556 2486.00006103516 14 17 8
674.551367759705 -2.5736887473613 2506.00004196167 14 17 8
694.916307926178 -2.62483209371567 2555.99999427795 13 16 9
694.407999515533 -2.59690126404166 2529.00004386902 8 11 4
702.348709106445 -2.60080536827445 2532.99999237061 5 8 1
712.830066680908 -2.61395005509257 2546.0000038147 9 12 5
718.292593955994 -2.6086145080626 2540.99988937378 8 10 5
731.147348880768 -2.6299711316824 2562.00003623962 8 10 5
743.25031042099 -2.64824600890279 2579.99992370605 9 11 6
747.308135032654 -2.63778096996248 2569.9999332428 11 13 8
751.01763010025 -2.62629240751266 2559.00001525879 12 13 7
758.813679218292 -2.62917438521981 2562.00003623962 18 19 11
451.12156867981 -9.58151184022427 2548.00009727478 24 27 18
455.708891153336 -9.53193195164204 2535.00008583069 24 27 18
458.034545183182 -9.43723507225513 2509.99999046326 24 27 18
459.297060966492 -9.32374875992537 2480.00001907349 21 24 15
466.220766305923 -9.32681281119585 2480.99994659424 17 20 11
475.436210632324 -9.37497988343239 2493.99995803833 18 21 12
483.754307031631 -9.40434169024229 2502.00009346008 17 20 11
491.72243475914 -9.42617561668158 2507.99989700317 14 17 8
491.969555616379 -9.30143613368273 2474.99990463257 14 17 8
495.66325545311 -9.24435257911682 2460.00003814697 15 18 11
503.358244895935 -9.26242582499981 2464.99991416931 14 17 10
513.562202453613 -9.32558067142963 2482.00011253357 14 17 10
517.358601093292 -9.27225314080715 2467.99993515015 20 23 14
520.440936088562 -9.20766219496727 2450.99997520447 23 26 17
526.010513305664 -9.18815657496452 2446.00009918213 22 25 16
535.471439361572 -9.23626124858856 2459.00011062622 19 22 11
544.119656085968 -9.26933065056801 2467.99993515015 18 21 10
546.343326568604 -9.19348374009132 2447.99995422363 17 20 9
552.749335765839 -9.18899662792683 2447.00002670288 17 21 7
560.520350933075 -9.20703820884228 2451.99990272522 18 22 8
567.392230033875 -9.21005755662918 2453.00006866455 18 22 8
573.332130908966 -9.19805653393269 2450.00004768372 17 20 9
583.279013633728 -9.24987532198429 2463.99998664856 16 19 8
590.427458286285 -9.25664138048887 2466.00008010864 15 18 7
594.922184944153 -9.22211725264788 2457.00001716614 16 19 8
599.366962909698 -9.18759871274233 2447.99995422363 17 20 9
608.713030815125 -9.22814290970564 2459.00011062622 17 20 11
617.366790771484 -9.2574218288064 2467.00000762939 16 19 10
627.580583095551 -9.30921174585819 2480.99994659424 15 18 9
635.312378406525 -9.32347308844328 2484.99989509583 15 18 9
643.323242664337 -9.34148766100407 2490.00000953674 17 20 11
646.399915218353 -9.28822532296181 2476.0000705719 18 21 12
657.049238681793 -9.34375077486038 2490.9999370575 18 21 14
666.446328163147 -9.38051659613848 2500.99992752075 14 17 10
690.701246261597 -9.62355267256498 2565.99998474121 12 15 8
694.915771484375 -9.5852930098772 2555.99999427795 10 13 6
702.095627784729 -9.58829000592232 2556.99992179871 9 12 5
712.884843349457 -9.64003521949053 2571.00009918213 9 12 5
717.029273509979 -9.60179232060909 2561.00010871887 10 13 6
723.097681999207 -9.58980247378349 2558.00008773804 9 12 5
729.149103164673 -9.57781914621592 2555.0000667572 9 12 5
740.369021892548 -9.63331200182438 2569.9999332428 9 12 5
746.726155281067 -9.62508469820023 2568.00007820129 10 13 6
747.788906097412 -9.54940263181925 2548.00009727478 14 17 10
446.112632751465 -16.6117958724499 2559.00001525879 26 29 20
448.819041252136 -16.4548121392727 2535.00008583069 22 25 16
456.96634054184 -16.4990462362766 2542.00005531311 23 26 17
463.325649499893 -16.4783634245396 2539.00003433228 24 27 18
466.704130172729 -16.353840008378 2519.99998092651 20 23 14
472.045212984085 -16.3007099181414 2512.00008392334 18 21 12
477.913439273834 -16.2670407444239 2506.99996948242 20 23 14
483.559966087341 -16.2268821150064 2500.99992752075 19 22 13
486.427783966064 -16.0958953201771 2480.99994659424 16 19 10
489.185780286789 -15.9649215638638 2460.99996566772 16 19 10
495.057791471481 -15.9377455711365 2457.00001716614 15 18 11
507.441282272339 -16.118124127388 2484.99989509583 13 16 9
516.251027584076 -16.1817297339439 2494.99988555908 13 16 9
518.824994564056 -16.0507634282112 2474.99990463257 20 23 14
523.200333118439 -15.9781761467457 2463.99998664856 24 27 18
527.51487493515 -15.9055944532156 2453.00006866455 23 26 17
536.123633384705 -15.9626882523298 2461.99989318848 19 22 11
541.252553462982 -15.9160420298576 2454.99992370605 18 21 10
546.342372894287 -15.869403257966 2447.99995422363 18 21 10
551.167190074921 -15.8162824809551 2440.00005722046 18 21 10
560.976624488831 -15.905762091279 2453.9999961853 19 23 9
566.46591424942 -15.8720854669809 2448.99988174438 19 23 9
572.161018848419 -15.8448908478022 2444.9999332428 17 20 9
579.727113246918 -15.8695410937071 2448.99988174438 16 19 8
589.947521686554 -15.965461730957 2463.99998664856 16 19 8
594.436824321747 -15.9058701246977 2454.99992370605 16 19 8
600.590169429779 -15.8916376531124 2453.00006866455 16 19 8
608.464479446411 -15.9227512776852 2457.99994468689 15 18 9
619.367718696594 -16.031589359045 2474.99990463257 16 19 10
626.820683479309 -16.049737110734 2477.9999256134 17 20 11
634.288728237152 -16.0678829997778 2480.99994659424 17 20 11
643.322288990021 -16.1248836666346 2490.00000953674 17 20 11
650.837063789368 -16.1430258303881 2493.00003051758 17 20 11
661.004781723022 -16.2259135395288 2506.00004196167 16 19 12
680.035531520844 -16.5224466472864 2552.00004577637 13 16 9
699.313879013062 -16.8189350515604 2598.00004959106 11 14 7
704.430460929871 -16.7722962796688 2591.00008010864 9 12 5
704.29128408432 -16.6026875376701 2565.00005722046 9 12 5
714.270234107971 -16.6725851595402 2575.99997520447 9 12 5
722.067892551422 -16.6907049715519 2578.9999961853 7 10 3
726.488828659058 -16.6311729699373 2569.9999332428 8 11 4
733.999609947205 -16.6428349912167 2572.00002670288 10 13 6
740.944266319275 -16.6415609419346 2572.00002670288 12 15 8
745.271146297455 -16.5820680558681 2562.99996376038 13 16 9
746.320486068726 -16.451433300972 2542.99998283386 20 23 16
763.847231864929 -16.6830774396658 2578.9999961853 8 11 4
760.94526052475 -16.46838337183 2546.0000038147 22 25 18
451.510459184647 -24.2657084017992 2631.00004196167 38 41 34
444.542199373245 -23.5169623047113 2549.99995231628 24 27 18
450.23387670517 -23.4507098793983 2542.99998283386 20 23 14
454.268366098404 -23.3014672994614 2526.99995040894 24 27 18
459.30951833725 -23.207550868392 2516.99995994568 25 28 19
466.332286596298 -23.2150554656982 2517.99988746643 20 23 14
473.734974861145 -23.2409834861755 2520.99990844727 21 24 15
480.00892996788 -23.2115816324949 2517.99988746643 19 22 13
484.718561172485 -23.1084357947111 2506.99996948242 17 20 11
486.230283975601 -22.8578243404627 2480.00001907349 16 19 10
489.581823348999 -22.6994007825851 2463.00005912781 18 21 12
499.086081981659 -22.8266716003418 2476.99999809265 18 21 12
509.686052799225 -22.9999870061874 2496.00005149841 15 18 9
516.042590141296 -22.9797717183828 2493.99995803833 12 15 6
521.548688411713 -22.9227002710104 2487.99991607666 16 19 10
523.623585700989 -22.7182283997536 2466.00008010864 19 22 13
527.943432331085 -22.615110501647 2454.99992370605 19 22 13
534.597754478455 -22.6133242249489 2454.99992370605 21 24 13
541.692018508911 -22.6299576461315 2457.00001716614 20 23 12
547.679901123047 -22.6005297154188 2453.9999961853 20 23 12
554.102182388306 -22.589523345232 2453.00006866455 18 21 10
560.060679912567 -22.5600991398096 2450.00004768372 18 22 8
565.539181232452 -22.5122570991516 2444.9999332428 18 22 8
567.479312419891 -22.3263222724199 2424.99995231628 17 20 9
576.411604881287 -22.4165935069323 2434.99994277954 17 20 9
586.354553699493 -22.5436668843031 2448.99988174438 16 19 8
596.614420413971 -22.6799286901951 2463.99998664856 16 19 8
601.323127746582 -22.6044785231352 2456.00008964539 16 19 8
606.730103492737 -22.5566513836384 2450.99997520447 15 18 9
615.61244726181 -22.6376634091139 2460.00003814697 15 18 9
625.048398971558 -22.737069055438 2470.99995613098 18 21 12
633.264601230621 -22.7904561907053 2476.99999809265 18 21 12
646.162569522858 -23.0094380676746 2500.99992752075 17 20 11
657.362043857574 -23.1639929115772 2517.99988746643 17 20 11
669.707536697388 -23.3553256839514 2539.00003433228 15 18 11
694.689750671387 -23.9789318293333 2607.00011253357 14 17 10
704.426527023315 -24.0690093487501 2617.00010299683 10 13 6
706.33202791214 -23.8923821598291 2598.00004959106 8 11 4
712.526977062225 -23.8629207015038 2595.00002861023 9 12 5
718.427777290344 -23.8242745399475 2591.00008010864 9 12 5
722.906291484833 -23.7396769225597 2582.00001716614 7 10 3
728.748738765717 -23.7010680139065 2578.00006866455 8 11 4
738.564193248749 -23.7911716103554 2588.00005912781 10 13 6
741.806924343109 -23.6698556691408 2575.00004768372 12 15 8
743.815720081329 -23.511802777648 2558.00008773804 14 17 10
749.547243118286 -23.4732665121555 2553.99990081787 12 15 8
754.071950912476 -23.3979877084494 2546.0000038147 10 13 6
442.241430282593 -30.8054089546204 2576.99990272522 28 31 24
445.760577917099 -30.5641423910856 2556.99992179871 25 28 19
449.346780776978 -30.3348451852798 2538.00010681152 23 26 17
451.92950963974 -30.0458017736673 2513.99993896484 25 28 19
455.110430717468 -29.8045873641968 2493.99995803833 26 29 20
463.922739028931 -29.9338307231665 2505.00011444092 21 24 15
470.162600278854 -29.8957526683807 2502.00009346008 18 21 12
478.100627660751 -29.9651939421892 2507.99989700317 18 21 12
483.943164348602 -29.9031976610422 2503.00002098084 16 19 10
489.757299423218 -29.8411957919598 2497.99990653992 16 19 10
496.934473514557 -29.8628062009811 2500 18 21 12
501.50191783905 -29.729126021266 2489.00008201599 19 22 13
506.008386611938 -29.5954495668411 2477.9999256134 17 20 11
515.212893486023 -29.7364611178637 2490.00000953674 14 17 8
520.288825035095 -29.6386107802391 2482.00011253357 14 17 8
523.196816444397 -29.4213611632586 2463.99998664856 16 19 10
529.231667518616 -29.3832290917635 2460.99996566772 18 21 12
536.337852478027 -29.404791072011 2463.00005912781 21 24 13
542.79226064682 -29.390525072813 2461.99989318848 20 23 12
548.570513725281 -29.3404441326857 2457.99994468689 20 23 12
556.133031845093 -29.3858516961336 2461.99989318848 17 20 9
562.801718711853 -29.383510351181 2461.99989318848 16 19 8
567.387580871582 -29.273759573698 2453.00006866455 15 18 7
572.625458240509 -29.1998200118542 2447.00002670288 17 20 9
576.409518718719 -29.0543008595705 2434.99994277954 17 20 9
583.718776702881 -29.0877632796764 2437.99996376038 17 20 9
592.254042625427 -29.1808750480413 2446.00009918213 16 19 8
600.586533546448 -29.2620360851288 2453.00006866455 15 18 9
605.737864971161 -29.188122600317 2447.00002670288 15 18 9
618.112921714783 -29.4601116329432 2470.00002861023 15 18 9
625.299274921417 -29.481602832675 2471.99988365173 16 19 10
637.353003025055 -29.7296773642302 2493.00003051758 16 19 10
651.327729225159 -30.0611890852451 2520.99990844727 15 18 9
660.492718219757 -30.1661025732756 2529.99997138977 15 18 11
682.10244178772 -30.8313611894846 2585.99996566772 12 15 8
694.421052932739 -31.0673471540213 2605.99994659424 11 14 7
701.194286346436 -31.0529768466949 2605.00001907349 8 11 4
705.242395401001 -30.9194196015596 2594.00010108948 7 10 3
713.348627090454 -30.9646707028151 2598.00004959106 8 11 4
721.198379993439 -30.9980046004057 2601.0000705719 9 12 5
720.104336738586 -30.65000846982 2572.00002670288 10 13 6
729.311943054199 -30.7429656386375 2579.99992370605 11 14 7
738.276660442352 -30.8240093290806 2586.99989318848 12 15 8
744.397640228271 -30.7859145104885 2584.00011062622 12 15 8
432.800501585007 -37.0353870093822 2522.0000743866 25 28 19
444.014847278595 -37.3998284339905 2546.99993133545 25 28 19
453.416407108307 -37.6026928424835 2561.00010871887 25 28 19
460.764974355698 -37.0686948299408 2525.00009536743 19 22 13
460.586667060852 -36.5081280469894 2486.99998855591 14 17 8
471.099674701691 -36.7989800870419 2506.99996948242 16 19 10
477.526277303696 -36.7668680846691 2505.00011444092 23 26 17
483.747363090515 -36.7200635373592 2502.00009346008 25 28 19
494.264096021652 -36.9960963726044 2520.99990844727 24 27 18
500.509798526764 -36.9492471218109 2517.99988746643 23 26 17
505.73056936264 -36.8290320038795 2509.99999046326 22 25 16
506.822645664215 -36.4153794944286 2482.00011253357 19 22 13
509.83065366745 -36.1484810709953 2463.99998664856 15 18 9
516.513049602509 -36.1456610262394 2463.99998664856 13 16 7
522.344946861267 -36.0841602087021 2460.00003814697 15 18 9
528.368890285492 -36.0373221337795 2457.00001716614 21 24 15
535.681962966919 -36.0784791409969 2460.00003814697 18 21 12
540.805459022522 -35.9729714691639 2453.00006866455 19 22 11
547.452092170715 -35.9701178967953 2453.00006866455 19 22 11
556.808114051819 -36.143209785223 2464.99991416931 18 21 10
562.799096107483 -36.0963456332684 2461.99989318848 17 20 9
568.078875541687 -36.0055044293404 2456.00008964539 16 19 8
572.154819965363 -35.8413755893707 2444.9999332428 16 19 8
581.141233444214 -35.9850861132145 2454.99992370605 17 20 9
588.983595371246 -36.0554903745651 2460.00003814697 17 20 11
594.672739505768 -35.9939783811569 2456.00008964539 16 19 10
600.583970546722 -35.9471328556538 2453.00006866455 15 18 9
609.943509101868 -36.1054353415966 2463.99998664856 16 19 10
620.112299919128 -36.3076739013195 2477.9999256134 15 18 9
629.849851131439 -36.4805795252323 2490.00000953674 14 17 10
644.764363765717 -36.9464568793774 2522.0000743866 14 17 10
657.008945941925 -37.2511297464371 2542.99998283386 13 16 9
671.193718910217 -37.6582890748978 2571.00009918213 14 17 10
681.572258472443 -37.8457009792328 2584.00011062622 11 14 7
688.55607509613 -37.8427021205425 2584.00011062622 8 11 4
692.308902740479 -37.6639924943447 2572.00002670288 7 10 3
698.9865899086 -37.6463904976845 2571.00009918213 7 10 3
712.522208690643 -37.9948355257511 2595.00002861023 8 11 4
719.809353351593 -38.0065105855465 2595.99995613098 9 12 5
725.98123550415 -37.9596427083015 2592.99993515015 10 13 6
730.722725391388 -37.8396101295948 2585.00003814697 11 14 7
740.842461585999 -37.9977077245712 2595.99995613098 12 15 8
740.649998188019 -37.6289114356041 2571.00009918213 13 16 9
752.825260162354 -37.8894843161106 2588.99998664856 13 16 9
772.727429866791 -38.5305099189281 2632.99989700317 8 11 4
432.111173868179 -43.8530333340168 2517.99988746643 30 33 24
440.002351999283 -43.9543835818768 2523.9999294281 29 32 23
450.757712125778 -44.3343073129654 2546.0000038147 26 29 20
456.957459449768 -44.2614369094372 2542.00005531311 21 24 15
459.667086601257 -43.8577383756638 2519.00005340576 19 22 13
462.806075811386 -43.5063131153584 2499.00007247925 15 18 9
473.539531230927 -43.868649750948 2519.99998092651 18 21 12
480.573236942291 -43.8827648758888 2520.99990844727 23 26 17
485.871076583862 -43.7402166426182 2513.00001144409 21 24 15
489.163547754288 -43.4236116707325 2494.99988555908 21 24 15
497.127562761307 -43.5247123241425 2500.99992752075 22 25 16
502.705156803131 -43.4169620275497 2494.99988555908 23 25 14
507.432103157043 -43.2396158576012 2484.99989509583 21 23 12
508.999943733215 -42.8012870252132 2460.00003814697 16 18 7
515.46186208725 -42.7805557847023 2459.00011062622 16 18 7
523.191154003143 -42.8641922771931 2463.99998664856 16 18 7
529.871165752411 -42.8608283400536 2463.99998664856 19 20 12
533.93679857254 -42.6487252116203 2451.99990272522 22 23 15
540.140986442566 -42.6105745136738 2450.00004768372 18 19 11
549.011170864105 -42.7811034023762 2460.00003814697 16 17 9
555.223762989044 -42.7429229021072 2457.99994468689 17 18 10
564.624786376953 -42.9481789469719 2470.00002861023 19 20 12
570.388734340668 -42.8752116858959 2466.00008010864 21 22 14
574.959814548492 -42.7153185009956 2457.00001716614 17 20 11
583.978712558746 -42.8857356309891 2467.00000762939 16 19 10
594.487190246582 -43.1604273617268 2483.00004005432 15 18 9
599.512159824371 -43.0352985858917 2476.0000705719 16 19 10
602.784216403961 -42.7885390818119 2461.99989318848 17 20 11
612.663269042969 -43.0110320448875 2474.99990463257 14 17 10
625.364303588867 -43.4246398508549 2499.00007247925 13 16 9
638.194024562836 -43.8381768763065 2523.00000190735 10 13 6
654.220342636108 -44.4601401686668 2559.00001525879 9 12 5
667.340040206909 -44.8735356330872 2582.99994468689 10 13 6
678.239107131958 -45.130543410778 2598.00004959106 11 14 7
680.777668952942 -44.8316745460033 2581.00008964539 8 11 4
683.756291866302 -44.5676036179066 2565.99998474121 8 11 4
681.538820266724 -43.9736023545265 2532.00006484985 8 11 4
689.195930957794 -44.0222546458244 2535.00008583069 10 13 6
705.105483531952 -44.5918254554272 2568.00007820129 11 14 7
716.756105422974 -44.8835268616676 2585.00003814697 12 15 8
723.738253116608 -44.8800437152386 2585.00003814697 13 16 9
732.415676116943 -44.9807457625866 2591.00008010864 9 12 5
749.115228652954 -45.5675013363361 2625 15 18 11
747.272610664368 -45.0259372591972 2594.00010108948 14 17 10
763.290166854858 -45.560572296381 2625 23 26 19
444.120317697525 -52.1395392715931 2588.00005912781 27 32 25
448.715269565582 -51.8537759780884 2573.99988174438 25 28 19
450.400114059448 -51.2457303702831 2543.99991035461 19 22 13
453.538477420807 -50.8190169930458 2523.00000190735 19 22 13
460.028558969498 -50.7750175893307 2520.99990844727 18 21 12
467.432469129562 -50.8316829800606 2523.9999294281 17 20 11
471.844762563705 -50.5661107599735 2510.99991798401 17 20 11
479.044675827026 -50.602599978447 2513.00001144409 22 25 16
485.480785369873 -50.558514893055 2510.99991798401 20 23 14
491.120636463165 -50.4338853061199 2505.00011444092 21 24 15
493.744939565659 -50.0072725117207 2483.99996757507 22 25 16
498.470395803452 -49.802128225565 2473.99997711182 24 26 15
506.203353404999 -49.8989373445511 2479.00009155273 22 24 13
509.823977947235 -49.593161791563 2463.99998664856 17 19 8
515.039026737213 -49.4484230875969 2457.00001716614 16 18 7
521.701216697693 -49.4445636868477 2457.00001716614 16 18 7
530.727684497833 -49.6620237827301 2467.99993515015 18 19 11
538.723766803741 -49.778837710619 2473.99997711182 18 19 11
550.05818605423 -50.1974113285542 2494.99988555908 14 15 7
550.792872905731 -49.6502630412579 2467.99993515015 13 14 6
556.575417518616 -49.5658591389656 2463.99998664856 13 14 6
565.078258514404 -49.7228316962719 2471.99988365173 15 16 8
571.310222148895 -49.6786385774612 2470.00002861023 16 17 9
575.658202171326 -49.4735650718212 2460.00003814697 17 20 11
586.105465888977 -49.791369587183 2476.0000705719 17 20 11
596.638262271881 -50.1091144979 2492.00010299683 16 19 10
602.898240089417 -50.064891576767 2490.00000953674 15 18 9
605.963468551636 -49.7593134641647 2474.99990463257 14 17 8
611.669421195984 -49.6749207377434 2470.99995613098 15 18 11
628.113150596619 -50.4549108445644 2509.99999046326 13 16 9
648.561060428619 -51.5362769365311 2563.99989128113 11 14 7
660.607874393463 -51.9341416656971 2584.00011062622 9 12 5
672.245025634766 -52.2917471826077 2601.99999809265 9 12 5
677.974104881287 -52.1871149539948 2596.99988365173 9 12 5
679.455041885376 -51.7610162496567 2575.99997520447 8 11 4
683.486044406891 -51.5359118580818 2565.00005722046 8 11 4
687.456786632538 -51.3108596205711 2553.99990081787 8 11 4
688.376545906067 -50.8648790419102 2532.00006484985 10 13 6
701.257646083832 -51.3028204441071 2553.99990081787 11 14 7
715.366005897522 -51.8210530281067 2579.99992370605 12 15 8
720.654666423798 -51.6965277493 2573.99988174438 11 14 7
734.673261642456 -52.1946139633656 2598.99997711182 21 24 17
747.969925403595 -52.6323951780796 2621.00005149841 4 7 0
759.368062019348 -52.9295727610588 2635.99991798401 8 11 4
759.506344795227 -52.4437017738819 2611.99998855591 0 2 0
448.921293020248 -59.8473213613033 2615.9999370575 26 31 24
456.207305192947 -59.8659329116344 2617.00010299683 24 27 18
457.65495300293 -59.1296441853046 2585.00003814697 17 20 11
453.894078731537 -57.7530115842819 2525.00009536743 18 21 12
459.477126598358 -57.5886815786362 2517.99988746643 20 23 14
463.539361953735 -57.2413988411427 2503.00002098084 18 21 12
469.961643218994 -57.1914091706276 2500.99992752075 13 16 7
473.893761634827 -56.8441487848759 2486.00006103516 18 21 12
484.123319387436 -57.2514161467552 2503.99994850159 18 21 12
490.136206150055 -57.1556352078915 2500 21 24 15
493.343323469162 -56.7397885024548 2482.00011253357 22 25 16
498.063325881958 -56.5068461000919 2471.99988365173 21 23 12
504.565715789795 -56.4796440303326 2470.99995613098 20 22 11
511.475145816803 -56.4981214702129 2471.99988365173 16 18 7
514.825284481049 -56.1280734837055 2456.00008964539 15 17 6
521.909415721893 -56.1693944036961 2457.99994468689 15 17 6
531.368613243103 -56.462038308382 2470.99995613098 17 19 8
542.639195919037 -56.9374151527882 2492.00010299683 14 15 7
547.408401966095 -56.727297604084 2483.00004005432 13 14 6
554.582595825195 -56.768499314785 2484.99989509583 12 13 5
557.248830795288 -56.3528351485729 2467.00000762939 11 12 4
566.445529460907 -56.5996058285236 2477.9999256134 11 12 4
571.999907493591 -56.4809031784534 2473.00004959106 11 12 4
581.738114356995 -56.7732825875282 2486.00006103516 9 12 3
587.758243083954 -56.7002482712269 2483.00004005432 10 13 4
594.958007335663 -56.7413829267025 2484.99989509583 13 16 7
601.683259010315 -56.7368417978287 2484.99989509583 14 17 8
606.448888778687 -56.5496757626534 2476.99999809265 15 18 11
610.674977302551 -56.3168711960316 2467.00000762939 17 20 13
625.356197357178 -57.0428222417831 2499.00007247925 14 17 10
654.880404472351 -59.0924695134163 2588.99998664856 10 13 6
664.438247680664 -59.3159906566143 2598.99997711182 9 12 5
670.94874382019 -59.2656247317791 2596.99988365173 10 13 6
674.837052822113 -58.9870996773243 2585.00003814697 7 9 4
681.033253669739 -58.9139834046364 2582.00001716614 9 12 5
690.676271915436 -59.1374784708023 2592.00000762939 9 12 5
697.4116563797 -59.110015630722 2591.00008010864 9 12 5
701.150178909302 -58.8316358625889 2578.9999961853 10 13 6
709.490597248077 -58.9410923421383 2584.00011062622 11 14 7
715.084433555603 -58.8224679231644 2578.9999961853 12 15 8
725.690007209778 -59.114396572113 2592.00000762939 12 15 8
735.517024993896 -59.3378953635693 2601.99999809265 15 18 11
750.248610973358 -59.9490366876125 2628.99994850159 13 16 9
759.07576084137 -60.0812807679176 2634.99999046326 17 20 13
757.175981998444 -59.3699552118778 2604.00009155273 22 25 18
446.685969829559 -66.6579008102417 2602.9999256134 26 32 22
458.64325761795 -67.370131611824 2631.00004196167 24 27 18
459.951937198639 -66.5203332901001 2598.00004959106 19 22 13
460.360914468765 -65.5682161450386 2561.00010871887 21 24 15
458.560317754745 -64.3345862627029 2513.00001144409 22 25 16
467.423915863037 -64.6114274859428 2523.9999294281 16 19 10
469.393402338028 -63.9411062002182 2497.99990653992 13 16 7
471.411168575287 -63.2964670658112 2473.00004959106 17 20 11
479.091972112656 -63.4196698665619 2477.9999256134 17 20 11
487.386912107468 -63.6195987462997 2486.00006103516 21 24 15
494.133800268173 -63.6147484183311 2486.00006103516 21 24 15
495.842456817627 -62.9701986908913 2460.99996566772 16 18 7
505.173623561859 -63.2979571819305 2473.99997711182 16 18 5
511.056661605835 -63.1907284259796 2470.00002861023 14 16 5
517.336070537567 -63.1346628069878 2467.99993515015 14 16 5
525.089681148529 -63.25763463974 2473.00004959106 15 17 6
531.79407119751 -63.2526874542236 2473.00004959106 17 19 8
535.884082317352 -62.9408061504364 2460.99996566772 15 16 8
541.451215744019 -62.807984650135 2456.00008964539 15 16 8
550.114452838898 -63.0331560969353 2464.99991416931 14 15 7
556.792318820953 -63.0281567573547 2464.99991416931 13 14 8
564.154922962189 -63.0998611450195 2467.99993515015 12 13 7
581.709563732147 -64.2964169383049 2515.00010490417 12 13 7
584.07336473465 -63.8055875897408 2496.00005149841 7 10 1
592.961072921753 -64.0305504202843 2505.00011444092 7 10 1
585.376501083374 -62.4918974936008 2444.9999332428 9 12 5
597.562372684479 -63.0747154355049 2467.99993515015 11 14 7
602.526783943176 -62.8907978534698 2460.99996566772 15 18 11
616.611063480377 -63.6523738503456 2490.9999370575 17 20 13
639.865279197693 -65.3336420655251 2556.99992179871 14 17 10
655.63428401947 -66.2226602435112 2592.00000762939 11 14 7
664.433240890503 -66.3962140679359 2598.99997711182 10 12 7
670.943856239319 -66.3398504257202 2596.99988365173 10 12 7
675.354182720184 -66.0791620612144 2586.99989318848 8 10 5
682.87456035614 -66.1250203847885 2588.99998664856 9 12 5
691.737294197083 -66.2985816597939 2595.99995613098 10 13 6
698.483467102051 -66.2678331136703 2595.00002861023 10 13 6
711.204290390015 -66.7988657951355 2615.9999370575 11 14 7
717.997252941132 -66.7681246995926 2615.00000953674 11 14 7
725.893139839172 -66.8395385146141 2618.00003051758 11 14 7
728.764832019806 -66.4514377713203 2602.9999256134 6 9 2
741.731107234955 -66.9823959469795 2624.00007247925 18 21 14
748.531460762024 -66.9517368078232 2622.99990653992 9 12 5
749.852538108826 -66.436193883419 2602.9999256134 25 28 21
456.894993782043 -74.2704644799232 2621.00005149841 27 30 21
462.248414754868 -73.9817842841148 2611.00006103516 24 27 18
452.446550130844 -71.3131576776505 2516.99995994568 21 24 15
458.737790584564 -71.2229609489441 2513.99993896484 20 23 14
470.381885766983 -71.9542503356934 2539.99996185303 15 18 9
477.092564105988 -71.9205960631371 2539.00003433228 16 19 10
475.981026887894 -70.7255974411964 2496.99997901917 18 21 12
479.860305786133 -70.2954605221748 2482.00011253357 18 21 12
485.029190778732 -70.0635835528374 2473.99997711182 21 24 15
492.339819669724 -70.1432153582573 2476.99999809265 18 21 12
499.262511730194 -70.1661556959152 2477.9999256134 13 15 4
501.697242259979 -69.5661827921867 2457.00001716614 13 15 2
512.086033821106 -70.0704157352448 2474.99990463257 13 15 2
521.313548088074 -70.4046860337257 2486.99998855591 13 15 4
528.057038784027 -70.3991949558258 2486.99998855591 14 16 5
