ply
format ascii 1.0
comment KinectMotionCapture
element vertex 751
property float x
property float y
property float z
property uchar red
property uchar green
property uchar blue
end_header
-708.516120910645 266.570448875427 2559.99994277954 137 137 135
-701.027870178223 266.380846500397 2558.00008773804 144 144 142
-693.820953369141 266.295462846756 2556.99992179871 143 143 141
-687.156140804291 266.418516635895 2558.00008773804 131 131 129
-680.750966072083 266.645759344101 2559.99994277954 126 126 124
-674.860537052155 267.081469297409 2563.99989128113 123 122 120
-669.468760490417 267.725706100464 2569.9999332428 117 116 114
-662.754595279694 267.849177122116 2571.00009918213 115 114 112
-656.289100646973 268.076866865158 2572.99995422363 119 118 116
-649.559617042542 268.200486898422 2573.99988174438 123 122 120
-643.073499202728 268.428355455399 2575.99997520447 113 112 110
-636.3285779953 268.552094697952 2576.99990272522 117 116 114
-627.379417419434 267.737925052643 2569.00000572205 115 114 112
-614.125728607178 265.047580003738 2542.99998283386 92 91 89
-597.19181060791 260.689079761505 2500.99992752075 165 164 162
-585.678398609161 258.623272180557 2480.99994659424 179 178 176
-578.006327152252 258.225172758102 2476.99999809265 191 191 191
-571.046829223633 258.139759302139 2476.0000705719 191 191 191
-564.091622829437 258.054286241531 2474.99990463257 182 182 182
-558.041751384735 258.385896682739 2477.9999256134 193 193 193
-551.752030849457 258.613258600235 2480.00001907349 207 207 207
-545.230567455292 258.736282587051 2480.99994659424 218 218 218
-538.051605224609 258.546471595764 2479.00009155273 211 211 211
-531.739592552185 258.77371430397 2480.99994659424 205 205 205
-526.473641395569 259.522557258606 2487.99991607666 196 196 196
-520.959734916687 260.167092084885 2493.99995803833 192 192 192
-515.205919742584 260.707348585129 2499.00007247925 191 191 191
-509.423673152924 261.247575283051 2503.99994850159 194 195 197
-504.21530008316 262.10081577301 2512.00008392334 196 197 199
-847.037374973297 268.026947975159 2645.99990844727 195 199 198
-838.601291179657 267.637848854065 2641.99995994568 189 193 192
-829.557359218597 267.046302556992 2635.99991798401 140 144 143
-818.673968315125 265.847057104111 2624.00007247925 138 142 141
-809.092402458191 265.053123235703 2615.9999370575 143 145 142
-799.55381155014 264.259308576584 2608.00004005432 138 140 137
-791.273891925812 263.87095451355 2604.00009155273 138 140 137
-783.316373825073 263.584017753601 2601.0000705719 135 137 134
-773.882508277893 262.790530920029 2592.99993515015 130 132 129
-764.19585943222 261.895775794983 2584.00011062622 136 138 135
-754.557549953461 261.00105047226 2575.00004768372 134 134 132
-746.999740600586 260.81594824791 2572.99995422363 133 133 131
-738.014101982117 260.124057531357 2565.99998474121 130 130 128
-729.635894298553 259.635031223297 2561.00010871887 129 129 127
-722.977221012115 259.754359722137 2562.00003623962 132 132 130
-716.032922267914 259.772419929504 2562.00003623962 137 137 135
-709.088146686554 259.790658950806 2562.00003623962 138 138 136
-701.594471931458 259.606093168259 2559.99994277954 133 133 131
-695.196390151978 259.827375411987 2562.00003623962 130 130 128
-688.249468803406 259.84588265419 2562.00003623962 131 131 129
-681.833565235138 260.067313909531 2563.99989128113 129 129 127
-675.142765045166 260.187476873398 2565.00005722046 134 133 131
-669.487774372101 260.713458061218 2569.9999332428 130 129 127
-663.289189338684 261.036694049835 2572.99995422363 126 125 123
-657.073616981506 261.360049247742 2575.99997520447 115 114 112
-650.840699672699 261.683464050293 2578.9999961853 112 111 109
-644.590735435486 262.006998062134 2582.00001716614 106 105 103
-638.323366641998 262.330591678619 2585.00003814697 104 103 101
-629.596650600433 261.639356613159 2578.00006866455 103 102 100
-618.00891160965 259.730100631714 2559.00001525879 109 108 106
-601.508855819702 255.68899512291 2519.00005340576 131 130 128
-587.82172203064 252.76392698288 2490.00000953674 146 145 143
-578.95827293396 251.868784427643 2480.99994659424 146 146 146
-571.526706218719 251.582682132721 2477.9999256134 152 152 152
-564.338207244873 251.398056745529 2476.0000705719 160 160 160
-558.510839939117 251.822620630264 2480.00001907349 168 168 168
-552.88302898407 252.348750829697 2484.99989509583 155 155 155
-546.128213405609 252.36713886261 2484.99989509583 133 133 133
-538.721203804016 252.080827951431 2482.00011253357 145 145 145
-531.972408294678 252.0991563797 2482.00011253357 183 183 183
-526.492178440094 252.726852893829 2487.99991607666 195 195 195
-521.395981311798 253.557771444321 2496.00005149841 189 189 189
-515.430510044098 253.982365131378 2500 196 196 196
-509.645521640778 254.508525133133 2505.00011444092 191 192 194
-503.430724143982 254.831492900848 2507.99989700317 192 193 195
-838.934659957886 260.535091161728 2642.99988746643 190 194 193
-830.832421779633 260.255336761475 2640.00010490417 135 139 138
-819.626331329346 258.989900350571 2627.00009346008 136 140 139
-810.036718845367 258.217453956604 2618.99995803833 133 135 132
-799.877107143402 257.24795460701 2608.99996757507 143 145 142
-791.290700435638 256.77153468132 2604.00009155273 132 134 131
-783.634543418884 256.591081619263 2601.99999809265 128 130 127
-775.69043636322 256.312131881714 2598.99997711182 134 136 133
-766.283392906189 255.54022192955 2591.00008010864 128 130 127
-756.626129150391 254.669725894928 2582.00001716614 133 133 131
-747.888207435608 254.095196723938 2575.99997520447 139 139 137
-738.894641399384 253.42208147049 2569.00000572205 142 142 140
-730.508208274841 252.946257591248 2563.99989128113 143 143 141
-723.559319972992 252.963870763779 2563.99989128113 141 141 139
-716.60989522934 252.981573343277 2563.99989128113 139 139 137
-709.382951259613 252.900749444962 2562.99996376038 146 146 144
-701.886713504791 252.721309661865 2561.00010871887 158 158 156
-695.757269859314 253.035366535187 2563.99989128113 160 160 158
-689.073741436005 253.152221441269 2565.00005722046 153 153 151
-682.649791240692 253.367841243744 2566.99991226196 148 148 146
-675.95100402832 253.48487496376 2568.00007820129 126 125 123
-670.28796672821 253.996819257736 2572.99995422363 119 118 116
-663.565754890442 254.114031791687 2573.99988174438 114 113 111
-657.34738111496 254.428744316101 2576.99990272522 109 108 106
-650.859594345093 254.644870758057 2578.9999961853 109 108 106
-644.110262393951 254.762291908264 2579.99992370605 112 111 109
-637.848496437073 255.07727265358 2582.99994468689 109 108 106
-629.859864711761 254.701018333435 2578.9999961853 109 108 106
-620.442867279053 253.732085227966 2569.00000572205 110 109 107
-605.825662612915 250.590026378632 2536.99994087219 114 113 111
-590.67302942276 247.151166200638 2502.00009346008 143 142 140
-579.909980297089 245.489954948425 2484.99989509583 141 141 141
-572.467565536499 245.211690664291 2482.00011253357 147 147 147
-565.496027469635 245.13091146946 2480.99994659424 157 157 157
-559.655070304871 245.54418027401 2484.99989509583 151 151 151
-553.568720817566 245.858654379845 2487.99991607666 144 144 144
-546.805739402771 245.876684784889 2487.99991607666 152 152 152
-539.173424243927 245.499327778816 2483.99996757507 171 171 171
-532.633483409882 245.616048574448 2484.99989509583 177 177 177
-526.510238647461 245.930477976799 2487.99991607666 183 183 183
-520.99621295929 246.541395783424 2493.99995803833 190 190 190
-514.623761177063 246.756941080093 2496.00005149841 189 189 189
-509.053111076355 247.36787378788 2502.00009346008 193 194 196
-503.247857093811 247.879937291145 2506.99996948242 194 195 197
-839.902698993683 253.618210554123 2645.99990844727 195 199 198
-830.848395824432 253.058761358261 2640.00010490417 155 159 158
-821.202337741852 252.307713031769 2631.99996948242 138 142 141
-811.908781528473 251.652657985687 2625 135 140 136
-802.652776241302 250.997722148895 2618.00003051758 129 134 130
-792.826592922211 250.151067972183 2608.99996757507 142 144 141
-783.651232719421 249.496325850487 2601.99999809265 142 144 141
-775.110304355621 249.033421278 2596.99988365173 130 132 129
-766.891837120056 248.666569590569 2592.99993515015 135 137 134
-758.10831785202 248.107939958572 2586.99989318848 137 137 135
-749.066650867462 247.453510761261 2579.99992370605 134 134 132
-739.19939994812 246.511355042458 2569.9999332428 130 130 128
-731.095433235168 246.144786477089 2565.99998474121 122 122 120
-723.576843738556 245.970129966736 2563.99989128113 121 121 119
-716.9069647789 246.083408594131 2565.00005722046 122 122 120
-709.95420217514 246.100842952728 2565.00005722046 124 124 122
-703.000724315643 246.118366718292 2565.00005722046 124 124 122
-696.860730648041 246.423900127411 2568.00007820129 125 125 123
-689.897656440735 246.441662311554 2568.00007820129 128 128 126
-683.199763298035 246.55544757843 2569.00000572205 126 126 124
-675.969123840332 246.477380394936 2568.00007820129 121 120 118
-670.045673847198 246.879309415817 2572.00002670288 120 119 117
-663.326263427734 246.993348002434 2572.99995422363 121 120 118
-657.110750675201 247.299492359161 2575.99997520447 120 119 117
-650.37328004837 247.413694858551 2576.99990272522 119 118 116
-643.879115581512 247.623950242996 2578.9999961853 122 121 119
-637.867033481598 248.026341199875 2582.99994468689 120 119 117
-630.366861820221 247.852623462677 2581.00008964539 118 117 115
-622.151970863342 247.390776872635 2575.99997520447 107 106 104
-609.903573989868 245.296150445938 2553.99990081787 105 104 102
-594.940602779388 242.04857647419 2519.99998092651 127 126 124
-582.261621952057 239.665031433105 2494.99988555908 137 137 137
-573.638617992401 238.914266228676 2486.99998855591 142 142 142
-566.425621509552 238.739788532257 2484.99989509583 145 145 145
-560.123324394226 238.949581980705 2486.99998855591 146 146 146
-553.586542606354 239.063307642937 2487.99991607666 146 146 146
-546.384036540985 238.88872563839 2486.00006103516 143 143 143
-539.19118642807 238.714069128036 2483.99996757507 161 161 161
-532.865583896637 238.923758268356 2486.00006103516 182 182 182
-526.527881622314 239.133432507515 2487.99991607666 187 187 187
-521.222710609436 239.823684096336 2494.99988555908 186 186 186
-514.847457408905 240.033313632011 2496.99997901917 191 191 191
-509.884536266327 240.915894508362 2506.00004196167 188 189 191
-503.867626190186 241.317763924599 2509.99999046326 191 192 194
-498.421877622604 242.008075118065 2516.99995994568 192 193 195
-836.743772029877 245.474010705948 2635.99991798401 195 201 199
-829.919755458832 245.582401752472 2637.00008392334 168 172 171
-821.842133998871 245.318502187729 2634.0000629425 148 152 151
-812.543213367462 244.682177901268 2627.00009346008 131 136 132
-804.201722145081 244.325384497643 2622.99990653992 136 141 137
-794.362306594849 243.503019213676 2614.00008201599 130 135 131
-785.173416137695 242.866992950439 2607.00011253357 136 138 135
-775.126695632935 241.951555013657 2596.99988365173 140 142 139
-767.204165458679 241.688385605812 2594.00010108948 129 131 128
-759.004235267639 241.33212864399 2589.99991416931 128 128 126
-750.825464725494 240.975961089134 2585.99996566772 132 132 130
-740.07922410965 239.781185984612 2572.99995422363 135 135 133
-731.397271156311 239.238709211349 2566.99991226196 140 140 138
-723.31166267395 238.882750272751 2562.99996376038 143 143 141
-717.483103275299 239.272475242615 2566.99991226196 145 145 143
-710.525035858154 239.289522171021 2566.99991226196 144 144 142
-703.566253185272 239.306673407555 2566.99991226196 137 137 135
-696.33537530899 239.230707287788 2565.99998474121 137 137 135
-689.646542072296 239.341259002686 2566.99991226196 139 139 137
-683.217346668243 239.54513669014 2569.00000572205 137 137 135
-676.513254642487 239.655882120132 2569.9999332428 133 132 130
-670.063555240631 239.859998226166 2572.00002670288 129 128 126
-663.859844207764 240.157425403595 2575.00004768372 128 127 125
-656.873643398285 240.175142884254 2575.00004768372 124 123 121
-649.886548519135 240.192890167236 2575.00004768372 120 119 117
-643.148243427277 240.303963422775 2575.99997520447 122 121 119
-637.391269207001 240.788251161575 2581.00008964539 120 119 117
-630.629241466522 240.899443626404 2582.00001716614 119 118 116
-622.894704341888 240.637436509132 2578.9999961853 112 111 109
-612.548530101776 239.348962903023 2565.00005722046 109 108 106
-598.971962928772 236.753776669502 2536.99994087219 130 129 127
-585.313081741333 234.064891934395 2507.99989700317 135 135 135
-575.962722301483 233.055636286736 2496.99997901917 137 137 137
-568.038702011108 232.606261968613 2492.00010299683 143 143 143
-560.816466808319 232.436805963516 2490.00000953674 149 149 149
-553.381502628326 232.173979282379 2486.99998855591 145 145 145
-546.621084213257 232.191115617752 2486.99998855591 156 156 156
-539.859652519226 232.208251953125 2486.99998855591 167 167 167
-533.954560756683 232.598856091499 2490.9999370575 178 178 178
-527.603268623352 232.802674174309 2493.00003051758 183 183 183
-521.657824516296 233.1932336092 2496.99997901917 181 181 181
-515.277087688446 233.397021889687 2499.00007247925 186 186 186
-510.105133056641 234.161153435707 2506.99996948242 184 185 187
-504.286289215088 234.645128250122 2512.00008392334 188 189 191
-499.231070280075 235.50271987915 2520.99990844727 189 190 192
-833.082258701324 239.297270774841 2647.0000743866 172 178 176
-825.913727283478 239.312455058098 2647.0000743866 154 158 157
-814.41456079483 238.062039017677 2632.99989700317 156 161 157
-805.13721704483 237.444579601288 2625.99992752075 143 148 144
-794.985890388489 236.555948853493 2615.9999370575 139 144 140
-785.791754722595 235.938668251038 2608.99996757507 138 140 137
-775.441288948059 234.959691762924 2598.00004959106 131 133 130
-766.924560070038 234.52340066433 2592.99993515015 139 141 138
-759.313702583313 234.358593821526 2591.00008010864 136 136 134
-751.713037490845 234.193861484528 2588.99998664856 141 141 139
-741.821587085724 233.305528759956 2578.9999961853 141 141 139
-732.553601264954 232.598155736923 2571.00009918213 132 132 130
-723.328351974487 231.89078271389 2562.99996376038 128 128 126
-717.499911785126 232.26922750473 2566.99991226196 120 120 118
-710.265159606934 232.195362448692 2565.99998474121 123 123 121
-703.583300113678 232.302576303482 2566.99991226196 133 133 131
-696.081161499023 232.138425111771 2565.00005722046 140 140 138
-690.201044082642 232.517346739769 2569.00000572205 141 141 139
-683.500528335571 232.62482881546 2569.9999332428 136 136 134
-676.793932914734 232.732430100441 2571.00009918213 139 138 136
-669.820427894592 232.749596238136 2571.00009918213 126 125 123
-663.877308368683 233.128935098648 2575.00004768372 121 120 118
-657.146275043488 233.236759901047 2575.99997520447 116 115 113
-650.156497955322 233.254060149193 2575.99997520447 114 113 111
-643.165767192841 233.271405100822 2575.99997520447 115 114 112
-637.161910533905 233.651056885719 2579.99992370605 111 110 108
-630.646884441376 233.849629759789 2582.00001716614 110 109 107
-623.395442962646 233.776524662971 2581.00008964539 111 110 108
-614.237785339355 232.978761196136 2572.00002670288 111 110 108
-602.058708667755 231.00320994854 2549.99995231628 124 123 121
-588.831126689911 228.574365377426 2523.00000190735 116 116 116
-578.055858612061 227.051183581352 2506.00004196167 119 119 119
-569.195449352264 226.252645254135 2496.99997901917 137 137 137
-561.283946037292 225.816428661346 2492.00010299683 148 148 148
-553.620934486389 225.470721721649 2487.99991607666 154 154 154
-546.857833862305 225.487440824509 2487.99991607666 170 170 170
-540.527760982513 225.68541765213 2490.00000953674 166 166 166
-534.828841686249 226.155325770378 2494.99988555908 147 147 147
-528.254985809326 226.262643933296 2496.00005149841 158 158 158
-522.301316261292 226.641863584518 2500 178 178 178
-515.912413597107 226.839765906334 2502.00009346008 183 183 183
-510.528802871704 227.490976452827 2509.0000629425 180 181 183
-504.503667354584 227.870166301727 2513.00001144409 186 187 189
-499.643862247467 228.793427348137 2523.00000190735 186 187 189
-837.188720703125 233.220294117928 2660.00008583069 177 183 181
-826.864898204803 232.358351349831 2650.00009536743 147 151 150
-815.048515796661 231.058090925217 2634.99999046326 159 164 160
-804.539382457733 230.108559131622 2624.00007247925 159 164 160
-795.305252075195 229.509904980659 2617.00010299683 136 141 137
-786.409735679626 228.99903357029 2611.00006103516 130 132 129
-777.546346187592 228.488236665726 2605.00001907349 136 138 135
-768.419206142426 227.889806032181 2598.00004959106 136 138 135
-759.622633457184 227.37917304039 2592.00000762939 136 136 134
-751.729011535645 227.131769061089 2588.99998664856 135 135 133
-742.988228797913 226.621270179749 2582.99994468689 133 133 131
-733.994483947754 226.023063063622 2575.99997520447 134 134 132
-724.755764007568 225.33717751503 2568.00007820129 136 136 134
-717.795848846436 225.353270769119 2568.00007820129 138 138 136
-710.281670093536 225.193977355957 2565.99998474121 137 137 135
-703.051686286926 225.122526288033 2565.00005722046 134 134 132
-695.555031299591 224.96335208416 2562.99996376038 138 138 136
-689.949095249176 225.41868686676 2568.00007820129 144 144 142
-683.251440525055 225.52302479744 2569.00000572205 141 141 139
-676.28425359726 225.539669394493 2569.00000572205 130 129 127
-669.055759906769 225.468561053276 2568.00007820129 124 123 121
-663.120806217194 225.836515426636 2572.00002670288 123 122 120
-657.163321971893 226.204574108124 2575.99997520447 122 121 119
-650.678396224976 226.397082209587 2578.00006866455 117 116 114
-643.682301044464 226.414009928703 2578.00006866455 120 119 117
-636.932194232941 226.51880979538 2578.9999961853 115 114 112
-630.664169788361 226.799294352531 2582.00001716614 112 111 109
-623.412668704987 226.728469133377 2581.00008964539 112 111 109
-614.971458911896 226.21838748455 2575.00004768372 110 109 105
-603.256285190582 224.478200078011 2555.0000667572 119 118 116
-589.548110961914 221.946939826012 2526.00002288818 118 118 116
-578.533887863159 220.381900668144 2507.99989700317 138 138 138
-569.212198257446 219.431757926941 2496.99997901917 140 140 140
-561.976194381714 219.272390007973 2494.99988555908 155 155 155
-554.527640342712 219.025135040283 2492.00010299683 165 165 165
-548.193156719208 219.217240810394 2493.99995803833 168 168 168
-541.412591934204 219.23354268074 2493.99995803833 152 152 152
-535.274028778076 219.513535499573 2496.99997901917 153 153 153
-528.483092784882 219.529777765274 2496.99997901917 169 169 169
-522.108852863312 219.721794128418 2499.00007247925 171 171 171
-515.928745269775 220.001712441444 2502.00009346008 183 183 183
-510.341644287109 220.545396208763 2507.99989700317 179 180 182
-504.720747470856 221.089109778404 2513.99993896484 184 185 187
-499.660044908524 221.896663308144 2523.00000190735 184 185 187
-839.721202850342 226.647332310677 2667.99998283386 185 189 190
-829.375863075256 225.812330842018 2657.99999237061 168 172 171
-816.919267177582 224.382668733597 2641.00003242493 142 146 145
-806.700706481934 223.547771573067 2631.00004196167 137 141 140
-796.231925487518 222.627937793732 2619.99988555908 147 149 148
-786.424875259399 221.878126263618 2611.00006103516 151 153 152
-778.45710515976 221.638262271881 2608.00004005432 140 142 139
-769.617795944214 221.143543720245 2601.99999809265 121 123 120
-760.810375213623 220.648869872093 2595.99995613098 134 134 132
-752.035081386566 220.154285430908 2589.99991416931 132 132 130
-744.154572486877 219.914749264717 2586.99989318848 141 141 139
-735.434949398041 219.420254230499 2581.00008964539 162 162 160
-726.747214794159 218.925833702087 2575.00004768372 156 156 154
-718.091309070587 218.431398272514 2569.00000572205 131 131 129
-710.020840167999 218.10707449913 2565.00005722046 136 136 134
-702.519595623016 217.952862381935 2562.99996376038 149 149 147
-695.571184158325 217.968806624413 2562.99996376038 158 158 156
-689.965426921844 218.410089612007 2568.00007820129 167 167 165
-682.735860347748 218.341112136841 2566.99991226196 165 165 163
-675.247728824615 218.187183141708 2565.00005722046 157 157 155
-667.769551277161 218.033254146576 2562.99996376038 140 140 138
-661.590456962585 218.304753303528 2565.99998474121 131 131 129
-656.159460544586 218.831568956375 2572.00002670288 123 123 121
-650.190234184265 219.188317656517 2575.99997520447 124 123 119
-643.699049949646 219.374969601631 2578.00006866455 120 119 115
-636.948883533478 219.47655081749 2578.9999961853 118 117 113
-630.925178527832 219.833508133888 2582.99994468689 117 116 112
-624.395608901978 220.020309090614 2585.00003814697 116 113 108
-616.182327270508 219.611272215843 2579.99992370605 113 110 105
-604.217350482941 217.840179800987 2559.00001525879 121 120 116
-589.331209659576 214.962065219879 2525.00009536743 136 136 134
-577.396810054779 213.105171918869 2503.00002098084 123 123 121
-569.000422954559 212.525188922882 2496.00005149841 125 125 123
-561.767160892487 212.370827794075 2493.99995803833 176 176 174
-554.766297340393 212.301626801491 2493.00003051758 173 173 171
-548.64889383316 212.572976946831 2496.00005149841 148 148 148
-542.079985141754 212.674036622047 2496.99997901917 147 147 147
-535.504400730133 212.775036692619 2497.99990653992 155 155 155
-528.499007225037 212.70564198494 2496.99997901917 164 164 164
-522.333681583405 212.976947426796 2500 175 175 175
-516.357064247131 213.333442807198 2503.99994850159 176 176 176
-511.171519756317 214.030727744102 2512.00008392334 178 180 179
-505.53959608078 214.557617902756 2517.99988746643 183 185 184
-500.66614151001 215.425387024879 2528.00011634827 184 186 185
-838.161766529083 218.961477279663 2663.00010681152 185 189 190
-827.830195426941 218.153342604637 2653.00011634827 177 181 180
-817.552328109741 217.345252633095 2642.99988746643 153 157 156
-808.248341083527 216.783940792084 2635.99991798401 145 149 148
-797.766208648682 215.893775224686 2625 137 139 138
-787.042021751404 214.921340346336 2612.99991607666 141 143 140
-777.875006198883 214.360252022743 2605.99994659424 156 158 155
-769.041240215302 213.881462812424 2599.99990463257 144 146 143
-761.118590831757 213.649541139603 2596.99988365173 121 121 119
-752.340734004974 213.170930743217 2591.00008010864 139 139 137
-744.169890880585 212.856873869896 2586.99989318848 129 129 127
-736.305177211761 212.625190615654 2584.00011062622 142 142 140
-728.456139564514 212.393581867218 2581.00008964539 158 158 156
-719.784080982208 211.915150284767 2575.00004768372 167 167 165
-711.143791675568 211.436718702316 2569.00000572205 162 162 160
-702.535271644592 210.958302021027 2562.99996376038 141 141 139
-695.858359336853 211.056128144264 2563.99989128113 137 137 135
-689.44388628006 211.236357688904 2565.99998474121 143 143 141
-682.751834392548 211.334317922592 2566.99991226196 144 144 142
-675.000369548798 211.103036999702 2563.99989128113 143 143 141
-667.524993419647 210.954129695892 2562.00003623962 135 135 133
-660.83300113678 211.052283644676 2562.99996376038 131 131 129
-655.410289764404 211.562246084213 2569.00000572205 127 127 125
-649.449229240417 211.907580494881 2572.99995422363 126 125 121
-643.215835094452 212.170660495758 2575.99997520447 122 121 117
-636.718273162842 212.351441383362 2578.00006866455 120 119 115
-630.452990531921 212.614625692368 2581.00008964539 120 119 115
-623.687326908112 212.713077664375 2582.00001716614 118 117 112
-615.721046924591 212.399631738663 2578.00006866455 115 114 109
-604.94190454483 211.097374558449 2562.00003623962 118 117 112
-590.514123439789 208.476468920708 2529.99997138977 122 121 119
-577.874004840851 206.432044506073 2505.00011444092 167 167 165
-569.244086742401 205.788314342499 2496.99997901917 168 168 166
-562.683880329132 205.886244773865 2497.99990653992 166 166 164
-556.339681148529 206.066638231277 2500 163 163 161
-549.763679504395 206.164538860321 2500.99992752075 146 146 146
-543.398201465607 206.344872713089 2503.00002098084 147 147 147
-535.948812961578 206.112951040268 2500 150 150 150
-529.572904109955 206.29321038723 2502.00009346008 155 155 155
-522.975981235504 206.390962004662 2503.00002098084 161 161 161
-516.991198062897 206.736087799072 2506.99996948242 173 173 173
-511.390388011932 207.246139645576 2513.00001144409 177 179 178
-505.75578212738 207.756176590919 2519.00005340576 182 184 183
-500.483393669128 208.43118429184 2526.99995040894 183 185 184
-837.546169757843 211.541026830673 2661.00001335144 178 182 181
-828.468143939972 211.077734827995 2654.99997138977 165 169 168
-817.257106304169 210.0580483675 2641.99995994568 171 175 174
-807.036161422729 209.276899695396 2631.99996948242 161 165 164
-797.476708889008 208.654835820198 2624.00007247925 154 156 153
-787.960171699524 208.032831549644 2615.9999370575 132 134 131
-778.188109397888 207.331374287605 2607.00011253357 149 151 148
-768.760025501251 206.70947432518 2598.99997711182 159 161 158
-760.254144668579 206.326231360435 2594.00010108948 170 170 168
-752.065122127533 206.02260529995 2589.99991416931 121 121 119
-744.184792041779 205.798596143723 2586.99989318848 138 138 136
-736.605107784271 205.654218792915 2585.00003814697 136 136 134
-729.035675525665 205.509915947914 2582.99994468689 133 133 131
-720.078706741333 204.967856407166 2575.99997520447 154 154 152
-711.712598800659 204.584956169128 2571.00009918213 159 159 157
-703.098714351654 204.122483730316 2565.00005722046 164 164 162
-696.416437625885 204.217135906219 2565.99998474121 162 162 160
-689.996659755707 204.391449689865 2568.00007820129 157 157 155
-683.565199375153 204.565867781639 2569.9999332428 153 153 151
-676.595509052277 204.581141471863 2569.9999332428 143 143 141
-668.582677841187 204.278022050858 2565.99998474121 138 138 136
-661.364316940308 204.213812947273 2565.00005722046 135 135 133
-654.405474662781 204.229176044464 2565.00005722046 129 129 127
-648.707747459412 204.642757773399 2569.9999332428 125 124 120
-642.732262611389 204.976782202721 2573.99988174438 122 121 117
-636.734068393707 205.310896039009 2578.00006866455 120 119 115
-630.468845367432 205.5654078722 2581.00008964539 120 119 115
-623.703181743622 205.660670995712 2582.00001716614 119 118 113
-616.214513778687 205.51697909832 2579.99992370605 117 116 111
-605.902135372162 204.417303204536 2565.99998474121 120 119 114
-592.863798141479 202.361404895782 2539.99996185303 117 117 115
-579.965651035309 200.305208563805 2513.99993896484 126 126 124
-571.083247661591 199.603244662285 2505.00011444092 121 121 119
-563.600242137909 199.379310011864 2502.00009346008 144 144 142
-556.800007820129 199.394360184669 2502.00009346008 156 156 154
-550.218522548676 199.48910176754 2503.00002098084 147 147 147
-544.281840324402 199.822932481766 2506.99996948242 149 149 149
-537.464678287506 199.837908148766 2506.99996948242 154 154 154
-530.857920646667 199.932545423508 2507.99989700317 156 156 156
-523.409008979797 199.708312749863 2505.00011444092 161 161 161
-516.799986362457 199.802845716476 2506.00004196167 173 173 173
-510.794878005981 200.136557221413 2509.99999046326 176 178 177
-505.168437957764 200.629755854607 2516.00003242493 180 182 181
-500.300347805023 201.441898941994 2526.00002288818 183 185 184
-838.503837585449 204.514980316162 2664.00003433228 191 195 194
-829.105913639069 203.990936279297 2657.00006484985 176 180 179
-817.889511585236 203.006267547607 2644.00005340576 163 167 166
-806.743264198303 202.021643519402 2631.00004196167 163 167 166
-798.098385334015 201.651349663734 2625.99992752075 159 161 158
-787.974178791046 200.897172093391 2615.9999370575 152 154 151
-778.202176094055 200.219854712486 2607.00011253357 148 150 147
-767.886877059937 199.388921260834 2595.99995613098 135 137 134
-759.682238101959 199.0956813097 2592.00000762939 134 134 132
-752.079367637634 198.956161737442 2589.99991416931 161 161 159
-743.911623954773 198.66307079792 2585.99996566772 184 184 182
-736.049830913544 198.44688475132 2582.99994468689 160 160 158
-728.485882282257 198.307603597641 2581.00008964539 139 139 137
-720.093369483948 197.937831282616 2575.99997520447 142 142 140
-712.557852268219 197.798669338226 2573.99988174438 140 140 138
-704.209983348846 197.429001331329 2569.00000572205 129 129 127
-697.245597839355 197.443649172783 2569.00000572205 129 129 127
-690.280377864838 197.458326816559 2569.00000572205 139 139 137
-684.112131595612 197.703689336777 2572.00002670288 141 141 139
-676.873922348022 197.641655802727 2571.00009918213 148 148 146
-669.118940830231 197.425901889801 2568.00007820129 138 138 136
-661.637246608734 197.287037968636 2565.99998474121 133 133 131
-654.675722122192 197.301954030991 2565.99998474121 129 129 127
-648.723006248474 197.624519467354 2569.9999332428 129 130 125
-641.998410224915 197.716429829597 2571.00009918213 129 128 124
-635.761320590973 197.962194681168 2573.99988174438 124 123 119
-629.507005214691 198.208019137383 2576.99990272522 120 119 115
-622.993886470795 198.376998305321 2578.9999961853 117 116 111
-615.991055965424 198.392122983932 2578.9999961853 115 114 109
-607.098162174225 197.791814804077 2571.00009918213 116 115 110
-595.446527004242 196.268126368523 2551.00011825562 123 123 121
-582.749009132385 194.359496235847 2526.00002288818 120 120 118
-573.377966880798 193.527832627296 2515.00010490417 117 117 115
-565.417170524597 193.157762289047 2509.99999046326 143 143 141
-558.372676372528 193.095445632935 2509.0000629425 148 148 146
-551.332473754883 193.033084273338 2507.99989700317 143 143 143
-544.513702392578 193.047657608986 2507.99989700317 148 148 148
-537.479400634766 192.985221743584 2506.99996948242 157 157 157
-530.661046504974 192.999690771103 2506.99996948242 159 159 159
-523.214638233185 192.783147096634 2503.99994850159 162 162 162
-516.608357429504 192.874521017075 2505.00011444092 170 170 170
-510.402381420136 193.119823932648 2507.99989700317 173 175 174
-504.982113838196 193.673133850098 2515.00010490417 177 179 178
-499.720573425293 194.303438067436 2523.00000190735 181 183 182
-493.828296661377 194.702744483948 2528.00011634827 186 188 187
-849.222242832184 198.051780462265 2674.99995231628 191 197 195
-840.720236301422 197.768449783325 2671.0000038147 206 210 209
-829.119026660919 196.744754910469 2657.00006484985 197 201 200
-818.21209192276 195.869192481041 2644.99998092651 165 170 166
-806.756675243378 194.845572113991 2631.00004196167 161 166 162
-798.415899276733 194.562554359436 2627.00009346008 157 159 156
-789.49385881424 194.131508469582 2621.00005149841 150 152 149
-780.305445194244 193.626463413239 2614.00008201599 154 156 153
-770.267009735107 192.899242043495 2604.00009155273 149 151 148
-760.868489742279 192.320182919502 2595.99995613098 157 157 155
-752.674162387848 192.037507891655 2592.00000762939 136 136 134
-744.501054286957 191.754922270775 2588.00005912781 147 147 145
-736.063897609711 191.398277878761 2582.99994468689 181 181 179
-727.088689804077 190.893441438675 2575.99997520447 183 183 181
-719.268977642059 190.685108304024 2572.99995422363 146 146 144
-712.018489837646 190.62502682209 2572.00002670288 148 148 146
-704.224407672882 190.416783094406 2569.00000572205 148 148 146
-696.717202663422 190.282717347145 2566.99991226196 149 149 147
-690.294802188873 190.445199608803 2569.00000572205 145 145 143
-683.594763278961 190.533608198166 2569.9999332428 140 140 138
-677.151739597321 190.696254372597 2572.00002670288 132 134 131
-668.612480163574 190.265774726868 2565.99998474121 131 133 130
-661.909759044647 190.354362130165 2566.99991226196 132 134 131
-654.690504074097 190.294653177261 2565.99998474121 132 132 130
-648.737788200378 190.60580432415 2569.9999332428 129 130 125
-641.513824462891 190.546184778214 2569.00000572205 128 129 124
-635.282218456268 190.783277153969 2572.00002670288 124 125 120
-628.789007663727 190.946191549301 2573.99988174438 121 120 116
-622.042417526245 191.035002470016 2575.00004768372 119 118 113
-615.528225898743 191.198021173477 2576.99990272522 116 115 110
-607.113003730774 190.767496824265 2571.00009918213 114 113 108
-596.628308296204 189.668983221054 2555.99999427795 112 112 110
-584.60921049118 188.050836324692 2533.99991989136 111 111 109
-574.532389640808 187.026157975197 2519.99998092651 112 112 110
-565.882205963135 186.446636915207 2512.00008392334 138 138 136
-557.71940946579 186.015456914902 2506.00004196167 139 139 137
-550.90719461441 186.029583215714 2506.00004196167 142 142 142
-544.528007507324 186.192154884338 2507.99989700317 145 145 145
-537.708044052124 186.206206679344 2507.99989700317 154 154 154
-530.886888504028 186.220213770866 2507.99989700317 157 157 157
-523.855626583099 186.159953474998 2506.99996948242 162 162 162
-517.24112033844 186.248123645782 2507.99989700317 170 170 170
-511.027038097382 186.484783887863 2510.99991798401 171 173 172
-505.397737026215 186.944231390953 2516.99995994568 175 177 176
-500.52684545517 187.700778245926 2526.99995040894 180 182 181
-495.991051197052 188.605934381485 2539.00003433228 184 186 185
-855.266809463501 192.111924290657 2694.00000572205 196 202 200
-842.306792736053 190.840780735016 2676.00011825562 175 179 178
-829.131960868835 189.498260617256 2657.00006484985 132 137 133
-818.225026130676 188.654989004135 2644.99998092651 125 130 126
-808.609485626221 188.097134232521 2637.00008392334 116 121 117
-800.860404968262 187.967285513878 2634.99999046326 115 117 114
-791.314363479614 187.409520149231 2627.00009346008 120 122 117
-782.40829706192 186.994507908821 2621.00005149841 122 124 119
-772.055149078369 186.222806572914 2609.99989509583 123 125 120
-762.640357017517 185.665160417557 2601.99999809265 124 126 123
-754.429996013641 185.393005609512 2598.00004959106 125 127 124
-745.089948177338 184.835433959961 2589.99991416931 125 127 124
-736.36257648468 184.420645236969 2584.00011062622 136 138 135
-727.384626865387 183.934450149536 2576.99990272522 157 159 156
-719.562292098999 183.733850717545 2573.99988174438 177 179 176
-711.478531360626 183.461889624596 2569.9999332428 181 183 180
-703.415870666504 183.189958333969 2565.99998474121 180 182 179
-695.645391941071 182.989448308945 2562.99996376038 169 171 168
-689.234018325806 183.145999908447 2565.00005722046 146 148 145
-682.544887065887 183.231189846992 2565.99998474121 141 143 140
-675.322949886322 183.173626661301 2565.00005722046 157 159 156
-667.584359645844 182.973280549049 2562.00003623962 148 150 147
-661.408305168152 183.201476931572 2565.00005722046 141 143 140
-654.704689979553 183.286875486374 2565.99998474121 139 141 138
-648.499608039856 183.515191078186 2569.00000572205 134 135 130
-641.278386116028 183.457806706429 2568.00007820129 129 130 125
-634.802520275116 183.614745736122 2569.9999332428 125 126 121
-628.314852714539 183.771744370461 2572.00002670288 121 122 117
-621.815204620361 183.92875790596 2573.99988174438 118 117 112
-615.303754806519 184.085831046104 2575.99997520447 117 116 111
-607.12730884552 183.742627501488 2571.00009918213 112 111 106
-597.576320171356 182.97053873539 2559.99994277954 112 112 110
-585.776925086975 181.483522057533 2539.00003433228 128 128 126
-575.002431869507 180.282220244408 2522.0000743866 130 130 128
-566.121399402618 179.652586579323 2513.00001144409 141 141 139
-557.955801486969 179.237321019173 2506.99996948242 142 142 140
-550.921022891998 179.179489612579 2506.00004196167 142 142 142
-543.673396110535 179.050087928772 2503.99994850159 147 147 147
-536.864221096039 179.063647985458 2503.99994850159 155 155 155
-530.477344989777 179.220244288445 2506.00004196167 155 155 155
-524.705171585083 179.591298103333 2510.99991798401 158 158 158
-518.492221832275 179.819345474243 2513.99993896484 172 172 172
-512.261748313904 180.047377943993 2516.99995994568 168 168 168
-506.41530752182 180.418446660042 2522.0000743866 173 173 173
-501.332700252533 181.075647473335 2530.99989891052 177 177 177
-496.395319700241 181.804448366165 2540.99988937378 183 185 184
-494.677007198334 183.749720454216 2568.00007820129 194 196 195
-863.853573799133 185.027435421944 2697.99995422363 202 208 206
-853.374063968658 184.353530406952 2687.99996376038 194 200 198
-841.374754905701 183.336794376373 2673.00009727478 114 118 117
-828.208148479462 182.045698165894 2654.00004386902 132 137 133
-817.92813539505 181.371912360191 2644.00005340576 132 137 133
-809.235274791718 181.041195988655 2638.99993896484 126 131 127
-801.177024841309 180.84779381752 2635.99991798401 125 127 124
-792.230904102325 180.448666214943 2630.00011444092 127 129 124
-783.615231513977 180.118203163147 2625 128 130 125
-772.955536842346 179.307445883751 2612.99991607666 132 134 129
-762.946486473084 178.633958101273 2602.9999256134 126 128 125
-753.571927547455 178.097739815712 2595.00002861023 136 138 135
-745.390772819519 177.836090326309 2591.00008010864 141 143 140
-736.660659313202 177.43718624115 2585.00003814697 135 137 134
-728.244721889496 177.106961607933 2579.99992370605 132 134 131
-720.134735107422 176.84543132782 2575.99997520447 138 140 137
-711.491942405701 176.446616649628 2569.9999332428 149 151 148
-702.606856822968 175.979137420654 2562.99996376038 179 181 178
-695.387542247772 175.923690199852 2562.00003623962 183 185 182
-688.71009349823 176.005586981773 2562.99996376038 171 173 170
-682.026505470276 176.087588071823 2563.99989128113 165 167 164
-674.809992313385 176.032274961472 2562.99996376038 139 141 138
-667.858600616455 176.045671105385 2562.99996376038 146 148 145
-661.679863929749 176.265195012093 2565.99998474121 139 141 138
-654.718458652496 176.278680562973 2565.99998474121 130 132 129
-648.261070251465 176.429629325867 2568.00007820129 133 134 129
-641.791582107544 176.580563187599 2569.9999332428 129 130 125
-635.310411453247 176.731586456299 2572.00002670288 128 129 124
-629.061639308929 176.951363682747 2575.00004768372 127 128 123
-621.829092502594 176.896259188652 2573.99988174438 122 121 116
-615.317642688751 177.047356963158 2575.99997520447 119 118 113
-607.377290725708 176.786065101624 2572.00002670288 117 116 111
-598.757266998291 176.318496465683 2565.00005722046 115 115 113
-586.713433265686 174.819678068161 2542.99998283386 128 128 126
-575.471937656403 173.52682352066 2523.9999294281 129 129 127
-566.360175609589 172.852590680122 2513.99993896484 139 139 137
-558.414399623871 172.522038221359 2509.0000629425 141 141 139
-551.374077796936 172.466441988945 2507.99989700317 146 146 146
-544.121026992798 172.34206199646 2506.00004196167 149 149 149
-537.52076625824 172.423928976059 2506.99996948242 156 156 156
-530.913949012756 172.505751252174 2507.99989700317 159 159 159
-525.345325469971 172.931522130966 2513.99993896484 162 162 162
-518.917977809906 173.082113265991 2516.00003242493 166 166 166
-512.885451316834 173.370257019997 2519.99998092651 166 166 166
-507.231712341309 173.795998096466 2526.00002288818 172 172 172
-501.74206495285 174.290537834167 2532.99999237061 175 175 175
-496.994465589523 175.06031692028 2543.99991035461 180 182 181
-851.481020450592 176.627606153488 2681.99992179871 173 179 177
-841.071844100952 175.980612635612 2671.99993133545 149 154 150
-828.532040119171 174.872606992722 2654.99997138977 148 153 149
-817.940235137939 174.159839749336 2644.00005340576 139 144 140
-808.940708637238 173.77644777298 2638.00001144409 138 143 139
-801.189184188843 173.656657338142 2635.99991798401 139 141 136
-791.339516639709 173.075795173645 2627.00009346008 140 142 137
-783.030569553375 172.824382781982 2622.99990653992 141 143 138
-772.080600261688 171.980053186417 2609.99989509583 143 145 140
-762.665987014771 171.465143561363 2601.99999809265 145 147 144
-753.874838352203 171.082094311714 2595.99995613098 144 146 143
-745.115697383881 170.699074864388 2589.99991416931 148 150 147
-736.673414707184 170.382007956505 2585.00003814697 146 148 145
-728.257477283478 170.064955949783 2579.99992370605 142 144 141
-720.427095890045 169.879779219627 2576.99990272522 149 151 148
-711.504876613617 169.43097114563 2569.9999332428 150 152 149
-702.893853187561 169.048056006432 2563.99989128113 146 148 145
-695.943295955658 169.06076669693 2563.99989128113 139 141 138
-688.723146915436 169.007614254951 2562.99996376038 127 129 126
-682.305634021759 169.152349233627 2565.00005722046 125 127 124
-675.349771976471 169.165223836899 2565.00005722046 134 136 133
-668.65348815918 169.244095683098 2565.99998474121 159 161 158
-661.693096160889 169.257059693336 2565.99998474121 157 159 156
-654.986917972565 169.336020946503 2566.99991226196 131 133 130
-648.526728153229 169.481009244919 2569.00000572205 125 127 122
-642.304420471191 169.691994786263 2572.00002670288 123 124 119
-635.570764541626 169.771060347557 2572.99995422363 123 124 119
-629.563570022583 170.048117637634 2576.99990272522 123 124 119
-622.325718402863 169.995307922363 2575.99997520447 117 118 112
-616.047620773315 170.206427574158 2578.9999961853 113 114 108
-608.571469783783 170.087575912476 2576.99990272522 112 113 107
-600.171267986298 169.704675674438 2571.00009918213 114 114 112
-588.11092376709 168.265506625175 2549.00002479553 123 123 121
-576.625108718872 166.958138346672 2529.00004386902 129 129 127
-567.49963760376 166.310757398605 2519.00005340576 138 138 136
-559.540271759033 165.99340736866 2513.99993896484 141 141 139
-552.266418933868 165.874049067497 2512.00008392334 133 133 133
-544.785261154175 165.688633918762 2509.0000629425 133 133 133
-538.176834583282 165.767297148705 2509.99999046326 145 145 145
-531.350135803223 165.779888629913 2509.99999046326 155 155 155
-525.14922618866 165.990620851517 2513.00001144409 162 162 162
-519.136905670166 166.267365217209 2516.99995994568 160 160 160
-513.508796691895 166.676223278046 2523.00000190735 163 163 163
-508.047580718994 167.151153087616 2529.99997138977 173 173 173
-502.348959445953 167.560011148453 2536.00001335144 176 176 176
-497.397869825363 168.233171105385 2546.0000038147 178 178 178
-849.904894828796 168.997228145599 2677.00004577637 181 187 183
-840.138852596283 168.503329157829 2668.99991035461 179 184 180
-829.167664051056 167.756944894791 2657.00006484985 170 175 171
-818.570494651794 167.073726654053 2645.99990844727 148 153 147
-809.259057044983 166.643127799034 2638.99993896484 144 149 143
-800.289154052734 166.2757396698 2632.99989700317 135 137 132
-790.14641046524 165.655806660652 2622.99990653992 134 136 131
-780.952870845795 165.225371718407 2615.9999370575 136 138 133
-770.317733287811 164.479166269302 2604.00009155273 135 137 132
-761.505663394928 164.111971855164 2598.00004959106 129 131 128
-753.015756607056 163.807958364487 2592.99993515015 126 128 125
-744.552552700043 163.504019379616 2588.00005912781 123 125 122
-735.545814037323 163.073763251305 2581.00008964539 120 122 119
-727.423012256622 162.833034992218 2576.99990272522 127 129 126
-719.880342483521 162.718757987022 2575.00004768372 135 137 134
-711.794197559357 162.478163838387 2571.00009918213 144 146 143
-703.728854656219 162.237539887428 2566.99991226196 164 166 163
-697.041630744934 162.313014268875 2568.00007820129 165 167 164
-689.810574054718 162.262082099915 2566.99991226196 166 168 165
-683.382272720337 162.400886416435 2569.00000572205 168 170 167
-676.4155626297 162.41329908371 2569.00000572205 137 142 138
-669.187366962433 162.362515926361 2568.00007820129 128 130 127
-662.221610546112 162.375003099442 2568.00007820129 133 135 132
-655.509948730469 162.45074570179 2569.00000572205 146 148 145
-648.791909217834 162.526518106461 2569.9999332428 140 142 137
-641.817808151245 162.539079785347 2569.9999332428 129 131 126
-635.089635848999 162.614941596985 2571.00009918213 126 128 123
-629.332184791565 162.943810224533 2575.99997520447 123 124 119
-622.097015380859 162.893176078796 2575.00004768372 116 117 111
-615.582823753357 163.032338023186 2576.99990272522 113 114 108
-608.58428478241 163.044959306717 2576.99990272522 106 107 101
-600.88437795639 162.867769598961 2573.99988174438 109 109 107
-589.277327060699 161.614835262299 2553.99990081787 118 118 116
-577.549755573273 160.298362374306 2532.99999237061 130 130 128
-568.18813085556 159.614562988281 2522.0000743866 140 140 138
-560.888171195984 159.500285983086 2519.99998092651 144 144 142
-552.938461303711 159.19603407383 2515.00010490417 139 139 139
-545.449078083038 159.018337726593 2512.00008392334 139 139 139
-538.618087768555 159.030511975288 2512.00008392334 146 146 146
-532.209277153015 159.169226884842 2513.99993896484 152 152 152
-525.997400283813 159.371271729469 2516.99995994568 157 157 157
-519.56170797348 159.509986639023 2519.00005340576 159 159 159
-513.521015644073 159.775301814079 2523.00000190735 163 163 163
-507.858991622925 160.167247056961 2529.00004386902 172 172 172
-502.559185028076 160.685881972313 2536.99994087219 176 176 176
-497.996181249619 161.457911133766 2549.00002479553 178 178 178
-492.403268814087 161.913245916367 2555.99999427795 187 187 187
-848.963379859924 161.514654755592 2674.00002479553 201 207 203
-839.205503463745 161.042109131813 2665.99988937378 170 175 171
-828.242540359497 160.328015685081 2654.00004386902 135 140 136
-817.34424829483 159.613937139511 2641.99995994568 139 144 138
-807.430386543274 159.081131219864 2632.99989700317 158 163 157
-798.780798912048 158.790066838264 2628.00002098084 196 198 193
-789.254069328308 158.317789435387 2619.99988555908 202 204 199
-780.964314937592 158.087253570557 2615.9999370575 207 209 204
-771.216690540314 157.554641366005 2607.00011253357 207 209 204
-762.689650058746 157.263800501823 2601.99999809265 202 204 201
-753.027498722076 156.731218099594 2592.99993515015 183 185 182
-743.413507938385 156.198650598526 2584.00011062622 173 175 172
-733.562588691711 155.605629086494 2573.99988174438 159 161 158
-725.741147994995 155.435785651207 2571.00009918213 159 161 158
-718.494474887848 155.386924743652 2569.9999332428 159 161 158
-711.806058883667 155.459031462669 2571.00009918213 158 160 157
-704.014956951141 155.289351940155 2568.00007820129 155 157 154
-696.782112121582 155.240625143051 2566.99991226196 151 153 150
-689.285218715668 155.131489038467 2565.00005722046 138 140 137
-682.862281799316 155.264303088188 2566.99991226196 134 136 133
-675.901114940643 155.276209115982 2566.99991226196 131 136 132
-668.678402900696 155.227661132813 2565.99998474121 148 153 149
-661.975860595703 155.300110578537 2566.99991226196 156 161 157
-655.267119407654 155.372634530067 2568.00007820129 141 143 140
-649.056792259216 155.566185712814 2571.00009918213 128 130 125
-641.580402851105 155.457228422165 2569.00000572205 127 129 124
-634.60785150528 155.469298362732 2569.00000572205 127 129 124
-628.367364406586 155.662968754768 2572.00002670288 128 129 124
-621.626198291779 155.735582113266 2572.99995422363 126 127 121
-615.595161914825 155.989810824394 2576.99990272522 118 119 113
-608.832955360413 156.062498688698 2578.00006866455 108 109 103
-601.363718509674 155.953541398048 2575.99997520447 108 108 106
-590.443253517151 154.936373233795 2559.00001525879 114 114 112
-578.929960727692 153.737381100655 2539.00003433228 130 130 128
-569.32657957077 153.022617101669 2526.99995040894 141 141 139
-561.790466308594 152.852758765221 2523.9999294281 146 146 144
-553.170382976532 152.380049228668 2516.00003242493 137 137 137
-545.243859291077 152.088895440102 2510.99991798401 138 138 138
-538.415551185608 152.100563049316 2510.99991798401 146 146 146
-532.644510269165 152.415066957474 2516.00003242493 151 151 151
-526.845097541809 152.729585766792 2520.99990844727 156 156 156
-520.398557186127 152.862370014191 2523.00000190735 161 161 161
-514.143407344818 153.055667877197 2526.00002288818 161 161 161
-507.870733737946 153.248965740204 2529.00004386902 168 168 168
-503.165185451508 153.927028179169 2539.99996185303 173 173 173
