ply
format ascii 1.0
comment KinectMotionCapture
element vertex 763
property float x
property float y
property float z
property uchar red
property uchar green
property uchar blue
end_header
747.34503030777 589.390158653259 2505.00011444092 184 185 187
757.13574886322 591.724276542664 2515.00010490417 183 184 186
765.765905380249 593.117713928223 2520.99990844727 183 184 186
773.509502410889 593.805968761444 2523.9999294281 182 183 185
781.269669532776 594.494640827179 2526.99995040894 181 182 184
789.67022895813 595.654487609863 2532.00006484985 186 187 189
801.244080066681 599.167168140411 2546.99993133545 201 202 204
816.390037536621 605.268120765686 2572.99995422363 209 210 212
830.717086791992 610.663592815399 2595.99995613098 218 219 221
836.133778095245 609.47322845459 2591.00008010864 219 220 222
461.632698774338 591.378748416901 2538.00010681152 173 175 172
459.103226661682 579.468488693237 2486.99998855591 175 177 174
464.725404977798 578.043758869171 2480.99994659424 178 180 179
470.314413309097 576.619029045105 2474.99990463257 178 178 178
476.641088724136 576.126217842102 2473.00004959106 176 176 178
482.760816812515 575.400412082672 2470.00002861023 176 176 178
488.863527774811 574.674606323242 2467.00000762939 173 173 175
494.547635316849 573.482990264893 2461.99989318848 170 169 174
500.81467628479 572.99017906189 2460.00003814697 167 165 168
506.657660007477 572.031557559967 2456.00008964539 169 167 170
513.314366340637 572.004735469818 2456.00008964539 169 167 170
519.335269927979 571.279108524323 2453.00006866455 164 162 165
524.910449981689 570.087850093842 2447.99995422363 164 162 165
530.674993991852 569.129586219788 2444.00000572205 158 156 159
536.637306213379 568.404376506805 2440.99998474121 161 159 162
542.58269071579 567.679226398468 2437.99996376038 161 159 162
548.286020755768 566.721439361572 2434.00001525879 161 159 162
554.423093795776 566.229403018951 2431.99992179871 160 158 161
560.779511928558 565.970420837402 2430.99999427795 159 157 160
567.129909992218 565.711498260498 2430.0000667572 158 156 159
573.238372802734 565.219879150391 2427.99997329712 161 161 161
579.574465751648 564.961373806 2427.00004577637 162 162 162
585.663020610809 564.470112323761 2424.99995231628 162 162 162
591.984689235687 564.211964607239 2424.00002479553 162 162 162
597.559750080109 563.255786895752 2420.00007629395 161 161 161
604.610443115234 563.696146011353 2421.99993133545 158 158 158
610.662460327148 563.20595741272 2420.00007629395 156 156 156
618.743538856506 564.577698707581 2426.00011825562 155 155 155
625.825703144073 565.018713474274 2427.99997329712 155 155 155
633.439481258392 565.925359725952 2431.99992179871 157 157 157
640.285074710846 566.1341547966 2433.00008773804 158 158 158
647.401809692383 566.575825214386 2434.99994277954 161 161 161
655.603468418121 567.948520183563 2440.99998474121 163 163 163
662.209749221802 567.925453186035 2440.99998474121 164 164 164
670.733749866486 569.531321525574 2447.99995422363 162 162 162
678.742170333862 570.67209482193 2453.00006866455 163 163 163
687.336385250092 572.278439998627 2460.00003814697 170 170 170
695.122122764587 573.187112808228 2463.99998664856 173 173 173
703.783929347992 574.793994426727 2470.99995613098 178 178 178
712.77117729187 576.633810997009 2479.00009155273 189 189 189
721.511602401733 578.241348266602 2486.00006103516 189 189 189
728.825271129608 578.686237335205 2487.99991607666 182 182 182
738.219380378723 580.759644508362 2496.99997901917 180 181 183
748.2590675354 583.298623561859 2507.99989700317 180 181 183
758.358657360077 585.83790063858 2519.00005340576 180 181 183
765.784025192261 586.284458637238 2520.99990844727 179 180 182
773.833572864532 587.19676733017 2525.00009536743 178 179 181
782.523334026337 588.574588298798 2530.99989891052 177 178 180
791.869759559631 590.418040752411 2539.00003433228 184 185 187
802.518367767334 593.192160129547 2551.00011825562 198 199 201
815.453469753265 597.594320774078 2569.9999332428 207 208 210
831.05194568634 603.857159614563 2596.99988365173 213 214 216
838.4068608284 604.075074195862 2598.00004959106 212 213 215
459.499269723892 573.194921016693 2489.00008201599 175 177 174
465.12696146965 571.786344051361 2483.00004005432 178 180 179
470.721334218979 570.377767086029 2476.99999809265 180 180 180
476.860761642456 569.660007953644 2473.99997711182 177 177 179
482.787758111954 568.711996078491 2470.00002861023 177 177 179
488.890528678894 567.994296550751 2467.00000762939 175 175 177
495.378106832504 567.7370429039 2466.00008010864 171 170 175
501.452445983887 567.01934337616 2463.00005912781 168 166 169
507.509827613831 566.301643848419 2460.00003814697 170 168 171
514.177322387695 566.274642944336 2460.00003814697 170 168 171
519.997358322144 565.326869487762 2456.00008964539 166 164 167
525.794982910156 564.379155635834 2451.99990272522 165 163 166
531.136095523834 562.971353530884 2446.00009918213 161 159 162
537.54335641861 562.714397907257 2444.9999332428 160 158 161
543.722093105316 562.227427959442 2443.00007820129 160 158 161
549.438774585724 561.280250549316 2438.99989128113 160 158 161
554.905354976654 560.103178024292 2434.00001525879 158 156 159
561.03640794754 559.61662530899 2431.99992179871 157 155 158
566.922664642334 558.900117874146 2428.99990081787 156 154 157
573.028326034546 558.413922786713 2427.00004577637 157 157 157
579.839050769806 558.618068695068 2427.99997329712 157 157 157
586.171746253967 558.362185955048 2427.00004577637 156 156 156
592.254281044006 557.876408100128 2424.99995231628 155 155 155
598.078727722168 557.160973548889 2421.99993133545 154 154 154
605.134785175323 557.59584903717 2424.00002479553 153 153 153
611.948907375336 557.800829410553 2424.99995231628 153 153 153
619.788348674774 558.926165103912 2430.0000667572 154 154 154
626.623392105103 559.131503105164 2430.99999427795 155 155 155
633.984565734863 559.797167778015 2434.00001525879 158 158 158
641.09855890274 560.233056545258 2436.00010871887 158 158 158
648.223042488098 560.66906452179 2437.99996376038 160 160 160
655.626833438873 561.335444450378 2440.99998474121 159 159 159
663.317978382111 562.231957912445 2444.9999332428 159 159 159
671.30446434021 563.358724117279 2450.00004768372 163 163 163
679.594755172729 564.715623855591 2456.00008964539 166 166 166
686.799645423889 565.153062343597 2457.99994468689 174 174 174
694.579660892487 566.050708293915 2461.99989318848 178 178 178
703.520536422729 567.86835193634 2470.00002861023 180 180 180
713.367342948914 570.375859737396 2480.99994659424 175 175 175
722.402989864349 572.194039821625 2489.00008201599 171 171 171
730.017244815826 572.863101959229 2492.00010299683 171 171 171
738.830506801605 574.452102184296 2499.00007247925 170 171 173
748.278439044952 576.501131057739 2507.99989700317 170 171 173
758.076429367065 578.78041267395 2517.99988746643 171 172 174
765.802443027496 579.451143741608 2520.99990844727 171 172 174
773.54484796524 580.122351646423 2523.9999294281 170 171 173
782.540619373322 581.713438034058 2530.99989891052 169 170 172
791.886627674103 583.534896373749 2539.00003433228 171 172 174
803.163826465607 586.735725402832 2552.99997329712 187 188 190
815.786480903625 590.8562541008 2571.00009918213 202 203 205
832.027316093445 597.50509262085 2599.99990463257 205 206 208
841.32593870163 599.09862279892 2607.00011253357 199 200 202
459.710717201233 566.682040691376 2490.00000953674 175 177 174
464.966535568237 564.834594726563 2482.00011253357 176 178 177
470.74830532074 563.669741153717 2476.99999809265 180 180 180
476.695030927658 562.732577323914 2473.00004959106 176 176 178
483.010232448578 562.250435352325 2470.99995613098 177 177 179
489.115744829178 561.54078245163 2467.99993515015 177 177 179
495.606124401093 561.286211013794 2467.00000762939 173 172 177
501.88672542572 560.804009437561 2464.99991416931 169 167 170
508.155763149261 560.321927070618 2463.00005912781 171 169 172
514.413416385651 559.839844703674 2460.99996566772 170 168 171
520.447850227356 559.130311012268 2457.99994468689 166 164 167
526.036381721497 557.965934276581 2453.00006866455 167 165 168
531.597256660461 556.801676750183 2447.99995422363 164 162 165
538.009881973267 556.547343730927 2447.00002670288 160 158 161
544.416546821594 556.293129920959 2446.00009918213 159 157 160
550.366580486298 555.584073066711 2443.00007820129 158 156 159
555.615842342377 554.193019866943 2437.00003623962 157 155 158
561.524152755737 553.484261035919 2434.00001525879 156 154 157
567.415654659271 552.775800228119 2430.99999427795 156 154 157
573.762714862823 552.522242069244 2430.0000667572 156 156 156
580.103754997253 552.268743515015 2428.99990081787 156 156 156
586.68053150177 552.242875099182 2428.99990081787 155 155 155
593.012571334839 551.989793777466 2427.99997329712 154 154 154
599.338889122009 551.736950874329 2427.00004577637 153 153 153
605.908870697021 551.71149969101 2427.00004577637 153 153 153
612.983345985413 552.140951156616 2428.99990081787 153 153 153
620.323240756989 552.797913551331 2431.99992179871 154 154 154
627.678990364075 553.454995155334 2434.99994277954 155 155 155
635.050773620605 554.112255573273 2437.99996376038 156 156 156
641.385734081268 553.860723972321 2437.00003623962 157 157 157
647.980988025665 553.836703300476 2437.00003623962 158 158 158
655.381739139557 554.494678974152 2440.00005722046 158 158 158
663.612544536591 555.834710597992 2446.00009918213 159 159 159
672.149479389191 557.40213394165 2453.00006866455 163 163 163
680.170834064484 558.51536989212 2457.99994468689 165 165 165
687.380790710449 558.947145938873 2460.00003814697 166 166 166
695.447981357574 560.060918331146 2464.99991416931 167 167 167
704.966306686401 562.310934066772 2474.99990463257 167 167 167
714.538812637329 564.561307430267 2484.99989509583 164 164 164
723.584890365601 566.357433795929 2493.00003051758 164 164 164
730.916559696198 566.790878772736 2494.99988555908 169 169 169
740.033209323883 568.587779998779 2503.00002098084 167 169 168
749.491631984711 570.612132549286 2512.00008392334 168 170 169
758.697926998138 572.409689426422 2519.99998092651 168 170 169
765.517354011536 572.390556335449 2519.99998092651 168 170 169
773.256599903107 573.053359985352 2523.00000190735 165 167 166
781.940042972565 574.398040771484 2529.00004386902 164 166 165
791.279911994934 576.197385787964 2536.99994087219 163 165 164
802.551209926605 579.359948635101 2551.00011825562 180 182 181
816.754460334778 584.566831588745 2573.99988174438 197 199 198
833.323061466217 591.363847255707 2604.00009155273 200 202 201
842.954576015472 593.165040016174 2611.99998855591 191 193 192
460.476189851761 560.837626457214 2493.99995803833 176 178 175
465.930134057999 559.236586093903 2486.99998855591 179 181 180
471.155375242233 557.410717010498 2479.00009155273 180 180 180
476.529240608215 555.809736251831 2471.99988365173 180 180 182
482.450842857361 554.883420467377 2467.99993515015 176 176 178
488.944619894028 554.631471633911 2467.00000762939 183 183 185
495.633244514465 554.604470729828 2467.00000762939 181 180 185
502.117514610291 554.352462291718 2466.00008010864 172 170 173
507.976591587067 553.426086902618 2461.99989318848 168 166 169
514.440596103668 553.174138069153 2460.99996566772 173 171 174
520.898401737213 552.922248840332 2460.00003814697 166 164 167
527.135729789734 552.445590496063 2457.99994468689 169 167 170
532.492876052856 551.070034503937 2451.99990272522 165 163 166
538.256645202637 550.144076347351 2447.99995422363 166 164 167
544.443368911743 549.667775630951 2446.00009918213 159 157 160
550.393283367157 548.966825008392 2443.00007820129 158 156 159
556.326389312744 548.265993595123 2440.00005722046 160 158 161
562.242746353149 547.565340995789 2437.00003623962 158 156 159
568.142235279083 546.864807605743 2434.00001525879 155 153 156
574.497222900391 546.613872051239 2433.00008773804 156 154 157
580.60747385025 546.138286590576 2430.99999427795 156 154 157
587.189495563507 546.112239360809 2430.99999427795 155 153 156
593.771040439606 546.086370944977 2430.99999427795 154 152 155
600.352168083191 546.060621738434 2430.99999427795 153 151 154
607.182502746582 546.259701251984 2431.99992179871 153 151 154
613.513112068176 546.00977897644 2430.99999427795 156 154 157
620.093166828156 545.98468542099 2430.99999427795 157 155 158
626.930415630341 546.184301376343 2431.99992179871 158 156 159
634.814858436584 547.282576560974 2437.00003623962 158 156 159
642.199635505676 547.931790351868 2440.00005722046 157 155 158
649.068534374237 548.132121562958 2440.99998474121 158 158 158
655.942618846893 548.332691192627 2441.99991226196 159 159 159
663.90734910965 549.43174123764 2447.00002670288 159 159 159
672.172665596008 550.755500793457 2453.00006866455 162 162 162
679.916977882385 551.630437374115 2457.00001716614 163 163 163
686.84446811676 551.832139492035 2457.99994468689 161 161 161
695.470213890076 553.381145000458 2464.99991416931 163 163 163
705.273151397705 555.828392505646 2476.0000705719 165 165 165
715.710639953613 558.724761009216 2489.00008201599 163 163 163
724.476873874664 560.274481773376 2496.00005149841 162 162 162
731.816172599792 560.702204704285 2497.99990653992 163 163 163
739.75795507431 561.579406261444 2502.00009346008 164 166 165
748.914897441864 563.354671001434 2509.99999046326 162 164 163
758.416354656219 565.354764461517 2519.00005340576 161 163 162
766.751527786255 566.457390785217 2523.9999294281 160 162 161
774.501144886017 567.111790180206 2526.99995040894 158 160 159
782.885611057281 568.215429782867 2532.00006484985 157 159 158
792.233169078827 569.992780685425 2539.99996185303 154 156 155
803.19744348526 572.892606258392 2552.99997329712 173 175 174
817.088425159454 577.812373638153 2575.00004768372 185 187 186
833.659172058105 584.527671337128 2605.00001907349 188 190 189
845.229029655457 587.652981281281 2618.99995803833 178 180 179
461.795628070831 555.637359619141 2500.99992752075 177 179 176
466.519176959991 553.166508674622 2490.00000953674 179 181 180
471.562474966049 551.140129566193 2480.99994659424 180 180 180
477.134555578232 549.780249595642 2474.99990463257 180 180 182
483.064353466034 548.864662647247 2470.99995613098 176 176 178
489.56635594368 548.615455627441 2470.00002861023 183 183 185
495.660364627838 547.92195558548 2467.00000762939 182 181 186
502.144694328308 547.672688961029 2466.00008010864 173 171 174
508.416533470154 547.201335430145 2463.99998664856 168 166 169
514.88584280014 546.952068805695 2463.00005912781 171 169 172
521.560907363892 546.924889087677 2463.00005912781 171 169 172
527.591824531555 546.231508255005 2460.00003814697 168 166 169
533.388674259186 545.316219329834 2456.00008964539 169 167 170
538.943231105804 544.17896270752 2450.99997520447 167 165 168
545.138001441956 543.707847595215 2448.99988174438 161 159 162
550.870656967163 542.792975902557 2444.9999332428 159 157 160
557.037174701691 542.322218418121 2443.00007820129 159 157 160
562.730729579926 541.407525539398 2438.99989128113 158 156 159
569.102346897125 541.158974170685 2437.99996376038 157 155 158
574.995815753937 540.466725826263 2434.99994277954 156 154 157
581.111371517181 539.996564388275 2433.00008773804 156 154 157
587.457060813904 539.748430252075 2431.99992179871 155 153 156
594.285428524017 539.944410324097 2433.00008773804 154 152 155
601.118803024292 540.140450000763 2434.00001525879 153 151 154
607.957005500793 540.336668491364 2434.99994277954 154 152 155
614.043295383453 539.867401123047 2433.00008773804 156 154 157
620.373249053955 539.620220661163 2431.99992179871 158 156 159
627.728641033173 540.260791778564 2434.99994277954 158 156 159
635.621011257172 541.345357894897 2440.00005722046 158 156 159
643.013656139374 541.986227035522 2443.00007820129 157 155 158
649.624586105347 541.961848735809 2443.00007820129 160 160 160
656.503796577454 542.159557342529 2444.00000572205 161 161 161
663.930892944336 542.801141738892 2447.00002670288 161 161 161
671.921968460083 543.886721134186 2451.99990272522 163 163 163
679.386556148529 544.528841972351 2454.99992370605 163 163 163
687.146663665771 545.393049716949 2459.00011062622 164 164 164
696.0569024086 547.144651412964 2467.00000762939 167 167 167
705.864906311035 549.561858177185 2477.9999256134 170 170 170
716.019988059998 552.20103263855 2490.00000953674 169 169 169
725.078880786896 553.953349590302 2497.99990653992 167 167 167
732.130289077759 554.153680801392 2499.00007247925 166 166 166
740.074276924133 555.019736289978 2503.00002098084 160 162 161
749.531924724579 556.994795799255 2512.00008392334 158 160 159
759.941518306732 559.63534116745 2523.9999294281 157 159 158
768.289804458618 560.724198818207 2529.00004386902 156 158 157
776.665449142456 561.813473701477 2533.99991989136 154 156 155
784.759223461151 562.681615352631 2538.00010681152 153 155 154
793.498575687408 563.993513584137 2543.99991035461 148 150 149
803.843975067139 566.414356231689 2555.0000667572 166 168 167
818.691849708557 571.93922996521 2579.99992370605 192 194 193
835.915744304657 579.016089439392 2611.99998855591 167 169 168
847.504079341888 582.103133201599 2625.99992752075 188 190 189
463.669151067734 551.056623458862 2510.99991798401 178 180 177
467.670440673828 547.737777233124 2496.00005149841 180 182 181
472.539961338043 545.516312122345 2486.00006103516 180 180 180
478.125631809235 544.172585010529 2480.00001907349 181 181 183
484.264552593231 543.487191200256 2476.99999809265 178 178 180
490.584552288055 543.021082878113 2474.99990463257 182 182 184
496.491253376007 542.116403579712 2470.99995613098 184 183 188
502.375543117523 541.211605072021 2467.00000762939 176 174 177
508.650064468384 540.745615959167 2464.99991416931 175 173 176
514.913082122803 540.279626846313 2463.00005912781 168 166 169
521.376311779022 540.033042430878 2461.99989318848 181 179 182
527.404546737671 539.34782743454 2459.00011062622 175 173 176
533.415734767914 538.662612438202 2456.00008964539 168 166 169
539.190232753754 537.758231163025 2451.99990272522 168 166 169
545.387625694275 537.29259967804 2450.00004768372 167 165 168
550.897538661957 536.169111728668 2444.9999332428 165 163 166
557.063937187195 535.703718662262 2443.00007820129 159 157 160
563.218832015991 535.2383852005 2440.99998474121 159 157 160
569.829225540161 535.211682319641 2440.99998474121 158 156 159
575.730621814728 534.52742099762 2437.99996376038 157 155 158
581.854164600372 534.062564373016 2436.00010871887 157 155 158
587.966322898865 533.597886562347 2434.00001525879 156 154 157
595.044255256653 534.010231494904 2436.00010871887 155 153 156
601.885437965393 534.203469753265 2437.00003623962 154 152 155
608.48206281662 534.177601337433 2437.00003623962 157 155 158
615.078210830688 534.152030944824 2437.00003623962 158 156 159
620.908737182617 533.469140529633 2434.00001525879 158 156 159
628.011524677277 533.882319927216 2436.00010871887 159 157 160
635.906338691711 534.953057765961 2440.99998474121 158 156 159
643.82791519165 536.024034023285 2446.00009918213 158 156 159
650.446712970734 535.999476909637 2446.00009918213 158 158 158
657.065212726593 535.975217819214 2446.00009918213 158 158 158
664.497256278992 536.608457565308 2448.99988174438 157 157 157
672.493517398834 537.680268287659 2453.9999961853 156 156 156
680.240035057068 538.533210754395 2457.99994468689 156 156 156
688.007950782776 539.386332035065 2461.99989318848 152 152 152
697.208166122437 541.335165500641 2470.99995613098 153 153 153
706.172227859497 543.065190315247 2479.00009155273 155 155 155
715.754508972168 545.233488082886 2489.00008201599 155 155 155
724.810361862183 546.963930130005 2496.99997901917 163 163 163
733.323454856873 548.256516456604 2503.00002098084 160 160 160
740.982174873352 548.892438411713 2506.00004196167 154 156 155
750.745892524719 551.061868667603 2516.00003242493 152 154 153
760.563910007477 553.231656551361 2526.00002288818 151 153 152
770.436108112335 555.401682853699 2536.00001335144 150 152 151
778.830170631409 556.477129459381 2540.99988937378 149 151 150
787.251472473145 557.553052902222 2546.0000038147 148 150 149
795.388221740723 558.410406112671 2549.99995231628 147 149 148
806.378602981567 561.239063739777 2562.99996376038 162 164 163
823.151767253876 568.009674549103 2594.00010108948 191 193 192
839.772880077362 574.561357498169 2624.00007247925 157 159 158
849.779486656189 576.515257358551 2632.99989700317 193 195 194
466.573268175125 539.674878120422 2490.00000953674 180 182 181
472.376883029938 538.564085960388 2484.99989509583 179 179 179
478.538393974304 537.886917591095 2482.00011253357 182 182 184
485.07371544838 537.642955780029 2480.99994659424 180 180 182
491.206496953964 536.965668201447 2477.9999256134 181 181 183
496.920377016068 535.854995250702 2473.00004959106 184 183 188
502.402722835541 534.527659416199 2467.00000762939 178 176 179
509.296357631683 534.717082977295 2467.99993515015 180 178 181
515.776574611664 534.473121166229 2467.00000762939 169 167 170
522.250711917877 534.229218959808 2466.00008010864 179 177 180
527.64618396759 532.902121543884 2460.00003814697 182 180 183
533.660113811493 532.225072383881 2457.00001716614 164 162 165
539.657175540924 531.548082828522 2453.9999961853 167 165 168
546.082496643066 531.304359436035 2453.00006866455 169 167 170
551.600456237793 530.194461345673 2447.99995422363 168 166 169
557.774901390076 529.734373092651 2446.00009918213 162 160 163
563.476324081421 528.841197490692 2441.99991226196 160 158 161
570.322811603546 529.031097888947 2443.00007820129 159 157 160
576.229512691498 528.354823589325 2440.00005722046 159 157 160
582.358241081238 527.895271778107 2437.99996376038 159 157 160
588.234066963196 527.219355106354 2434.99994277954 158 156 159
595.314562320709 527.626276016235 2437.00003623962 157 155 158
602.405369281769 528.033137321472 2438.99989128113 156 154 157
609.007239341736 528.00726890564 2438.99989128113 158 156 159
615.608513355255 527.981519699097 2438.99989128113 158 156 159
622.209548950195 527.956008911133 2438.99989128113 158 156 159
629.583477973938 528.580129146576 2441.99991226196 158 156 159
636.712789535522 528.98782491684 2444.00000572205 157 155 158
644.379138946533 529.828727245331 2447.99995422363 157 155 158
650.205254554749 529.154717922211 2444.9999332428 159 159 159
657.626569271088 529.779553413391 2447.99995422363 158 158 158
665.063977241516 530.404627323151 2450.99997520447 157 157 157
673.339366912842 531.679093837738 2457.00001716614 156 156 156
681.64724111557 532.953798770905 2463.00005912781 154 154 154
689.428389072418 533.795893192291 2467.00000762939 150 150 150
698.641836643219 535.72016954422 2476.0000705719 149 149 149
706.764459609985 536.779165267944 2480.99994659424 147 147 147
715.201556682587 538.054764270782 2486.99998855591 147 147 147
725.122570991516 540.412366390228 2497.99990653992 147 147 147
734.224081039429 542.121231555939 2506.00004196167 147 147 147
743.073105812073 543.613970279694 2513.00001144409 146 148 145
751.960217952728 545.107126235962 2519.99998092651 145 147 144
761.788606643677 547.249436378479 2529.99997138977 145 147 144
771.367490291595 549.175918102264 2539.00003433228 144 146 143
779.46263551712 550.021231174469 2542.99998283386 144 146 143
787.579715251923 550.867021083832 2546.99993133545 143 145 142
795.718550682068 551.713287830353 2551.00011825562 150 152 149
807.969808578491 555.371522903442 2568.00007820129 163 165 162
826.977372169495 563.571453094482 2605.99994659424 159 161 158
841.710388660431 568.743944168091 2630.00011444092 162 164 161
850.441515445709 569.808065891266 2634.99999046326 153 155 152
467.349797487259 533.783912658691 2493.99995803833 181 183 182
473.544627428055 533.114790916443 2490.9999370575 177 177 177
478.951096534729 531.589567661285 2483.99996757507 184 184 186
485.100924968719 530.920386314392 2480.99994659424 184 184 186
490.837305784225 529.823303222656 2476.0000705719 178 178 180
496.74665927887 528.940141201019 2471.99988365173 180 179 184
502.837359905243 528.271019458771 2469.00010108948 183 181 184
509.530067443848 528.243720531464 2469.00010108948 178 176 179
516.012966632843 528.002500534058 2467.99993515015 173 171 174
522.066175937653 527.333319187164 2464.99991416931 168 166 169
527.458965778351 526.022613048553 2459.00011062622 176 174 177
533.252835273743 525.139689445496 2454.99992370605 173 171 174
539.244413375854 524.470806121826 2451.99990272522 169 167 170
545.664310455322 524.229884147644 2450.99997520447 167 165 168
551.852762699127 523.775100708008 2448.99988174438 167 165 168
558.485865592957 523.748099803925 2448.99988174438 169 167 170
564.426124095917 523.079693317413 2446.00009918213 167 165 168
570.816338062286 522.83900976181 2444.9999332428 165 163 166
576.728343963623 522.170841693878 2441.99991226196 166 161 167
583.101272583008 521.930515766144 2440.99998474121 166 161 167
589.226603507996 521.4763879776 2438.99989128113 165 160 166
595.829248428345 521.450161933899 2438.99989128113 164 159 165
602.925419807434 521.851658821106 2440.99998474121 163 158 164
609.282791614532 521.611869335175 2440.00005722046 159 157 160
615.886747837067 521.586120128632 2440.00005722046 158 156 159
622.235000133514 521.346688270569 2438.99989128113 158 156 159
629.866600036621 522.176265716553 2443.00007820129 157 155 158
636.737942695618 522.364795207977 2444.00000572205 157 155 158
644.403994083405 523.19473028183 2447.99995422363 156 154 157
650.495767593384 522.742450237274 2446.00009918213 156 156 156
658.188283443451 523.57280254364 2450.00004768372 156 156 156
666.444897651672 524.830639362335 2456.00008964539 154 154 154
674.733579158783 526.088654994965 2461.99989318848 152 152 152
682.77782201767 527.133226394653 2467.00000762939 151 151 151
690.569519996643 527.964353561401 2470.99995613098 148 148 148
700.075745582581 530.077636241913 2480.99994659424 146 146 146
707.926571369171 530.909240245819 2484.99989509583 141 141 141
716.086804866791 531.954824924469 2490.00000953674 142 142 142
725.144624710083 533.641457557678 2497.99990653992 143 143 143
735.417664051056 536.182940006256 2509.99999046326 143 143 143
744.27729845047 537.656545639038 2516.99995994568 143 145 142
753.174841403961 539.130449295044 2523.9999294281 143 145 142
761.508107185364 540.177524089813 2529.00004386902 143 145 142
771.69144153595 542.506515979767 2539.99996185303 143 145 142
779.788851737976 543.340742588043 2543.99991035461 142 144 141
788.835883140564 544.816195964813 2551.00011825562 142 144 141
798.544704914093 546.719014644623 2559.99994277954 144 146 143
812.393009662628 551.398634910584 2582.00001716614 158 160 157
828.264594078064 557.35969543457 2609.99989509583 152 154 151
840.767860412598 560.972154140472 2627.00009346008 145 147 144
849.490284919739 562.022387981415 2631.99996948242 138 140 137
468.12641620636 527.87047624588 2497.99990653992 181 183 182
474.142044782639 526.998162269592 2493.99995803833 176 176 176
479.556709527969 525.491952896118 2486.99998855591 184 184 186
485.323667526245 524.408340454102 2482.00011253357 185 185 187
490.666180849075 522.902190685272 2474.99990463257 177 177 179
496.77386879921 522.241175174713 2471.99988365173 179 178 183
503.475546836853 522.213935852051 2471.99988365173 186 184 187
510.382831096649 522.397935390472 2473.00004959106 175 173 176
516.876637935638 522.159278392792 2471.99988365173 174 172 175
522.728860378265 521.287083625793 2467.99993515015 166 164 167
528.129696846008 519.992530345917 2461.99989318848 170 168 171
533.931732177734 519.120454788208 2457.99994468689 181 179 182
539.71141576767 518.248558044434 2453.9999961853 171 169 172
546.136677265167 518.010258674622 2453.00006866455 165 163 166
552.330493927002 517.56089925766 2450.99997520447 165 163 166
558.74091386795 517.322719097137 2450.00004768372 170 168 171
564.45300579071 516.451239585876 2446.00009918213 170 168 171
570.843100547791 516.213238239288 2444.9999332428 168 163 169
576.991200447083 515.76429605484 2443.00007820129 168 163 169
583.844482898712 515.948832035065 2444.00000572205 168 163 169
589.736223220825 515.289008617401 2440.99998474121 167 162 168
596.099853515625 515.051662921906 2440.00005722046 166 161 167
602.704465389252 515.025436878204 2440.00005722046 164 159 165
609.30871963501 514.999449253082 2440.00005722046 161 156 162
615.91249704361 514.973640441895 2440.00005722046 159 154 160
622.7707862854 515.158891677856 2440.99998474121 158 153 157
630.149781703949 515.766501426697 2444.00000572205 158 153 159
637.023568153381 515.952229499817 2444.9999332428 157 152 158
644.428968429565 516.560196876526 2447.99995422363 155 153 156
650.786399841309 516.32434129715 2447.00002670288 153 153 153
658.749997615814 517.354667186737 2451.99990272522 153 153 153
667.011737823486 518.596112728119 2457.99994468689 151 151 151
675.305664539337 519.83779668808 2463.99998664856 149 149 149
682.801604270935 520.446717739105 2467.00000762939 147 147 147
690.872490406036 521.477818489075 2471.99988365173 144 144 144
699.816763401031 523.142039775848 2480.00001907349 142 142 142
707.664668560028 523.962676525116 2483.99996757507 140 140 140
716.109275817871 525.205433368683 2490.00000953674 141 141 141
725.747466087341 527.292132377625 2500 141 141 141
736.02569103241 529.800891876221 2512.00008392334 137 137 137
745.481729507446 531.67712688446 2520.99990844727 138 140 137
754.091322422028 532.920956611633 2526.99995040894 138 140 137
763.034462928772 534.37602519989 2533.99991989136 139 141 138
772.623300552368 536.253154277802 2542.99998283386 139 141 138
780.728399753571 537.07629442215 2546.99993133545 139 141 138
789.783000946045 538.532495498657 2553.99990081787 139 141 138
801.371216773987 541.675925254822 2569.00000572205 145 147 144
816.501975059509 547.138869762421 2595.00002861023 146 148 145
831.456422805786 552.391231060028 2619.99988555908 149 151 148
841.10563993454 554.059743881226 2628.00002098084 131 133 130
848.539173603058 554.252803325653 2628.99994850159 169 171 168
466.548055410385 526.968359947205 2526.00002288818 182 184 179
469.277948141098 522.351801395416 2503.99994850159 182 184 181
474.929630756378 521.073043346405 2497.99990653992 179 179 179
480.162352323532 519.3772315979 2490.00000953674 183 183 183
485.350847244263 517.681419849396 2482.00011253357 185 185 185
490.891635417938 516.402840614319 2476.0000705719 180 180 182
497.002094984055 515.750050544739 2473.00004959106 180 180 182
504.113852977753 516.13986492157 2474.99990463257 189 189 191
510.822892189026 516.112565994263 2474.99990463257 181 181 183
517.113089561462 515.668213367462 2473.00004959106 176 176 178
522.968053817749 514.806866645813 2469.00010108948 170 170 172
529.015064239502 514.154076576233 2466.00008010864 164 164 166
534.827828407288 513.292789459229 2461.99989318848 186 186 188
540.618300437927 512.431621551514 2457.99994468689 175 173 176
546.831786632538 511.987626552582 2456.00008964539 169 167 170
552.808284759521 511.335134506226 2453.00006866455 173 171 174
558.9959025383 510.891258716583 2450.99997520447 168 166 169
564.710557460785 510.030508041382 2447.00002670288 172 170 173
570.869922637939 509.586811065674 2444.9999332428 171 169 172
577.490210533142 509.560108184814 2444.9999332428 169 167 170
584.348857402802 509.741902351379 2446.00009918213 165 163 166
590.487480163574 509.29856300354 2444.00000572205 163 161 164
596.859037876129 509.063899517059 2443.00007820129 163 161 164
602.977633476257 508.620858192444 2440.99998474121 160 158 161
609.584331512451 508.594751358032 2440.99998474121 158 156 159
616.190612316132 508.5688829422 2440.99998474121 155 153 156
623.306751251221 508.959829807281 2443.00007820129 155 153 154
630.948781967163 509.767591953278 2447.00002670288 154 152 155
638.091087341309 510.158777236938 2448.99988174438 150 148 151
644.980549812317 510.341882705688 2450.00004768372 151 149 150
651.609122753143 510.316908359528 2450.00004768372 148 148 148
659.043252468109 510.917007923126 2453.00006866455 149 149 149
667.036175727844 511.933863162994 2457.99994468689 149 149 149
675.055861473084 512.950956821442 2463.00005912781 148 148 148
683.655917644501 514.384686946869 2470.00002861023 147 147 147
692.014098167419 515.610337257385 2476.0000705719 146 146 146
701.533317565918 517.669141292572 2486.00006103516 144 144 144
709.112226963043 518.270552158356 2489.00008201599 139 139 139
717.857599258423 519.705057144165 2496.00005149841 139 139 139
726.931154727936 521.348059177399 2503.99994850159 140 140 140
737.219929695129 523.824095726013 2516.00003242493 140 140 140
746.094942092896 525.25931596756 2523.00000190735 140 142 139
755.306363105774 526.903092861176 2530.99989891052 137 139 136
764.260113239288 528.338968753815 2538.00010681152 137 139 136
772.947788238525 529.567003250122 2543.99991035461 138 140 137
781.668186187744 530.795454978943 2549.99995231628 140 142 139
792.276680469513 533.273160457611 2562.00003623962 140 142 139
806.069731712341 537.832617759705 2584.00011062622 141 143 140
823.758006095886 544.889807701111 2618.00003051758 131 133 130
835.918068885803 548.200845718384 2634.0000629425 126 128 125
843.684136867523 548.598527908325 2635.99991798401 146 148 145
848.879516124725 547.331869602203 2630.00011444092 169 171 168
468.742698431015 514.946579933167 2500.99992752075 181 183 180
474.576503038406 513.890147209167 2496.00005149841 179 179 179
480.189442634583 512.627780437469 2490.00000953674 182 182 182
485.769093036652 511.365473270416 2483.99996757507 184 184 184
491.513609886169 510.309100151062 2479.00009155273 181 181 183
497.632205486298 509.664356708527 2476.0000705719 180 180 182
504.344820976257 509.637176990509 2476.0000705719 186 186 188
511.056661605835 509.609878063202 2476.0000705719 184 184 186
517.558634281158 509.376704692841 2474.99990463257 180 180 182
523.207128047943 508.320450782776 2470.00002861023 170 170 172
529.471397399902 507.88152217865 2467.99993515015 169 169 171
535.289585590363 507.031202316284 2463.99998664856 171 171 173
541.525304317474 506.592452526093 2461.99989318848 187 185 188
547.526895999908 505.948066711426 2459.00011062622 167 165 168
553.286015987396 505.09786605835 2454.99992370605 167 165 168
559.479057788849 504.659414291382 2453.00006866455 166 164 167
564.968228340149 503.60381603241 2447.99995422363 165 163 166
571.597158908844 503.576934337616 2447.99995422363 170 168 171
577.753126621246 503.138840198517 2446.00009918213 168 166 169
584.614336490631 503.317892551422 2447.00002670288 166 164 167
590.997219085693 503.085672855377 2446.00009918213 164 162 165
597.618281841278 503.059208393097 2446.00009918213 162 160 163
604.238986968994 503.032982349396 2446.00009918213 157 155 158
610.609352588654 502.801120281219 2444.9999332428 158 156 157
617.226243019104 502.775132656097 2444.9999332428 154 152 153
624.352991580963 503.16059589386 2447.00002670288 154 152 153
632.005751132965 503.957390785217 2450.99997520447 152 150 151
639.158666133881 504.343092441559 2453.00006866455 148 146 147
645.795464515686 504.317820072174 2453.00006866455 150 148 149
652.431964874268 504.292786121368 2453.00006866455 150 150 150
659.068048000336 504.267990589142 2453.00006866455 149 149 149
667.060673236847 505.271136760712 2457.99994468689 149 149 149
675.35412311554 506.480157375336 2463.99998664856 149 149 149
684.233367443085 508.10033082962 2471.99988365173 150 150 150
692.87633895874 509.515225887299 2479.00009155273 148 148 148
700.992345809937 510.51914691925 2483.99996757507 146 146 146
709.420323371887 511.728823184967 2490.00000953674 142 142 142
718.455791473389 513.349771499634 2497.99990653992 142 142 142
728.405356407166 515.587449073792 2509.0000629425 141 141 141
737.828254699707 517.414271831512 2517.99988746643 139 139 139
746.708452701569 518.830478191376 2525.00009536743 139 141 138
756.521821022034 520.86329460144 2535.00008583069 140 142 139
765.7870054245 522.485435009003 2542.99998283386 139 141 138
773.880183696747 523.286104202271 2546.99993133545 137 139 136
782.608270645142 524.498105049133 2552.99997329712 139 141 138
793.842971324921 527.353882789612 2566.99991226196 142 144 141
812.016427516937 534.729421138763 2602.9999256134 150 152 149
829.44118976593 541.488707065582 2635.99991798401 125 127 124
839.745342731476 543.523490428925 2645.99990844727 124 126 123
846.583187580109 543.299198150635 2644.99998092651 142 144 141
850.833773612976 541.43238067627 2635.99991798401 174 176 173
468.769580125809 508.166372776031 2500.99992752075 182 184 181
474.60350394249 507.123589515686 2496.00005149841 179 179 179
480.02365231514 505.674362182617 2489.00008201599 180 180 180
485.600590705872 504.428446292877 2483.00004005432 183 183 183
491.342395544052 503.385603427887 2477.9999256134 182 182 184
497.860372066498 503.155410289764 2476.99999809265 180 180 182
504.575729370117 503.128230571747 2476.99999809265 183 183 185
511.29025220871 503.100991249084 2476.99999809265 186 186 188
517.795085906982 502.870678901672 2476.0000705719 176 176 178
523.869931697845 502.234101295471 2473.00004959106 172 172 174
530.356824398041 502.003729343414 2471.99988365173 171 171 173
536.403059959412 501.367270946503 2469.00010108948 163 163 165
542.652308940887 500.933885574341 2467.00000762939 183 181 184
547.999322414398 499.688446521759 2460.99996566772 173 171 174
553.313076496124 498.443096876144 2454.99992370605 165 163 166
559.506058692932 498.010069131851 2453.00006866455 166 164 167
565.918266773224 497.780084609985 2451.99990272522 162 160 163
572.090983390808 497.347265481949 2450.00004768372 167 165 168
578.015983104706 496.711492538452 2447.00002670288 166 164 167
584.402024745941 496.481865644455 2446.00009918213 165 163 166
591.265261173248 496.658325195313 2447.00002670288 162 160 163
598.62208366394 497.24081158638 2450.00004768372 160 158 161
605.500340461731 497.417330741882 2450.99997520447 155 153 156
612.383604049683 497.594028711319 2451.99990272522 155 153 154
618.514478206635 497.162193059921 2450.00004768372 151 149 150
625.399351119995 497.339189052582 2450.99997520447 151 149 150
632.804930210114 497.92218208313 2453.9999961853 150 148 149
640.486896038055 498.708218336105 2457.99994468689 147 145 146
647.400379180908 498.885750770569 2459.00011062622 149 147 148
653.786778450012 498.657673597336 2457.99994468689 150 150 150
659.630119800568 498.024165630341 2454.99992370605 150 150 150
667.627990245819 499.013751745224 2460.00003814697 149 149 149
675.652503967285 500.003576278687 2464.99991416931 148 148 148
684.811174869537 501.804828643799 2473.99997711182 147 147 147
692.90018081665 502.794981002808 2479.00009155273 146 146 146
701.58052444458 504.190921783447 2486.00006103516 145 145 145
711.153149604797 506.195425987244 2496.00005149841 144 144 144
719.916939735413 507.591724395752 2503.00002098084 144 144 144
729.589462280273 509.596645832062 2513.00001144409 144 144 144
738.436758518219 510.993361473084 2519.99998092651 142 142 142
747.321963310242 512.390375137329 2526.99995040894 139 141 138
756.245076656342 513.787686824799 2533.99991989136 142 144 141
764.904916286469 514.982521533966 2539.99996185303 140 142 139
773.597300052643 516.177713871002 2546.0000038147 137 139 136
783.241987228394 517.98152923584 2555.0000667572 141 143 140
797.8835105896 523.029148578644 2579.99992370605 144 146 143
818.275690078735 531.725764274597 2622.99990653992 149 151 148
833.236932754517 536.773562431335 2648.00000190735 120 122 119
841.668784618378 537.564694881439 2651.99995040894 122 124 121
847.882151603699 536.937534809113 2648.9999294281 142 144 141
469.171404838562 501.786291599274 2503.00002098084 184 186 183
475.010693073273 500.757098197937 2497.99990653992 181 181 181
480.050593614578 498.926013708115 2489.00008201599 178 178 178
485.627591609955 497.696399688721 2483.00004005432 183 183 183
491.369426250458 496.667206287384 2477.9999256134 185 185 187
498.088419437408 496.640175580978 2477.9999256134 182 182 184
505.010366439819 496.813476085663 2479.00009155273 181 181 183
511.730432510376 496.786326169968 2479.00009155273 186 186 188
518.031418323517 496.358305215836 2476.99999809265 180 180 182
523.897171020508 495.529562234879 2473.00004959106 175 175 177
530.384063720703 495.301902294159 2471.99988365173 173 173 175
536.864757537842 495.074331760406 2470.99995613098 164 164 166
543.339431285858 494.846791028976 2470.00002861023 162 160 163
548.694491386414 493.617594242096 2463.99998664856 185 183 186
553.790867328644 492.188274860382 2457.00001716614 173 171 174
560.445427894592 492.161273956299 2457.00001716614 165 163 166
566.637635231018 491.733729839325 2454.99992370605 163 161 164
573.051810264587 491.506576538086 2453.9999961853 161 159 162
578.515112400055 490.478336811066 2448.99988174438 162 160 163
585.38430929184 490.652024745941 2450.00004768372 161 159 162
592.016637325287 490.625441074371 2450.00004768372 157 155 158
599.381446838379 491.199731826782 2453.00006866455 155 153 156
606.02080821991 491.173386573792 2453.00006866455 154 152 155
612.659573554993 491.147190332413 2453.00006866455 153 151 152
619.045257568359 490.920782089233 2451.99990272522 150 148 149
625.680387020111 490.894913673401 2451.99990272522 151 149 150
632.830560207367 491.269618272781 2453.9999961853 151 149 150
640.251815319061 491.844564676285 2457.00001716614 153 151 152
647.425651550293 492.219507694244 2459.00011062622 155 153 154
654.343903064728 492.394506931305 2460.00003814697 152 152 152
660.998344421387 492.369472980499 2460.00003814697 152 152 152
668.738186359406 493.145316839218 2463.99998664856 150 150 150
676.773369312286 494.121521711349 2469.00010108948 148 148 148
685.112059116364 495.297819375992 2474.99990463257 145 145 145
692.924082279205 496.074229478836 2479.00009155273 140 140 140
700.757443904877 496.850848197937 2483.00004005432 139 139 139
711.176633834839 499.428540468216 2496.00005149841 139 139 139
720.803022384644 501.406013965607 2506.00004196167 141 141 141
730.483293533325 503.383636474609 2516.00003242493 143 143 143
739.338517189026 504.761338233948 2523.00000190735 143 143 143
748.527228832245 506.339251995087 2530.99989891052 142 144 141
757.460832595825 507.717430591583 2538.00010681152 142 144 141
766.432225704193 509.095907211304 2545.00007629395 141 143 140
774.530112743378 509.874582290649 2549.00002479553 138 140 137
786.328375339508 513.053894042969 2565.00005722046 143 145 142
803.780019283295 519.83368396759 2598.99997711182 147 149 146
823.599576950073 528.013408184052 2640.00010490417 144 146 143
833.8862657547 529.993057250977 2650.00009536743 119 121 118
842.005729675293 530.57324886322 2653.00011634827 123 125 122
848.221123218536 529.953956604004 2650.00009536743 149 151 148
469.760596752167 495.59223651886 2506.00004196167 183 185 182
475.608080625534 494.57660317421 2500.99992752075 182 182 182
481.427669525146 493.561029434204 2496.00005149841 178 178 178
486.045688390732 491.3589656353 2484.99989509583 183 183 183
491.594731807709 490.145742893219 2479.00009155273 187 187 189
497.713476419449 489.525645971298 2476.0000705719 183 183 185
504.629969596863 489.696264266968 2476.99999809265 182 182 184
511.344730854034 489.669263362885 2476.99999809265 185 185 187
517.640292644501 489.246726036072 2474.99990463257 183 183 185
523.712456226349 488.626569509506 2471.99988365173 177 177 179
530.840396881104 488.994747400284 2473.99997711182 173 173 175
537.543833255768 488.967597484589 2473.99997711182 171 171 173
544.24649477005 488.940358161926 2473.99997711182 162 160 163
549.389660358429 487.529844045639 2467.00000762939 182 180 183
554.268658161163 485.921889543533 2459.00011062622 181 179 182
560.472369194031 485.499739646912 2457.00001716614 164 162 165
566.895365715027 485.275268554688 2456.00008964539 164 162 165
573.545694351196 485.248386859894 2456.00008964539 160 158 161
579.250454902649 484.43129658699 2451.99990272522 161 159 162
585.888803005219 484.404683113098 2451.99990272522 160 158 161
592.526435852051 484.378099441528 2451.99990272522 155 153 156
599.896550178528 484.94428396225 2454.99992370605 154 152 155
606.047093868256 484.52290892601 2453.00006866455 155 153 156
612.685680389404 484.496682882309 2453.00006866455 154 152 153
618.818819522858 484.075605869293 2450.99997520447 150 148 149
626.216530799866 484.642207622528 2453.9999961853 152 150 151
633.114099502563 484.813868999481 2454.99992370605 152 150 151
640.537917613983 485.38076877594 2457.99994468689 154 152 153
647.450983524323 485.552877187729 2459.00011062622 156 154 155
654.900908470154 486.1199259758 2461.99989318848 154 154 154
661.82941198349 486.292392015457 2463.00005912781 153 153 153
669.577062129974 487.057268619537 2467.00000762939 151 151 151
676.797807216644 487.427562475204 2469.00010108948 150 150 150
684.85951423645 488.390237092972 2473.99997711182 150 150 150
693.786680698395 489.945352077484 2482.00011253357 145 145 145
702.474594116211 491.30317568779 2489.00008201599 143 143 143
712.339818477631 493.450701236725 2500 140 140 140
721.401453018188 495.006233453751 2507.99989700317 141 141 141
730.216085910797 496.364653110504 2515.00010490417 142 142 142
738.775074481964 497.525811195374 2520.99990844727 142 142 142
748.845398426056 499.674081802368 2532.00006484985 144 146 143
757.781445980072 501.033186912537 2539.00003433228 142 144 141
766.755104064941 502.392530441284 2546.0000038147 141 143 140
775.766849517822 503.7522315979 2552.99997329712 142 144 141
791.561007499695 509.452998638153 2582.00001716614 149 151 148
813.697576522827 519.099831581116 2631.00004196167 151 153 150
827.675879001617 523.419439792633 2653.00011634827 124 126 123
835.165202617645 523.596107959747 2654.00004386902 126 128 125
842.660129070282 523.773372173309 2654.99997138977 130 132 129
470.537185668945 489.576101303101 2509.99999046326 182 184 181
476.585805416107 488.769143819809 2506.00004196167 182 182 182
482.22604393959 487.572073936462 2500 178 178 178
487.050563097 485.594987869263 2490.00000953674 179 179 179
492.018193006516 483.812987804413 2480.99994659424 189 189 191
498.142391443253 483.201056718826 2477.9999256134 186 186 188
504.860699176788 483.17414522171 2477.9999256134 181 181 183
511.165320873261 482.757210731506 2476.0000705719 186 186 188
517.667412757874 482.535183429718 2474.99990463257 188 188 190
523.951411247253 482.118219137192 2473.00004959106 181 181 183
530.652940273285 482.091128826141 2473.00004959106 175 175 177
537.353694438934 482.064038515091 2473.00004959106 174 174 176
544.053733348846 482.036918401718 2473.00004959106 176 174 177
550.30757188797 481.620013713837 2470.99995613098 161 159 162
555.873572826386 480.618506669998 2466.00008010864 179 177 180
561.639845371246 479.811906814575 2461.99989318848 170 168 171
567.383885383606 479.005575180054 2457.99994468689 159 157 160
573.806047439575 478.783875703812 2457.00001716614 156 154 157
579.749643802643 478.172570466995 2453.9999961853 158 156 159
586.393296718597 478.145956993103 2453.9999961853 160 158 161
592.79465675354 477.92461514473 2453.00006866455 159 157 160
600.167393684387 478.482663631439 2456.00008964539 155 153 156
606.567442417145 478.261470794678 2454.99992370605 149 147 150
613.461136817932 478.430062532425 2456.00008964539 153 151 152
619.854688644409 478.20919752121 2454.99992370605 160 158 159
626.75279378891 478.378146886826 2456.00008964539 161 159 160
632.881939411163 477.962821722031 2453.9999961853 160 158 159
640.042245388031 478.326767683029 2456.00008964539 155 153 154
647.476255893707 478.885650634766 2459.00011062622 155 153 154
655.192077159882 479.63935136795 2463.00005912781 156 156 156
663.197875022888 480.587929487228 2467.99993515015 153 153 153
670.68749666214 481.147229671478 2470.99995613098 151 151 151
678.467035293579 481.901437044144 2474.99990463257 153 153 153
686.821639537811 483.045160770416 2480.99994659424 155 155 155
695.767521858215 484.578490257263 2489.00008201599 152 152 152
