ply
format ascii 1.0
comment KinectMotionCapture
element vertex 801
property float x
property float y
property float z
property uchar red
property uchar green
property uchar blue
end_header
29.4112842530012 62.8819391131401 2927.00004577637 13 16 9
37.3779200017452 62.8386065363884 2924.99995231628 13 16 9
46.3105626404285 64.1486272215843 2986.00006103516 13 16 9
54.3723031878471 64.0406608581543 2980.99994659424 13 14 6
62.8259107470512 64.3622651696205 2996.00005149841 11 12 6
71.0056647658348 64.3615275621414 2996.00005149841 11 12 7
79.1851282119751 64.3607079982758 2996.00005149841 11 12 7
89.522123336792 65.9494623541832 3069.9999332428 11 11 9
97.2332060337067 65.4973313212395 3049.00002479553 7 9 6
105.383157730103 65.3888136148453 3043.99991035461 11 13 10
135.246321558952 63.7940317392349 2970.00002861023 13 15 10
142.965123057365 63.6206939816475 2961.99989318848 10 12 7
149.517819285393 62.9747584462166 2931.99992179871 11 13 8
155.207753181458 62.0495490729809 2888.99993896484 13 16 9
164.783418178558 62.6921504735947 2918.99991035461 13 16 9
174.048691987991 63.1628334522247 2940.99998474121 12 15 8
181.452214717865 62.9461631178856 2930.99999427795 13 16 9
190.804168581963 63.395157456398 2951.99990272522 13 16 7
197.979554533958 63.1139054894447 2938.99989128113 13 16 7
209.358766674995 64.1425028443336 2986.99998855591 13 16 7
216.775566339493 63.9255121350288 2976.99999809265 15 18 9
222.701579332352 63.3004605770111 2947.99995422363 15 18 9
229.016557335854 62.8257021307945 2926.00011825562 15 18 9
237.235546112061 62.8876611590385 2928.99990081787 15 18 9
243.87925863266 62.5416040420532 2913.00010681152 16 19 10
250.694185495377 62.259916216135 2900.00009536743 18 21 12
265.373468399048 63.888818025589 2976.0000705719 21 24 17
271.827727556229 63.4996071457863 2957.99994468689 24 27 20
286.225557327271 64.9349763989449 3025.00009536743 19 22 15
-59.6435107290745 55.9574589133263 2983.99996757507 20 23 16
-42.7964329719543 55.2458465099335 2946.00009918213 22 22 14
-35.0826717913151 55.7712912559509 2973.99997711182 20 20 10
-27.1251983940601 56.1091490089893 2992.00010299683 19 19 11
-18.8729166984558 55.8655746281147 2979.00009155273 17 18 10
-10.7203889638186 55.7719506323338 2973.99997711182 18 19 11
-2.58987885899842 55.5657334625721 2963.00005912781 16 17 9
5.46386046335101 55.1906563341618 2943.00007820129 14 15 7
13.6010115966201 55.6031279265881 2964.99991416931 14 15 9
21.5582270175219 55.2466586232185 2946.00009918213 14 15 9
29.9240499734879 55.8465048670769 2977.9999256134 13 16 9
37.9022397100925 55.6211434304714 2966.00008010864 13 16 9
45.9388084709644 55.5457323789597 2961.99989318848 13 14 6
54.5187816023827 56.0515820980072 2989.00008201599 11 12 4
62.3861849308014 55.7884834706783 2974.99990463257 10 11 5
70.1531767845154 55.506557226181 2960.00003814697 10 11 6
78.10228317976 55.4120913147926 2954.99992370605 11 12 7
95.0337573885918 55.8792427182198 2980.00001907349 7 9 6
105.453476309776 57.1158677339554 3046.0000038147 5 7 4
133.927077054977 55.1425255835056 2940.99998474121 10 12 7
145.090326666832 56.3599206507206 3006.00004196167 11 13 8
151.967123150826 55.8710433542728 2980.00001907349 11 13 8
156.874790787697 54.744690656662 2920.00007629395 12 15 8
164.277017116547 54.5556955039501 2910.00008583069 12 15 8
172.33419418335 54.5916110277176 2911.99994087219 12 15 8
182.506486773491 55.2648305892944 2947.99995422363 14 17 10
193.585440516472 56.144155561924 2994.99988555908 14 17 10
201.147645711899 55.9736043214798 2986.00006103516 13 16 7
208.239406347275 55.69052323699 2970.99995613098 13 16 7
214.520379900932 55.2199557423592 2946.00009918213 14 17 8
220.13533115387 54.6181462705135 2914.00003433228 14 17 8
230.662494897842 55.2345812320709 2947.00002670288 15 18 9
237.885847687721 55.0450012087822 2937.00003623962 15 18 9
243.63049864769 54.5367747545242 2910.00008583069 17 20 11
251.647531986237 54.553247988224 2911.00001335144 18 21 12
264.305979013443 55.5441081523895 2963.99998664856 20 23 16
282.398492097855 57.5841888785362 3072.99995422363 22 25 18
-60.1437427103519 48.2105314731598 3009.0000629425 9 12 5
-51.0305874049664 47.3778285086155 2957.00001716614 27 30 23
-42.7241809666157 47.1218600869179 2940.99998474121 19 19 11
-35.3425070643425 48.0034090578556 2996.00005149841 19 19 9
-27.2523649036884 48.163890838623 3006.00004196167 19 19 11
-19.0314706414938 48.1320358812809 3003.99994850159 16 17 9
-10.7421139255166 47.747615724802 2980.00001907349 16 17 9
-2.58116121403873 47.3150573670864 2953.00006866455 15 16 8
5.51774865016341 47.6194694638252 2971.99988365173 15 16 8
13.6011335998774 47.5072339177132 2964.99991416931 14 15 9
21.8218620866537 47.7794781327248 2982.00011253357 14 15 9
29.9946591258049 47.8273332118988 2984.99989509583 12 15 8
38.1198190152645 47.7950125932693 2983.00004005432 11 14 7
46.5285778045654 48.0670407414436 3000 11 14 7
54.1544668376446 47.5699417293072 2969.00010108948 10 11 3
61.5898631513119 47.056756913662 2937.00003623962 10 11 5
70.2249109745026 47.4727973341942 2963.00005912781 11 12 7
77.8651088476181 47.1998229622841 2946.00009918213 11 12 7
137.480244040489 48.3632236719131 3019.00005340576 10 12 7
142.871305346489 47.4169440567493 2960.00003814697 12 14 9
154.059305787086 48.3929067850113 3020.99990844727 12 14 9
159.831002354622 47.6547814905643 2974.99990463257 12 15 8
164.391353726387 46.6443374752998 2911.99994087219 12 15 8
173.045873641968 46.8351989984512 2924.00002479553 13 16 9
182.755693793297 47.2822524607182 2951.99990272522 14 17 10
194.427371025085 48.1776855885983 3007.99989700317 14 17 10
200.812563300133 47.7436743676662 2980.99994659424 14 17 8
205.717891454697 47.005333006382 2934.99994277954 15 18 9
211.46385371685 46.5072095394135 2904.00004386902 15 18 9
219.457313418388 46.5215183794498 2904.99997138977 15 18 9
229.725182056427 47.0001623034477 2934.99994277954 15 18 9
240.803763270378 47.6068221032619 2973.00004959106 16 19 10
242.795333266258 46.4359968900681 2900.00009536743 19 22 13
253.72439622879 46.994473785162 2934.99994277954 20 23 14
265.467464923859 47.6649291813374 2976.99999809265 22 25 18
273.027330636978 47.5667715072632 2970.99995613098 22 25 18
287.366211414337 48.6212596297264 3036.99994087219 15 18 11
-59.8443672060966 39.7951975464821 2993.99995803833 23 26 19
-52.2044971585274 40.2076244354248 3025.00009536743 20 23 16
-43.3927439153194 39.7028587758541 2986.99998855591 20 20 12
-35.2012142539024 39.6632514894009 2983.99996757507 19 19 9
-27.1891076117754 39.8628488183022 2999.00007247925 19 19 11
-18.7972020357847 39.4376553595066 2967.00000762939 17 18 10
-10.6809139251709 39.3845848739147 2963.00005912781 16 17 9
-2.59166909381747 39.4112132489681 2964.99991416931 16 17 9
5.50108123570681 39.3846184015274 2963.00005912781 14 15 7
13.6929806321859 39.676982909441 2984.99989509583 13 14 8
21.8147058039904 39.6236926317215 2980.99994659424 13 14 8
29.7537185251713 39.3576771020889 2960.99996566772 11 14 7
37.5450439751148 39.0517339110374 2937.99996376038 10 13 6
45.9085442125797 39.3438711762428 2960.00003814697 12 13 5
55.3769543766975 40.3537042438984 3036.00001335144 11 12 4
70.7468390464783 39.6749712526798 2984.99989509583 10 11 6
77.46921479702 38.9567390084267 2930.99999427795 10 11 6
86.4042639732361 39.3815040588379 2963.00005912781 10 10 8
120.881617069244 40.0831140577793 3016.00003242493 141 143 138
137.52681016922 40.134534239769 3019.99998092651 14 16 11
144.851326942444 39.8810915648937 3000.99992752075 12 14 9
152.020573616028 39.61431235075 2980.99994659424 13 15 10
159.509852528572 39.4538082182407 2969.00010108948 14 17 10
166.255533695221 39.1337983310223 2944.9999332428 14 17 10
173.40224981308 38.9333479106426 2930.0000667572 13 16 9
182.942762970924 39.2643511295319 2954.99992370605 14 17 10
191.132307052612 39.289690554142 2957.00001716614 14 17 8
196.704775094986 38.7967973947525 2920.00007629395 14 17 8
204.317569732666 38.7290380895138 2914.99996185303 15 18 9
210.810020565987 38.4619534015656 2894.99998092651 15 18 9
218.930050730705 38.5003983974457 2898.00000190735 14 17 8
228.239715099335 38.7380607426167 2915.99988937378 15 18 9
237.241595983505 38.909237831831 2928.99990081787 16 19 10
246.313408017159 39.0803515911102 2941.99991226196 18 21 12
255.714505910873 39.2912589013577 2957.99994468689 20 23 14
264.845162630081 39.448969066143 2970.00002861023 21 24 17
276.797086000443 40.0050729513168 3012.00008392334 23 26 19
291.065543889999 39.7092327475548 2990.00000953674 16 19 12
-67.4968659877777 31.3767977058887 2970.99995613098 19 22 15
-59.8447360098362 31.6200479865074 2993.99995803833 22 25 18
-51.8941730260849 31.7576415836811 3006.99996948242 15 18 11
-43.5818657279015 31.6839702427387 3000 21 21 13
-35.2014303207397 31.5152034163475 2983.99996757507 20 20 10
-27.1439421921968 31.6209867596626 2993.99995803833 20 20 12
-18.8353303819895 31.3993208110332 2973.00004959106 18 19 11
-10.6485346332192 31.1987306922674 2953.9999961853 17 18 10
-2.580322092399 31.1776418238878 2951.99990272522 16 17 9
5.52339432761073 31.4205512404442 2974.99990463257 14 15 7
13.6884767562151 31.5155498683453 2983.99996757507 14 15 9
21.9026543200016 31.6105075180531 2993.00003051758 14 15 9
29.9448221921921 31.4730703830719 2980.00001907349 12 15 8
37.5836119055748 31.0609918087721 2940.99998474121 12 15 8
46.7618592083454 31.8423062562943 3015.00010490417 12 15 8
55.3225725889206 32.0321321487427 3032.99999237061 13 14 6
63.7506768107414 32.10574015975 3039.99996185303 12 13 7
79.5313194394112 31.7775756120682 3009.0000629425 10 11 6
129.841923713684 32.0276543498039 3032.99999237061 8 10 5
137.345492839813 31.8474322557449 3016.00003242493 9 11 6
144.659116864204 31.6460505127907 2996.99997901917 11 13 8
152.429461479187 31.5607897937298 2989.00008201599 12 14 9
159.134700894356 31.2748700380325 2961.99989318848 14 17 10
167.272701859474 31.2845669686794 2963.00005912781 14 17 10
174.290999770164 31.0936104506254 2944.9999332428 14 17 10
180.838912725449 30.8392811566591 2921.0000038147 15 18 11
189.323574304581 30.9227649122477 2928.99990081787 15 18 9
198.524788022041 31.1117768287659 2947.00002670288 15 18 9
206.281378865242 31.0684908181429 2943.00007820129 14 17 8
214.59786593914 31.1096180230379 2947.00002670288 14 17 8
221.273273229599 30.9184659272432 2928.99990081787 14 17 8
229.258567094803 30.9172905981541 2928.99990081787 15 18 9
236.918985843658 30.8738593012095 2924.99995231628 16 19 10
245.81253528595 30.9887155890465 2936.00010871887 18 21 12
252.863198518753 30.8713279664516 2924.99995231628 19 22 13
269.037842750549 31.8409577012062 3016.99995994568 20 23 16
276.247292757034 31.7234732210636 3006.00004196167 29 32 25
-67.0428052544594 23.1077875941992 2950.99997520447 25 28 21
-59.7450770437717 23.4056040644646 2989.00008201599 23 26 19
-51.6355559229851 23.4293192625046 2992.00010299683 21 24 17
-44.1050566732883 23.7740613520145 3036.00001335144 19 22 13
-35.5554930865765 23.6019417643547 3013.99993896484 20 20 10
-27.0080771297216 23.3279913663864 2979.00009155273 19 19 11
-18.9304482191801 23.3985595405102 2987.99991607666 18 19 11
-10.7134720310569 23.2733264565468 2971.99988365173 17 18 10
-2.61005340144038 23.3829841017723 2986.00006103516 16 17 9
5.51785016432405 23.2733450829983 2971.99988365173 14 15 7
13.6839542537928 23.3594477176666 2983.00004005432 14 15 9
21.9832565635443 23.5238242894411 3003.99994850159 14 15 9
30.0856418907642 23.4454106539488 2993.99995803833 12 15 8
38.3633188903332 23.507921025157 3002.00009346008 12 15 8
46.4518815279007 23.4529338777065 2994.99988555908 12 15 8
55.2316270768642 23.7111430615187 3028.00011634827 12 13 5
72.6199895143509 23.992532864213 3063.99989128113 11 12 7
81.3290104269981 24.0940190851688 3076.99990272522 11 12 7
90.0212079286575 24.171981960535 3086.99989318848 10 10 8
130.185008049011 23.8096136599779 3040.99988937378 8 10 5
137.573823332787 23.65249581635 3020.99990844727 10 12 7
144.611537456512 23.4562065452337 2996.00005149841 10 12 7
152.583166956902 23.4243050217628 2992.00010299683 10 12 7
160.747230052948 23.4236866235733 2992.00010299683 11 14 7
167.838022112846 23.2742968946695 2973.00004959106 12 15 8
173.759162425995 22.9839719831944 2936.00010871887 14 17 10
180.715918540955 22.8501968085766 2918.99991035461 15 18 11
188.41952085495 22.8181667625904 2914.99996185303 15 18 9
198.660433292389 23.0835508555174 2948.99988174438 15 18 9
208.665430545807 23.3019292354584 2976.99999809265 14 17 8
216.710597276688 23.2932772487402 2976.0000705719 14 17 8
223.842859268188 23.19067530334 2963.00005912781 14 17 8
231.686055660248 23.166311904788 2960.00003814697 17 20 11
237.649068236351 22.9619257152081 2934.00001525879 18 21 12
278.192698955536 23.0039563030005 2940.00005722046 23 26 19
-59.285543859005 15.1265691965818 2966.00008010864 19 22 15
-51.6702309250832 15.2695123106241 2993.99995803833 22 25 18
-43.9889840781689 15.4430409893394 3028.00011634827 12 15 6
-35.7915498316288 15.4737439006567 3033.99991989136 19 19 9
-27.289217337966 15.3514239937067 3009.99999046326 19 19 11
-19.0382171422243 15.3259839862585 3005.00011444092 17 18 10
-10.9225865453482 15.4535267502069 3029.99997138977 16 17 9
-2.61618080548942 15.2648389339447 2993.00003051758 16 17 9
5.52900834009051 15.1883317157626 2977.9999256134 12 13 5
13.7252863496542 15.2597092092037 2992.00010299683 12 13 7
21.8223314732313 15.2086606249213 2982.00011253357 12 13 7
29.8646707087755 15.1575906202197 2971.99988365173 12 15 8
37.9545092582703 15.1473022997379 2970.00002861023 12 15 8
54.9399666488171 15.3612643480301 3012.00008392334 14 15 7
63.3108019828796 15.3968092054129 3019.00005340576 13 14 8
71.8617886304855 15.462932176888 3032.00006484985 11 12 7
135.79823076725 15.2057986706495 2982.00011253357 5 7 2
146.204844117165 15.4450936242938 3029.00004386902 9 11 6
159.512057900429 15.1383718475699 2969.00010108948 8 11 4
167.10464656353 15.0920655578375 2960.00003814697 10 13 6
174.351543188095 15.020246617496 2946.00009918213 13 16 9
183.81205201149 15.1370549574494 2969.00010108948 14 17 10
190.682470798492 15.0397103279829 2950.00004768372 14 17 8
198.728442192078 15.0392157956958 2950.00004768372 14 17 8
208.035290241241 15.1304630562663 2967.99993515015 15 18 9
216.711312532425 15.1707092300057 2976.0000705719 15 18 9
225.656673312187 15.2262253686786 2986.99998855591 15 18 9
232.078149914742 15.1135046035051 2964.99991416931 19 22 13
237.649828195572 14.9549022316933 2934.00001525879 19 22 13
244.056209921837 14.8574570193887 2914.99996185303 21 24 15
250.876784324646 14.7905815392733 2901.99995040894 21 24 15
-70.0874775648117 7.30944983661175 3085.00003814697 12 15 8
-59.9652603268623 7.10813235491514 3000 16 19 12
-51.6185574233532 7.08687491714954 2990.9999370575 22 25 18
-35.8034186065197 7.19123613089323 3035.00008583069 18 20 9
-27.361799031496 7.15099321678281 3017.99988746643 19 19 11
-19.1459581255913 7.1604996919632 3022.0000743866 16 17 9
-10.8505105599761 7.1320841088891 3009.99999046326 16 17 9
-2.62929731979966 7.12735345587134 3007.99989700317 15 16 8
5.60142705217004 7.14867748320103 3016.99995994568 13 14 6
13.7115493416786 7.08232074975967 2989.00008201599 13 14 8
21.7199195176363 7.03253969550133 2967.99993515015 14 15 9
29.6336077153683 6.98748882859945 2948.99988174438 13 16 9
37.6095399260521 6.97323260828853 2943.00007820129 13 16 9
46.0953935980797 7.04189436510205 2971.99988365173 15 16 8
54.5205399394035 7.08211353048682 2989.00008201599 15 16 8
64.1497522592545 7.24789826199412 3059.00001525879 14 15 9
136.071711778641 7.07859639078379 2987.99991607666 13 15 10
143.550366163254 7.04526295885444 2973.99997711182 9 11 6
156.987220048904 6.92172208800912 2921.99993133545 10 13 6
165.750056505203 6.95469416677952 2936.00010871887 9 12 5
176.304906606674 7.05634569749236 2979.00009155273 9 12 5
185.979247093201 7.11534731090069 3003.99994850159 12 15 8
193.20373237133 7.07959476858377 2989.00008201599 13 16 7
199.132993817329 7.00120162218809 2956.00008964539 14 17 8
205.372169613838 6.9393846206367 2930.0000667572 16 19 10
214.454263448715 6.97466265410185 2944.9999332428 17 20 11
223.164036870003 6.99572078883648 2953.9999961853 17 20 11
230.982765555382 6.98835030198097 2950.99997520447 18 21 12
237.326249480247 6.93834759294987 2930.0000667572 19 22 13
243.0519759655 6.87413336709142 2903.00011634827 20 23 14
254.075884819031 6.95908861234784 2938.99989128113 21 24 15
275.238990783691 7.09107145667076 2994.99988555908 22 25 18
285.858571529388 7.15230638161302 3020.99990844727 27 30 23
-68.5880705714226 -1.09058432281017 3019.00005340576 18 19 13
-60.6648847460747 -1.09637621790171 3035.00008583069 6 7 1
-52.4124577641487 -1.09710916876793 3036.99994087219 23 24 18
-43.713066726923 -1.08700303826481 3009.0000629425 15 18 9
-35.5085134506226 -1.08737149275839 3009.99999046326 15 18 7
-27.1260924637318 -1.08087481930852 2992.00010299683 14 17 8
-19.1269591450691 -1.0906329844147 3019.00005340576 14 17 8
-10.8685418963432 -1.08919071499258 3015.00010490417 14 17 8
-2.6161870919168 -1.08124432154 2993.00003051758 13 16 7
5.59214688837528 -1.08810793608427 3012.00008392334 15 18 9
13.7528413906693 -1.08304840978235 2997.99990653992 12 15 8
29.6939145773649 -1.06750638224185 2954.99992370605 13 16 9
37.4689847230911 -1.05919130146503 2931.99992179871 15 18 11
45.7386933267117 -1.06532499194145 2948.99988174438 13 14 6
55.4690659046173 -1.09855039045215 3040.99988937378 13 14 6
64.4224062561989 -1.10973801929504 3072.00002670288 12 13 7
73.5684558749199 -1.12128502223641 3104.00009155273 9 12 5
134.933307766914 -1.07019965071231 2963.00005912781 10 12 7
150.442138314247 -1.06545235030353 2950.00004768372 8 11 4
156.12767636776 -1.04953325353563 2905.99989891052 8 11 4
166.088864207268 -1.06250552926213 2941.99991226196 9 12 5
176.009073853493 -1.0740312281996 2973.99997711182 11 14 7
187.589019536972 -1.0942219523713 3029.99997138977 10 13 6
192.234247922897 -1.07396475505084 2973.99997711182 12 15 8
198.055267333984 -1.06165185570717 2940.00005722046 13 16 9
205.582529306412 -1.05908792465925 2933.00008773804 15 18 11
212.196961045265 -1.0521897347644 2914.00003433228 16 19 12
219.462379813194 -1.04890146758407 2904.99997138977 15 21 11
230.278432369232 -1.06222077738494 2941.99991226196 15 21 11
238.622337579727 -1.06362323276699 2946.00009918213 16 22 12
245.396345853806 -1.05816486757249 2930.99999427795 18 24 14
257.101774215698 -1.07364438008517 2973.99997711182 19 25 15
-60.5449005961418 -9.36525780707598 3029.00004386902 10 13 6
-51.9982166588306 -9.31587535887957 3013.00001144409 23 24 18
-43.9599975943565 -9.35614667832851 3026.00002288818 14 17 8
-35.3787168860435 -9.27272718399763 2999.00007247925 14 17 6
-26.9447416067123 -9.18929371982813 2971.99988365173 14 17 8
-18.924206495285 -9.23570990562439 2986.99998855591 14 17 8
-10.8072487637401 -9.26974415779114 2997.99990653992 14 17 8
-2.63716350309551 -9.32850316166878 3016.99995994568 14 17 8
5.54572651162744 -9.23574157059193 2986.99998855591 10 13 4
13.8032911345363 -9.30374953895807 3009.0000629425 15 18 11
22.0053140074015 -9.29753668606281 3006.99996948242 17 20 13
30.0254970788956 -9.23874787986279 2987.99991607666 16 19 12
37.8906726837158 -9.16757993400097 2964.99991416931 14 17 10
46.2349653244019 -9.2169838026166 2980.99994659424 11 12 4
54.7941252589226 -9.28801856935024 3003.99994850159 11 12 4
73.9239007234573 -9.64337773621082 3118.99995803833 9 10 4
82.5716853141785 -9.65871475636959 3124.00007247925 12 15 8
147.556588053703 -9.45013202726841 3056.99992179871 12 15 8
154.266804456711 -9.35097597539425 3025.00009536743 12 15 8
160.103276371956 -9.21162869781256 2980.00001907349 10 13 6
166.201636195183 -9.10009536892176 2944.00000572205 9 12 5
176.541566848755 -9.22037847340107 2983.00004005432 8 11 4
180.964440107346 -9.03464667499065 2923.00009727478 8 11 4
190.941318869591 -9.13017615675926 2953.9999961853 10 13 6
197.98769056797 -9.08351317048073 2938.99989128113 11 14 7
207.474857568741 -9.14810691028833 2960.00003814697 15 18 11
210.521936416626 -8.93453974276781 2891.00003242493 16 19 12
220.822051167488 -9.03310347348452 2923.00009727478 15 21 11
227.382123470306 -8.97713471204042 2904.99997138977 15 21 11
240.323111414909 -9.16837062686682 2967.00000762939 16 22 12
249.498650431633 -9.20817069709301 2980.00001907349 18 24 14
257.360875606537 -9.19851660728455 2976.99999809265 19 25 15
-67.3156082630157 -17.2517951577902 2963.00005912781 5 8 1
-60.3448748588562 -17.5780411809683 3019.00005340576 20 23 16
-52.4468049407005 -17.6946595311165 3039.00003433228 15 16 10
-43.9598932862282 -17.6191087812185 3026.00002288818 15 18 7
-35.2724678814411 -17.4096133559942 2990.00000953674 15 18 7
-27.0353443920612 -17.3631273210049 2982.00011253357 15 18 9
-18.9241636544466 -17.3923093825579 2986.99998855591 15 18 9
-10.8685065060854 -17.5553876906633 3015.00010490417 15 18 9
-2.63366103172302 -17.543762922287 3013.00001144409 15 18 9
5.56242372840643 -17.4447726458311 2996.00005149841 13 16 7
13.7527994811535 -17.4563881009817 2997.99990653992 16 19 12
22.1077185124159 -17.5902545452118 3020.99990844727 17 20 13
30.3268898278475 -17.5727102905512 3017.99988746643 14 17 10
38.6445634067059 -17.607543617487 3023.9999294281 11 14 7
46.4054718613625 -17.4210947006941 2992.00010299683 11 12 4
53.8819879293442 -17.1996895223856 2953.9999961853 12 13 5
64.338319003582 -17.8632773458958 3068.00007820129 11 12 6
73.8526284694672 -18.14254373312 3115.9999370575 10 11 5
82.4922025203705 -18.1714259088039 3121.00005149841 11 14 7
139.668956398964 -17.8547371178865 3066.99991226196 10 15 9
148.280292749405 -17.8834199905396 3072.00002670288 12 15 8
154.419437050819 -17.6268387585878 3028.00011634827 12 15 8
162.198230624199 -17.5739824771881 3019.00005340576 12 15 8
173.427402973175 -17.8820081055164 3072.00002670288 11 14 7
194.302067160606 -17.4962338060141 3006.00004196167 9 12 5
199.738785624504 -17.2570273280144 2964.99991416931 11 14 7
208.105236291885 -17.2797199338675 2969.00010108948 13 16 9
216.49269759655 -17.3023864626884 2973.00004959106 14 17 10
222.256928682327 -17.1213429421186 2941.99991226196 15 18 11
228.790566325188 -17.0101244002581 2923.00009727478 15 21 11
239.269614219666 -17.1898510307074 2953.9999961853 16 22 12
249.581843614578 -17.346266657114 2980.99994659424 19 25 15
256.841629743576 -17.2873567789793 2970.99995613098 20 26 16
262.708365917206 -17.1411577612162 2946.00009918213 21 26 19
287.844955921173 -17.698148265481 3042.00005531311 23 28 21
-68.4512928128242 -25.7700718939304 3013.00001144409 0 4 0
-60.4246109724045 -25.8558858186007 3023.00000190735 13 16 9
-52.4120926856995 -25.9758718311787 3036.99994087219 16 19 10
-35.4846753180027 -25.7282145321369 3007.99989700317 16 19 8
-26.9899126142263 -25.4631992429495 2976.99999809265 16 19 10
-18.8290607184172 -25.4205334931612 2971.99988365173 15 18 9
-10.7531119138002 -25.5146864801645 2983.00004005432 15 18 9
-2.62840674258769 -25.7199946790934 3006.99996948242 14 17 8
5.54755004122853 -25.5574733018875 2987.99991607666 13 16 7
13.6564150452614 -25.4633463919163 2976.99999809265 12 15 8
21.8368712812662 -25.5231410264969 2983.99996757507 11 14 7
30.4172150790691 -25.8908197283745 3026.99995040894 12 15 8
38.5933071374893 -25.8307941257954 3019.99998092651 13 16 9
46.2346896529198 -25.4970341920853 2980.99994659424 12 13 7
63.1846934556961 -25.7702562958002 3013.00001144409 12 13 7
73.3309388160706 -26.4627505093813 3094.00010108948 9 12 5
81.2231972813606 -26.2828022241592 3072.99995422363 9 12 5
146.976515650749 -26.0393768548965 3045.00007629395 9 12 5
155.387818813324 -26.0558295994997 3046.99993133545 10 13 6
163.003519177437 -25.9439777582884 3033.99991989136 12 15 8
170.039534568787 -25.7551409304142 3012.00008392334 13 16 9
179.499641060829 -25.9339567273855 3032.99999237061 14 17 10
186.96865439415 -25.822015479207 3019.99998092651 13 16 9
195.852681994438 -25.9067006409168 3029.99997138977 12 15 8
209.296047687531 -25.5287867039442 2986.00006103516 10 13 6
218.676492571831 -25.6732180714607 3003.00002098084 12 15 8
225.202426314354 -25.4842024296522 2980.99994659424 12 15 8
232.155442237854 -25.3550056368113 2966.00008010864 15 21 11
240.726724267006 -25.4052989184856 2971.99988365173 17 23 13
248.408824205399 -25.3615342080593 2967.00000762939 20 26 16
259.174853563309 -25.625454261899 2997.99990653992 21 27 17
265.650153160095 -25.4619587212801 2979.00009155273 21 26 19
-69.1552236676216 -34.3469120562077 3043.99991035461 21 27 17
-60.7041344046593 -34.2682972550392 3036.99994087219 8 14 4
-52.5671504437923 -34.3701802194119 3046.0000038147 18 24 14
-44.1774167120457 -34.3140363693237 3040.99988937378 11 17 7
-35.3901237249374 -33.8516309857368 3000 16 19 8
-26.744993403554 -33.2876145839691 2950.00004768372 15 18 9
-18.8162941485643 -33.5134230554104 2970.00002861023 14 17 8
-10.7674775645137 -33.7053388357162 2986.99998855591 13 16 7
-2.60566687211394 -33.6376689374447 2980.99994659424 12 15 6
5.56980073451996 -33.8520593941212 3000 12 15 6
30.2462372928858 -33.9645929634571 3009.99999046326 13 16 9
38.4780988097191 -33.9756794273853 3010.99991798401 13 16 9
62.5552609562874 -33.6588583886623 2983.00004005432 11 14 7
71.9085112214088 -34.2339277267456 3033.99991989136 9 12 5
81.0642018914223 -34.6058383584023 3066.99991226196 10 13 6
146.541371941566 -34.250870347023 3036.00001335144 9 12 5
163.271337747574 -34.2829562723637 3039.00003433228 11 14 7
168.740257620811 -33.7179712951183 2989.00008201599 12 15 8
181.51094019413 -34.596860408783 3066.99991226196 14 17 10
185.543805360794 -33.806212246418 2996.99997901917 13 16 9
193.201571702957 -33.714909106493 2989.00008201599 11 14 7
201.623290777206 -33.7589159607887 2993.00003051758 10 13 6
210.206225514412 -33.8254384696484 2999.00007247925 10 13 6
219.257965683937 -33.9595824480057 3010.99991798401 12 15 8
226.485595107079 -33.8117182254791 2997.99990653992 13 16 9
233.56319963932 -33.6525477468967 2983.99996757507 18 21 12
241.535544395447 -33.6286760866642 2982.00011253357 19 22 13
249.161124229431 -33.5596576333046 2976.0000705719 23 26 17
258.568465709686 -33.727403730154 2990.9999370575 23 26 17
265.470534563065 -33.5680991411209 2976.99999809265 23 26 17
-60.8836375176907 -42.6869541406631 3046.0000038147 13 19 9
-52.5668114423752 -42.6873601973057 3046.0000038147 23 29 19
-43.7122657895088 -42.1691797673702 3009.0000629425 17 20 9
-35.4252830147743 -42.0853719115257 3003.00002098084 16 19 8
-26.7720185220242 -41.3848720490932 2953.00006866455 13 16 7
-19.082261249423 -42.2118939459324 3012.00008392334 12 15 6
-10.7710110023618 -41.8756492435932 2987.99991607666 12 15 6
5.54377306252718 -41.8476611375809 2986.00006103516 14 17 8
13.8213979080319 -42.2259829938412 3013.00001144409 13 16 9
22.3196018487215 -42.7443943917751 3049.99995231628 12 15 8
30.6178331375122 -42.7021570503712 3046.99993133545 12 15 8
38.4139530360699 -42.1273186802864 3006.00004196167 10 13 6
46.6529205441475 -42.1550460159779 3007.99989700317 10 13 6
54.5925237238407 -41.944470256567 2993.00003051758 9 12 5
71.884348988533 -42.5041280686855 3032.99999237061 13 16 9
81.5130174160004 -43.2182885706425 3084.00011062622 7 10 3
145.285472273827 -42.1748794615269 3009.99999046326 12 15 8
153.805166482925 -42.2578938305378 3016.00003242493 8 11 4
161.712288856506 -42.1727187931538 3009.99999046326 16 19 12
172.803819179535 -42.8860858082771 3061.00010871887 19 22 15
177.24871635437 -41.9601760804653 2994.99988555908 14 17 10
184.799700975418 -41.8188087642193 2984.99989509583 11 14 7
192.360058426857 -41.6914075613022 2976.0000705719 11 14 7
200.746297836304 -41.7460761964321 2980.00001907349 11 14 7
210.835725069046 -42.1368777751923 3007.99989700317 12 15 8
218.164309859276 -41.9672951102257 2996.00005149841 13 16 9
229.35488820076 -42.5260439515114 3036.00001335144 15 18 11
230.978801846504 -41.3338616490364 2950.99997520447 18 21 12
236.10720038414 -40.8280193805695 2914.99996185303 20 23 14
248.238608241081 -41.5266528725624 2964.99991416931 23 26 17
256.405651569366 -41.5389314293861 2966.00008010864 23 26 17
-59.8837658762932 -50.1666516065598 2996.00005149841 11 17 7
-52.1867349743843 -50.6359748542309 3023.9999294281 21 27 17
-43.8136123120785 -50.5024306476116 3016.00003242493 18 21 10
-35.2834463119507 -50.0841401517391 2990.9999370575 17 20 9
-27.3338966071606 -50.486296415329 3015.00010490417 15 18 9
-19.139127805829 -50.586961209774 3020.99990844727 13 16 7
-10.799765586853 -50.1684583723545 2996.00005149841 13 16 7
-2.62835551984608 -50.3527149558067 3006.99996948242 14 17 8
5.5845738388598 -50.3694489598274 3007.99989700317 15 18 9
13.871748931706 -50.6372861564159 3023.9999294281 14 17 10
22.3267450928688 -51.0892570018768 3051.00011825562 14 17 10
38.6181138455868 -50.603125244379 3022.0000743866 10 13 6
63.7916103005409 -50.9367138147354 3042.00005531311 9 12 5
72.7844089269638 -51.4217130839825 3071.00009918213 9 12 5
81.6180929541588 -51.7057068645954 3088.00005912781 9 12 5
147.408097982407 -51.128663122654 3053.99990081787 8 11 4
158.291637897491 -51.9644469022751 3104.00009155273 21 24 17
179.022803902626 -50.6376996636391 3025.00009536743 10 13 6
186.717480421066 -50.4855141043663 3016.00003242493 11 14 7
190.225586295128 -49.2619946599007 2943.00007820129 11 14 7
198.319658637047 -49.2771193385124 2944.00000572205 11 14 7
216.342195868492 -49.7255846858025 2970.99995613098 13 16 9
228.159308433533 -48.7846806645393 2914.99996185303 17 20 11
238.616347312927 -49.3015609681606 2946.00009918213 18 21 12
251.418203115463 -50.2534285187721 3003.00002098084 21 24 15
258.82425904274 -50.1007363200188 2993.99995803833 22 25 16
266.804486513138 -50.0651337206364 2992.00010299683 21 24 15
-60.223001986742 -58.6779154837132 3013.00001144409 25 28 19
-51.8928728997707 -58.5616193711758 3006.99996948242 13 16 7
-43.6534099280834 -58.5231482982636 3005.00011444092 18 21 10
-35.6134213507175 -58.7962009012699 3019.00005340576 17 20 9
-27.5512244552374 -59.1860190033913 3039.00003433228 16 19 10
-19.4557160139084 -59.809472411871 3071.00009918213 14 17 8
-10.9510635957122 -59.1669306159019 3038.00010681152 14 17 8
-2.6589238550514 -59.2448934912682 3042.00005531311 14 17 8
5.66435419023037 -59.4201646745205 3051.00011825562 14 17 8
13.9312529936433 -59.1474026441574 3036.99994087219 15 18 11
22.2753118723631 -59.2835545539856 3043.99991035461 14 17 10
30.2857160568237 -58.6990304291248 3013.99993896484 11 14 7
46.7917025089264 -58.7566867470741 3016.99995994568 8 11 4
55.1023036241531 -58.8340796530247 3020.99990844727 10 13 6
64.126543700695 -59.5540665090084 3058.00008773804 13 16 9
72.6415440440178 -59.689711779356 3065.00005722046 5 8 1
156.454354524612 -59.7368441522121 3068.00007820129 8 11 4
172.405749559402 -59.4610460102558 3053.99990081787 15 18 11
179.790526628494 -59.1478161513805 3038.00010681152 18 21 14
186.777696013451 -58.7371811270714 3016.99995994568 11 14 7
195.071548223495 -58.7547942996025 3017.99988746643 11 14 7
212.553739547729 -56.8216368556023 2918.99991035461 13 16 9
219.530403614044 -56.5665103495121 2905.99989891052 17 20 13
228.626891970634 -56.8563379347324 2921.0000038147 17 20 13
239.829167723656 -57.6326735317707 2960.99996566772 17 20 11
248.150840401649 -57.6887354254723 2963.99998664856 21 24 15
260.03223657608 -58.5426762700081 3007.99989700317 22 25 16
-59.7426705062389 -66.3713589310646 2989.00008201599 22 23 15
-52.0821511745453 -67.0159384608269 3017.99988746643 17 18 10
-43.4640981256962 -66.4391443133354 2992.00010299683 17 20 9
-35.8371771872044 -67.4610584974289 3038.00010681152 17 20 9
-27.6869162917137 -67.8167045116425 3053.99990081787 16 19 10
-19.2527808248997 -67.4838870763779 3039.00003433228 14 17 8
-10.9978057444096 -67.7505210042 3051.00011825562 14 17 8
-2.64228833839297 -67.1288371086121 3023.00000190735 13 16 7
5.65129797905684 -67.5951465964317 3043.99991035461 13 16 7
14.0595454722643 -68.0613592267036 3065.00005722046 13 16 9
22.1579931676388 -67.2395378351212 3028.00011634827 13 16 9
30.2250999957323 -66.7951107025146 3007.99989700317 10 13 6
39.2179526388645 -68.1492760777473 3069.00000572205 9 12 5
55.3023628890514 -67.3266053199768 3032.00006484985 12 15 8
63.0773678421974 -66.7930021882057 3007.99989700317 11 14 7
73.0910748243332 -68.4798210859299 3084.00011062622 7 10 3
161.707863211632 -66.822275519371 3009.99999046326 15 18 11
168.113604187965 -66.1100521683693 2977.9999256134 9 12 5
177.835702896118 -66.707506775856 3005.00011444092 21 24 17
188.694924116135 -67.6600188016891 3048.00009727478 11 14 7
197.461053729057 -67.8132623434067 3055.0000667572 11 14 7
206.197261810303 -67.9442211985588 3061.00010871887 11 14 7
207.600057125092 -63.2785186171532 2851.0000705719 13 16 9
220.661282539368 -64.8297965526581 2921.0000038147 17 18 12
228.468000888824 -64.7829622030258 2918.99991035461 17 18 12
236.91089451313 -64.9135857820511 2924.99995231628 17 18 12
249.236673116684 -66.0649389028549 2976.99999809265 21 22 14
256.485313177109 -65.8402889966965 2967.00000762939 23 24 16
-51.3567440211773 -74.2084681987762 2976.0000705719 23 23 15
-43.3328337967396 -74.3836089968681 2983.00004005432 17 20 9
-35.1997502148151 -74.4090527296066 2983.99996757507 17 20 9
-27.206102386117 -74.8333558440208 3000.99992752075 16 19 10
-19.0751664340496 -75.0830098986626 3010.99991798401 15 18 9
-10.860700160265 -75.1330852508545 3013.00001144409 15 18 9
-2.61428696103394 -74.5845660567284 2990.9999370575 13 16 7
5.56211732327938 -74.7092291712761 2996.00005149841 13 16 7
13.908002525568 -75.6068080663681 3032.00006484985 12 15 8
22.4504303187132 -76.5042901039124 3068.00007820129 11 14 7
30.5864736437798 -75.905479490757 3043.99991035461 10 13 6
38.7446694076061 -75.6058096885681 3032.00006484985 9 12 5
47.0698066055775 -75.6800696253777 3035.00008583069 9 12 5
55.3199350833893 -75.6295472383499 3032.99999237061 13 16 9
64.2299428582191 -76.3768553733826 3062.99996376038 8 11 4
71.620799601078 -75.3536522388458 3022.0000743866 10 13 6
155.481964349747 -76.0125517845154 3049.00002479553 14 17 10
160.738959908485 -74.5895728468895 2992.00010299683 6 9 2
169.918075203896 -75.0362277030945 3009.99999046326 7 10 3
179.194748401642 -75.4827782511711 3028.00011634827 5 8 1
196.812406182289 -75.9018734097481 3045.00007629395 11 14 7
206.59901201725 -76.4477476477623 3066.99991226196 11 14 7
208.180144429207 -71.2582170963287 2858.99996757507 13 16 9
220.885366201401 -72.8756263852119 2924.00002479553 16 17 11
228.778451681137 -72.8479474782944 2923.00009727478 16 17 11
237.394124269485 -73.04447889328 2930.99999427795 17 18 12
247.140809893608 -73.5648572444916 2951.99990272522 21 22 14
260.891079902649 -75.2064809203148 3017.99988746643 23 24 16
-35.4351960122585 -83.1091701984406 3003.99994850159 18 21 10
-27.0878877490759 -82.6669558882713 2987.99991607666 17 20 11
-19.0622415393591 -83.2482725381851 3009.0000629425 16 19 10
-10.8497394248843 -83.2761451601982 3009.99999046326 15 18 9
-2.630858682096 -83.2762494683266 3009.99999046326 14 17 8
5.6010284461081 -83.46988260746 3016.99995994568 14 17 8
13.884880580008 -83.7464183568954 3026.99995040894 11 14 7
22.3769526928663 -84.6038162708282 3058.00008773804 10 13 6
30.5257737636566 -84.0501189231873 3038.00010681152 11 14 7
38.42468932271 -83.1919759511948 3006.99996948242 13 16 9
46.5108640491962 -82.9700604081154 2999.00007247925 7 10 3
55.7751730084419 -84.6016258001328 3058.00008773804 14 17 10
63.8306587934494 -84.2134580016136 3043.99991035461 5 8 1
71.5250447392464 -83.493210375309 3017.99988746643 11 14 7
160.360753536224 -82.5625285506248 2984.99989509583 14 17 10
169.633597135544 -83.1134244799614 3005.00011444092 13 16 9
180.435135960579 -84.3279585242271 3049.00002479553 10 13 6
194.612264633179 -83.2718312740326 3010.99991798401 11 14 7
200.872346758842 -79.2564377188683 2865.9999370575 12 15 8
211.308479309082 -80.2491530776024 2901.99995040894 13 16 9
240.063831210136 -81.9543600082397 2963.99998664856 16 17 11
250.486373901367 -82.7252343297005 2992.00010299683 21 22 14
260.974168777466 -83.4682881832123 3019.00005340576 23 24 16
274.283170700073 -85.0405693054199 3075.99997520447 23 24 16
-44.1886596381664 -92.4646630883217 3042.00005531311 20 23 12
-35.4818552732468 -91.4318114519119 3007.99989700317 20 23 12
-19.359702244401 -92.8916856646538 3055.99999427795 14 17 8
-10.8639970421791 -91.61526709795 3013.99993896484 13 16 7
-2.65791406854987 -92.4360752105713 3040.99988937378 13 16 7
5.64921367913485 -92.4968421459198 3042.99998283386 11 14 5
13.9030236750841 -92.1319350600243 3030.99989891052 10 13 4
22.2741775214672 -92.5268083810806 3043.99991035461 10 13 4
30.4549876600504 -92.1312496066093 3030.99989891052 13 16 9
38.3985675871372 -91.3404151797295 3005.00011444092 12 15 8
46.1844950914383 -90.5190706253052 2977.9999256134 7 13 3
55.1724657416344 -91.9468924403191 3025.00009536743 18 24 14
64.9620518088341 -94.1648408770561 3098.00004959106 6 12 2
73.9650055766106 -94.8628559708595 3121.00005149841 9 14 7
159.98238325119 -90.4969424009323 2977.9999256134 6 8 3
169.405326247215 -91.1933705210686 3000.99992752075 14 16 11
178.538829088211 -91.6769281029701 3016.99995994568 13 15 10
185.220792889595 -90.9145250916481 2992.00010299683 13 16 9
194.738745689392 -91.5497541427612 3013.00001144409 12 15 8
204.934522509575 -88.8395681977272 2924.00002479553 12 15 8
213.635504245758 -89.1402512788773 2934.00001525879 13 16 9
224.882990121841 -90.443380177021 2976.99999809265 13 16 9
238.764554262161 -89.5554572343826 2947.99995422363 13 16 7
250.064253807068 -90.7365679740906 2986.99998855591 15 18 9
262.95867562294 -92.4034863710403 3042.00005531311 18 21 10
272.050142288208 -92.6729217171669 3051.00011825562 21 24 13
-18.9539566636086 -99.1142988204956 2992.00010299683 15 18 9
-10.8313821256161 -99.5452031493187 3005.00011444092 13 16 7
-2.62116314843297 -99.3465557694435 2999.00007247925 13 16 7
5.61385042965412 -100.174687802792 3023.9999294281 15 18 9
13.8018876314163 -99.6776297688484 3009.0000629425 13 16 9
22.0250319689512 -99.7104570269585 3009.99999046326 12 15 8
30.2334502339363 -99.6768996119499 3009.0000629425 13 16 9
38.7046188116074 -100.338838994503 3029.00004386902 12 15 8
46.9901859760284 -100.371241569519 3029.99997138977 11 14 7
54.8615232110024 -99.6416136622429 3007.99989700317 5 11 1
65.2545616030693 -103.085644543171 3111.99998855591 5 10 3
74.7695714235306 -104.508839547634 3154.99997138977 5 10 3
150.534152984619 -103.299476206303 3118.99995803833 21 23 18
151.548773050308 -98.4284803271294 2971.99988365173 8 10 5
177.885085344315 -99.5463132858276 3006.00004196167 15 17 12
189.551189541817 -101.39774531126 3062.00003623962 12 15 8
197.191685438156 -101.030297577381 3051.00011825562 12 15 8
198.911175131798 -97.7819487452507 2953.00006866455 13 16 9
208.225339651108 -98.3746349811554 2970.99995613098 12 15 8
215.161234140396 -97.8414118289948 2954.99992370605 12 15 8
224.04856979847 -98.2020497322083 2966.00008010864 11 14 7
234.716817736626 -99.2909073829651 2999.00007247925 15 18 11
244.025275111198 -99.7505411505699 3013.00001144409 15 18 11
-52.7340359985828 -109.574049711227 3055.99999427795 8 11 2
-43.4173122048378 -107.172608375549 2989.00008201599 18 21 12
-10.5248186737299 -104.700490832329 2920.00007629395 11 14 5
-2.63772299513221 -108.214534819126 3017.99988746643 11 14 5
5.50051219761372 -106.242418289185 2963.00005912781 15 18 9
13.7007366865873 -107.102788984776 2986.99998855591 13 16 9
21.7100083827972 -106.385342776775 2967.00000762939 14 17 10
30.1223956048489 -107.496410608292 2997.99990653992 14 17 10
38.3717194199562 -107.675068080425 3003.00002098084 13 16 9
46.4465767145157 -107.387445867062 2994.99988555908 10 16 6
55.8454245328903 -109.788827598095 3062.00003623962 12 18 8
64.8969635367393 -110.970959067345 3095.00002861023 1 6 0
154.452666640282 -108.582891523838 3029.00004386902 2 4 0
161.481246352196 -107.755571603775 3006.00004196167 10 12 7
170.190006494522 -108.075231313705 3015.00010490417 6 8 3
189.300328493118 -109.6101552248 3058.00008773804 10 13 6
199.06260073185 -110.39524525404 3079.99992370605 11 14 7
204.767912626266 -108.95798355341 3039.99996185303 12 15 8
207.03037083149 -105.872042477131 2953.9999961853 13 16 9
215.958535671234 -106.298394501209 2966.00008010864 12 15 8
223.893687129021 -106.222838163376 2963.99998664856 12 15 8
228.608295321465 -104.677878320217 2921.0000038147 15 17 12
-52.0945861935616 -116.488061845303 3019.00005340576 11 14 7
-19.0039426088333 -115.757703781128 3000 16 19 10
-10.9102828428149 -116.7998239398 3026.99995040894 14 17 8
5.63406618312001 -117.10862070322 3035.00008583069 13 16 9
13.4482076391578 -113.134056329727 2931.99992179871 13 16 9
21.6144751757383 -113.982610404491 2953.9999961853 15 18 11
38.4476594626904 -116.103656589985 3009.0000629425 15 18 11
154.959693551064 -117.234885692596 3039.00003433228 6 8 3
166.259214282036 -119.392074644566 3095.00002861023 0 2 0
175.436407327652 -119.89027261734 3108.00004005432 10 12 7
181.251674890518 -118.150994181633 3062.99996376038 8 10 5
190.906286239624 -118.957474827766 3084.00011062622 7 10 3
194.922670722008 -116.330914199352 3016.00003242493 8 11 4
214.315250515938 -117.943070828915 3058.00008773804 10 13 6
217.265129089355 -115.084938704967 2983.99996757507 13 16 9
220.414936542511 -112.535402178764 2917.99998283386 15 17 12
227.821514010429 -112.261213362217 2911.00001335144 15 17 12
239.805340766907 -114.185005426407 2960.99996566772 15 17 12
-36.2813360989094 -127.085015177727 3075.99997520447 21 24 15
-27.7019217610359 -126.259371638298 3055.99999427795 19 22 13
-19.332954660058 -126.094609498978 3052.00004577637 14 17 8
-11.0001675784588 -126.094922423363 3052.00004577637 13 16 7
-2.65335105359554 -125.434011220932 3036.00001335144 15 18 11
14.0120880678296 -126.218765974045 3055.0000667572 14 17 10
38.7663133442402 -125.349491834641 3033.99991989136 14 16 11
56.8280629813671 -128.735288977623 3115.9999370575 12 14 9
156.690254807472 -126.932308077812 3072.99995422363 0 1 0
167.007952928543 -128.415957093239 3108.99996757507 10 12 7
176.110252737999 -128.866761922836 3119.99988555908 16 18 13
178.881153464317 -124.856755137444 3023.00000190735 4 6 1
196.534499526024 -125.59249997139 3040.99988937378 8 11 4
206.241950392723 -126.455679535866 3062.00003623962 7 10 3
212.278679013252 -125.088602304459 3029.00004386902 7 10 3
220.24604678154 -124.919041991234 3025.00009536743 11 14 7
223.809704184532 -122.35426902771 2963.00005912781 14 16 13
228.912726044655 -120.780557394028 2924.99995231628 14 16 13
236.966177821159 -120.817169547081 2926.00011825562 14 16 11
267.216593027115 -123.733535408974 2996.99997901917 16 19 12
-43.5599237680435 -132.088050246239 2999.00007247925 15 18 9
-35.4195311665535 -132.265105843544 3003.00002098084 14 17 8
-27.6016145944595 -134.115695953369 3045.00007629395 12 15 6
-19.3262025713921 -134.380474686623 3051.00011825562 10 13 6
-11.0287619754672 -134.777203202248 3059.99994277954 10 13 6
-2.63494090177119 -132.795348763466 3015.00010490417 12 15 8
5.58371050283313 -132.486999034882 3007.99989700317 13 16 9
22.6232782006264 -136.186137795448 3092.00000762939 16 18 13
30.8338962495327 -135.172516107559 3069.00000572205 13 15 10
38.4204983711243 -132.440999150276 3006.99996948242 10 12 7
57.7751696109772 -139.529928565025 3167.99998283386 7 9 4
165.607780218124 -135.754406452179 3082.99994468689 11 13 8
174.084439873695 -129.538461565971 2941.99991226196 14 16 11
184.708505868912 -131.383821368217 2983.99996757507 10 13 6
198.663040995598 -135.342240333557 3073.99988174438 9 12 5
211.853727698326 -133.088007569313 3023.00000190735 6 9 2
222.935289144516 -134.800270199776 3062.00003623962 9 12 5
231.358364224434 -134.839400649071 3062.99996376038 11 14 7
231.725290417671 -130.34425675869 2960.99996566772 14 16 13
244.098260998726 -128.353253006935 2915.99988937378 15 17 12
251.871347427368 -128.2599568367 2914.00003433228 16 18 13
-52.9194287955761 -143.452063202858 3066.99991226196 10 13 6
-44.5320643484592 -143.406435847282 3065.99998474121 11 14 7
-27.0480513572693 -139.572709798813 2983.99996757507 10 13 4
5.57986972853541 -140.602752566338 3006.00004196167 9 12 5
13.9793585985899 -142.567023634911 3048.00009727478 11 13 8
22.4837437272072 -143.735945224762 3072.99995422363 12 14 9
30.5719710886478 -142.332091927528 3042.99998283386 11 13 8
38.445170968771 -140.740990638733 3009.0000629425 9 11 6
59.1780729591846 -151.777118444443 3244.99988555908 9 11 6
156.938329339027 -143.936172127724 3078.00006866455 54 56 51
163.079410791397 -141.968414187431 3036.00001335144 14 16 11
185.632854700089 -140.226200222969 2999.00007247925 10 13 6
198.012366890907 -143.26100051403 3063.99989128113 10 13 6
210.408851504326 -146.061629056931 3124.00007247925 9 12 5
223.585605621338 -143.573775887489 3071.00009918213 7 10 3
226.97240114212 -140.48308134079 3005.00011444092 7 10 3
232.26797580719 -138.748154044151 2967.99993515015 9 11 8
254.199504852295 -137.46951520443 2940.99998474121 9 11 6
-69.3220347166061 -151.076018810272 3052.00004577637 3 5 0
-61.7701821029186 -153.008192777634 3091.00008010864 20 22 17
-53.125187754631 -152.415573596954 3078.9999961853 9 11 6
-44.5600338280201 -151.872277259827 3068.00007820129 8 11 4
-35.9132140874863 -150.73473751545 3045.00007629395 8 11 4
-27.5368578732014 -150.389015674591 3038.00010681152 7 10 3
-10.8047937974334 -148.409858345985 2997.99990653992 5 8 1
-2.72570201195776 -154.399871826172 3118.99995803833 5 8 1
22.6587876677513 -153.310060501099 3096.99988365173 8 10 5
31.4452722668648 -154.943004250526 3130.00011444092 9 11 6
58.1554025411606 -157.86024928093 3188.99989128113 8 10 7
208.854824304581 -153.445392847061 3101.0000705719 9 12 5
229.081898927689 -150.06485581398 3032.99999237061 8 11 4
236.175328493118 -149.317130446434 3017.99988746643 6 8 3
241.728410124779 -147.678732872009 2984.99989509583 6 8 3
259.206622838974 -148.359373211861 2999.00007247925 7 10 3
278.762936592102 -150.077968835831 3033.99991989136 10 12 7
-69.3883895874023 -159.56050157547 3055.0000667572 13 15 12
-61.3089799880981 -160.241201519966 3068.00007820129 9 11 6
-53.0548207461834 -160.608321428299 3075.00004768372 11 13 8
-43.6729453504086 -157.057911157608 3006.99996948242 11 14 7
-35.7353873550892 -158.260256052017 3029.99997138977 10 13 6
-27.5542791932821 -158.783406019211 3039.99996185303 7 10 3
-19.2424543201923 -158.679574728012 3038.00010681152 7 10 3
-11.0820177942514 -160.612538456917 3075.00004768372 7 10 3
-2.68543371930718 -160.508245229721 3072.99995422363 8 11 4
5.67239848896861 -159.620270133018 3055.99999427795 8 10 5
13.8181438669562 -157.374024391174 3013.00001144409 7 9 4
66.3558915257454 -165.306881070137 3164.99996185303 10 10 8
75.042650103569 -165.409490466118 3167.00005531311 10 10 8
160.600647330284 -156.131818890572 2990.00000953674 10 12 7
171.296522021294 -158.477336168289 3035.00008583069 4 6 1
215.412616729736 -160.488843917847 3073.99988174438 11 14 7
217.459440231323 -155.941277742386 2986.99998855591 11 14 7
226.508304476738 -156.562119722366 2999.00007247925 11 14 7
236.247777938843 -157.600328326225 3019.00005340576 12 15 8
239.212110638618 -154.201194643974 2953.9999961853 13 16 9
250.610172748566 -156.283035874367 2993.99995803833 13 16 7
260.410279035568 -157.268360257149 3013.00001144409 12 15 6
269.688904285431 -157.88808465004 3025.00009536743 11 14 5
277.378022670746 -157.568082213402 3019.00005340576 17 20 13
-69.7499290108681 -168.775171041489 3071.00009918213 9 11 8
-61.3472908735275 -168.722003698349 3069.9999332428 4 6 1
-52.2079914808273 -166.305407881737 3026.00002288818 14 16 11
-44.3253219127655 -167.735680937767 3052.00004577637 14 17 10
-35.8523614704609 -167.077243328094 3039.99996185303 13 16 9
-27.4629015475512 -166.528537869453 3029.99997138977 9 12 5
-19.1975962370634 -166.584119200706 3030.99989891052 8 11 4
-10.9844151884317 -167.518869042397 3048.00009727478 9 12 5
-2.68011819571257 -168.563306331635 3066.99991226196 11 14 7
