ply
format ascii 1.0
comment KinectMotionCapture
element vertex 808
property float x
property float y
property float z
property uchar red
property uchar green
property uchar blue
end_header
-66.535547375679 206.863164901733 2930.0000667572 11 17 7
-58.4392994642258 206.512346863747 2924.99995231628 16 19 12
-50.0768572092056 204.960972070694 2903.00011634827 16 17 11
-42.9669283330441 208.916395902634 2959.00011062622 18 19 13
-34.7375273704529 207.999914884567 2946.00009918213 13 14 6
-26.8326830118895 209.060043096542 2960.99996566772 13 14 6
-18.4405632317066 205.601200461388 2911.99994087219 15 16 8
-10.3302681818604 202.424481511116 2867.00010299683 17 18 10
-2.52848607487977 204.331055283546 2894.00005340576 18 19 11
5.42440824210644 206.378534436226 2923.00009727478 17 18 10
13.4026175364852 206.378236413002 2923.00009727478 15 16 8
21.3149413466454 205.74215054512 2914.00003433228 14 15 7
29.1479155421257 204.89402115345 2901.99995040894 12 13 5
36.3787785172462 201.080247759819 2848.00004959106 12 13 5
44.3224124610424 201.855480670929 2858.99996757507 12 15 8
52.4535290896893 203.124642372131 2877.00009346008 12 15 8
60.787495225668 204.746544361115 2900.00009536743 11 14 7
68.4649720788002 204.038262367249 2890.00010490417 15 18 11
76.2725248932838 203.823909163475 2887.00008392334 16 19 12
84.6172198653221 204.950720071793 2903.00011634827 16 19 12
92.1882092952728 204.171046614647 2891.99995994568 16 19 12
99.3873476982117 202.755734324455 2871.99997901917 19 22 15
106.514267623425 201.410815119743 2852.9999256134 19 22 15
114.458553493023 201.689407229424 2857.00011253357 13 16 9
121.953472495079 201.191127300262 2849.99990463257 11 14 7
139.673814177513 204.3586820364 2894.99998092651 10 12 7
147.621363401413 204.42433655262 2895.99990844727 11 13 8
155.788585543633 204.772025346756 2901.00002288818 14 17 10
164.659604430199 205.966502428055 2917.99998283386 14 17 10
172.262132167816 205.53719997406 2911.99994087219 11 14 7
181.192666292191 206.660479307175 2927.99997329712 15 18 11
188.982173800468 206.442415714264 2924.99995231628 14 17 8
195.811897516251 205.23601770401 2907.99999237061 14 17 8
201.497241854668 202.970862388611 2875.99992752075 15 18 9
210.86511015892 204.445913434029 2897.0000743866 15 18 9
218.685314059258 204.368084669113 2895.99990844727 16 19 10
226.65573656559 204.431131482124 2897.0000743866 14 20 8
233.902081847191 203.858837485313 2888.99993896484 15 21 11
250.421613454819 204.477682709694 2898.00000190735 18 24 14
266.24870300293 210.748583078384 2986.99998855591 20 23 14
264.371514320374 203.049421310425 2878.00002098084 23 26 17
275.519520044327 205.509781837463 2913.00010681152 23 26 17
-117.793656885624 204.555720090866 3013.99993896484 116 107 102
-109.097361564636 203.677237033844 3000.99992752075 47 34 28
-100.942298769951 203.748643398285 3002.00009346008 43 32 26
-93.3374837040901 205.04142343998 3020.99990844727 92 88 79
-66.3107335567474 198.194280266762 2920.00007629395 14 20 8
-58.9008405804634 200.096875429153 2947.99995422363 14 17 8
-51.1826165020466 201.388373970985 2967.00000762939 17 18 10
-42.7215360105038 199.693009257317 2941.99991226196 15 16 8
-34.9038019776344 200.91612637043 2960.00003814697 15 16 8
-26.6614221036434 199.695378541946 2941.99991226196 14 15 7
-18.3715373277664 196.913167834282 2901.00002288818 14 15 7
-10.3126065805554 194.26640868187 2861.99998855591 16 17 9
-2.51721474342048 195.556312799454 2881.00004196167 17 18 10
5.43944165110588 198.950156569481 2930.99999427795 17 18 10
13.4305916726589 198.81409406662 2928.99990081787 15 16 8
21.3668793439865 198.270484805107 2921.0000038147 14 15 7
29.1288308799267 196.844220161438 2900.00009536743 11 12 4
37.3508483171463 198.472142219543 2924.00002479553 10 11 3
52.8382174670696 196.704313158989 2898.00000190735 11 14 7
61.0411204397678 197.652637958527 2911.99994087219 10 13 6
69.414958357811 198.872193694115 2930.0000667572 13 16 9
77.4640440940857 199.005469679832 2931.99992179871 14 17 10
85.3196904063225 198.663368821144 2927.00004577637 15 18 11
92.4145057797432 196.759954094887 2898.9999294281 16 19 12
99.8060330748558 195.738673210144 2884.0000629425 19 22 15
107.264623045921 194.988638162613 2872.99990653992 18 21 14
114.502497017384 193.966880440712 2858.00004005432 12 15 8
121.18735909462 192.198380827904 2832.00001716614 10 13 6
131.143897771835 195.519626140594 2881.00004196167 10 12 7
140.016302466393 196.940243244171 2901.99995040894 10 12 7
148.492962121964 197.681963443756 2913.00010681152 11 13 8
156.062364578247 197.201862931252 2905.99989891052 14 17 10
162.859365344048 195.839375257492 2885.99991798401 14 17 10
170.493200421333 195.562452077866 2881.99996948242 11 14 7
180.951222777367 198.406592011452 2924.00002479553 14 17 10
188.794672489166 198.264792561531 2921.99993133545 14 17 8
193.663626909256 195.137351751328 2875.99992752075 14 17 8
202.554926276207 196.148589253426 2891.00003242493 15 18 9
210.726514458656 196.413218975067 2894.99998092651 15 18 9
218.466013669968 196.270540356636 2892.99988746643 15 18 9
227.445662021637 197.21308350563 2907.00006484985 15 21 9
235.529094934464 197.341233491898 2908.99991989136 16 22 12
255.528271198273 200.5814909935 2957.00001716614 17 23 13
262.359142303467 193.714067339897 2855.99994659424 24 27 18
272.785484790802 195.604637265205 2884.0000629425 22 25 18
-102.290660142899 198.167517781258 3042.00005531311 61 50 46
-75.2234980463982 192.638754844666 2957.00001716614 20 23 12
-68.0161640048027 195.116654038429 2994.99988555908 15 18 7
-58.9627288281918 192.252188920975 2950.99997520447 17 19 8
-50.8565381169319 192.058548331261 2947.99995422363 22 22 12
-43.2312153279781 193.949371576309 2976.99999809265 19 19 9
-34.657321870327 191.474974155426 2938.99989128113 20 21 13
-26.644179597497 191.541120409966 2940.00005722046 18 19 11
-18.3088164776564 188.349485397339 2891.00003242493 12 13 5
-10.3201558813453 186.590909957886 2864.00008201599 16 17 9
-2.51642451621592 187.633514404297 2880.00011444092 14 15 7
5.37280971184373 188.610717654228 2894.99998092651 16 17 9
13.4126944467425 190.564930438995 2924.99995231628 15 16 8
21.2724898010492 189.456805586815 2907.99999237061 15 16 8
29.2001105844975 189.390853047371 2907.00006484985 13 14 6
60.917355120182 189.319834113121 2905.99989891052 8 11 4
69.5830956101418 191.337302327156 2937.00003623962 9 12 5
78.6555558443069 193.940788507462 2976.99999809265 10 13 6
86.0512554645538 192.309468984604 2951.99990272522 10 13 6
100.016959011555 188.264518976212 2890.00010490417 15 18 11
109.396323561668 190.866842865944 2930.0000667572 13 16 9
122.988663613796 187.211468815804 2874.00007247925 8 11 4
131.694450974464 188.445016741753 2892.99988746643 9 11 6
138.235628604889 186.616837978363 2865.00000953674 10 12 7
146.56063914299 187.263637781143 2875 12 14 9
155.852615833282 189.017444849014 2901.99995040894 12 15 8
172.332674264908 189.723446965218 2913.00010681152 12 15 8
181.204617023468 190.694749355316 2927.99997329712 12 15 8
188.154637813568 189.646884799004 2911.99994087219 14 17 8
195.69006562233 189.25005197525 2905.99989891052 14 17 8
203.612431883812 189.243763685226 2905.99989891052 15 18 9
211.533978581429 189.237236976624 2905.99989891052 16 19 10
218.472972512245 188.38395178318 2892.99988746643 16 19 10
227.531120181084 189.353719353676 2907.99999237061 13 21 8
236.589193344116 190.25807082653 2921.99993133545 15 21 11
246.978014707565 192.13879108429 2950.99997520447 17 23 13
257.437527179718 193.953990936279 2979.00009155273 18 24 14
256.10363483429 187.044829130173 2872.99990653992 18 24 14
263.56166601181 186.776429414749 2868.99995803833 24 27 18
278.280138969421 191.520392894745 2941.99991226196 23 26 17
-77.5409117341042 190.253660082817 3048.00009727478 14 16 5
-67.7230879664421 186.136215925217 2982.00011253357 13 16 5
-59.4641417264938 185.763671994209 2976.0000705719 20 22 11
-51.1514395475388 185.078755021095 2964.99991416931 24 24 14
-42.6371805369854 183.270007371902 2936.00010871887 20 21 13
-34.5640853047371 182.959094643593 2930.99999427795 21 22 14
-26.5997126698494 183.209732174873 2934.99994277954 19 20 12
-18.341064453125 180.775955319405 2895.99990844727 12 13 5
-10.2988630533218 178.404346108437 2858.00004005432 16 17 9
-2.50165024772286 178.716659545898 2862.99991607666 13 14 6
5.34328585490584 179.715380072594 2878.99994850159 15 16 8
13.2526224479079 180.401757359505 2890.00010490417 15 16 8
21.1780667304993 180.713310837746 2894.99998092651 15 16 8
29.1206762194633 180.962219834328 2898.9999294281 15 16 8
37.6087687909603 183.770179748535 2944.00000572205 14 15 7
45.4431250691414 182.957410812378 2930.99999427795 11 14 7
52.7322366833687 180.521443486214 2891.99995994568 9 12 5
61.6110824048519 183.453440666199 2938.99989128113 7 10 3
69.3957656621933 182.827204465866 2928.99990081787 8 11 4
78.7108913064003 185.945868492126 2979.00009155273 9 12 5
86.8702158331871 186.005711555481 2980.00001907349 9 12 5
91.9741541147232 180.073276162148 2884.99999046326 12 15 8
102.26970911026 184.439420700073 2954.99992370605 12 15 8
109.997190535069 183.874383568764 2946.00009918213 11 14 7
116.993986070156 182.24810063839 2920.00007629395 7 10 3
125.774189829826 183.430194854736 2938.99989128113 7 10 3
132.153823971748 181.179404258728 2903.00011634827 9 11 6
139.735743403435 180.738344788551 2895.99990844727 10 12 7
146.004468202591 178.736880421638 2864.00008201599 12 14 9
152.044326066971 176.672890782356 2831.00008964539 12 15 8
173.698753118515 183.215424418449 2936.00010871887 13 16 9
179.848685860634 181.337967514992 2905.99989891052 12 15 8
188.354298472404 181.893959641457 2914.99996185303 13 16 7
195.561453700066 181.20177090168 2904.00004386902 14 17 8
211.394935846329 181.189462542534 2904.00004386902 16 19 10
220.896348357201 182.493180036545 2924.99995231628 17 20 11
228.164032101631 181.924909353256 2915.99988937378 13 19 7
237.810969352722 183.228075504303 2937.00003623962 14 20 10
246.818110346794 183.96945297718 2948.99988174438 18 24 14
252.692222595215 182.402461767197 2924.00002479553 19 25 15
258.250862360001 180.71061372757 2897.0000743866 20 26 16
268.071115016937 182.012751698494 2917.99998283386 23 26 17
-60.0654035806656 179.436460137367 3006.00004196167 14 15 7
-51.032230257988 176.572859287262 2957.99994468689 15 16 8
-42.827270925045 176.03699862957 2948.99988174438 19 22 11
-34.6948653459549 175.620317459106 2941.99991226196 18 21 10
-26.6367774456739 175.44212937355 2938.99989128113 17 20 11
-18.4366274625063 173.771381378174 2911.00001335144 15 18 9
-10.4541340842843 173.174872994423 2901.00002288818 13 16 7
-2.52269813790917 172.3393201828 2887.00008392334 12 15 6
5.45109761878848 175.324022769928 2937.00003623962 12 15 6
13.289712369442 172.995641827583 2898.00000190735 16 19 12
21.3323403149843 174.069613218307 2915.99988937378 16 19 12
29.2923357337713 174.068868160248 2915.99988937378 14 17 10
37.5332646071911 175.381138920784 2937.99996376038 14 17 10
44.8398254811764 172.63400554657 2891.99995994568 14 16 11
52.98912525177 173.468247056007 2905.99989891052 13 15 10
61.1727237701416 174.182876944542 2917.99998283386 12 14 9
69.7769671678543 175.792589783669 2944.9999332428 10 12 7
77.814906835556 175.790399312973 2944.9999332428 9 11 6
84.9779769778252 173.99725317955 2914.99996185303 10 12 7
115.394823253155 171.896263957024 2880.00011444092 7 9 4
124.622508883476 173.802644014359 2911.99994087219 8 10 5
133.159339427948 174.574747681618 2924.99995231628 9 11 6
139.884725213051 173.018962144852 2898.9999294281 10 13 6
147.793188691139 173.014730215073 2898.9999294281 11 14 7
154.519453644753 171.697318553925 2877.00009346008 11 14 7
169.089198112488 170.553967356682 2858.00004005432 13 16 7
180.84429204464 174.368053674698 2921.99993133545 14 17 8
187.842965126038 173.467591404915 2907.00006484985 15 18 9
195.769280195236 173.462003469467 2907.00006484985 15 18 9
203.344479203224 173.157870769501 2901.99995040894 16 19 10
211.983531713486 173.748537898064 2911.99994087219 17 20 9
221.356004476547 174.875929951668 2930.99999427795 17 20 9
231.378927826881 176.420643925667 2957.00001716614 16 19 8
238.70861530304 175.876945257187 2947.99995422363 17 20 11
244.732901453972 174.438238143921 2924.00002479553 19 22 13
253.304541110992 174.848720431328 2930.99999427795 20 23 14
260.041296482086 174.006253480911 2917.00005531311 20 23 14
271.018743515015 175.967216491699 2950.00004768372 18 21 12
-68.1586563587189 170.949265360832 3000.99992752075 19 20 12
-59.1879263520241 168.729454278946 2961.99989318848 19 20 12
-51.2580089271069 169.243723154068 2970.99995613098 16 17 9
-42.9882816970348 168.618440628052 2960.00003814697 19 22 11
-34.8256044089794 168.220803141594 2953.00006866455 19 22 11
-26.6103688627481 167.253255844116 2936.00010871887 18 21 12
-18.6968445777893 168.165355920792 2951.99990272522 16 19 10
-10.6166079640388 167.823985219002 2946.00009918213 14 17 8
-2.59879557415843 169.419229030609 2973.99997711182 11 14 5
5.46610495075583 167.767152190208 2944.9999332428 11 14 5
13.4918838739395 167.595997452736 2941.99991226196 15 18 11
21.1793333292007 164.918065071106 2894.99998092651 16 19 12
29.1023254394531 165.031284093857 2897.0000743866 15 18 11
37.2149758040905 165.941789746284 2913.00010681152 14 17 10
45.4458370804787 166.966006159782 2930.99999427795 15 17 12
53.0271455645561 165.654391050339 2907.99999237061 15 17 12
62.0759762823582 168.671861290932 2960.99996566772 14 16 11
69.4946795701981 167.075023055077 2933.00008773804 12 14 9
77.2887021303177 166.617184877396 2924.99995231628 11 13 8
114.075884222984 162.160634994507 2846.99988365173 7 9 4
123.770162463188 164.720386266708 2891.99995994568 8 10 5
131.251096725464 164.204180240631 2882.99989700317 10 13 6
140.274792909622 165.567278862 2907.00006484985 11 14 7
149.989664554596 167.556568980217 2941.99991226196 12 15 8
158.49843621254 168.064817786217 2950.99997520447 12 15 8
165.588319301605 167.092114686966 2934.00001525879 12 15 8
171.164810657501 164.752453565598 2892.99988746643 14 17 8
179.302155971527 164.975360035896 2897.0000743866 14 17 8
189.269930124283 166.79248213768 2928.99990081787 14 17 8
196.71767950058 166.331574320793 2921.0000038147 15 18 9
204.191103577614 165.927425026894 2914.00003433228 16 19 10
211.55272424221 165.466129779816 2905.99989891052 17 20 9
222.495093941689 167.737692594528 2946.00009918213 17 20 9
232.402697205544 169.097900390625 2970.00002861023 15 18 7
237.581685185432 167.041823267937 2934.00001525879 17 20 11
245.074510574341 166.693612933159 2927.99997329712 19 22 13
251.150965690613 165.434390306473 2905.99989891052 20 23 14
-76.428234577179 162.922486662865 3003.99994850159 18 19 11
-67.1611875295639 160.375356674194 2957.00001716614 20 21 13
-59.4093911349773 161.244869232178 2973.00004959106 18 19 11
-51.3111986219883 161.300614476204 2973.99997711182 16 17 9
-43.4251874685287 162.169709801674 2990.00000953674 16 17 9
-35.0506529211998 161.194488406181 2971.99988365173 16 19 8
-26.9011482596397 160.978376865387 2967.99993515015 17 20 11
-18.6403635889292 159.623056650162 2943.00007820129 18 21 12
-10.5952806770802 159.460723400116 2940.00005722046 17 20 11
-2.63032759539783 163.257613778114 3009.99999046326 14 17 8
5.43841673061252 158.918499946594 2930.0000667572 12 15 6
13.2904732599854 157.182604074478 2898.00000190735 14 17 10
21.2530847638845 157.561808824539 2904.99997138977 15 18 11
28.9323572069407 156.205162405968 2880.00011444092 15 18 11
45.323058962822 158.535376191139 2923.00009727478 12 14 9
54.2139299213886 161.245867609978 2973.00004959106 12 14 9
62.2873604297638 161.1358076334 2970.99995613098 13 15 10
69.8757246136665 159.940794110298 2948.99988174438 13 15 10
77.528677880764 159.125283360481 2934.00001525879 12 14 9
85.6241881847382 159.285768866539 2937.00003623962 12 14 9
100.721076130867 157.816424965858 2910.00008583069 11 13 8
108.625136315823 157.759353518486 2908.99991989136 10 12 7
115.361280739307 156.129390001297 2878.99994850159 9 11 6
122.404016554356 155.095815658569 2859.99989509583 10 12 7
131.436824798584 156.556591391563 2887.00008392334 11 14 7
139.603063464165 156.878307461739 2892.99988746643 12 15 8
147.954449057579 157.362475991249 2901.99995040894 13 16 9
155.226409435272 156.707733869553 2890.00010490417 12 15 8
167.003840208054 160.444840788841 2959.00011062622 12 15 8
173.713684082031 159.193187952042 2936.00010871887 14 17 8
179.183259606361 156.965434551239 2894.99998092651 13 16 7
188.176527619362 157.882258296013 2911.99994087219 13 16 7
197.396501898766 158.907264471054 2930.99999427795 14 17 8
205.457970499992 158.956155180931 2931.99992179871 15 18 9
212.723255157471 158.408507704735 2921.99993133545 16 19 8
225.144505500793 161.601200699806 2980.99994659424 16 19 8
232.330694794655 160.944700241089 2969.00010108948 15 18 7
235.88752746582 157.902956008911 2913.00010681152 16 19 10
244.076639413834 158.059298992157 2915.99988937378 19 22 13
250.55268406868 157.131418585777 2898.9999294281 20 23 14
263.443201780319 160.159960389137 2954.99992370605 21 24 15
280.22101521492 165.301814675331 3049.99995231628 21 24 15
-74.9545842409134 151.738837361336 2946.00009918213 17 18 10
-67.8898021578789 153.955489397049 2989.00008201599 19 20 12
-60.1303763687611 154.987290501595 3009.0000629425 17 18 10
-51.6403764486313 154.164597392082 2993.00003051758 16 17 9
-43.4553921222687 154.114350676537 2992.00010299683 16 17 9
-35.523347556591 155.145525932312 3012.00008392334 15 18 7
-26.947183534503 153.137475252151 2973.00004959106 16 19 10
-18.545851111412 150.820136070251 2927.99997329712 17 20 11
-10.5955637991428 151.438638567925 2940.00005722046 17 20 11
-2.56310845725238 151.07823908329 2933.00008773804 16 19 10
5.49795804545283 152.571976184845 2961.99989318848 14 17 8
13.4192416444421 150.717377662659 2926.00011825562 13 16 9
21.2316997349262 149.480700492859 2901.99995040894 13 16 9
29.0737766772509 149.067983031273 2894.00005340576 14 17 10
37.0509102940559 149.376168847084 2900.00009536743 13 16 9
45.5878674983978 151.43546462059 2940.00005722046 11 13 8
53.5224005579948 151.176631450653 2934.99994277954 11 13 8
62.1632188558578 152.720376849175 2964.99991416931 11 13 8
69.6169286966324 151.327967643738 2937.99996376038 11 13 8
77.6628479361534 151.377573609352 2938.99989128113 12 14 9
85.451528429985 150.96341073513 2930.99999427795 12 14 9
92.4947410821915 149.415954947472 2901.00002288818 11 13 8
101.762115955353 151.422128081322 2940.00005722046 12 14 9
110.532455146313 152.449488639832 2960.00003814697 11 13 8
117.36786365509 150.8499532938 2928.99990081787 9 11 6
123.562835156918 148.683801293373 2887.00008392334 10 12 7
131.030529737473 148.217037320137 2878.00002098084 13 16 9
139.558464288712 148.934558033943 2891.99995994568 13 16 9
146.836653351784 148.312926292419 2880.00011444092 12 15 8
153.511628508568 147.176161408424 2858.00004005432 11 14 7
164.35544192791 149.952858686447 2911.99994087219 11 14 7
174.78321492672 152.111306786537 2953.9999961853 14 17 8
181.044787168503 150.613531470299 2924.99995231628 12 15 6
187.276691198349 149.21860396862 2898.00000190735 12 15 6
196.391329169273 150.140553712845 2915.99988937378 13 16 7
204.622343182564 150.341480970383 2920.00007629395 13 16 7
215.204045176506 152.189701795578 2956.00008964539 14 17 6
220.845192670822 150.536745786667 2924.00002479553 15 18 7
228.815197944641 150.531128048897 2924.00002479553 14 17 6
240.104466676712 152.635976672173 2964.99991416931 16 19 10
247.514739632607 152.218088507652 2957.00001716614 18 21 12
255.139797925949 151.954486966133 2951.99990272522 19 22 13
-68.9363405108452 148.043245077133 3035.00008583069 16 17 9
-60.0519590079784 146.581470966339 3005.00011444092 14 15 7
-51.9177466630936 146.777957677841 3009.0000629425 18 19 11
-43.8486374914646 147.266924381256 3019.00005340576 19 20 12
-35.3119447827339 146.04839682579 2993.99995803833 16 19 8
-26.8572233617306 144.536957144737 2963.00005912781 15 18 9
-18.7236741185188 144.196063280106 2956.00008964539 14 17 8
-10.606643743813 143.562272191048 2943.00007820129 14 17 8
-2.56317318417132 143.074616789818 2933.00008773804 15 18 9
5.41828013956547 142.391636967659 2918.99991035461 18 21 12
13.447099365294 143.025577068329 2931.99992179871 12 15 8
21.4297790080309 142.878785729408 2928.99990081787 12 15 8
29.2452983558178 142.000123858452 2911.00001335144 14 17 10
37.5373512506485 143.316358327866 2937.99996376038 13 16 9
45.4804748296738 143.071457743645 2933.00008773804 12 14 9
53.4325689077377 142.923891544342 2930.0000667572 11 13 8
61.1164718866348 142.190799117088 2914.99996185303 10 12 7
70.1636895537376 144.433006644249 2960.99996566772 10 12 7
78.0347660183907 144.0409719944 2953.00006866455 10 12 7
85.1038098335266 142.380520701408 2918.99991035461 12 14 9
93.5173705220222 143.061235547066 2933.00008773804 10 12 7
101.349301636219 142.814964056015 2927.99997329712 11 13 8
109.638996422291 143.202602863312 2936.00010871887 10 12 7
118.052035570145 143.687546253204 2946.00009918213 9 11 6
125.705972313881 143.245622515678 2937.00003623962 10 12 7
132.7183842659 142.169490456581 2914.99996185303 13 16 9
139.368921518326 140.849366784096 2888.00001144409 13 16 9
146.636351943016 140.26066660881 2875.99992752075 12 15 8
155.717730522156 141.378685832024 2898.9999294281 10 13 6
165.488362312317 142.984136939049 2931.99992179871 11 14 7
173.01245033741 142.589941620827 2924.00002479553 14 17 8
179.81131374836 141.659170389175 2904.99997138977 12 15 6
188.57379257679 142.28866994381 2917.99998283386 13 16 7
196.867644786835 142.527863383293 2923.00009727478 14 17 8
206.098988652229 143.400713801384 2940.99998474121 14 17 8
213.753193616867 143.151924014091 2936.00010871887 15 18 7
219.793125987053 141.879096627235 2910.00008583069 16 19 8
229.525089263916 142.995148897171 2933.00008773804 15 18 7
238.004773855209 143.282130360603 2938.99989128113 16 19 10
248.022973537445 144.446417689323 2963.00005912781 18 21 12
257.393151521683 145.171716809273 2977.9999256134 18 21 12
272.01521396637 148.724064230919 3051.00011825562 19 22 13
273.527503013611 145.110547542572 2976.99999809265 22 25 16
283.433824777603 146.030187606812 2996.00005149841 17 20 11
-67.3934146761894 136.629670858383 2967.00000762939 14 15 7
-51.7464466392994 138.106048107147 2999.00007247925 13 14 6
-43.6463430523872 138.383463025093 3005.00011444092 19 20 12
-35.4071483016014 138.246238231659 3002.00009346008 14 17 6
-27.0663481205702 137.510120868683 2986.00006103516 16 19 10
-18.9331546425819 137.648820877075 2989.00008201599 17 20 11
-10.6789795681834 136.451810598373 2963.00005912781 16 19 10
-2.56498227827251 135.162502527237 2934.99994277954 13 16 7
5.4443976841867 135.070368647575 2933.00008773804 15 18 9
13.4382490068674 134.932011365891 2930.0000667572 12 15 8
21.2473794817925 133.734241127968 2904.00004386902 11 14 7
29.2560420930386 134.102061390877 2911.99994087219 12 15 8
37.0655134320259 133.594736456871 2901.00002288818 13 16 9
45.5280803143978 135.205566883087 2936.00010871887 14 16 11
52.8685078024864 133.500546216965 2898.9999294281 14 16 11
60.8873069286346 133.729472756386 2904.00004386902 15 17 12
69.5018619298935 135.063394904137 2933.00008773804 14 16 11
87.088443338871 137.546420097351 2986.99998855591 11 13 8
94.316728413105 136.208936572075 2957.99994468689 13 15 10
102.493993937969 136.344790458679 2960.99996566772 8 10 5
109.566897153854 135.099098086357 2934.00001525879 8 10 5
117.774315178394 135.326698422432 2938.99989128113 10 12 7
126.522183418274 136.10665500164 2956.00008964539 11 13 8
133.586600422859 135.090693831444 2934.00001525879 12 14 9
140.626937150955 134.166702628136 2914.00003433228 10 13 6
149.240180850029 134.761929512024 2927.00004577637 11 14 7
157.655149698257 135.126739740372 2934.99994277954 14 17 10
165.605142712593 135.076999664307 2934.00001525879 13 16 9
173.549041152 135.02711057663 2933.00008773804 12 15 6
180.434495210648 134.194403886795 2914.99996185303 14 17 8
189.870700240135 135.249003767967 2937.99996376038 16 19 10
199.296921491623 136.211335659027 2959.00011062622 16 19 10
206.033706665039 135.332137346268 2940.00005722046 17 20 11
212.593242526054 134.406805038452 2920.00007629395 16 19 8
221.610993146896 135.04633307457 2934.00001525879 16 19 8
231.565058231354 136.191934347153 2959.00011062622 14 17 6
238.820061087608 135.726407170296 2948.99988174438 15 18 9
243.257239460945 133.742019534111 2905.99989891052 18 21 12
253.336697816849 134.887054562569 2930.99999427795 19 22 13
263.640522956848 136.077851057053 2957.00001716614 20 23 14
276.10644698143 138.280749320984 3005.00011444092 23 26 17
-68.9622610807419 131.521627306938 3036.00001335144 16 17 9
-59.8948635160923 129.83350455761 2996.99997901917 18 19 11
-51.3507500290871 128.924980759621 2976.0000705719 14 15 7
-43.1534834206104 128.70942056179 2970.99995613098 15 18 7
-35.2664068341255 129.533380270004 2990.00000953674 15 18 7
-27.1757338196039 129.880651831627 2997.99990653992 16 19 10
-18.8132263720036 128.668129444122 2970.00002861023 17 20 11
-10.6215532869101 127.672016620636 2947.00002670288 16 19 10
-2.55892262794077 126.8490254879 2927.99997329712 15 18 9
5.47050917521119 127.672150731087 2947.00002670288 15 18 9
13.4890023618937 127.411991357803 2940.99998474121 13 16 9
29.4174570590258 126.847848296165 2927.99997329712 12 15 8
37.2963361442089 126.45722925663 2918.99991035461 13 16 9
45.5601215362549 127.279445528984 2937.99996376038 14 16 11
53.8727417588234 127.97150015831 2953.9999961853 15 17 12
61.6015568375587 127.277091145515 2937.99996376038 15 17 12
69.2427605390549 126.582518219948 2921.99993133545 14 16 11
78.3555060625076 128.443673253059 2964.99991416931 13 15 10
87.090402841568 129.394918680191 2986.99998855591 12 14 9
96.00879997015 130.432575941086 3010.99991798401 12 14 9
103.050149977207 128.957584500313 2976.99999809265 8 10 5
109.905458986759 127.48247385025 2943.00007820129 8 10 5
116.294220089912 125.704020261765 2901.99995040894 11 13 8
134.318098425865 127.777740359306 2950.00004768372 12 14 9
142.608731985092 127.991303801537 2954.99992370605 11 14 7
158.410668373108 127.724930644035 2948.99988174438 12 15 8
166.342586278915 127.634823322296 2947.00002670288 13 16 9
174.026250839233 127.371311187744 2940.99998474121 13 16 7
181.738376617432 127.150967717171 2936.00010871887 15 18 9
190.844297409058 127.883195877075 2953.00006866455 17 20 11
198.897168040276 127.879038453102 2953.00006866455 18 21 12
205.757901072502 127.138569951057 2936.00010871887 18 21 12
212.379470467567 126.311376690865 2917.00005531311 17 20 9
223.88182580471 128.341898322105 2963.99998664856 17 20 9
229.378804564476 126.908242702484 2930.99999427795 15 18 7
239.149197936058 127.855852246284 2953.00006866455 16 19 10
243.932217359543 126.162245869637 2914.00003433228 18 21 12
253.687888383865 127.0662099123 2934.99994277954 19 22 13
262.397944927216 127.407163381577 2943.00007820129 21 24 15
273.263931274414 128.743588924408 2973.99997711182 20 23 14
274.93155002594 125.794276595116 2905.99989891052 28 31 24
-75.3686353564262 120.230354368687 2961.99989318848 23 24 16
-68.0551156401634 121.611945331097 2996.00005149841 19 20 12
-60.0959844887257 122.059747576714 3006.99996948242 19 20 12
-51.3863451778889 120.883725583553 2977.9999256134 16 17 9
-34.6892029047012 119.383580982685 2940.99998474121 17 20 9
-26.7774611711502 119.911916553974 2953.9999961853 16 19 10
-18.8643038272858 120.886623859406 2977.9999256134 15 18 9
-10.4595879092813 117.801830172539 2901.99995040894 17 20 11
-2.52139638178051 117.111876606941 2884.99999046326 17 20 11
5.46319968998432 119.466260075569 2943.00007820129 15 18 9
13.6131271719933 120.480887591839 2967.99993515015 14 17 10
29.6290684491396 119.708739221096 2948.99988174438 12 15 8
37.4632328748703 119.017966091633 2931.99992179871 12 15 8
45.6386283040047 119.463637471199 2943.00007820129 12 14 9
54.3845407664776 121.045716106892 2982.00011253357 11 13 8
61.4770576357841 119.014918804169 2931.99992179871 10 12 7
69.3153217434883 118.729442358017 2924.99995231628 8 10 5
77.7493342757225 119.417980313301 2941.99991226196 8 10 5
86.8006646633148 120.836958289146 2976.99999809265 8 10 5
94.990462064743 120.916277170181 2979.00009155273 8 10 5
102.740772068501 120.467789471149 2967.99993515015 6 8 3
109.310247004032 118.801489472389 2927.00004577637 7 9 4
116.33675545454 117.825098335743 2903.00011634827 11 13 8
124.815501272678 118.350245058537 2915.99988937378 12 14 9
134.184315800667 119.605794548988 2947.00002670288 12 14 9
151.949062943459 120.939284563065 2980.00001907349 10 13 6
160.132959485054 120.976708829403 2980.99994659424 11 14 7
166.797623038292 119.918279349804 2954.99992370605 12 15 8
174.680784344673 119.793094694614 2951.99990272522 14 17 8
182.546839118004 119.667761027813 2948.99988174438 15 18 9
189.555689692497 119.014784693718 2933.00008773804 17 20 11
197.756260633469 119.1326379776 2936.00010871887 18 21 12
206.743285059929 119.696661829948 2950.00004768372 18 21 12
211.437329649925 117.82605946064 2904.00004386902 17 20 9
222.451224923134 119.48523670435 2944.9999332428 17 20 9
228.992208838463 118.709921836853 2926.00011825562 17 20 9
236.643463373184 118.543028831482 2921.99993133545 17 20 11
246.029958128929 119.227938354015 2938.99989128113 19 22 13
265.167266130447 120.637722313404 2973.99997711182 20 23 14
-75.0647932291031 111.691579222679 2950.00004768372 22 23 15
-67.5794258713722 112.639479339123 2974.99990463257 19 20 12
-59.6574954688549 113.019332289696 2984.99989509583 17 18 10
-51.0422587394714 111.998096108437 2957.99994468689 17 18 10
-42.9664216935635 111.998990178108 2957.99994468689 17 20 9
-34.7134806215763 111.431792378426 2943.00007820129 16 19 8
-26.5604350715876 110.940165817738 2930.0000667572 14 17 8
-18.3198973536491 109.501779079437 2891.99995994568 14 17 8
-10.6688477098942 112.076789140701 2960.00003814697 15 18 9
-2.56864167749882 111.281767487526 2938.99989128113 17 20 11
5.44288847595453 111.016698181629 2931.99992179871 14 17 8
29.6196117997169 111.621506512165 2947.99995422363 11 14 7
37.6939810812473 111.696593463421 2950.00004768372 11 14 7
45.5774962902069 111.279293894768 2938.99989128113 12 14 9
54.6227134764194 113.398656249046 2994.99988555908 11 13 8
62.7573281526566 113.321803510189 2993.00003051758 9 11 6
69.9091479182243 111.692473292351 2950.00004768372 7 9 4
78.2001465559006 112.031795084476 2959.00011062622 7 9 4
93.6849564313889 111.233428120613 2937.99996376038 7 9 4
102.327398955822 111.913032829762 2956.00008964539 6 8 3
108.90157520771 110.396645963192 2915.99988937378 7 9 4
116.739802062511 110.280938446522 2913.00010681152 11 13 8
126.65855884552 112.020082771778 2959.00011062622 12 14 9
136.144891381264 113.191157579422 2990.00000953674 12 14 9
142.904087901115 112.090669572353 2960.99996566772 11 14 7
152.410954236984 113.14782500267 2989.00008201599 12 15 8
160.028666257858 112.766340374947 2979.00009155273 15 18 11
167.026683688164 112.006202340126 2959.00011062622 16 19 12
173.737406730652 111.132398247719 2936.00010871887 16 19 10
182.055175304413 111.318282783031 2940.99998474121 15 18 9
189.559370279312 111.012019217014 2933.00008773804 17 20 11
198.3662545681 111.462578177452 2944.9999332428 18 21 12
206.3267827034 111.420959234238 2944.00000572205 18 21 12
214.863479137421 111.681960523129 2950.99997520447 18 21 10
221.246913075447 110.845305025578 2928.99990081787 17 20 9
230.248779058456 111.333109438419 2941.99991226196 16 19 8
235.757127404213 110.155716538429 2911.00001335144 17 20 11
242.518663406372 109.621539711952 2897.0000743866 18 21 12
255.858808755875 112.000815570354 2960.00003814697 19 22 13
270.517945289612 111.385814845562 2944.00000572205 22 25 16
-74.7099369764328 103.147558867931 2936.00010871887 21 22 14
-66.785603761673 103.289350867271 2940.00005722046 22 23 15
-59.6186257898808 104.801177978516 2983.00004005432 17 18 10
-51.2675270438194 104.380562901497 2970.99995613098 20 21 13
-42.7057556807995 103.292271494865 2940.00005722046 16 19 8
-35.2331250905991 104.944244027138 2986.99998855591 16 19 8
-26.7875548452139 103.820510208607 2954.99992370605 15 18 9
-18.592631444335 103.118240833282 2934.99994277954 15 18 9
-10.5753298848867 103.083357214928 2934.00001525879 15 18 9
-2.58179940283298 103.786170482635 2953.9999961853 16 19 10
5.43742021545768 102.907784283161 2928.99990081787 14 17 8
13.3980726823211 102.62655466795 2921.0000038147 13 16 9
29.5799747109413 103.43386977911 2944.00000572205 11 14 7
38.014117628336 104.522399604321 2974.99990463257 10 13 6
45.8574928343296 103.889249265194 2957.00001716614 13 15 10
55.0796836614609 106.101751327515 3019.99998092651 12 14 9
63.1988272070885 105.889886617661 3013.99993896484 12 14 9
71.1427628993988 105.467110872269 3002.00009346008 10 12 7
78.4658789634705 104.306422173977 2969.00010108948 9 11 6
86.3957703113556 104.094170033932 2963.00005912781 7 9 4
101.325377821922 102.826125919819 2927.00004577637 5 7 2
108.530126512051 102.086536586285 2905.99989891052 6 8 3
117.904141545296 103.349186480045 2941.99991226196 10 12 7
134.417071938515 103.696011006832 2951.99990272522 10 12 7
142.665401101112 103.834092617035 2956.00008964539 12 15 8
151.393905282021 104.288138449192 2969.00010108948 13 16 9
158.957183361053 103.934168815613 2959.00011062622 14 17 10
164.545983076096 102.385848760605 2914.99996185303 15 18 11
172.438681125641 102.347798645496 2914.00003433228 15 18 9
181.129932403564 102.766171097755 2926.00011825562 14 17 8
190.855398774147 103.71121019125 2953.00006866455 16 19 10
199.3128657341 103.91853749752 2959.00011062622 17 20 11
207.381770014763 103.915020823479 2959.00011062622 17 20 11
212.901413440704 102.682262659073 2924.00002479553 16 19 8
223.970264196396 104.118272662163 2964.99991416931 16 19 8
230.331152677536 103.341825306416 2943.00007820129 18 21 10
233.979523181915 101.441703736782 2888.99993896484 18 21 12
243.862435221672 102.28031873703 2913.00010681152 18 21 12
254.65315580368 103.434726595879 2946.00009918213 19 22 13
260.3619992733 102.517507970333 2920.00007629395 19 22 13
278.241455554962 106.304615736008 3028.00011634827 20 23 14
-75.3219276666641 95.9108397364616 2960.00003814697 21 22 14
-67.581832408905 96.3980555534363 2974.99990463257 24 25 17
-51.4927394688129 96.6916382312775 2983.99996757507 20 21 13
-43.4618443250656 96.9516634941101 2992.00010299683 16 19 8
-35.0803881883621 96.3690355420113 2973.99997711182 16 19 8
-26.8514715135098 95.9806814789772 2961.99989318848 16 19 10
-18.8210066407919 96.272699534893 2970.99995613098 17 20 11
-10.6944590806961 96.1433276534081 2967.00000762939 16 19 10
-2.60369433090091 96.5323001146317 2979.00009155273 16 19 10
5.52662275731564 96.4674577116966 2976.99999809265 15 18 9
13.6918630450964 96.7265293002129 2984.99989509583 14 17 10
21.3592536747456 94.5875719189644 2918.99991035461 13 16 9
29.4900517910719 95.1056256890297 2934.99994277954 11 14 7
37.7975478768349 95.8503559231758 2957.99994468689 10 13 6
46.33903875947 96.8217775225639 2987.99991607666 10 13 6
54.186936467886 96.2700843811035 2970.99995613098 11 13 8
63.4305700659752 98.0188846588135 3025.00009536743 12 14 9
69.8879286646843 95.5551713705063 2948.99988174438 10 12 7
79.8150971531868 97.8545248508453 3019.99998092651 8 10 5
87.097056210041 96.7838764190674 2986.99998855591 5 7 2
94.7724878787994 96.2963625788689 2971.99988365173 6 8 3
105.238951742649 98.4979942440987 3039.99996185303 6 8 3
110.996894538403 96.2929949164391 2971.99988365173 7 9 4
118.387073278427 95.7079380750656 2953.9999961853 10 12 7
134.738102555275 95.8658084273338 2959.00011062622 9 11 6
142.378225922585 95.5719724297524 2950.00004768372 12 15 8
150.376603007317 95.5371931195259 2948.99988174438 11 14 7
157.885417342186 95.2107310295105 2938.99989128113 9 12 5
171.376377344131 93.8124507665634 2895.99990844727 12 15 6
180.57581782341 94.4898724555969 2917.00005531311 11 14 5
192.4097687006 96.4304134249687 2976.99999809265 12 15 6
199.989780783653 96.1681306362152 2969.00010108948 14 17 8
206.894591450691 95.6142395734787 2951.99990272522 14 17 8
215.817481279373 95.999538898468 2963.99998664856 14 17 8
224.804908037186 96.3846892118454 2976.0000705719 13 16 5
231.508940458298 95.798097550869 2957.99994468689 19 22 11
237.142041325569 94.8228165507317 2927.99997329712 19 22 13
243.950128555298 94.3656414747238 2914.00003433228 20 23 14
256.472617387772 96.0780009627342 2967.00000762939 20 23 14
271.997362375259 95.8430618047714 2960.00003814697 21 24 15
-76.0865211486816 88.7207314372063 2990.00000953674 22 25 16
-68.1735351681709 89.0482142567635 3000.99992752075 22 25 16
-59.1608919203281 87.83258497715 2960.00003814697 16 19 10
-51.3209849596024 88.2488414645195 2973.99997711182 16 19 8
-34.7624495625496 87.4489545822144 2947.00002670288 15 18 9
-27.1419901400805 88.8440981507301 2993.99995803833 15 18 9
-18.9226660877466 88.6367335915565 2986.99998855591 15 18 9
-10.8424136415124 89.26010876894 3007.99989700317 14 17 8
-2.62208981439471 89.0228152275085 3000 14 17 10
5.57497795671225 89.1118124127388 3003.00002098084 13 16 9
13.7333627790213 88.8446047902107 2993.99995803833 13 16 9
21.4986205101013 87.1825814247131 2937.99996376038 12 15 8
29.4101350009441 86.8557840585709 2927.00004577637 11 13 8
38.0537025630474 88.3686393499374 2977.9999256134 11 13 8
45.967560261488 87.9525765776634 2963.99998664856 11 14 7
53.5494312644005 87.1209725737572 2936.00010871887 11 14 7
60.6426708400249 85.8144760131836 2891.99995994568 10 12 7
71.1450949311256 89.0775099396706 3002.00009346008 9 11 8
78.177735209465 87.7707973122597 2957.99994468689 7 9 6
88.08983117342 89.638888835907 3020.99990844727 5 7 4
96.1133167147636 89.4298106431961 3013.99993896484 9 11 8
104.271277785301 89.3689543008804 3012.00008392334 10 12 9
113.911800086498 90.4948115348816 3049.99995231628 2 4 1
129.276216030121 89.6010771393776 3019.99998092651 14 17 10
143.056139349937 87.9355669021606 2963.99998664856 12 15 8
151.908755302429 88.3783996105194 2979.00009155273 11 14 7
159.82186794281 88.257409632206 2974.99990463257 11 14 7
166.01899266243 87.2463434934616 2940.99998474121 11 14 7
173.272714018822 86.8581831455231 2927.99997329712 11 14 7
180.392891168594 86.440272629261 2914.00003433228 11 14 7
193.705379962921 88.8995826244354 2996.99997901917 11 14 7
202.619895339012 89.2229452729225 3007.99989700317 11 14 7
209.070488810539 88.4784013032913 2983.00004005432 12 15 8
216.330468654633 88.1193578243256 2970.99995613098 13 16 9
224.506169557571 88.1458073854446 2971.99988365173 13 16 7
232.999533414841 88.2907658815384 2976.99999809265 16 19 8
240.061357617378 87.9017785191536 2963.99998664856 17 20 11
248.223423957825 87.927907705307 2964.99991416931 19 22 13
255.093365907669 87.5091105699539 2950.99997520447 21 24 15
259.924352169037 86.43788844347 2914.99996185303 22 25 16
271.909564733505 87.7387672662735 2959.00011062622 15 18 9
-75.0697255134583 79.4804915785789 2950.00004768372 25 28 19
-59.261679649353 79.8864662647247 2964.99991416931 18 21 12
-51.2699522078037 80.0488814711571 2970.99995613098 17 20 9
-43.0854670703411 79.914815723896 2966.00008010864 15 18 9
-35.0578539073467 80.0770074129105 2971.99988365173 15 18 9
-26.88854560256 79.915776848793 2966.00008010864 15 18 9
-18.9672838896513 80.670528113842 2993.99995803833 13 16 7
-10.8533846214414 81.1287760734558 3010.99991798401 13 16 7
-2.63086822815239 81.1019167304039 3009.99999046326 12 15 8
5.58062782511115 80.9941217303276 3006.00004196167 12 15 8
21.7257756739855 79.9968242645264 2969.00010108948 12 15 8
29.6919010579586 79.6192511916161 2954.99992370605 11 13 8
38.2075943052769 80.5618166923523 2990.00000953674 11 13 8
46.2628938257694 80.3726390004158 2983.00004005432 11 13 8
54.0608949959278 79.8600241541862 2963.99998664856 11 14 7
61.1048713326454 78.5120725631714 2914.00003433228 10 12 7
68.4206709265709 77.7837261557579 2887.00008392334 9 11 8
96.9119295477867 81.8755626678467 3039.00003433228 7 9 6
106.626875698566 82.9787701368332 3079.99992370605 6 8 5
113.689333200455 82.0073932409287 3043.99991035461 0 2 0
121.877409517765 81.9249674677849 3040.99988937378 13 15 10
131.46123290062 82.7314406633377 3071.00009918213 8 11 4
152.267873287201 80.4358944296837 2986.00006103516 11 14 7
159.55550968647 80.0027847290039 2970.00002861023 11 14 7
168.787434697151 80.5393010377884 2990.00000953674 11 14 7
175.405591726303 79.8366591334343 2963.99998664856 12 15 8
183.614581823349 79.8881202936172 2966.00008010864 12 15 8
192.221522331238 80.1010802388191 2973.99997711182 11 14 7
197.099134325981 78.8056775927544 2926.00011825562 11 14 7
206.269860267639 79.260841012001 2943.00007820129 12 15 8
215.532511472702 79.715870320797 2960.00003814697 13 16 9
223.678320646286 79.7398835420609 2960.99996566772 14 17 8
232.220068573952 79.8984467983246 2967.00000762939 17 20 9
239.011779427528 79.4644802808762 2950.99997520447 18 21 12
248.980343341827 80.0806060433388 2973.99997711182 19 22 13
259.332656860352 80.7773470878601 3000 19 22 13
-75.4778608679771 71.8142092227936 2966.00008010864 25 28 19
-59.1425262391567 71.6463774442673 2959.00011062622 18 21 12
-51.1843375861645 71.816548705101 2966.00008010864 20 23 12
-42.7228584885597 71.2117925286293 2940.99998474121 17 20 11
-34.8223820328712 71.4786127209663 2951.99990272522 17 20 11
-26.9251596182585 71.9148442149162 2970.00002861023 16 19 10
-18.999207764864 72.6173371076584 2999.00007247925 15 18 9
-10.7886428013444 72.4722295999527 2993.00003051758 14 17 8
-2.61953985318542 72.5691691040993 2996.99997901917 13 16 9
5.56399254128337 72.5691467523575 2996.99997901917 13 16 9
13.7750236317515 72.7143138647079 3003.00002098084 12 15 8
22.1358481794596 73.2468068599701 3025.00009536743 12 15 8
30.1243551075459 72.5926980376244 2997.99990653992 12 14 9
38.3742190897465 72.7133527398109 3003.00002098084 12 14 9
46.4340932667255 72.4949017167091 2993.99995803833 12 14 9
53.4596964716911 70.9688514471054 2930.99999427795 11 14 7
70.7915425300598 72.323240339756 2986.99998855591 9 11 8
89.8418501019478 74.5972394943237 3081.00008964539 7 9 6
97.3277539014816 73.8939419388771 3052.00004577637 2 4 1
113.6534512043 73.6734420061111 3042.99998283386 0 2 0
131.163269281387 74.1788744926453 3063.99989128113 8 11 4
144.508004188538 72.4808648228645 2993.99995803833 11 14 7
150.230035185814 71.3170617818832 2946.00009918213 11 14 7
157.730981707573 71.0731223225594 2936.00010871887 11 14 7
165.967017412186 71.1679756641388 2940.00005722046 11 14 7
175.467014312744 71.771077811718 2964.99991416931 12 15 8
183.616921305656 71.7931240797043 2966.00008010864 14 17 10
190.737351775169 71.4277848601341 2950.99997520447 13 16 9
197.505787014961 70.9655731916428 2931.99992179871 14 17 10
204.239889979362 70.5275014042854 2914.00003433228 15 18 11
214.952707290649 71.4446902275085 2951.99990272522 15 18 11
223.378986120224 71.5630874037743 2957.00001716614 16 19 10
230.892419815063 71.3909715414047 2950.00004768372 17 20 9
237.96184360981 71.0977986454964 2937.99996376038 18 21 12
261.497020721436 73.1971561908722 3025.00009536743 20 23 14
270.185708999634 73.3150169253349 3029.99997138977 21 24 15
-77.1328508853912 65.1128962635994 3030.99989891052 23 26 17
-68.2216286659241 64.5121783018112 3003.00002098084 18 21 12
-59.4230368733406 63.8684034347534 2973.00004959106 18 21 12
-50.8397929370403 63.2889717817307 2946.00009918213 20 23 12
-43.0574752390385 63.6761784553528 2963.99998664856 17 20 11
-35.4479998350143 64.5574182271957 3005.00011444092 17 20 11
-26.7441552132368 63.376173377037 2950.00004768372 16 19 10
-18.701670691371 63.4193867444992 2951.99990272522 16 19 10
-10.716674849391 63.8707056641579 2973.00004959106 15 18 9
-2.60733370669186 64.0856176614761 2983.00004005432 15 18 11
5.54177863523364 64.1285628080368 2984.99989509583 14 17 10
13.6559186503291 63.9565959572792 2976.99999809265 14 17 10
21.9751130789518 64.5149648189545 3003.00002098084 14 17 10
30.2050970494747 64.5791292190552 3006.00004196167 13 15 10
38.374662399292 64.5143091678619 3003.00002098084 13 15 10
46.0779219865799 63.8263821601868 2970.99995613098 10 13 6
53.8251176476479 63.3961707353592 2950.99997520447 10 13 6
70.3657642006874 63.7815073132515 2969.00010108948 9 11 8
78.4450769424438 63.7592077255249 2967.99993515015 8 10 7
86.4894539117813 63.7153461575508 2966.00008010864 7 9 6
95.8938151597977 64.595103263855 3006.99996948242 8 10 7
109.957158565521 63.2395371794701 2944.00000572205 5 7 4
119.555808603764 64.0760436654091 2983.00004005432 7 9 4
127.312034368515 63.8813748955727 2973.99997711182 11 14 7
135.109707713127 63.7295916676521 2967.00000762939 10 13 6
142.675533890724 63.4918287396431 2956.00008964539 11 14 7
149.109870195389 62.8029331564903 2924.00002479553 11 14 7
156.12106025219 62.4146722257137 2905.99989891052 11 14 7
166.025370359421 63.1646513938904 2940.99998474121 12 15 8
175.824090838432 63.8071298599243 2970.99995613098 13 16 9
183.804720640182 63.762255012989 2969.00010108948 13 16 9
190.998077392578 63.4595900774002 2954.99992370605 13 16 9
197.71009683609 63.0280077457428 2934.99994277954 13 16 9
205.223456025124 62.8755465149879 2927.99997329712 14 17 10
214.809507131577 63.3457377552986 2950.00004768372 15 18 11
224.741235375404 63.8802200555801 2974.99990463257 15 18 9
233.008295297623 63.9207512140274 2976.99999809265 16 19 8
270.367056131363 65.0910288095474 3032.00006484985 24 27 18
-78.0497789382935 57.5125850737095 3066.99991226196 21 24 15
-68.2450458407402 56.3318990170956 3003.99994850159 20 23 14
-59.3836680054665 55.7136796414852 2970.99995613098 18 21 12
-51.2372329831123 55.676706135273 2969.00010108948 19 22 11
-35.1416543126106 55.8650605380535 2979.00009155273 17 20 11
-27.2702518850565 56.4091950654984 3007.99989700317 16 19 10
-18.7272056937218 55.4342530667782 2956.00008964539 16 19 10
-10.6591088697314 55.453147739172 2957.00001716614 16 19 10
-2.61872331611812 56.1845898628235 2996.00005149841 15 18 11
5.51955727860332 55.7532496750355 2973.00004959106 15 18 11
21.6533597558737 55.4904490709305 2959.00011062622 14 17 10
38.1578169763088 55.9962019324303 2986.00006103516 12 14 9
45.9077917039394 55.508229881525 2960.00003814697 10 13 6
54.0627837181091 55.5827654898167 2963.99998664856 10 13 6
62.4281279742718 55.8259896934032 2976.99999809265 10 12 7
70.7456842064857 55.9753626585007 2984.99989509583 9 11 8
110.294438898563 55.3710088133812 2953.00006866455 0 1 0
117.633201181889 55.0324097275734 2934.99994277954 11 13 8
126.842439174652 55.5562637746334 2963.00005912781 8 11 4
135.019987821579 55.5925145745277 2964.99991416931 9 12 5
143.304452300072 55.6662045419216 2969.00010108948 10 13 6
152.426078915596 56.039784103632 2989.00008201599 10 13 6
156.444996595383 54.5947030186653 2911.99994087219 11 14 7
165.801241993904 55.0618804991245 2937.00003623962 12 15 8
176.062569022179 55.772677063942 2974.99990463257 13 16 9
184.85900759697 55.9772029519081 2986.00006103516 13 16 9
190.6768232584 55.3005896508694 2950.00004768372 13 16 9
198.587819933891 55.26128038764 2947.99995422363 13 16 9
206.76751434803 55.2968867123127 2950.00004768372 13 16 9
214.957267045975 55.3324148058891 2951.99990272522 15 18 11
223.383724689484 55.4241128265858 2957.00001716614 15 18 9
233.010604977608 55.7968616485596 2976.99999809265 15 18 7
244.635134935379 54.7616630792618 2921.99993133545 20 23 14
256.834357976913 55.67766726017 2970.99995613098 21 24 15
266.98112487793 56.1062954366207 2993.99995803833 22 25 16
-67.632257938385 47.697301954031 2976.99999809265 15 18 9
-59.1243542730808 47.3934002220631 2957.99994468689 23 26 17
-51.7381466925144 48.0347387492657 2997.99990653992 18 21 10
-43.5231700539589 48.0030924081802 2996.00005149841 16 19 10
-35.708200186491 48.5001057386398 3026.99995040894 15 18 9
-27.0529128611088 47.8113926947117 2983.99996757507 15 18 9
-18.8540797680616 47.6834028959274 2976.0000705719 16 19 10
-10.7060661539435 47.5873872637749 2970.00002861023 17 20 11
