ply
format ascii 1.0
comment KinectMotionCapture
element vertex 774
property float x
property float y
property float z
property uchar red
property uchar green
property uchar blue
end_header
-66.667303442955 431.631237268448 2940.00005722046 142 144 139
-58.4156401455402 429.873496294022 2927.99997329712 141 143 138
-50.2291806042194 428.115278482437 2915.99988937378 169 170 165
-42.1369485557079 426.650136709213 2905.99989891052 155 156 151
-34.0990722179413 425.184428691864 2895.99990844727 177 176 172
-26.1246282607317 423.865079879761 2887.00008392334 140 139 135
-18.2181224226952 422.9856133461 2881.00004196167 178 177 173
-10.3514483198524 422.399252653122 2877.00009346008 176 175 171
-2.50392477028072 421.371906995773 2869.99988555908 137 136 132
5.29803754761815 419.756829738617 2858.99996757507 145 144 140
13.0491750314832 418.434858322144 2849.99990463257 157 156 152
20.8023376762867 418.140113353729 2848.00004959106 143 142 138
28.5344887524843 417.69802570343 2845.00002861023 150 149 145
36.2629406154156 417.402297258377 2842.99993515015 142 141 137
44.0268032252789 417.546510696411 2844.00010108948 139 140 135
51.7413318157196 417.249709367752 2842.00000762939 140 141 136
59.4238452613354 416.805684566498 2838.99998664856 140 141 136
67.1134442090988 416.5078997612 2836.99989318848 141 142 137
74.8710483312607 416.650086641312 2838.00005912781 140 141 136
82.6047286391258 416.644960641861 2838.00005912781 138 139 134
90.3380960226059 416.63932800293 2838.00005912781 139 140 135
97.9674905538559 416.192829608917 2835.00003814697 144 145 140
105.580173432827 415.745824575424 2832.00001716614 142 143 138
113.336145877838 415.885478258133 2832.99994468689 139 140 135
121.18261307478 416.318327188492 2835.99996566772 138 139 134
129.09047305584 416.897416114807 2839.99991416931 137 138 133
136.778756976128 416.7420566082 2838.99998664856 139 141 138
144.51202750206 416.733026504517 2838.99998664856 140 142 139
152.512922883034 417.457461357117 2844.00010108948 146 148 145
160.765886306763 418.768435716629 2852.9999256134 150 152 149
169.008240103722 419.932126998901 2861.00006103516 149 151 148
177.170023322105 420.801788568497 2867.00010299683 155 157 154
185.234770178795 421.377271413803 2871.00005149841 178 180 177
193.522423505783 422.392666339874 2878.00002098084 150 152 149
201.497703790665 422.673672437668 2880.00011444092 145 147 144
209.628537297249 423.2477247715 2884.0000629425 168 170 167
218.006610870361 424.261510372162 2891.00003242493 185 187 184
226.73462331295 425.861805677414 2901.99995040894 178 183 179
235.683456063271 427.754998207092 2914.99996185303 163 168 164
245.203658938408 430.528104305267 2934.00001525879 142 147 143
-205.243095755577 428.542226552963 2974.99990463257 203 205 200
-196.480274200439 427.114307880402 2964.99991416931 180 182 177
-187.707737088203 425.541788339615 2953.9999961853 175 177 172
-179.480940103531 425.121158361435 2950.99997520447 158 159 154
-171.444162726402 425.132185220718 2950.99997520447 152 153 148
-163.628309965134 425.719052553177 2954.99992370605 142 143 138
-155.895367264748 426.593571901321 2960.99996566772 132 133 128
-148.378804326057 428.188025951386 2971.99988365173 135 134 130
-141.22661948204 431.078761816025 2992.00010299683 105 104 100
-133.96492600441 433.969050645828 3012.00008392334 93 94 89
-83.3152011036873 426.806300878525 2961.99989318848 0 2 0
-74.8619586229324 424.650013446808 2947.00002670288 138 140 135
-66.6035860776901 423.213541507721 2937.00003623962 137 139 134
-58.3795234560966 421.632498502731 2926.00011825562 177 179 174
-50.249669700861 420.33913731575 2917.00005531311 148 149 144
-42.1686843037605 419.045180082321 2907.99999237061 138 139 134
-34.1483913362026 417.894840240479 2900.00009536743 166 165 161
-26.162525638938 416.599869728088 2891.00003242493 141 140 136
-18.2445999234915 415.736645460129 2884.99999046326 183 182 178
-10.3665143251419 415.161192417145 2881.00004196167 158 157 153
-2.50496016815305 413.720548152924 2871.00005149841 143 142 138
5.30023500323296 412.135303020477 2859.99989509583 153 152 148
13.0637595430017 411.125987768173 2852.9999256134 148 147 143
20.8329074084759 410.980850458145 2851.99999809265 146 145 141
28.5965260118246 410.835117101669 2851.0000705719 149 148 144
36.3418273627758 410.544842481613 2848.99997711182 139 138 134
44.1070646047592 410.542249679565 2848.99997711182 136 137 132
51.8175140023232 410.106837749481 2845.99995613098 137 138 133
59.4486184418201 409.238636493683 2839.99991416931 138 139 134
67.1177878975868 408.802300691605 2836.99989318848 139 140 135
74.849508702755 408.797711133957 2836.99989318848 138 139 134
82.6100632548332 408.93679857254 2838.00005912781 137 138 133
90.3439298272133 408.931225538254 2838.00005912781 138 139 134
98.0774834752083 408.925235271454 2838.00005912781 144 145 140
105.810664594173 408.918708562851 2838.00005912781 140 141 136
113.62349241972 409.199833869934 2839.99991416931 136 137 132
121.446803212166 409.480512142181 2842.00000762939 136 137 132
129.280582070351 409.760683774948 2844.00010108948 135 136 131
137.17295229435 410.184413194656 2846.99988365173 137 139 136
144.979417324066 410.319566726685 2848.00004959106 137 139 136
152.951657772064 410.886377096176 2851.99999809265 144 146 143
161.2269282341 412.173062562943 2861.00006103516 146 148 145
169.373452663422 413.027048110962 2867.00010299683 141 143 140
177.490219473839 413.736432790756 2871.99997901917 132 134 131
185.310989618301 413.724988698959 2871.99997901917 155 157 154
193.534597754478 414.577454328537 2878.00002098084 156 158 155
201.580315828323 414.99724984169 2881.00004196167 145 147 144
209.932431578636 415.992796421051 2888.00001144409 155 157 154
218.397304415703 417.131721973419 2895.99990844727 165 167 164
227.295696735382 418.99037361145 2908.99991989136 180 185 181
236.102387309074 420.560389757156 2920.00007629395 183 188 184
245.30240893364 422.705918550491 2934.99994277954 148 153 149
-204.979866743088 419.897049665451 2970.99995613098 202 204 201
-196.29368185997 418.637424707413 2961.99989318848 179 181 178
-187.592327594757 417.235940694809 2951.99990272522 176 178 175
-179.370507597923 416.823238134384 2948.99988174438 153 155 152
-171.280607581139 416.692823171616 2947.99995422363 149 149 147
-163.527816534042 417.409986257553 2953.00006866455 144 144 142
-155.747205018997 418.126732110977 2957.99994468689 130 130 128
-148.238375782967 419.691205024719 2969.00010108948 127 127 125
-141.046702861786 422.386080026627 2987.99991607666 102 102 100
-83.489291369915 419.608175754547 2967.99993515015 128 130 125
-74.8921260237694 416.785597801209 2947.99995422363 32 34 29
-66.6305124759674 415.376305580139 2937.99996376038 114 116 111
-58.3034418523312 413.118124008179 2921.99993133545 169 171 166
-50.2184294164181 412.131935358047 2914.99996185303 163 164 158
-42.1713925898075 411.145210266113 2907.99999237061 134 135 129
-34.209456294775 410.723477602005 2904.99997138977 142 143 138
-26.1913537979126 409.170180559158 2894.00005340576 149 150 145
-18.2647444307804 408.323258161545 2888.00001144409 149 150 145
-10.3707760572433 407.475829124451 2881.99996948242 125 126 121
-2.50686565414071 406.203776597977 2872.99990653992 150 151 146
5.30798872932792 404.931217432022 2864.00008201599 156 157 152
13.0920736119151 404.223680496216 2858.99996757507 150 151 146
20.9145974367857 404.788106679916 2862.99991607666 158 159 154
28.698667883873 404.50382232666 2861.00006103516 138 137 133
36.4844836294651 404.360324144363 2859.99989509583 131 130 126
44.2027822136879 403.650879859924 2855.00001907349 134 135 130
51.8936663866043 402.94086933136 2849.99990463257 134 135 130
59.5152303576469 401.947677135468 2842.99993515015 135 136 131
67.2403797507286 401.80230140686 2842.00000762939 136 137 132
74.9862045049667 401.797771453857 2842.00000762939 136 137 132
82.7899947762489 402.075529098511 2844.00010108948 135 136 131
90.4133468866348 401.504546403885 2839.99991416931 137 138 133
98.2565134763718 401.922643184662 2842.99993515015 143 144 139
106.078393757343 402.199000120163 2845.00002861023 137 138 133
113.950788974762 402.616173028946 2848.00004959106 134 135 130
121.710903942585 402.608722448349 2848.00004959106 135 136 131
129.516050219536 402.742207050323 2848.99997711182 134 135 130
137.374371290207 403.016597032547 2851.0000705719 133 135 132
145.344898104668 403.573155403137 2855.00001907349 134 136 133
153.336718678474 404.129236936569 2858.99996757507 142 144 141
161.631554365158 405.391603708267 2868.00003051758 143 145 142
169.679448008537 405.946642160416 2871.99997901917 138 140 137
177.748516201973 406.501263380051 2875.99992752075 130 132 129
185.580641031265 406.489968299866 2875.99992752075 140 142 139
193.815633654594 407.326281070709 2881.99996948242 163 165 162
202.082619071007 408.162027597427 2888.00001144409 143 145 142
210.381582379341 408.997356891632 2894.00005340576 150 152 149
218.863278627396 410.114765167236 2901.99995040894 151 153 150
227.544099092484 411.514341831207 2911.99994087219 169 174 170
236.359462141991 413.054704666138 2923.00009727478 166 171 167
245.400980114937 414.8770570755 2936.00010871887 144 149 145
-204.095423221588 410.024702548981 2957.99994468689 204 206 203
-195.841804146767 409.621030092239 2954.99992370605 180 182 179
-187.476769089699 408.939599990845 2950.00004768372 177 179 176
-179.503247141838 409.089475870132 2950.99997520447 154 156 153
-171.523615717888 409.238874912262 2951.99990272522 145 145 143
-163.704097270966 409.803688526154 2956.00008964539 145 145 143
-155.914843082428 410.506695508957 2960.99996566772 130 130 128
-148.297503590584 411.763817071915 2970.00002861023 123 123 121
-140.913859009743 413.852393627167 2984.99989509583 96 96 94
-83.4664106369019 411.40541434288 2967.00000762939 144 146 141
-75.1509070396423 410.162389278412 2957.99994468689 15 17 12
-66.5666684508324 406.977593898773 2934.99994277954 26 28 23
-58.1674352288246 404.208183288574 2914.99996185303 161 163 158
-50.0665344297886 402.963608503342 2905.99989891052 146 147 141
-42.1015396714211 402.550548315048 2903.00011634827 146 147 141
-34.1880656778812 402.552932500839 2903.00011634827 136 137 132
-26.2201614677906 401.722818613052 2897.0000743866 147 148 143
-18.284872174263 400.892168283463 2891.00003242493 129 130 125
-10.3786308318377 399.922400712967 2884.0000629425 123 124 119
-2.50789686106145 398.536086082459 2874.00007247925 154 155 150
5.30647020787001 397.010624408722 2862.99991607666 146 147 142
13.0974799394608 396.594047546387 2859.99989509583 164 165 160
20.9451448172331 397.563695907593 2867.00010299683 155 156 151
28.780734166503 397.839456796646 2868.99995803833 120 121 116
36.5760922431946 397.560060024261 2867.00010299683 134 135 130
44.2829951643944 396.586835384369 2859.99989509583 131 132 127
51.9697777926922 395.751863718033 2854.00009155273 131 132 127
59.6445873379707 395.054996013641 2848.99997711182 132 133 128
67.4575641751289 395.328372716904 2851.0000705719 133 134 129
75.2020180225372 395.185232162476 2849.99990463257 132 133 128
82.9698666930199 395.180314779282 2849.99990463257 131 132 127
90.5782207846642 394.481629133224 2845.00002861023 136 137 132
98.4700545668602 395.030319690704 2848.99997711182 141 142 137
106.383331120014 395.578593015671 2852.9999256134 132 133 128
114.197991788387 395.710378885269 2854.00009155273 130 131 126
121.889464557171 395.425766706467 2851.99999809265 134 135 130
129.615053534508 395.279347896576 2851.0000705719 134 135 130
137.575671076775 395.825684070587 2855.00001907349 130 132 127
145.45576274395 396.0942029953 2857.00011253357 131 133 128
153.614401817322 397.055447101593 2864.00008201599 142 144 139
161.697909235954 397.738933563232 2868.99995803833 144 146 141
169.748991727829 398.283243179321 2872.99990653992 137 139 134
177.883103489876 398.965775966644 2878.00002098084 127 129 124
185.850188136101 399.231940507889 2880.00011444092 115 117 112
194.163784384727 400.190681219101 2887.00008392334 172 174 169
202.374875545502 400.871694087982 2891.99995994568 133 135 130
210.612520575523 401.552259922028 2897.0000743866 148 150 145
218.952015042305 402.370899915695 2903.00011634827 142 144 139
227.479755878448 403.466314077377 2911.00001335144 156 161 157
236.131146550179 404.699772596359 2920.00007629395 169 174 170
245.081424713135 406.348437070847 2931.99992179871 143 148 144
-204.245746135712 402.260184288025 2960.00003814697 202 207 203
-195.853650569916 401.592642068863 2954.99992370605 183 185 182
-187.551692128181 401.060611009598 2950.99997520447 178 180 177
-179.514139890671 401.071637868881 2950.99997520447 152 154 151
-171.70837521553 401.625841856003 2954.99992370605 153 155 152
-163.824856281281 402.04381942749 2957.99994468689 143 143 141
-156.082347035408 402.869015932083 2963.99998664856 132 132 130
-148.356527090073 403.82969379425 2970.99995613098 111 111 109
-141.016945242882 406.013339757919 2986.99998855591 88 88 86
-75.7653564214706 405.38677573204 2982.00011253357 8 10 5
-66.4573982357979 398.321986198425 2930.0000667572 22 25 18
-58.0513216555119 395.470947027206 2908.99991989136 112 115 108
-50.0007309019566 394.522607326508 2901.99995040894 150 151 145
-42.0461408793926 394.117623567581 2898.9999294281 164 165 160
-34.1313034296036 393.983989953995 2898.00000190735 136 137 132
-26.2127406895161 393.713980913162 2895.99990844727 183 184 179
-18.2860121130943 393.035590648651 2891.00003242493 119 120 115
-10.3792771697044 392.084836959839 2884.0000629425 145 146 141
-2.50805332325399 390.72573184967 2874.00007247925 150 151 146
5.31792314723134 390.045881271362 2868.99995803833 149 150 145
13.144095428288 390.18127322197 2869.99988555908 157 158 153
20.9975913167 390.724033117294 2874.00007247925 120 121 116
28.8226548582315 390.586525201797 2872.99990653992 125 126 121
36.6038829088211 390.040665864944 2868.99995803833 132 133 128
44.3321987986565 389.22244310379 2862.99991607666 129 130 125
52.0822629332542 388.811647891998 2859.99989509583 129 130 125
59.7948506474495 388.264387845993 2855.99994659424 130 131 126
67.6510408520699 388.668298721313 2858.99996757507 131 132 127
75.4177942872047 388.527989387512 2858.00004005432 131 132 127
83.1496939063072 388.25124502182 2855.99994659424 132 133 128
90.7430201768875 387.430220842361 2849.99990463257 142 143 138
98.5798388719559 387.696295976639 2851.99999809265 135 136 131
106.427192687988 387.96192407608 2854.00009155273 126 127 122
114.205025136471 387.955129146576 2854.00009155273 131 132 127
121.98244780302 387.94794678688 2854.00009155273 128 129 124
129.804894328117 388.076186180115 2855.00001907349 135 136 131
137.728676199913 388.475775718689 2858.00004005432 128 130 125
145.71924507618 389.010906219482 2861.99998855591 131 133 128
153.838351368904 389.817327260971 2868.00003051758 138 140 135
161.933213472366 390.487283468246 2872.99990653992 135 137 132
169.93659734726 390.885055065155 2875.99992752075 144 146 141
178.017526865005 391.418218612671 2880.00011444092 127 129 124
186.119586229324 391.950875520706 2884.0000629425 132 134 129
194.175526499748 392.347157001495 2887.00008392334 168 170 165
202.387079596519 393.014758825302 2891.99995994568 128 130 125
210.479751229286 393.410116434097 2894.99998092651 144 146 141
218.889698386192 394.348561763763 2901.99995040894 128 130 125
227.337032556534 395.286500453949 2908.99991989136 143 148 144
236.306935548782 397.039234638214 2921.99993133545 163 168 164
245.597526431084 399.199038743973 2937.99996376038 130 135 131
257.132291793823 404.754996299744 2979.00009155273 26 31 27
-204.602926969528 394.882947206497 2964.99991416931 196 201 197
-196.196734905243 394.228875637054 2960.00003814697 179 184 180
-187.880709767342 393.707543611526 2956.00008964539 173 178 174
-179.768219590187 393.585234880447 2954.99992370605 148 150 147
-171.834915876389 393.862098455429 2957.00001716614 150 152 149
-164.000853896141 394.404858350754 2960.99996566772 141 143 140
-156.144425272942 394.947230815887 2964.99991416931 136 138 135
-148.465350270271 396.021991968155 2973.00004959106 111 111 109
-92.0888334512711 397.538036108017 2983.99996757507 21 23 18
-75.6937563419342 396.882116794586 2979.00009155273 25 28 21
-65.9851133823395 387.560456991196 2908.99991989136 28 31 24
-58.0947920680046 387.830704450607 2911.00001335144 23 26 19
-49.9348714947701 386.102020740509 2898.00000190735 25 26 20
-41.9471859931946 385.305434465408 2891.99995994568 128 129 124
-34.0273901820183 384.908020496368 2888.99993896484 182 183 178
-26.1600390076637 385.043084621429 2890.00010490417 145 146 141
-18.2681567966938 384.777963161469 2888.00001144409 137 138 133
-10.3763146325946 384.112685918808 2882.99989700317 144 145 140
-2.51169805414975 383.446931838989 2878.00002098084 166 167 162
5.32751809805632 382.913917303085 2874.00007247925 168 169 164
13.1723824888468 383.179754018784 2875.99992752075 110 111 106
21.0061836987734 383.045494556427 2875 121 122 117
28.8143884390593 382.644295692444 2871.99997901917 132 133 128
36.5806110203266 381.976157426834 2867.00010299683 128 129 124
44.3968623876572 381.973683834076 2867.00010299683 130 131 126
52.158311009407 381.571084260941 2864.00008201599 127 128 123
59.9241442978382 381.301194429398 2861.99998855591 128 129 124
67.7498355507851 381.43053650856 2862.99991607666 130 131 126
75.5015760660172 381.159782409668 2861.00006103516 124 125 120
83.2421183586121 380.888491868973 2858.99996757507 135 136 131
90.9396037459373 380.483567714691 2855.99994659424 145 146 141
98.8623797893524 381.010681390762 2859.99989509583 122 123 118
106.732003390789 381.270945072174 2861.99998855591 125 126 121
114.452071487904 380.997806787491 2859.99989509583 131 132 127
122.203558683395 380.85749745369 2858.99996757507 133 134 129
130.085542798042 381.116330623627 2861.00006103516 131 132 127
137.977957725525 381.374686956406 2862.99991607666 129 131 126
145.931705832481 381.765812635422 2865.9999370575 130 132 127
153.901234269142 382.15646147728 2868.99995803833 135 137 132
161.942943930626 382.67982006073 2872.99990653992 134 136 131
170.00587284565 383.202761411667 2877.00009346008 144 146 141
178.089991211891 383.725166320801 2881.00004196167 128 130 125
186.259746551514 384.380280971527 2885.99991798401 125 127 122
194.187074899673 384.50226187706 2887.00008392334 153 155 150
202.189147472382 384.756952524185 2888.99993896484 122 124 119
209.983259439468 384.611636400223 2888.00001144409 137 139 134
218.450054526329 385.664433240891 2895.99990844727 131 133 128
227.115958929062 386.983096599579 2905.99989891052 82 87 83
236.078172922134 388.700723648071 2918.99991035461 15 20 16
246.447876095772 392.548322677612 2947.99995422363 19 24 20
256.19775056839 395.196825265884 2967.99993515015 21 26 22
-205.650061368942 388.781934976578 2980.00001907349 200 204 203
-196.605980396271 386.967062950134 2966.00008010864 182 186 185
-188.082426786423 386.065036058426 2959.00011062622 176 181 177
-179.717987775803 385.423362255096 2953.9999961853 151 153 150
-171.786949038506 385.694622993469 2956.00008964539 149 151 148
-163.789004087448 385.834932327271 2957.00001716614 149 151 148
-155.995681881905 386.496722698212 2961.99989318848 141 143 140
-148.524135351181 388.071596622467 2973.99997711182 115 115 113
-92.5264433026314 391.253530979156 2997.99990653992 12 14 9
-84.1288417577744 390.214741230011 2990.00000953674 32 35 28
-50.1618981361389 379.92051243782 2911.00001335144 11 12 6
-41.9062003493309 377.051949501038 2888.99993896484 45 46 41
-33.9469984173775 376.140683889389 2881.99996948242 164 165 160
-26.089197024703 376.14244222641 2881.99996948242 108 109 104
-18.2313043624163 376.143783330917 2881.99996948242 151 152 147
-10.3697441518307 376.014143228531 2881.00004196167 137 138 133
-2.5144680403173 376.014530658722 2881.00004196167 185 186 181
5.33710839226842 375.753402709961 2878.99994850159 135 136 131
13.1914997473359 375.883370637894 2880.00011444092 112 113 108
21.022068336606 375.490784645081 2877.00009346008 130 131 126
28.8261622190475 374.967247247696 2872.99990653992 127 128 123
36.5955792367458 374.312728643417 2868.00003051758 128 129 124
44.4150231778622 374.310284852982 2868.00003051758 131 132 127
52.2343032062054 374.30739402771 2868.00003051758 127 128 123
60.0324496626854 374.173551797867 2867.00010299683 127 128 123
67.7775889635086 373.778194189072 2864.00008201599 128 129 124
75.5061134696007 373.382389545441 2861.00006103516 123 124 119
83.2762271165848 373.247087001801 2859.99989509583 141 142 137
91.0405814647675 373.111397027969 2858.99996757507 141 142 137
98.9028811454773 373.36677312851 2861.00006103516 123 124 119
106.775686144829 373.621672391891 2862.99991607666 130 131 126
114.578977227211 373.615086078644 2862.99991607666 129 130 125
122.424580156803 373.738586902618 2864.00008201599 132 133 128
130.138769745827 373.470097780228 2861.99998855591 127 128 123
138.034373521805 373.723208904266 2864.00008201599 126 128 123
145.838543772697 373.714864253998 2864.00008201599 128 130 125
153.910383582115 374.358415603638 2868.99995803833 133 135 130
162.065267562866 375.132024288177 2875 132 134 129
170.074999332428 375.513702630997 2878.00002098084 139 141 136
177.976831793785 375.634044408798 2878.99994850159 122 124 119
185.947984457016 375.884354114532 2881.00004196167 115 117 112
193.862125277519 376.00377202034 2881.99996948242 153 155 150
201.851025223732 376.253217458725 2884.0000629425 119 121 116
209.63191986084 376.110821962357 2882.99989700317 124 126 121
218.387320637703 377.663910388947 2894.99998092651 137 139 134
227.285459637642 379.346996545792 2907.99999237061 14 19 15
236.010953783989 380.638122558594 2917.99998283386 7 12 8
245.542481541634 383.102804422379 2937.00003623962 29 34 30
255.176603794098 385.566800832748 2956.00008964539 49 54 50
-205.868929624557 381.06507062912 2983.00004005432 197 201 200
-196.418464183807 378.521621227264 2963.00005912781 180 184 183
-188.093319535255 378.021627664566 2959.00011062622 171 175 174
-179.910928010941 377.776682376862 2957.00001716614 155 159 158
-171.855032444 377.786785364151 2957.00001716614 151 153 152
-163.743168115616 377.668768167496 2956.00008964539 145 147 146
-155.794098973274 377.933502197266 2957.99994468689 139 141 140
-148.432910442352 379.731059074402 2971.99988365173 122 124 123
-50.4405982792377 374.050378799438 2927.00004577637 36 37 31
-41.8796800076962 368.941366672516 2887.00008392334 14 16 11
-33.9136719703674 367.921233177185 2878.99994850159 30 32 27
-26.0364301502705 367.539584636688 2875.99992752075 9 11 6
-18.1817784905434 367.285341024399 2874.00007247925 130 132 127
-10.3415623307228 367.158353328705 2872.99990653992 180 182 177
-2.51112645491958 367.669939994812 2877.00009346008 104 106 101
5.33557217568159 367.797642946243 2878.00002098084 104 106 101
13.1877036765218 367.924869060516 2878.99994850159 132 134 129
21.0087019950151 367.412656545639 2875 128 130 125
28.8178417831659 367.027878761292 2871.99997901917 132 134 129
36.5977548062801 366.514772176743 2868.00003051758 137 139 134
44.3866886198521 366.256773471832 2865.9999370575 131 132 127
52.1827600896358 366.126120090485 2865.00000953674 129 130 125
60.0569471716881 366.506218910217 2868.00003051758 127 128 123
67.8526014089584 366.374671459198 2867.00010299683 125 126 121
75.642541050911 366.242647171021 2865.9999370575 127 128 123
83.3685174584389 365.854620933533 2862.99991607666 144 145 140
91.1733508110046 365.849494934082 2862.99991607666 115 116 111
99.0124344825745 365.971773862839 2864.00008201599 126 127 122
106.85657709837 366.093516349792 2865.00000953674 130 131 126
114.705786108971 366.214781999588 2865.9999370575 126 127 122
122.560024261475 366.335690021515 2867.00010299683 128 129 124
130.328297615051 366.200536489487 2865.9999370575 126 127 122
138.138845562935 366.192728281021 2865.9999370575 124 127 120
145.79613506794 365.801155567169 2862.99991607666 126 129 122
153.758406639099 366.175800561905 2865.9999370575 127 130 123
161.849230527878 366.805523633957 2871.00005149841 127 130 123
169.966697692871 367.434769868851 2875.99992752075 129 132 125
177.801683545113 367.424756288528 2875.99992752075 113 116 109
185.829639434814 367.797553539276 2878.99994850159 101 104 97
193.671494722366 367.786705493927 2878.99994850159 130 133 126
201.582670211792 367.903172969818 2880.00011444092 81 84 77
209.280371665955 367.63596534729 2878.00002098084 3 6 0
217.569962143898 368.390262126923 2884.0000629425 14 17 10
224.250063300133 366.461724042892 2868.99995803833 12 17 13
234.325766563416 370.025187730789 2897.0000743866 18 23 19
243.298962712288 371.6721534729 2910.00008583069 16 21 17
254.327714443207 376.256108283997 2946.00009918213 47 52 48
-205.949619412422 373.08058142662 2983.99996757507 201 205 204
-196.562185883522 370.716273784637 2964.99991416931 180 184 183
-188.231140375137 370.227009057999 2960.99996566772 171 175 174
-179.921209812164 369.737327098846 2957.00001716614 163 167 166
-171.922996640205 369.872272014618 2957.99994468689 152 154 153
-163.641735911369 369.381606578827 2953.9999961853 149 151 150
-155.803069472313 369.89089846611 2957.99994468689 151 153 152
-148.441448807716 371.650248765945 2971.99988365173 129 131 130
-75.0210285186768 369.206637144089 2951.99990272522 30 33 26
-65.8380463719368 362.957209348679 2901.99995040894 30 33 26
-41.7805723845959 360.214948654175 2880.00011444092 22 24 19
-33.7742939591408 358.591198921204 2867.00010299683 11 13 8
-25.9926859289408 359.093189239502 2871.00005149841 20 22 17
-18.1385558098555 358.594179153442 2867.00010299683 132 134 129
-10.3241689503193 358.720064163208 2868.00003051758 152 154 149
-2.50516296364367 358.970582485199 2869.99988555908 91 93 88
5.32475998625159 359.220653772354 2871.99997901917 115 117 112
13.1609896197915 359.345197677612 2872.99990653992 131 133 128
20.9807008504868 359.094083309174 2871.00005149841 127 129 124
28.799457475543 358.967542648315 2869.99988555908 139 141 136
36.6126485168934 358.840554952621 2868.99995803833 136 138 133
44.4357469677925 358.838230371475 2868.99995803833 129 130 125
52.2586666047573 358.835428953171 2868.99995803833 130 131 126
60.1023323833942 358.957231044769 2869.99988555908 129 130 125
67.8802207112312 358.703374862671 2868.00003051758 125 126 121
75.6469443440437 358.449101448059 2865.9999370575 130 131 126
83.4024921059608 358.194410800934 2864.00008201599 136 137 132
91.274194419384 358.439475297928 2865.9999370575 113 114 109
99.0181714296341 358.183890581131 2864.00008201599 129 130 125
106.750875711441 357.927888631821 2861.99998855591 126 127 122
114.552319049835 357.921481132507 2861.99998855591 128 129 124
122.438840568066 358.164817094803 2864.00008201599 125 126 121
130.244866013527 358.157575130463 2864.00008201599 125 126 121
138.050422072411 358.149945735931 2864.00008201599 122 125 118
145.702660083771 357.766717672348 2861.00006103516 122 125 118
153.659924864769 358.133345842361 2864.00008201599 119 122 115
161.463856697083 358.124375343323 2864.00008201599 121 124 117
169.621795415878 358.865201473236 2869.99988555908 125 128 121
177.502691745758 358.980476856232 2871.00005149841 94 97 90
185.646563768387 359.595358371735 2875.99992752075 104 107 100
193.547964096069 359.709709882736 2877.00009346008 53 56 49
201.524049043655 359.948664903641 2878.99994850159 14 17 10
208.928599953651 359.187006950378 2872.99990653992 22 25 18
216.375097632408 358.550041913986 2868.00003051758 12 15 8
225.122511386871 360.037952661514 2880.00011444092 12 17 13
235.066890716553 363.275438547134 2905.99989891052 27 32 28
245.151996612549 366.512268781662 2931.99992179871 32 37 33
-205.892071127892 364.844739437103 2983.00004005432 208 208 208
-196.573153138161 362.654209136963 2964.99991416931 161 163 162
-188.114523887634 361.931025981903 2959.00011062622 149 151 150
-179.870456457138 361.574321985245 2956.00008964539 150 155 151
-171.758279204369 361.461758613586 2954.99992370605 152 157 153
-163.761749863625 361.593425273895 2956.00008964539 147 153 149
-155.864536762238 361.969351768494 2959.00011062622 140 146 142
-148.349955677986 363.323479890823 2970.00002861023 102 111 108
-82.9615741968155 360.684096813202 2947.99995422363 11 14 7
-73.7291574478149 354.938089847565 2901.00002288818 30 33 26
-66.8174102902412 360.325515270233 2944.9999332428 27 30 23
-25.7497206330299 347.980886697769 2844.00010108948 17 18 10
-18.1142892688513 350.306868553162 2862.99991607666 7 8 2
-10.3067625313997 350.307673215866 2862.99991607666 22 23 17
-2.50094244256616 350.552767515183 2865.00000953674 132 133 127
5.31764980405569 350.919753313065 2868.00003051758 125 128 121
13.1388390436769 350.919216871262 2868.00003051758 128 131 124
20.9380555897951 350.551158189774 2865.00000953674 133 136 129
28.7509337067604 350.549757480621 2865.00000953674 136 138 133
36.5637056529522 350.547939538956 2865.00000953674 130 132 127
44.3763397634029 350.545614957809 2865.00000953674 126 128 123
52.2252321243286 350.787580013275 2867.00010299683 125 130 124
60.0429512560368 350.78439116478 2867.00010299683 127 129 124
67.9077729582787 351.025432348251 2868.99995803833 135 137 132
75.6512805819511 350.65433382988 2865.9999370575 136 141 135
83.4072604775429 350.405126810074 2864.00008201599 112 117 111
91.1838486790657 350.277811288834 2862.99991607666 133 135 130
98.9546626806259 350.15007853508 2861.99998855591 134 135 130
106.645040214062 349.77725148201 2858.99996757507 124 126 121
114.438749849796 349.771022796631 2858.99996757507 129 131 126
122.232027351856 349.764376878738 2858.99996757507 123 124 119
130.161300301552 350.124299526215 2861.99998855591 122 124 119
137.961804866791 350.116759538651 2861.99998855591 120 123 116
145.81273496151 350.231111049652 2862.99991607666 117 120 113
153.72222661972 350.467383861542 2865.00000953674 112 115 108
161.360159516335 350.091606378555 2861.99998855591 115 118 111
169.276684522629 350.32707452774 2864.00008201599 122 125 118
177.141636610031 350.439757108688 2865.00000953674 95 98 91
185.33419072628 351.163625717163 2871.00005149841 12 15 8
193.693280220032 352.131605148315 2878.99994850159 13 16 9
201.7452865839 352.487653493881 2881.99996948242 12 15 8
208.867460489273 351.253271102905 2871.99997901917 21 24 17
214.500844478607 347.694903612137 2842.99993515015 20 23 16
223.415121436119 349.517375230789 2858.00004005432 45 50 44
236.212357878685 357.086986303329 2920.00007629395 30 35 31
244.496524333954 357.563018798828 2924.00002479553 20 25 21
-206.662595272064 358.048111200333 2993.99995803833 203 203 203
-196.650236845016 354.710549116135 2966.00008010864 197 199 198
-188.188433647156 354.003459215164 2960.00003814697 190 192 189
-179.819494485855 353.4155189991 2954.99992370605 159 164 160
-171.825900673866 353.54471206665 2956.00008964539 158 163 159
-163.881614804268 353.793084621429 2957.99994468689 150 156 152
-155.97853064537 354.160726070404 2960.99996566772 141 150 145
-148.308247327805 355.125963687897 2969.00010108948 112 123 119
-82.656666636467 351.349174976349 2937.00003623962 18 21 14
-74.3432939052582 349.917948246002 2924.99995231628 32 35 28
-64.9379342794418 342.385143041611 2861.99998855591 28 31 24
-57.2133958339691 342.86704659462 2865.9999370575 17 20 13
-10.3145437315106 342.75871515274 2865.00000953674 2 3 0
-2.50108353793621 342.759072780609 2865.00000953674 94 95 89
5.31053263694048 342.6393866539 2864.00008201599 123 126 119
13.1120923906565 342.399626970291 2861.99998855591 135 138 131
20.902693271637 342.159360647202 2859.99989509583 136 139 132
28.7224482744932 342.3972427845 2861.99998855591 115 117 112
36.5530103445053 342.634737491608 2864.00008201599 111 113 108
44.3788394331932 342.752069234848 2865.00000953674 113 118 112
52.2281751036644 342.988640069962 2867.00010299683 117 122 116
60.0253827869892 342.865854501724 2865.9999370575 121 126 120
67.7932500839233 342.623054981232 2864.00008201599 127 132 126
75.5235403776169 342.260181903839 2861.00006103516 126 131 125
83.3245664834976 342.255771160126 2861.00006103516 114 119 113
91.093398630619 342.13125705719 2859.99989509583 117 122 116
98.8564714789391 342.006355524063 2858.99996757507 132 137 131
106.539100408554 341.641813516617 2855.99994659424 125 130 124
114.285044372082 341.516077518463 2855.00001907349 117 122 116
122.025072574615 341.389924287796 2854.00009155273 116 121 115
129.895657300949 341.622173786163 2855.99994659424 111 116 110
137.87305355072 342.093259096146 2859.99989509583 112 114 109
145.718991756439 342.205107212067 2861.00006103516 105 107 102
153.623431921005 342.436075210571 2862.99991607666 94 97 90
161.199942231178 341.949015855789 2858.99996757507 49 52 45
169.049590826035 342.059552669525 2859.99989509583 1 4 0
176.656737923622 341.691344976425 2857.00011253357 17 20 13
184.311434626579 341.442316770554 2855.00001907349 17 20 11
193.636611104012 344.182670116425 2878.00002098084 14 17 8
202.946394681931 346.683293581009 2898.9999294281 19 22 13
210.260704159737 345.715463161469 2891.00003242493 9 12 3
212.324365973473 336.496293544769 2813.99989128113 19 22 13
234.607145190239 346.755772829056 2900.00009536743 12 15 8
-196.727126836777 346.760153770447 2967.00000762939 187 189 186
-188.262179493904 346.06921672821 2960.99996566772 176 178 173
-179.950937628746 345.611542463303 2957.00001716614 166 167 161
-171.951457858086 345.737844705582 2957.99994468689 162 163 158
-164.00134563446 345.980674028397 2960.00003814697 155 157 152
-156.145051121712 346.456825733185 2963.99998664856 148 151 144
-148.516148328781 347.517043352127 2973.00004959106 127 132 126
-91.348871588707 345.926016569138 2959.00011062622 7 9 4
-82.520492374897 342.774242162704 2931.99992179871 21 24 17
-72.9748383164406 335.647076368332 2871.00005149841 26 29 22
-64.5784661173821 332.728087902069 2845.99995613098 26 29 22
-56.7573979496956 332.380682229996 2842.99993515015 23 26 19
-48.9869453012943 332.26665854454 2842.00000762939 21 24 15
-40.3076633810997 324.786633253098 2778.00011634827 12 13 5
-10.279112495482 333.794683218002 2855.00001907349 15 16 8
-2.50296830199659 335.198044776917 2867.00010299683 20 21 15
5.31639065593481 335.197955369949 2867.00010299683 84 87 80
13.1173999980092 334.729760885239 2862.99991607666 135 138 131
20.9038518369198 334.378093481064 2859.99989509583 111 114 107
28.7039689719677 334.376752376556 2859.99989509583 111 113 108
36.5167409181595 334.49187874794 2861.00006103516 115 117 112
44.3193316459656 334.489643573761 2861.00006103516 111 116 110
52.1399714052677 334.603935480118 2861.99998855591 116 121 115
59.9239803850651 334.483951330185 2861.00006103516 124 129 123
67.7259787917137 334.480434656143 2861.00006103516 128 133 127
75.4749029874802 334.242671728134 2858.99996757507 124 129 123
83.2709074020386 334.23838019371 2858.99996757507 123 128 122
91.002881526947 333.999812602997 2857.00011253357 119 124 118
98.7236052751541 333.76082777977 2855.00001907349 122 127 121
106.433026492596 333.521395921707 2852.9999256134 110 115 109
114.211224019527 333.515405654907 2852.9999256134 121 126 120
121.946237981319 333.392113447189 2851.99999809265 113 118 112
129.81179356575 333.619087934494 2854.00009155273 94 99 93
137.735962867737 333.962559700012 2857.00011253357 110 112 107
145.57409286499 334.071755409241 2858.00004005432 54 56 51
153.36349606514 334.063738584518 2858.00004005432 14 17 10
161.547005176544 334.87343788147 2865.00000953674 34 37 30
169.4725304842 335.09835600853 2867.00010299683 19 22 15
177.903011441231 336.257815361023 2877.00009346008 16 19 12
184.70872938633 334.378093481064 2861.00006103516 17 20 11
193.647027015686 336.354821920395 2878.00002098084 12 15 6
201.837137341499 336.92866563797 2882.99989700317 2 5 0
210.4901522398 338.203251361847 2894.00005340576 10 13 4
218.070432543755 337.724447250366 2890.00010490417 19 22 13
234.457775950432 338.635444641113 2898.00000190735 21 24 17
237.74890601635 332.196325063705 2842.99993515015 28 30 25
-205.856204032898 340.390712022781 2982.00011253357 198 202 201
-196.870133280754 338.917285203934 2969.00010108948 201 203 200
-188.462883234024 338.356584310532 2963.99998664856 193 194 189
-180.26477098465 338.137954473495 2961.99989318848 177 177 169
-172.193139791489 338.147193193436 2961.99989318848 164 163 158
-164.010062813759 337.927758693695 2960.00003814697 157 156 151
-156.048014760017 338.164508342743 2961.99989318848 150 150 142
-148.424163460732 339.200109243393 2970.99995613098 138 139 133
-91.1994427442551 337.303727865219 2953.9999961853 12 14 9
-84.0729996562004 341.076523065567 2986.99998855591 20 23 16
-73.3092427253723 329.319447278976 2884.0000629425 23 26 19
-64.6954253315926 325.55490732193 2851.0000705719 25 28 21
-56.8403266370296 325.101375579834 2846.99988365173 25 28 21
-49.1619855165482 325.675219297409 2851.99999809265 23 26 19
-40.9192852675915 322.023451328278 2819.9999332428 13 14 6
-2.5100891944021 328.310042619705 2875 27 28 22
5.32224262133241 327.738970518112 2869.99988555908 6 9 2
13.1501881405711 327.738463878632 2869.99988555908 19 22 15
20.941536873579 327.166587114334 2865.00000953674 2 5 0
28.7256017327309 326.82266831398 2861.99998855591 72 74 69
36.5314856171608 326.820909976959 2861.99998855591 118 120 115
44.3372279405594 326.818734407425 2861.99998855591 134 139 133
52.1245822310448 326.701939105988 2861.00006103516 134 139 133
59.8643869161606 326.356381177902 2858.00004005432 138 143 137
67.587599158287 326.010376214981 2855.00001907349 143 148 142
75.4261985421181 326.23490691185 2857.00011253357 137 142 136
83.2171589136124 326.230674982071 2857.00011253357 138 143 137
91.007798910141 326.226025819778 2857.00011253357 126 131 125
98.6943393945694 325.878381729126 2854.00009155273 89 94 88
106.438763439655 325.758725404739 2852.9999256134 53 58 52
114.177338778973 325.638651847839 2851.99999809265 11 16 10
121.824502944946 325.289845466614 2848.99997711182 5 10 4
129.545822739601 325.168967247009 2848.00004959106 12 14 9
137.59870827198 325.846970081329 2854.00009155273 3 5 0
145.123437047005 325.268596410751 2848.99997711182 13 15 10
152.888685464859 325.260698795319 2848.99997711182 17 20 13
161.273658275604 326.508224010468 2859.99989509583 13 16 9
171.432301402092 331.065982580185 2900.00009536743 18 21 14
179.025545716286 330.485939979553 2894.99998092651 11 14 7
185.945212841034 328.764051198959 2880.00011444092 13 16 7
193.32081079483 327.955067157745 2872.99990653992 22 25 16
201.777741312981 328.972101211548 2881.99996948242 55 58 49
209.919273853302 329.417943954468 2885.99991798401 26 29 20
218.006372451782 329.749256372452 2888.99993896484 22 25 16
224.232614040375 327.340930700302 2868.00003051758 23 26 19
230.262786149979 324.818283319473 2845.99995613098 29 32 25
-206.419110298157 333.169162273407 2990.00000953674 198 203 199
-197.34451174736 331.619501113892 2976.0000705719 196 197 191
-188.854202628136 330.960780382156 2970.00002861023 197 197 189
-180.639326572418 330.747425556183 2967.99993515015 191 184 174
-172.43467271328 330.533653497696 2966.00008010864 178 170 159
-164.295703172684 330.430895090103 2964.99991416931 172 163 154
-156.161561608315 330.327749252319 2963.99998664856 163 154 145
-148.481920361519 331.227242946625 2971.99988365173 155 146 137
-91.636523604393 330.825239419937 2967.99993515015 13 15 10
-82.7263668179512 327.597349882126 2938.99989128113 22 25 18
-73.186032474041 320.913463830948 2878.99994850159 22 25 18
-65.3796643018723 321.140050888062 2881.00004196167 25 28 21
-57.4623048305511 320.808887481689 2878.00002098084 22 25 18
-49.4576506316662 319.808423519135 2868.99995803833 20 23 16
-41.2262007594109 316.689640283585 2841.00008010864 23 24 16
-33.4772691130638 316.691666841507 2841.00008010864 22 23 15
-25.7825367152691 317.362010478973 2846.99988365173 9 10 2
-18.2385072112083 321.264743804932 2881.99996948242 20 21 13
-10.460258461535 323.829352855682 2904.99997138977 22 23 15
5.33921690657735 320.931315422058 2878.99994850159 23 26 19
13.1829651072621 320.70791721344 2877.00009346008 15 18 11
20.9938213229179 320.149630308151 2871.99997901917 20 23 16
28.757244348526 319.368004798889 2865.00000953674 4 6 1
36.5334302186966 319.031864404678 2861.99998855591 2 4 0
44.3241000175476 318.918287754059 2861.00006103516 1 6 0
52.109133452177 318.804264068604 2859.99989509583 0 4 0
59.8047263920307 318.243950605392 2855.00001907349 2 7 1
67.6148608326912 318.352073431015 2855.99994659424 4 9 3
75.4302069544792 318.459808826447 2857.00011253357 2 7 1
83.1924378871918 318.34414601326 2855.99994659424 0 3 0
90.8851772546768 318.005174398422 2852.9999256134 2 7 1
98.5612273216248 317.665845155716 2849.99990463257 4 9 3
106.593646109104 318.440735340118 2857.00011253357 7 12 6
114.743866026402 319.4380402565 2865.9999370575 8 13 7
121.873691678047 317.648589611053 2849.99990463257 11 16 10
129.143238067627 316.416025161743 2838.99998664856 17 19 14
137.171983718872 317.077845335007 2845.00002861023 9 11 6
145.895168185234 319.18802857399 2864.00008201599 14 16 11
153.004020452499 317.731440067291 2851.0000705719 3 6 0
161.338478326797 318.83779168129 2861.00006103516 25 28 21
169.667705893517 319.8322057724 2869.99988555908 3 6 0
179.715111851692 323.834955692291 2905.99989891052 7 10 3
185.050919651985 319.368183612823 2865.9999370575 13 16 7
193.26351583004 320.027083158493 2871.99997901917 19 22 13
201.648116111755 320.908397436142 2880.00011444092 57 60 51
210.002854466438 321.677923202515 2887.00008392334 29 32 23
216.810151934624 320.107132196426 2872.99990653992 30 33 24
224.322319030762 319.650292396545 2868.99995803833 32 35 28
230.274528264999 317.07626581192 2845.99995613098 30 33 26
-198.349267244339 325.152069330215 2990.9999370575 135 135 127
-189.30895626545 323.639869689941 2976.99999809265 104 101 92
-180.891990661621 323.105603456497 2971.99988365173 94 86 75
-172.385334968567 322.353482246399 2964.99991416931 106 96 84
-164.248690009117 322.253286838531 2963.99998664856 116 104 92
-156.064197421074 322.04395532608 2961.99989318848 114 102 90
-148.339658975601 322.812795639038 2969.00010108948 110 98 86
-90.4370918869972 318.50603222847 2928.99990081787 25 28 21
-81.9706320762634 316.661804914474 2911.99994087219 21 26 19
-73.8762319087982 316.013365983963 2905.99989891052 22 25 18
-65.2922913432121 312.863320112228 2877.00009346008 24 27 20
-57.2456605732441 311.779022216797 2867.00010299683 17 20 13
-49.2878369987011 310.911744832993 2858.99996757507 15 18 11
-41.4170026779175 310.370355844498 2854.00009155273 18 19 11
-33.4790162742138 308.958560228348 2841.00008010864 22 23 15
-25.937844067812 311.461329460144 2864.00008201599 12 13 5
-17.9293490946293 308.091193437576 2832.99994468689 23 24 16
-10.1223140954971 305.699437856674 2811.00010871887 6 7 1
-2.49289069324732 310.484796762466 2855.00001907349 18 19 13
5.31167723238468 311.463475227356 2864.00008201599 17 20 13
13.1790703162551 312.76798248291 2875.99992752075 18 21 14
20.9949165582657 312.33212351799 2871.99997901917 11 14 7
28.7085548043251 311.025828123093 2859.99989509583 10 12 7
36.5608707070351 311.45915389061 2864.00008201599 12 14 9
44.357392936945 311.348289251328 2862.99991607666 10 12 7
52.0754121243954 310.802102088928 2858.00004005432 11 13 8
59.9544830620289 311.234176158905 2861.99998855591 10 12 7
67.7367672324181 311.12214922905 2861.00006103516 13 15 10
75.5133330821991 311.009734869003 2859.99989509583 20 22 17
82.9345807433128 309.591948986053 2846.99988365173 16 18 13
90.3164595365524 308.28258395195 2835.00003814697 7 9 4
97.9784056544304 308.060318231583 2832.99994468689 13 15 10
106.337957084179 309.903591871262 2849.99990463257 12 14 9
115.710720419884 314.24742937088 2890.00010490417 10 12 7
122.735261917114 312.066614627838 2869.99988555908 11 13 8
130.01424074173 310.755401849747 2858.00004005432 11 13 8
137.227267026901 309.443831443787 2845.99995613098 14 16 11
145.291328430176 310.088992118835 2851.99999809265 10 12 7
152.958199381828 309.863984584808 2849.99990463257 14 17 10
160.895556211472 310.182183980942 2852.9999256134 18 21 14
169.085159897804 310.934901237488 2859.99989509583 18 21 14
177.497819066048 312.013328075409 2869.99988555908 15 18 11
184.220895171165 310.15607714653 2852.9999256134 15 18 9
193.744376301765 312.97305226326 2878.99994850159 14 17 8
202.498570084572 314.376324415207 2891.99995994568 20 23 14
210.449904203415 314.474731683731 2892.99988746643 26 29 20
217.651203274727 313.485771417618 2884.0000629425 22 25 16
228.712320327759 317.931205034256 2924.99995231628 35 38 31
234.412759542465 314.876347780228 2897.0000743866 32 35 28
242.803558707237 315.516710281372 2903.00011634827 26 28 23
-200.149729847908 319.873750209808 3017.99988746643 206 203 194
-190.017908811569 316.703617572784 2987.99991607666 130 126 115
-181.083619594574 315.334856510162 2974.99990463257 106 94 80
-172.510251402855 314.495623111725 2967.00000762939 115 102 86
-164.201512932777 314.079970121384 2963.00005912781 122 106 91
-155.966639518738 313.76987695694 2960.00003814697 120 104 89
-148.147270083427 314.307481050491 2964.99991416931 124 108 95
-140.677958726883 315.692752599716 2977.9999256134 110 96 85
-88.6507704854012 304.38357591629 2871.00005149841 15 20 13
-80.7361751794815 304.069757461548 2868.00003051758 21 26 19
-73.4477937221527 306.300103664398 2888.99993896484 20 25 18
-65.4090940952301 305.561423301697 2881.99996948242 20 25 18
-57.7078424394131 306.412756443024 2890.00010490417 22 25 18
-49.6696457266808 305.461227893829 2881.00004196167 23 24 18
-41.6658334434032 304.403275251389 2871.00005149841 18 19 11
-33.4453694522381 300.906270742416 2838.00005912781 20 21 13
-25.9210579097271 303.452461957932 2861.99998855591 14 15 7
-18.2657055556774 305.998206138611 2885.99991798401 13 14 6
-10.1444376632571 298.682928085327 2816.99991226196 27 28 22
-2.45721614919603 298.36517572403 2813.99989128113 32 33 27
5.30823832377791 303.454488515854 2861.99998855591 19 22 15
13.1018375977874 303.135931491852 2858.99996757507 15 18 11
20.8278484642506 302.074819803238 2848.99997711182 14 17 10
28.8003701716661 304.194122552872 2868.99995803833 15 17 12
36.5627370774746 303.662329912186 2864.00008201599 15 17 12
44.4061420857906 303.872346878052 2865.9999370575 15 18 11
52.0598404109478 302.915692329407 2857.00011253357 15 18 11
59.8318390548229 302.806824445724 2855.99994659424 15 18 11
67.5744786858559 302.591592073441 2854.00009155273 16 19 12
75.3059387207031 302.375912666321 2851.99999809265 17 20 13
82.9679295420647 301.947832107544 2848.00004959106 15 18 11
90.3847739100456 300.7772564888 2836.99989318848 12 15 8
97.8450328111649 299.924403429031 2828.9999961853 11 14 7
105.932906270027 300.979465246201 2838.99998664856 9 12 5
114.515356719494 303.200215101242 2859.99989509583 8 11 4
122.613176703453 303.936421871185 2867.00010299683 10 13 6
129.383891820908 301.491886377335 2844.00010108948 14 16 11
145.55336534977 302.856266498566 2857.00011253357 12 14 9
152.751177549362 301.68280005455 2845.99995613098 12 15 8
160.508841276169 301.675051450729 2845.99995613098 17 20 13
168.147638440132 301.454931497574 2844.00010108948 15 18 11
175.836756825447 301.34043097496 2842.99993515015 20 23 16
184.552952647209 302.921444177628 2858.00004005432 14 17 8
192.47530400753 303.124129772186 2859.99989509583 11 14 5
203.488916158676 307.989776134491 2905.99989891052 17 20 11
210.896760225296 307.237774133682 2898.9999294281 27 30 21
218.039289116859 306.167513132095 2888.99993896484 21 24 15
227.316051721573 308.06428194046 2907.00006484985 25 28 21
235.152497887611 307.947069406509 2905.99989891052 35 38 31
241.477102041245 305.922150611877 2887.00008392334 23 25 20
-189.899981021881 308.363884687424 2986.00006103516 145 135 123
-180.848985910416 306.823700666428 2970.99995613098 138 121 103
-172.111660242081 305.696249008179 2960.00003814697 140 119 100
-163.877040147781 305.394560098648 2957.00001716614 138 117 98
-155.60545027256 304.989188909531 2953.00006866455 129 108 89
