ply
format ascii 1.0
comment KinectMotionCapture
element vertex 761
property float x
property float y
property float z
property uchar red
property uchar green
property uchar blue
end_header
-35.2908633649349 652.438819408417 3003.00002098084 73 73 65
-27.0406864583492 650.485873222351 2993.99995803833 152 151 146
-18.7194794416428 644.404411315918 2966.00008010864 147 146 141
-10.5756893754005 639.842987060547 2944.9999332428 182 181 177
-2.54699029028416 635.498225688934 2924.99995231628 156 155 153
5.40434615686536 634.846329689026 2921.99993133545 167 166 164
13.3256344124675 633.542001247406 2915.99988937378 160 159 157
21.2434008717537 633.106052875519 2914.00003433228 176 175 171
29.1201882064343 632.01767206192 2908.99991989136 139 138 133
36.9951501488686 631.363272666931 2905.99989891052 142 142 134
44.8073297739029 630.056440830231 2900.00009536743 145 145 137
52.5867268443108 628.749012947083 2894.00005340576 160 159 154
60.3751055896282 627.875447273254 2890.00010490417 153 152 147
68.1415423750877 627.001225948334 2885.99991798401 145 144 139
75.8070200681686 625.474631786346 2878.99994850159 187 186 181
83.4923088550568 624.382078647614 2874.00007247925 192 191 186
91.308981180191 624.37504529953 2874.00007247925 150 149 144
99.125400185585 624.367475509644 2874.00007247925 154 153 148
106.904290616512 624.141991138458 2872.99990653992 148 147 142
114.517726004124 623.04699420929 2868.00003051758 154 153 148
122.231565415859 622.603118419647 2865.9999370575 196 195 190
129.798084497452 621.506929397583 2861.00006103516 189 188 183
137.577444314957 621.496438980103 2861.00006103516 150 149 144
145.356416702271 621.485233306885 2861.00006103516 149 148 143
153.456091880798 622.776806354523 2867.00010299683 153 152 147
161.475464701653 623.633325099945 2871.00005149841 149 148 143
169.457167387009 624.271988868713 2874.00007247925 150 149 144
177.084594964981 623.60680103302 2871.00005149841 153 154 149
184.952825307846 623.809933662415 2871.99997901917 154 155 150
192.960187792778 624.446868896484 2875 169 170 165
201.192811131477 625.734806060791 2881.00004196167 185 186 181
209.312334656715 626.587629318237 2884.99999046326 175 176 171
217.151939868927 626.571178436279 2884.99999046326 169 170 165
225.224956870079 627.205789089203 2888.00001144409 166 166 164
233.394309878349 628.056943416595 2891.99995994568 162 162 160
241.584718227386 628.907442092896 2895.99990844727 160 160 158
249.968528747559 630.191743373871 2901.99995040894 176 176 174
258.206516504288 631.04110956192 2905.99989891052 166 166 164
266.831815242767 632.758557796478 2914.00003433228 149 149 147
275.499850511551 634.475350379944 2921.99993133545 164 164 162
283.725589513779 635.105788707733 2924.99995231628 148 148 146
292.066603899002 635.952830314636 2928.99990081787 155 155 153
300.940692424774 637.884974479675 2937.99996376038 170 170 168
-124.771125614643 642.320394515991 2993.99995803833 214 216 213
-116.472750902176 641.471803188324 2990.00000953674 173 175 172
-108.304515480995 641.266167163849 2989.00008201599 169 171 168
-100.074350833893 640.630841255188 2986.00006103516 164 165 160
-91.8602272868156 639.994919300079 2983.00004005432 168 169 164
-83.7744101881981 640.21635055542 2983.99996757507 150 149 144
-75.7082775235176 640.651822090149 2986.00006103516 156 155 150
-67.6762983202934 641.515791416168 2990.00000953674 156 155 150
-59.6024394035339 642.164528369904 2993.00003051758 130 127 122
-51.5980385243893 643.885374069214 3000.99992752075 127 124 119
-43.6078608036041 646.463930606842 3013.00001144409 109 109 101
-35.387709736824 646.037936210632 3010.99991798401 78 77 72
-27.0699523389339 643.036663532257 2996.99997901917 147 146 141
-18.7209825962782 636.38710975647 2966.00008010864 139 138 133
-10.576537810266 631.882429122925 2944.9999332428 178 177 173
-2.54806573502719 627.80636548996 2926.00011825562 153 152 148
5.41032943874598 627.591669559479 2924.99995231628 167 166 162
13.3404154330492 626.303553581238 2918.99991035461 165 164 160
21.2596878409386 625.658452510834 2915.99988937378 149 148 144
29.1525591164827 624.798238277435 2911.99994087219 149 148 143
37.0490439236164 624.366462230682 2910.00008583069 145 145 137
44.8572784662247 622.861325740814 2903.00011634827 146 146 138
52.6272729039192 621.355414390564 2895.99990844727 154 153 148
60.4426115751266 620.707273483276 2892.99988746643 144 143 138
68.1706070899963 619.414806365967 2887.00008392334 166 165 160
75.8394151926041 617.907226085663 2880.00011444092 200 199 194
83.4699049592018 616.398990154266 2872.99990653992 159 158 153
91.2209302186966 615.962982177734 2871.00005149841 151 150 145
98.9263281226158 615.311741828918 2868.00003051758 155 154 149
106.726728379726 615.303575992584 2868.00003051758 152 151 146
114.446952939034 614.865720272064 2865.9999370575 162 161 156
122.155949473381 614.427328109741 2864.00008201599 195 194 189
129.808351397514 613.773822784424 2861.00006103516 166 165 160
137.636378407478 613.977789878845 2861.99998855591 150 149 144
145.52029967308 614.395797252655 2864.00008201599 152 151 146
153.414621949196 614.813029766083 2865.9999370575 155 154 149
161.263138055801 615.015268325806 2867.00010299683 149 148 143
169.05765235424 615.002334117889 2867.00010299683 151 150 145
176.728308200836 614.559888839722 2865.00000953674 154 155 150
184.645190834999 614.974856376648 2867.00010299683 154 155 150
192.572385072708 615.389168262482 2868.99995803833 169 170 165
200.78931748867 616.660952568054 2875 185 186 181
208.965703845024 617.717623710632 2880.00011444092 173 174 169
217.319175601006 619.202613830566 2887.00008392334 169 170 165
225.632146000862 620.472490787506 2892.99988746643 167 167 165
233.734920620918 621.098339557648 2895.99990844727 163 163 161
241.769954562187 621.509253978729 2898.00000190735 161 161 159
249.987468123436 622.348487377167 2901.99995040894 176 176 174
258.226007223129 623.187124729156 2905.99989891052 167 167 165
266.943424940109 625.097393989563 2914.99996185303 150 150 148
275.70903301239 627.007007598877 2924.00002479553 164 164 162
284.03776884079 627.843916416168 2927.99997329712 146 146 144
292.287707328796 628.46577167511 2930.99999427795 157 157 155
301.47510766983 631.016850471497 2943.00007820129 170 170 168
-124.90601092577 634.861707687378 2996.99997901917 193 194 189
-116.443008184433 633.176565170288 2989.00008201599 175 176 171
-108.349338173866 633.397221565247 2990.00000953674 164 165 160
-100.115813314915 632.770001888275 2986.99998855591 159 160 155
-92.0214951038361 632.989466190338 2987.99991607666 163 164 159
-83.9214697480202 633.208334445953 2989.00008201599 151 152 147
-75.7903754711151 633.214592933655 2989.00008201599 137 138 133
-67.7043274044991 633.643984794617 2990.9999370575 169 170 165
-59.6669353544712 634.708344936371 2996.00005149841 136 135 131
-51.6881346702576 636.831283569336 3006.00004196167 120 119 115
-43.7560863792896 640.436589717865 3023.00000190735 100 99 94
-35.461064428091 639.168679714203 3016.99995994568 89 88 84
-27.0992144942284 635.569632053375 3000 137 136 132
-18.7161657959223 628.156423568726 2964.99991416931 151 150 146
-10.5809774249792 624.132335186005 2946.00009918213 167 166 162
-2.55088228732347 620.531260967255 2928.99990081787 166 165 160
5.4181613959372 620.531141757965 2928.99990081787 168 165 160
13.3506236597896 618.835508823395 2921.0000038147 191 188 183
21.2905518710613 618.622303009033 2920.00007629395 144 141 136
29.1649047285318 617.137312889099 2913.00010681152 153 150 145
37.0138101279736 615.863502025604 2907.00006484985 149 146 139
44.7990410029888 614.165365695953 2898.9999294281 159 156 149
52.558783441782 612.678587436676 2891.99995994568 141 140 136
60.3638514876366 612.038493156433 2888.99993896484 163 162 158
68.0343434214592 610.338628292084 2881.00004196167 187 186 182
75.8191123604774 609.909176826477 2878.99994850159 188 187 183
83.5056081414223 608.843684196472 2874.00007247925 153 152 148
91.2281796336174 608.201146125793 2871.00005149841 149 148 144
98.8306850194931 606.922626495361 2865.00000953674 157 156 152
106.511883437634 606.278955936432 2861.99998855591 154 153 149
114.33619260788 606.482088565826 2862.99991607666 174 173 169
122.165583074093 606.684565544128 2864.00008201599 185 184 180
129.954695701599 606.67473077774 2864.00008201599 155 154 150
137.599110603333 606.028735637665 2861.00006103516 149 150 144
145.480886101723 606.441259384155 2862.99991607666 150 151 145
153.373092412949 606.853246688843 2865.00000953674 150 151 145
161.331966519356 607.47629404068 2868.00003051758 149 150 144
169.070824980736 607.251703739166 2867.00010299683 149 150 144
176.680341362953 606.602907180786 2864.00008201599 154 155 150
184.530660510063 606.800734996796 2865.00000953674 157 158 153
192.520141601563 607.421517372131 2868.00003051758 178 179 174
200.804755091667 608.888864517212 2875 183 184 179
208.98175239563 609.932124614716 2880.00011444092 169 170 165
217.41110086441 611.609995365143 2888.00001144409 165 166 161
225.805371999741 613.07555437088 2894.99998092651 169 171 168
233.833461999893 613.481640815735 2897.0000743866 164 164 162
241.621389985085 613.251805305481 2895.99990844727 164 164 162
249.6617436409 613.65681886673 2898.00000190735 176 176 174
258.067697286606 614.908218383789 2904.00004386902 170 169 167
267.146617174149 617.641150951386 2917.00005531311 152 151 149
276.106804609299 619.949996471405 2927.99997329712 169 168 166
284.446895122528 620.776057243347 2931.99992179871 145 145 143
292.409062385559 620.754718780518 2931.99992179871 165 165 163
301.5998005867 623.273491859436 2944.00000572205 175 175 173
-134.310603141785 632.603287696838 3025.00009536743 209 214 210
-124.999195337296 627.176225185394 2999.00007247925 192 193 188
-116.413220763206 624.885141849518 2987.99991607666 174 175 170
-108.285404741764 624.894082546234 2987.99991607666 162 163 158
-100.123725831509 624.693155288696 2986.99998855591 155 156 151
-92.0903757214546 625.328123569489 2990.00000953674 159 160 155
-83.9281156659126 625.12594461441 2989.00008201599 141 142 137
-75.8217424154282 625.341415405273 2990.00000953674 150 151 146
-67.7776113152504 626.18362903595 2993.99995803833 155 156 151
-59.7911812365055 627.861857414246 3002.00009346008 160 161 156
-51.829818636179 630.376100540161 3013.99993896484 126 127 122
-43.846420943737 633.517146110535 3029.00004386902 103 104 99
-35.5344153940678 632.265388965607 3023.00000190735 95 94 90
-27.1194409579039 627.875685691834 3002.00009346008 129 128 124
-18.7239721417427 620.348036289215 2966.00008010864 141 140 136
-10.585411451757 616.375267505646 2947.00002670288 168 167 163
-2.55195680074394 612.820208072662 2930.0000667572 168 167 163
5.41304331272841 611.983418464661 2926.00011825562 171 168 163
13.3516872301698 610.936939716339 2921.0000038147 196 193 188
21.3068313896656 611.144721508026 2921.99993133545 148 145 140
29.1972607374191 609.887719154358 2915.99988937378 151 148 143
37.0167568325996 608.002781867981 2907.00006484985 150 147 142
44.7407886385918 605.489730834961 2894.99998092651 171 168 163
52.5266155600548 604.440152645111 2890.00010490417 159 158 154
60.3059604763985 603.599071502686 2885.99991798401 184 183 179
68.0161267518997 602.339148521423 2880.00011444092 195 194 190
75.7987797260284 601.915121078491 2878.00002098084 162 161 157
83.4831520915031 600.863039493561 2872.99990653992 151 150 146
91.1400616168976 599.810540676117 2868.00003051758 157 156 152
98.6659899353981 598.12992811203 2859.99989509583 159 158 154
106.408625841141 597.912728786469 2858.99996757507 172 171 167
114.345200359821 598.740577697754 2862.99991607666 195 194 190
122.089862823486 598.522186279297 2861.99998855591 165 164 160
129.919499158859 598.721385002136 2862.99991607666 151 150 146
137.561768293381 598.083555698395 2859.99989509583 150 151 145
145.492255687714 598.699927330017 2862.99991607666 151 152 146
153.224423527718 598.479151725769 2861.99998855591 151 152 146
161.231994628906 599.303364753723 2865.9999370575 150 151 145
169.02494430542 599.290549755096 2865.9999370575 150 151 145
176.755711436272 599.068164825439 2865.00000953674 156 157 152
184.480488300323 598.84512424469 2864.00008201599 159 160 155
192.400708794594 599.248766899109 2865.9999370575 179 180 175
200.610622763634 600.488245487213 2871.99997901917 184 185 180
208.852589130402 601.727068424225 2878.00002098084 171 172 167
217.352390289307 603.59251499176 2887.00008392334 167 168 163
225.588515400887 604.621052742004 2891.99995994568 169 171 168
233.770415186882 605.439901351929 2895.99990844727 164 164 162
241.723090410233 605.631053447723 2897.0000743866 165 165 163
249.938979744911 606.448709964752 2901.00002288818 176 176 174
258.264750242233 607.47492313385 2905.99989891052 171 170 168
267.074972391129 609.545707702637 2915.99988937378 152 151 149
276.221603155136 612.242877483368 2928.99990081787 170 169 167
284.662008285522 613.267302513123 2934.00001525879 147 147 145
293.02904009819 614.082098007202 2937.99996376038 166 166 164
301.929265260696 615.941405296326 2947.00002670288 174 174 172
-133.877068758011 622.35814332962 3015.00010490417 209 214 210
-124.883934855461 618.446171283722 2996.00005149841 190 191 186
-116.422355175018 616.804242134094 2987.99991607666 172 173 168
-108.33016037941 617.019474506378 2989.00008201599 160 161 156
-100.232154130936 617.23405122757 2990.00000953674 152 153 148
-92.2208353877068 618.06732416153 2993.99995803833 154 155 150
-84.0189754962921 617.661476135254 2992.00010299683 143 144 139
-75.85309445858 617.461264133453 2990.9999370575 141 142 137
-67.7603334188461 617.879807949066 2993.00003051758 153 154 149
-59.7959123551846 619.742810726166 3002.00009346008 163 164 159
-51.8683157861233 622.637450695038 3016.00003242493 118 119 114
-43.9222790300846 626.35725736618 3033.99991989136 104 105 100
-35.5842523276806 624.915242195129 3026.99995040894 87 86 82
-27.1215941756964 619.756639003754 3002.00009346008 121 120 116
-18.71282979846 611.91338300705 2963.99998664856 141 140 136
-10.5790663510561 607.991993427277 2944.9999332428 159 158 154
-2.55303015001118 605.102241039276 2930.99999427795 176 175 171
5.41532272472978 604.276299476624 2927.00004577637 185 182 177
13.3573180064559 603.243291378021 2921.99993133545 186 183 178
21.3158167898655 603.448450565338 2923.00009727478 151 148 143
29.2095933109522 602.207720279694 2917.00005531311 151 148 143
36.9814820587635 599.521279335022 2904.00004386902 161 158 153
44.6825101971626 596.834301948547 2891.00003242493 166 163 158
52.3853488266468 594.972372055054 2881.99996948242 171 170 166
60.2062456309795 594.761550426483 2881.00004196167 183 182 178
67.9742619395256 594.137132167816 2878.00002098084 189 188 184
75.8047699928284 594.131469726563 2878.00002098084 151 150 146
83.4316164255142 592.680156230927 2871.00005149841 149 148 144
91.0201147198677 591.228246688843 2864.00008201599 167 166 162
98.6047461628914 589.982211589813 2858.00004005432 163 162 158
106.379754841328 589.974164962769 2858.00004005432 179 178 174
114.194378256798 590.171933174133 2858.99996757507 197 196 192
121.928781270981 589.956343173981 2858.00004005432 156 155 151
129.793509840965 590.359330177307 2859.99989509583 154 153 149
137.476295232773 589.936077594757 2858.00004005432 149 150 144
145.351096987724 590.337932109833 2859.99989509583 150 151 145
153.129234910011 590.326368808746 2859.99989509583 150 151 145
161.188215017319 591.346204280853 2865.00000953674 149 150 144
169.155970215797 591.952681541443 2868.00003051758 150 151 145
176.892712712288 591.732919216156 2867.00010299683 156 157 152
184.687942266464 591.719090938568 2867.00010299683 159 160 155
192.616850137711 592.117369174957 2868.99995803833 178 179 174
200.835511088371 593.340694904327 2875 180 181 176
208.941072225571 594.150602817535 2878.99994850159 173 174 169
217.143028974533 595.166325569153 2884.0000629425 169 170 165
225.293546915054 595.974981784821 2888.00001144409 168 170 167
233.465135097504 596.78316116333 2891.99995994568 166 166 164
241.65777862072 597.590684890747 2895.99990844727 166 166 164
250.130027532578 599.016785621643 2903.00011634827 176 176 174
258.639544248581 600.442111492157 2910.00008583069 172 171 169
267.461210489273 602.485954761505 2920.00007629395 155 154 152
276.525020599365 604.941725730896 2931.99992179871 171 170 168
285.071104764938 606.158971786499 2937.99996376038 150 150 148
293.449521064758 606.962978839874 2941.99991226196 168 168 166
302.25870013237 608.591675758362 2950.00004768372 171 171 169
-133.576631546021 612.776637077332 3007.99989700317 210 215 211
-124.76859241724 609.730958938599 2993.00003051758 187 188 183
-116.353511810303 608.314275741577 2986.00006103516 172 173 168
-108.302369713783 608.730494976044 2987.99991607666 162 163 158
-100.307077169418 609.553575515747 2992.00010299683 151 152 147
-92.1972617506981 609.764754772186 2993.00003051758 150 151 146
-84.0536579489708 609.771728515625 2993.00003051758 146 147 142
-75.9097784757614 609.777927398682 2993.00003051758 144 145 140
-67.810945212841 610.19104719162 2994.99988555908 155 156 151
-59.8803013563156 612.437188625336 3006.00004196167 153 154 149
-52.0099885761738 616.1088347435 3023.9999294281 142 143 138
-44.0415665507317 619.78006362915 3042.00005531311 88 89 84
-35.6340855360031 617.541909217834 3030.99989891052 104 105 100
-27.0785558968782 610.617160797119 2996.99997901917 136 137 132
-18.7016781419516 603.487968444824 2961.99989318848 151 152 147
-10.5763087049127 599.821746349335 2944.00000572205 178 177 173
-2.55410256795585 597.377300262451 2931.99992179871 168 167 163
5.41390059515834 596.154808998108 2926.00011825562 193 192 187
13.3492285385728 594.931542873383 2920.00007629395 150 149 144
21.2883241474628 594.72644329071 2918.99991035461 151 148 143
29.1818529367447 593.705773353577 2914.00003433228 151 148 143
36.9589291512966 591.258227825165 2901.99995040894 171 168 163
44.6860305964947 589.013874530792 2891.00003242493 154 151 146
52.4076595902443 587.380170822144 2882.99989700317 181 180 176
60.2109804749489 586.968243122101 2881.00004196167 174 173 169
67.9559931159019 586.148321628571 2877.00009346008 176 175 171
75.7317021489143 585.735142230988 2875 148 147 143
83.2928493618965 583.895325660706 2865.9999370575 149 148 144
90.9001082181931 582.666099071503 2859.99989509583 171 170 166
98.5434576869011 581.843793392181 2855.99994659424 164 163 159
106.462508440018 582.650721073151 2859.99989509583 187 186 182
114.283189177513 582.845866680145 2861.00006103516 195 194 190
121.98094278574 582.42928981781 2858.99996757507 150 149 145
129.712820053101 582.215785980225 2858.00004005432 153 152 148
137.486979365349 582.205474376678 2858.00004005432 149 150 144
145.413190126419 582.805633544922 2861.00006103516 150 151 145
153.08752655983 582.386672496796 2858.99996757507 150 151 145
161.088109016418 583.189368247986 2862.99991607666 150 151 145
169.051006436348 583.787739276886 2865.9999370575 151 152 146
177.029684185982 584.385573863983 2868.99995803833 156 157 152
185.024172067642 584.982812404633 2871.99997901917 159 160 155
192.900121212006 585.172116756439 2872.99990653992 178 179 174
200.990542769432 585.971891880035 2877.00009346008 179 180 175
208.884328603745 586.160004138947 2878.00002098084 174 175 170
217.159450054169 587.365865707397 2884.0000629425 171 172 167
225.310519337654 588.16385269165 2888.00001144409 168 170 167
233.644127845764 589.368581771851 2894.00005340576 167 167 165
241.759330034256 589.961707592011 2897.0000743866 167 167 165
250.234842300415 591.368913650513 2904.00004386902 176 176 174
258.658766746521 592.571794986725 2910.00008583069 173 172 170
267.389386892319 594.385027885437 2918.99991035461 156 155 153
276.262432336807 596.401214599609 2928.99990081787 170 169 167
285.092025995255 598.213136196136 2937.99996376038 151 151 149
293.969750404358 600.024521350861 2947.00002670288 168 168 166
-133.320510387421 603.432655334473 3002.00009346008 209 214 210
-124.611519277096 600.829482078552 2989.00008201599 184 185 180
-116.323582828045 600.034654140472 2984.99989509583 170 171 166
-108.274549245834 600.445449352264 2986.99998855591 153 154 149
-100.314877927303 601.458668708801 2992.00010299683 149 150 145
-92.2044590115547 601.667165756226 2993.00003051758 147 148 143
-84.1163843870163 602.076053619385 2994.99988555908 143 144 139
-75.9664326906204 602.082312107086 2994.99988555908 142 143 138
-67.8841769695282 602.690994739532 2997.99990653992 147 148 143
-59.9447526037693 604.907333850861 3009.0000629425 149 150 145
-52.0828738808632 608.731389045715 3028.00011634827 145 146 141
-44.1898107528687 613.55996131897 3052.00004577637 105 106 101
-35.6839150190353 610.145509243011 3035.00008583069 221 221 219
-26.9993580877781 600.699186325073 2987.99991607666 154 154 152
-18.6778884381056 594.669878482819 2957.99994468689 171 171 169
-10.5699542909861 591.454386711121 2941.99991226196 172 173 168
-2.55604600533843 589.846611022949 2934.00001525879 168 167 163
5.41987689211965 588.841319084167 2928.99990081787 178 177 173
13.3639955893159 587.634384632111 2923.00009727478 148 147 143
21.2972909212112 587.029874324799 2920.00007629395 147 146 141
29.1641149669886 585.419595241547 2911.99994087219 153 150 145
36.9236171245575 582.803547382355 2898.9999294281 161 158 153
44.6740798652172 580.99102973938 2890.00010490417 156 153 148
52.3754060268402 579.177916049957 2881.00004196167 184 183 179
60.1947978138924 578.972458839417 2880.00011444092 182 181 177
67.9613128304482 578.364431858063 2877.00009346008 154 153 149
75.7112726569176 577.755749225616 2874.00007247925 156 155 151
83.2993537187576 576.14129781723 2865.9999370575 168 167 163
90.9389778971672 575.129389762878 2861.00006103516 166 165 161
98.6891612410545 574.921011924744 2859.99989509583 163 162 158
106.545247137547 575.315058231354 2861.99998855591 197 196 192
114.292062819004 575.105547904968 2861.00006103516 176 175 171
121.947720646858 574.49334859848 2858.00004005432 149 148 144
129.632085561752 574.081599712372 2855.99994659424 148 147 143
137.40137219429 574.071288108826 2855.99994659424 151 152 146
145.271897315979 574.462413787842 2858.00004005432 151 152 146
153.099298477173 574.651956558228 2858.99996757507 151 152 146
160.987943410873 575.041949748993 2861.00006103516 151 152 146
168.945983052254 575.632333755493 2864.00008201599 154 155 149
176.919803023338 576.222062110901 2867.00010299683 158 159 154
184.909388422966 576.811254024506 2869.99988555908 160 161 156
192.84762442112 577.19886302948 2871.99997901917 178 179 174
201.00574195385 578.188836574554 2877.00009346008 176 177 172
208.972692489624 578.575313091278 2878.99994850159 168 169 164
217.25107729435 579.76508140564 2884.99999046326 174 175 170
225.48346221447 580.753266811371 2890.00010490417 168 170 167
233.742356300354 581.740856170654 2894.99998092651 168 168 166
241.944253444672 582.526922225952 2898.9999294281 168 168 166
250.425755977631 583.915174007416 2905.99989891052 177 177 175
258.944600820541 585.302948951721 2913.00010681152 174 173 171
267.592281103134 586.890876293182 2921.0000038147 158 157 155
276.37705206871 588.679313659668 2930.0000667572 168 167 165
285.20992398262 590.466916561127 2938.99989128113 152 152 150
294.29042339325 592.655837535858 2950.00004768372 170 170 168
-133.15312564373 594.516098499298 2997.99990653992 204 209 205
-124.621123075485 592.741250991821 2989.00008201599 183 184 179
-116.371542215347 592.155635356903 2986.00006103516 165 166 161
-108.282931149006 592.362642288208 2986.99998855591 156 157 152
-100.28912127018 593.163967132568 2990.9999370575 152 153 148
-92.1808034181595 593.369722366333 2992.00010299683 149 150 145
-84.1510146856308 594.169795513153 2996.00005149841 143 144 139
-75.9977176785469 594.17599439621 2996.00005149841 148 149 144
-67.889466881752 594.578206539154 2997.99990653992 150 151 146
-59.9295012652874 596.566438674927 3007.99989700317 147 148 143
-52.0181246101856 599.744021892548 3023.9999294281 146 147 142
-26.9020646810532 590.431749820709 2976.99999809265 177 177 175
-18.6793506145477 586.665213108063 2957.99994468689 180 180 178
-10.5815595015883 584.088027477264 2944.9999332428 180 181 176
-2.55711702629924 582.105278968811 2934.99994277954 157 156 152
5.41845010593534 580.716848373413 2927.99997329712 165 164 160
13.3604649454355 579.52606678009 2921.99993133545 153 152 148
21.2916620075703 578.929722309113 2918.99991035461 148 147 142
29.1463602334261 577.142775058746 2910.00008583069 156 153 148
36.9265004992485 574.958622455597 2898.9999294281 152 149 144
44.6775630116463 573.170483112335 2890.00010490417 167 164 159
52.4340309202671 571.976661682129 2884.0000629425 182 181 177
60.1785778999329 570.980668067932 2878.99994850159 193 192 188
67.8484812378883 569.587469100952 2871.99997901917 151 150 146
75.5854249000549 568.986892700195 2868.99995803833 159 158 154
83.3058208227158 568.385779857636 2865.9999370575 174 173 169
91.0096019506454 567.784070968628 2862.99991607666 169 168 164
98.7313166260719 567.380130290985 2861.00006103516 164 163 159
106.516256928444 567.37220287323 2861.00006103516 194 193 189
114.300891757011 567.363679409027 2861.00006103516 163 162 158
121.957123279572 566.759705543518 2858.00004005432 153 152 148
129.596650600433 566.155076026917 2855.00001907349 151 150 146
137.315690517426 565.946578979492 2854.00009155273 150 151 145
145.232185721397 566.530644893646 2857.00011253357 150 151 145
153.057456016541 566.717505455017 2858.00004005432 149 150 144
161.000236868858 567.300498485565 2861.00006103516 150 151 145
168.899849057198 567.684531211853 2862.99991607666 153 154 148
176.933228969574 568.464457988739 2867.00010299683 156 157 152
184.923410415649 569.045662879944 2869.99988555908 158 159 154
192.862197756767 569.427967071533 2871.99997901917 176 177 172
200.951009988785 570.206165313721 2875.99992752075 174 175 170
208.9883685112 570.785582065582 2878.99994850159 166 167 162
217.267349362373 571.959137916565 2884.99999046326 173 174 169
225.500300526619 572.933971881866 2890.00010490417 167 169 166
233.921244740486 574.304580688477 2897.0000743866 168 168 166
242.045685648918 574.881732463837 2900.00009536743 168 168 166
250.616610050201 576.449334621429 2907.99999237061 177 177 175
259.141445159912 577.818214893341 2914.99996185303 174 173 171
267.795145511627 579.384684562683 2923.00009727478 159 158 156
276.30290389061 580.554068088531 2928.99990081787 168 167 165
284.939527511597 581.9211602211 2936.00010871887 153 153 151
294.21192407608 584.4766497612 2948.99988174438 172 172 170
-142.121613025665 589.716851711273 3015.00010490417 206 211 207
-132.985651493073 585.619866847992 2993.99995803833 203 208 204
-124.463893473148 583.869278430939 2984.99989509583 185 186 181
-116.341508924961 583.878457546234 2984.99989509583 170 171 166
-108.218751847744 583.887100219727 2984.99989509583 162 163 158
-100.263312458992 584.873139858246 2990.00000953674 158 159 154
-92.2187343239784 585.467457771301 2993.00003051758 151 152 147
-84.1856002807617 586.256623268127 2996.99997901917 149 150 145
-76.0289654135704 586.262822151184 2996.99997901917 143 144 139
-67.8494349122047 586.07280254364 2996.00005149841 144 145 140
-59.8743744194508 587.838232517242 3005.00011444092 145 146 141
-51.936149597168 590.581297874451 3019.00005340576 159 160 155
-26.8228184431791 580.613613128662 2967.99993515015 203 203 201
-18.680801615119 578.659176826477 2957.99994468689 183 183 181
-10.5967549607158 576.899588108063 2948.99988174438 165 165 163
-2.55992962047458 574.748277664185 2937.99996376038 169 170 165
5.42072160169482 572.987496852875 2928.99990081787 155 154 150
13.3706489577889 572.008669376373 2924.00002479553 157 156 152
21.2933123111725 571.029186248779 2918.99991035461 151 150 146
29.1486252099276 569.266676902771 2910.00008583069 174 173 169
36.9166284799576 566.916584968567 2898.00000190735 162 161 156
44.6655675768852 565.152823925018 2888.99993896484 186 185 180
52.3835495114326 563.584089279175 2881.00004196167 191 190 186
60.1205304265022 562.601625919342 2875.99992752075 187 186 182
67.8064748644829 561.422944068909 2869.99988555908 168 167 163
75.5385830998421 560.830652713776 2867.00010299683 180 179 175
83.2541137933731 560.237646102905 2864.00008201599 172 171 167
90.9530445933342 559.644103050232 2861.00006103516 164 163 159
98.7043976783752 559.441208839417 2859.99989509583 180 179 175
106.412753462791 559.042096138 2858.00004005432 171 170 166
114.189796149731 559.033691883087 2858.00004005432 151 150 146
121.795773506165 558.24226140976 2854.00009155273 155 154 150
129.42498922348 557.645857334137 2851.0000705719 151 150 146
137.133702635765 557.440042495728 2849.99990463257 151 152 146
145.090758800507 558.211743831635 2854.00009155273 151 152 146
153.069108724594 558.982789516449 2858.00004005432 152 153 147
160.956159234047 559.36199426651 2859.99989509583 151 152 146
168.73562335968 559.349536895752 2859.99989509583 153 154 148
176.699712872505 559.923231601715 2862.99991607666 156 157 152
184.55071747303 560.105264186859 2864.00008201599 166 167 162
192.473709583282 560.482203960419 2865.9999370575 177 178 173
200.476929545403 561.054229736328 2868.99995803833 175 176 171
208.858802914619 562.603414058685 2877.00009346008 171 172 167
217.208221554756 563.956379890442 2884.0000629425 170 171 166
225.517064332962 565.113306045532 2890.00010490417 170 172 169
233.777046203613 566.073954105377 2894.99998092651 165 165 163
241.980046033859 566.838622093201 2898.9999294281 171 171 169
250.548869371414 568.384766578674 2907.00006484985 174 174 172
259.160399436951 569.930255413055 2914.99996185303 178 177 175
267.723053693771 571.279644966125 2921.99993133545 164 163 161
276.417285203934 572.823941707611 2930.0000667572 172 171 169
284.86305475235 573.781192302704 2934.99994277954 156 156 154
294.332921504974 576.692700386047 2950.00004768372 178 178 176
-141.755282878876 580.012381076813 3006.99996948242 205 210 206
-132.906928658485 577.129423618317 2992.00010299683 201 206 202
-124.389998614788 575.403213500977 2983.00004005432 184 185 180
-116.389378905296 575.991034507751 2986.00006103516 171 172 167
-108.263298869133 575.999617576599 2986.00006103516 165 166 161
-100.237466394901 576.586246490479 2989.00008201599 160 161 156
-92.1949967741966 577.17227935791 2992.00010299683 151 152 147
-84.1639786958694 577.950716018677 2996.00005149841 151 152 147
-76.085552573204 578.535616397858 2999.00007247925 145 146 141
-67.8773000836372 578.155219554901 2996.99997901917 144 145 140
-59.87898260355 579.703450202942 3005.00011444092 145 146 141
-51.8369264900684 581.251084804535 3013.00001144409 154 155 150
-26.8248897045851 572.578907012939 2967.99993515015 199 201 198
-18.6885595321655 570.844352245331 2959.00011062622 186 188 185
-10.5975735932589 568.916320800781 2948.99988174438 164 164 162
-2.55925604142249 566.601872444153 2937.00003623962 176 176 174
5.41928969323635 564.865410327911 2927.99997329712 155 156 151
13.3671099320054 563.900113105774 2923.00009727478 151 152 147
21.2657768279314 562.355399131775 2914.99996185303 159 158 154
29.1007868945599 560.424327850342 2904.99997138977 179 178 174
36.9067378342152 558.878481388092 2897.0000743866 176 175 171
44.6999408304691 557.717859745026 2891.00003242493 187 186 182
52.4239502847195 556.170701980591 2882.99989700317 192 191 187
60.0833520293236 554.430246353149 2874.00007247925 175 174 170
67.7171722054482 552.882015705109 2865.9999370575 175 174 170
75.3862932324409 551.912009716034 2861.00006103516 183 182 178
83.1442177295685 551.712989807129 2859.99989509583 170 169 165
90.8646583557129 551.320612430573 2858.00004005432 163 162 158
98.64292293787 551.31334066391 2858.00004005432 187 186 182
106.346413493156 550.919711589813 2855.99994659424 159 158 154
114.078648388386 550.718426704407 2855.00001907349 146 145 141
121.677026152611 549.937903881073 2851.0000705719 155 154 150
129.344046115875 549.542605876923 2848.99997711182 151 150 146
137.14411854744 549.725294113159 2849.99990463257 152 153 147
145.000070333481 550.100445747375 2851.99999809265 152 153 147
153.02711725235 551.053643226624 2857.00011253357 152 153 147
160.912036895752 551.4275431633 2858.99996757507 151 152 146
168.689340353012 551.415145397186 2858.99996757507 153 154 148
176.527813076973 551.595091819763 2859.99989509583 156 157 152
184.43563580513 551.967322826386 2861.99998855591 166 167 162
192.488104104996 552.724659442902 2865.9999370575 176 177 172
200.491860508919 553.288698196411 2868.99995803833 174 175 170
208.801701664925 554.623425006866 2875.99992752075 171 172 167
217.073664069176 555.76479434967 2881.99996948242 170 171 166
225.377589464188 556.905448436737 2888.00001144409 170 172 169
233.47119987011 557.467103004456 2891.00003242493 166 166 164
241.747349500656 558.413803577423 2895.99990844727 172 172 170
250.308573246002 559.938490390778 2904.00004386902 176 176 174
259.09036397934 561.848104000092 2914.00003433228 180 179 177
267.742455005646 563.371419906616 2921.99993133545 166 165 163
276.437252759933 564.894199371338 2930.0000667572 172 171 169
284.980624914169 566.03080034256 2936.00010871887 156 156 154
294.55354809761 569.094598293304 2951.99990272522 177 177 175
-132.828146219254 568.648397922516 2990.00000953674 196 201 197
-124.232620000839 566.566050052643 2979.00009155273 178 179 174
-116.203300654888 566.95544719696 2980.99994659424 167 168 163
-108.126483857632 567.154169082642 2982.00011253357 160 161 156
-100.211560726166 568.303227424622 2987.99991607666 160 161 156
-92.2020301222801 569.071352481842 2992.00010299683 155 156 151
-84.1142162680626 569.458425045013 2993.99995803833 146 147 142
-76.0659947991371 570.225298404694 2997.99990653992 146 147 142
-67.9278001189232 570.421040058136 2999.00007247925 145 146 141
-59.92341786623 571.947455406189 3006.99996948242 148 149 144
-51.8580973148346 573.283195495605 3013.99993896484 141 142 137
-26.8179085105658 564.35239315033 2967.00000762939 191 193 192
-18.6963099986315 563.02273273468 2960.00003814697 186 188 187
-10.60557551682 561.311900615692 2950.99997520447 164 166 163
-2.56380951032043 559.600472450256 2941.99991226196 179 179 177
5.43081201612949 558.078765869141 2934.00001525879 151 151 149
13.3818564936519 556.556344032288 2926.00011825562 148 148 146
21.2528184056282 554.082334041595 2913.00010681152 176 177 172
29.0829837322235 552.17832326889 2903.00011634827 166 165 161
36.896824836731 550.844192504883 2895.99990844727 185 184 180
44.6724332869053 549.509644508362 2888.99993896484 187 186 182
52.355233579874 547.603964805603 2878.99994850159 192 191 187
60.0461326539516 546.268224716187 2871.99997901917 169 168 164
67.7223578095436 545.122087001801 2865.9999370575 179 178 174
75.4183903336525 544.355809688568 2861.99998855591 175 174 170
83.1505581736565 543.969392776489 2859.99989509583 168 167 163
90.9351631999016 543.962776660919 2859.99989509583 176 175 171
98.6849442124367 543.765366077423 2858.99996757507 180 179 175
106.391742825508 543.377220630646 2857.00011253357 149 148 144
114.047341048717 542.798340320587 2854.00009155273 152 151 147
121.643543243408 542.028665542603 2849.99990463257 152 151 147
129.353821277618 541.82904958725 2848.99997711182 155 154 150
137.25072145462 542.389571666718 2851.99999809265 153 154 148
145.061835646629 542.569100856781 2852.9999256134 153 154 148
152.985036373138 543.128430843353 2855.99994659424 153 154 148
160.69895029068 542.926609516144 2855.00001907349 152 153 147
168.465927243233 542.914271354675 2855.00001907349 153 154 148
176.170617341995 542.71125793457 2854.00009155273 159 160 155
184.320479631424 543.838798999786 2859.99989509583 167 168 163
192.502394318581 544.965744018555 2865.9999370575 174 175 170
200.716346502304 546.092092990875 2871.99997901917 172 173 168
208.889737725258 547.027707099915 2877.00009346008 171 172 167
217.164948582649 548.15286397934 2882.99989700317 170 171 166
225.628256797791 549.657702445984 2891.00003242493 170 172 169
233.73056948185 550.211369991302 2894.00005340576 166 166 164
242.015406489372 551.144599914551 2898.9999294281 172 172 170
250.326752662659 552.077353000641 2904.00004386902 176 176 174
258.842349052429 553.389728069305 2911.00001335144 181 180 178
267.578512430191 555.0816655159 2920.00007629395 168 167 165
276.362746953964 556.773006916046 2928.99990081787 171 170 168
285.292208194733 558.653771877289 2938.99989128113 155 155 153
294.674336910248 561.294317245483 2953.00006866455 176 176 174
-141.49372279644 562.60347366333 3000.99992752075 201 206 202
-132.704824209213 559.989094734192 2986.99998855591 194 199 195
-124.200254678726 558.311462402344 2977.9999256134 180 181 176
-116.09510332346 558.320462703705 2977.9999256134 168 169 164
-108.098395168781 558.891355991364 2980.99994659424 159 160 155
-100.152052938938 559.836685657501 2986.00006103516 162 163 158
-92.1473652124405 560.593843460083 2990.00000953674 160 161 156
-84.092490375042 561.162948608398 2993.00003051758 149 150 145
-76.1225074529648 562.481462955475 3000 149 150 145
-68.0009126663208 562.861919403076 3002.00009346008 141 142 137
-59.9479079246521 563.991665840149 3007.99989700317 145 146 141
-51.8276318907738 564.745903015137 3012.00008392334 138 139 134
-35.1801514625549 560.815036296844 2990.9999370575 210 212 211
-26.8199499696493 556.317389011383 2967.00000762939 190 192 191
-18.6851006001234 554.631531238556 2957.99994468689 184 186 185
-10.5956010520458 552.757620811462 2947.99995422363 169 171 168
-2.5622621178627 551.258146762848 2940.00005722046 174 174 172
5.43492799624801 550.50802230835 2936.00010871887 149 149 147
13.378300704062 548.444747924805 2924.99995231628 148 148 146
21.254438906908 546.193480491638 2913.00010681152 177 178 173
29.0851984173059 544.316530227661 2903.00011634827 160 159 155
36.9378589093685 543.564021587372 2898.9999294281 184 183 179
44.6758344769478 541.685879230499 2888.99993896484 188 187 183
52.3046478629112 539.244651794434 2875.99992752075 190 189 185
60.0088760256767 538.115501403809 2869.99988555908 178 177 173
67.7274912595749 537.360668182373 2865.9999370575 180 179 175
75.4768326878548 536.980271339417 2864.00008201599 173 172 168
83.215020596981 536.599338054657 2861.99998855591 170 169 165
90.9420475363731 536.217749118805 2859.99989509583 177 176 172
98.6578837037086 535.83562374115 2858.00004005432 169 168 164
106.325283646584 535.265445709229 2855.00001907349 150 149 145
114.015966653824 534.882247447968 2852.9999256134 154 153 149
121.738068759441 534.685909748077 2851.99999809265 153 152 148
129.545167088509 534.863948822021 2852.9999256134 156 155 151
137.405395507813 535.228967666626 2855.00001907349 153 154 148
145.123541355133 535.030901432037 2854.00009155273 153 154 148
152.942895889282 535.207271575928 2855.00001907349 153 154 148
160.598322749138 534.820675849915 2852.9999256134 151 152 146
168.478429317474 535.183370113373 2855.00001907349 153 154 148
176.183685660362 534.983217716217 2854.00009155273 161 162 157
184.39856171608 536.282062530518 2861.00006103516 169 170 165
192.718103528023 537.767767906189 2868.99995803833 174 175 170
200.870916247368 538.690507411957 2874.00007247925 171 172 167
208.832442760468 539.050340652466 2875.99992752075 172 173 168
216.954842209816 539.784550666809 2880.00011444092 172 173 168
225.41056573391 541.267812252045 2888.00001144409 168 170 167
233.747541904449 542.375683784485 2894.00005340576 166 166 164
242.199927568436 543.670415878296 2901.00002288818 171 171 169
250.603407621384 544.777035713196 2907.00006484985 174 174 172
259.127736091614 546.070575714111 2914.00003433228 180 179 177
267.872601747513 547.738313674927 2923.00009727478 169 168 166
276.571184396744 549.217879772186 2930.99999427795 169 168 166
285.215377807617 550.509631633759 2937.99996376038 156 156 154
294.695168733597 553.299725055695 2953.00006866455 176 176 174
-141.457110643387 554.29071187973 3000 200 205 201
-132.714733481407 551.898896694183 2986.99998855591 193 195 192
-124.292962253094 550.615072250366 2980.00001907349 179 180 175
-116.02583527565 549.884974956512 2976.0000705719 166 167 162
-108.03396999836 550.447702407837 2979.00009155273 154 155 150
-100.092485547066 551.379323005676 2983.99996757507 157 158 153
-92.1234712004662 552.310407161713 2989.00008201599 156 157 152
-84.0988233685493 553.056180477142 2993.00003051758 146 147 142
-76.1028677225113 554.170906543732 2999.00007247925 151 152 147
-68.0060386657715 554.730653762817 3002.00009346008 146 147 142
-59.9125735461712 555.474579334259 3006.00004196167 152 153 148
-51.8143363296986 556.402742862701 3010.99991798401 134 135 130
-35.1357609033585 551.974296569824 2986.99998855591 203 205 202
-26.8129408359528 548.096060752869 2966.00008010864 185 187 186
-18.6612457036972 545.880198478699 2953.9999961853 162 164 161
-10.5892149731517 544.402956962585 2946.00009918213 174 176 173
-2.56245606578887 543.294727802277 2940.00005722046 158 158 156
5.43533964082599 542.555391788483 2936.00010871887 152 152 150
13.3747411891818 540.337145328522 2924.00002479553 147 147 145
21.2414525449276 537.933528423309 2911.00001335144 164 164 162
29.1074365377426 536.822855472565 2904.99997138977 163 164 159
36.9661375880241 536.081194877625 2901.00002288818 186 185 181
44.6946769952774 534.045398235321 2890.00010490417 191 190 186
52.2904135286808 531.269907951355 2875 185 184 180
59.9924959242344 530.156970024109 2868.99995803833 186 185 181
67.732609808445 529.597818851471 2865.9999370575 180 179 175
75.5615755915642 529.777228832245 2867.00010299683 173 172 168
83.2503587007523 529.032111167908 2862.99991607666 170 169 165
90.9488722681999 528.471231460571 2859.99989509583 170 169 165
98.5962450504303 527.725040912628 2855.99994659424 159 158 154
106.296017765999 527.34786272049 2854.00009155273 152 151 147
114.024497568607 527.154862880707 2852.9999256134 150 149 145
121.74715846777 526.961266994476 2851.99999809265 156 155 151
129.554808139801 527.13668346405 2852.9999256134 156 155 151
137.367501854897 527.311563491821 2854.00009155273 153 154 148
145.134314894676 527.301132678986 2854.00009155273 153 154 148
152.95422077179 527.474820613861 2855.00001907349 153 154 148
160.722807049751 527.463316917419 2855.00001907349 151 152 146
168.608903884888 527.820646762848 2857.00011253357 152 153 147
176.258385181427 527.438461780548 2855.00001907349 163 164 159
184.412091970444 528.533756732941 2861.00006103516 170 171 166
192.59786605835 529.628396034241 2867.00010299683 174 175 170
200.885578989983 530.907094478607 2874.00007247925 171 172 167
208.99286866188 531.631112098694 2878.00002098084 173 174 169
217.196583747864 532.539248466492 2882.99989700317 174 175 170
225.817143917084 534.370422363281 2892.99988746643 169 171 168
234.006732702255 535.092771053314 2897.0000743866 167 167 165
242.21733212471 535.814464092255 2901.00002288818 172 172 170
250.621378421783 536.904990673065 2907.00006484985 173 173 171
259.146213531494 538.179695606232 2914.00003433228 180 179 177
268.07489991188 540.192484855652 2924.99995231628 156 155 153
276.496410369873 541.09662771225 2930.0000667572 169 168 166
285.526752471924 543.108224868774 2940.99998474121 156 156 154
-141.231790184975 545.25351524353 2994.99988555908 199 201 198
-132.591262459755 543.260991573334 2983.99996757507 190 192 189
-124.343886971474 542.724311351776 2980.99994659424 177 178 173
-116.112425923347 542.187035083771 2977.9999256134 168 169 164
-108.042009174824 542.377471923828 2979.00009155273 156 157 152
-99.99930113554 542.749226093292 2980.99994659424 155 156 151
-92.1303406357765 544.212996959686 2989.00008201599 154 155 150
-84.1613039374352 545.31192779541 2994.99988555908 151 152 146
-76.1339366436005 546.228289604187 3000 148 149 143
-68.0111348628998 546.597898006439 3002.00009346008 147 148 142
-59.8771944642067 546.966731548309 3003.99994850159 143 144 138
-51.7665892839432 547.699213027954 3007.99989700317 132 133 127
-35.1383946835995 543.882012367249 2986.99998855591 194 195 190
-26.8059093505144 539.87842798233 2964.99991416931 189 189 187
-18.6184253543615 536.602675914764 2947.00002670288 168 169 164
-10.5648469179869 535.147070884705 2938.99989128113 178 179 174
-2.55916221067309 534.601390361786 2936.00010871887 155 156 151
5.43019361793995 534.05499458313 2933.00008773804 153 154 149
13.3574483916163 531.687200069427 2920.00007629395 161 162 157
21.2357509881258 529.865026473999 2910.00008583069 165 166 161
29.0996022522449 528.770685195923 2904.00004386902 172 173 168
36.9434244930744 527.857720851898 2898.9999294281 190 191 186
44.6670949459076 525.851786136627 2888.00001144409 187 188 183
52.2761419415474 523.299038410187 2874.00007247925 184 185 179
59.9551685154438 522.020280361176 2867.00010299683 181 182 176
67.7140355110168 521.651327610016 2865.00000953674 169 170 164
75.5145102739334 521.646082401276 2865.00000953674 168 169 163
83.2274928689003 521.093964576721 2861.99998855591 162 163 157
90.8602476119995 520.177066326141 2857.00011253357 154 155 149
98.5000133514404 519.441723823547 2852.9999256134 152 153 147
106.1921864748 519.070088863373 2851.0000705719 150 151 145
113.992996513844 519.243955612183 2851.99999809265 151 152 146
121.756188571453 519.235193729401 2851.99999809265 153 154 148
129.609823226929 519.590139389038 2854.00009155273 153 154 148
137.329503893852 519.398212432861 2852.9999256134 151 150 145
145.145028829575 519.569933414459 2854.00009155273 152 151 146
152.965486049652 519.74093914032 2855.00001907349 153 154 149
160.847216844559 520.093619823456 2857.00011253357 151 152 147
168.798312544823 520.627677440643 2859.99989509583 152 153 148
176.641717553139 520.797073841095 2861.00006103516 164 165 160
184.618920087814 521.330058574677 2864.00008201599 170 171 166
192.746236920357 522.226512432098 2868.99995803833 171 171 169
200.970038771629 523.304343223572 2875 167 169 166
209.153234958649 524.199724197388 2880.00011444092 170 172 169
217.212244868279 524.730384349823 2882.99989700317 172 174 171
225.443065166473 525.624573230743 2888.00001144409 172 174 171
233.619570732117 526.336133480072 2891.99995994568 167 167 165
241.984099149704 527.411162853241 2898.00000190735 176 176 174
250.466763973236 528.667628765106 2904.99997138977 171 171 169
259.25350189209 530.469417572021 2914.99996185303 176 175 173
268.093854188919 532.270550727844 2924.99995231628 155 155 153
276.798993349075 533.70726108551 2933.00008773804 166 166 164
285.838067531586 535.689175128937 2944.00000572205 161 161 159
-141.147822141647 536.779999732971 2993.00003051758 197 199 196
-132.556572556496 534.996569156647 2983.00004005432 189 191 188
-124.353036284447 534.647285938263 2980.99994659424 174 175 170
-116.159990429878 534.297406673431 2979.00009155273 164 165 160
-108.013711869717 534.126281738281 2977.9999256134 157 158 153
-99.973164498806 534.49273109436 2980.00001907349 158 159 154
-92.0755192637444 535.755276679993 2986.99998855591 157 158 153
-84.1675400733948 537.196636199951 2994.99988555908 152 153 147
-76.1142075061798 537.92005777359 2999.00007247925 149 150 144
-68.0388361215591 538.642883300781 3003.00002098084 149 150 144
-59.9015839397907 539.006352424622 3005.00011444092 145 146 140
-51.8220700323582 540.086686611176 3010.99991798401 130 131 125
-43.6517708003521 540.44896364212 3013.00001144409 217 218 212
-35.0821949541569 534.891366958618 2982.00011253357 189 190 185
-26.789827272296 531.485557556152 2963.00005912781 188 189 184
-18.6324473470449 528.975963592529 2948.99988174438 173 174 169
-10.5764186009765 527.721405029297 2941.99991226196 168 169 164
-2.56022438406944 526.825070381165 2937.00003623962 157 158 153
5.42504340410233 525.569319725037 2930.0000667572 152 153 148
13.3447190746665 523.236751556396 2917.00005531311 178 179 174
21.2227366864681 521.62104845047 2907.99999237061 166 167 162
29.1017685085535 520.901739597321 2904.00004386902 179 180 175
