ply
format ascii 1.0
comment KinectMotionCapture
element vertex 794
property float x
property float y
property float z
property uchar red
property uchar green
property uchar blue
end_header
115.306131541729 368.13148856163 2881.00004196167 129 131 126
123.286753892899 368.507862091064 2884.0000629425 137 139 134
131.146833300591 368.500471115112 2884.0000629425 142 144 139
139.19922709465 369.003683328629 2888.00001144409 129 132 125
146.916463971138 368.612080812454 2884.99999046326 135 138 131
154.777750372887 368.603348731995 2884.99999046326 130 133 126
162.582084536552 368.466436862946 2884.0000629425 128 131 124
170.439481735229 368.456870317459 2884.0000629425 124 127 120
178.110793232918 368.063539266586 2881.00004196167 112 115 108
186.087816953659 368.308544158936 2882.99989700317 108 111 104
194.209665060043 368.808686733246 2887.00008392334 132 135 128
202.492579817772 369.563817977905 2892.99988746643 102 105 98
210.662007331848 370.063036680222 2897.0000743866 29 32 25
219.07876431942 370.944976806641 2904.00004386902 5 8 1
228.236392140388 372.976034879684 2920.00007629395 25 28 21
235.296383500099 371.557891368866 2908.99991989136 5 8 1
245.639979839325 375.248342752457 2937.99996376038 22 25 18
259.421169757843 383.791446685791 3005.00011444092 33 36 29
269.720315933228 375.332802534103 2938.99989128113 24 29 22
-157.54123032093 374.017477035522 2990.9999370575 202 204 201
-148.041889071465 370.649844408035 2963.99998664856 183 185 182
-139.444708824158 369.282454252243 2953.00006866455 179 179 177
-131.129458546638 368.539899587631 2947.00002670288 166 168 163
-122.971743345261 368.172019720078 2944.00000572205 156 158 153
-114.907987415791 368.053764104843 2943.00007820129 154 156 151
-107.067197561264 368.685454130173 2947.99995422363 147 152 146
-99.4002893567085 370.067089796066 2959.00011062622 140 145 139
-59.0033493936062 369.714736938477 2956.00008964539 16 23 16
-50.5986511707306 367.216438055038 2936.00010871887 13 20 13
-43.0136770009995 370.84624171257 2964.99991416931 20 27 19
-34.9758900702 371.348887681961 2969.00010108948 25 28 19
-10.5329565703869 365.974515676498 2926.00011825562 23 26 17
-2.56015453487635 366.850435733795 2933.00008773804 24 27 18
5.42673142626882 366.099894046783 2927.00004577637 15 18 11
13.2800936698914 362.597197294235 2898.9999294281 9 12 5
21.090317517519 360.970228910446 2885.99991798401 59 62 55
28.9198737591505 360.468447208405 2881.99996948242 112 115 108
36.8040725588799 360.716700553894 2884.0000629425 121 124 117
44.6990467607975 360.964506864548 2885.99991798401 133 136 129
52.5865368545055 361.086755990982 2887.00008392334 134 136 131
60.4164563119411 360.833317041397 2884.99999046326 139 141 136
68.1405663490295 360.079169273376 2878.99994850159 131 133 128
75.9372860193253 359.824866056442 2877.00009346008 125 127 122
83.8101878762245 359.945356845856 2878.00002098084 117 119 114
91.7837545275688 360.44055223465 2881.99996948242 115 117 112
99.6750593185425 360.560089349747 2882.99989700317 110 112 107
107.608765363693 360.804319381714 2884.99999046326 116 118 113
115.312799811363 360.297620296478 2881.00004196167 123 125 120
123.208358883858 360.41584610939 2881.99996948242 140 142 137
130.927011370659 360.033392906189 2878.99994850159 139 141 136
138.821646571159 360.150784254074 2880.00011444092 127 130 123
146.568417549133 359.892547130585 2878.00002098084 132 135 128
154.572010040283 360.259115695953 2881.00004196167 121 124 117
162.478640675545 360.375136137009 2881.99996948242 118 121 114
170.21282017231 360.115617513657 2880.00011444092 122 125 118
177.873656153679 359.730690717697 2877.00009346008 120 123 116
185.840204358101 359.970450401306 2878.99994850159 104 107 100
194.153413176537 360.834956169128 2885.99991798401 77 80 73
202.504023909569 361.699014902115 2892.99988746643 25 28 21
210.52847802639 361.937493085861 2894.99998092651 5 8 1
219.996422529221 364.550858736038 2915.99988937378 24 27 20
228.561878204346 365.538507699966 2924.00002479553 16 19 12
235.228687524796 363.525480031967 2907.99999237061 17 20 13
243.814200162888 364.512205123901 2915.99988937378 17 20 13
253.046840429306 366.37356877327 2930.99999427795 38 41 34
272.947430610657 371.719390153885 2973.99997711182 15 20 13
-148.000299930573 362.467169761658 2963.00005912781 136 141 135
-139.547049999237 361.496537923813 2954.99992370605 140 145 139
-131.225883960724 360.770136117935 2948.99988174438 153 159 157
-122.97872453928 360.165625810623 2944.00000572205 153 159 157
-114.758335053921 359.560608863831 2938.99989128113 152 158 156
-106.891684234142 360.05625128746 2943.00007820129 148 154 152
-99.3051677942276 361.652553081512 2956.00008964539 150 156 152
-67.2938749194145 362.894922494888 2966.00008010864 70 77 70
-58.7272644042969 359.96201634407 2941.99991226196 15 21 17
-50.6187900900841 359.353393316269 2937.00003623962 13 19 15
-41.9860854744911 354.094803333282 2894.00005340576 28 31 22
-34.7422733902931 360.82649230957 2948.99988174438 25 28 17
-26.4559350907803 357.524633407593 2921.99993133545 20 23 14
-18.202867358923 352.019876241684 2877.00009346008 16 19 10
-10.2059626951814 346.881687641144 2835.00003814697 17 20 11
-2.49832356348634 350.185692310333 2861.99998855591 17 20 11
5.3825443610549 355.202257633209 2903.00011634827 17 20 11
13.1846508011222 352.142781019211 2878.00002098084 24 27 20
21.091528236866 353.120654821396 2885.99991798401 14 17 10
28.9014633744955 352.385103702545 2880.00011444092 62 65 58
36.7551408708096 352.383255958557 2880.00011444092 126 129 122
44.6241647005081 352.503299713135 2881.00004196167 131 134 127
52.4438209831715 352.255821228027 2878.99994850159 117 122 115
60.2733194828033 352.130264043808 2878.00002098084 103 108 101
68.073458969593 351.881891489029 2875.99992752075 91 96 89
75.9416371583939 352.000176906586 2877.00009346008 91 96 89
83.756722509861 351.873308420181 2875.99992752075 104 109 102
91.6615873575211 352.113008499146 2878.00002098084 104 109 102
99.5078682899475 352.107614278793 2878.00002098084 120 122 117
107.428379356861 352.346479892731 2880.00011444092 126 128 123
115.159250795841 351.97314620018 2877.00009346008 131 133 128
123.044349253178 352.088809013367 2878.00002098084 138 140 135
130.75253367424 351.714640855789 2875 131 133 128
138.636663556099 351.829409599304 2875.99992752075 126 129 122
146.474823355675 351.821392774582 2875.99992752075 126 129 122
154.366105794907 351.93532705307 2877.00009346008 110 113 106
162.20586001873 351.926505565643 2877.00009346008 109 112 105
169.985935091972 351.794898509979 2875.99992752075 122 125 118
177.698105573654 351.540625095367 2874.00007247925 72 75 68
185.33419072628 351.163625717163 2871.00005149841 16 19 12
193.962395191193 352.620840072632 2882.99989700317 18 21 14
203.215330839157 355.05610704422 2903.00011634827 6 9 2
212.067365646362 356.634587049484 2915.99988937378 10 13 6
219.480454921722 355.766624212265 2908.99991989136 16 19 12
225.916624069214 353.430807590485 2890.00010490417 12 15 6
230.387941002846 348.282098770142 2848.00004959106 8 11 4
237.305462360382 347.046464681625 2838.00005912781 24 27 20
246.326178312302 348.867565393448 2852.9999256134 5 8 1
260.949552059174 358.269333839417 2930.0000667572 13 18 11
274.797916412354 366.080433130264 2993.99995803833 19 24 17
281.149864196777 363.742351531982 2974.99990463257 27 32 25
-148.508056998253 355.604410171509 2973.00004959106 162 169 162
-139.790967106819 354.057401418686 2960.00003814697 171 178 171
-131.32219016552 352.988302707672 2950.99997520447 170 176 174
-123.027361929417 352.277636528015 2944.9999332428 164 173 170
-114.764750003815 351.5664935112 2938.99989128113 162 168 166
-106.788709759712 351.692289113998 2940.00005722046 155 161 159
-99.0755632519722 352.77459025383 2948.99988174438 153 159 155
-91.5599390864372 354.813545942307 2966.00008010864 84 91 84
-66.2085562944412 349.084496498108 2917.99998283386 0 7 0
-58.0119080841541 347.652345895767 2905.99989891052 4 10 6
-49.3634268641472 342.63077378273 2864.00008201599 27 33 29
-42.5107665359974 350.529193878174 2930.0000667572 21 26 20
-34.485038369894 350.172430276871 2927.00004577637 26 29 18
-26.3578277081251 348.25998544693 2911.00001335144 23 26 17
-18.2102229446173 344.313234090805 2878.00002098084 17 20 11
-10.3325443342328 343.356877565384 2869.99988555908 15 18 9
20.9757778793573 343.355715274811 2869.99988555908 19 22 15
28.9131291210651 344.670325517654 2881.00004196167 6 9 2
36.7572158575058 344.548910856247 2880.00011444092 32 35 28
44.6266792714596 344.666242599487 2881.00004196167 92 97 90
52.4103455245495 344.184964895248 2877.00009346008 91 96 89
60.234822332859 344.062179327011 2875.99992752075 104 109 102
68.0299550294876 343.819379806519 2874.00007247925 124 129 122
75.9195014834404 344.054609537125 2875.99992752075 119 124 117
83.7031826376915 343.810945749283 2874.00007247925 107 112 105
91.6030183434486 344.045281410217 2875.99992752075 119 124 117
99.340558052063 343.68109703064 2872.99990653992 122 127 120
107.247874140739 343.91462802887 2875 129 134 127
115.045607089996 343.788892030716 2874.00007247925 119 124 117
123.008452355862 344.141155481339 2877.00009346008 104 109 102
130.805298686028 344.014495611191 2875.99992752075 90 95 88
138.451546430588 343.528628349304 2871.99997901917 102 104 99
146.330177783966 343.64041686058 2872.99990653992 95 97 92
154.160022735596 343.632131814957 2872.99990653992 24 27 20
162.21484541893 344.101905822754 2877.00009346008 5 8 1
170.46819627285 344.930022954941 2884.0000629425 14 17 10
179.068222641945 346.355646848679 2895.99990844727 13 16 9
185.796245932579 344.192981719971 2878.00002098084 18 21 14
193.838447332382 344.541430473328 2881.00004196167 17 20 11
202.106326818466 345.248281955719 2887.00008392334 13 16 7
212.078928947449 348.705023527145 2915.99988937378 15 18 9
219.115138053894 347.258448600769 2904.00004386902 17 20 11
226.319760084152 346.170276403427 2894.99998092651 23 26 15
233.312770724297 344.8426425457 2884.0000629425 16 19 8
236.147537827492 337.655961513519 2823.99988174438 21 24 15
261.230707168579 350.661754608154 2933.00008773804 26 29 22
273.160398006439 355.788469314575 2976.0000705719 27 30 23
284.189105033875 359.479814767838 3006.99996948242 32 35 28
-148.765921592712 348.101496696472 2977.9999256134 191 196 190
-139.79859650135 346.005231142044 2960.00003814697 182 185 178
-131.240367889404 344.726711511612 2948.99988174438 169 171 166
-122.908763587475 343.915343284607 2941.99991226196 162 164 159
-114.653907716274 343.220412731171 2936.00010871887 165 167 162
-106.649272143841 343.226402997971 2936.00010871887 157 158 152
-98.8458245992661 343.933403491974 2941.99991226196 154 155 149
-91.2253856658936 345.45835852623 2954.99992370605 131 132 124
-58.0151230096817 339.746117591858 2905.99989891052 14 19 12
-50.0556267797947 339.515268802643 2904.00004386902 10 15 8
-42.1068519353867 339.28394317627 2901.99995040894 26 29 20
-34.5458574593067 342.793464660645 2931.99992179871 25 28 17
-26.3230688869953 339.872300624847 2907.00006484985 23 26 17
-18.2365402579308 336.950600147247 2881.99996948242 20 23 14
-10.3799235075712 337.068289518356 2882.99989700317 17 20 11
-2.50209518708289 335.081100463867 2865.9999370575 11 14 5
36.7975383996964 337.063997983933 2882.99989700317 8 11 4
44.5671863853931 336.360275745392 2877.00009346008 1 6 0
52.3768067359924 336.123794317245 2875 12 17 10
60.2381564676762 336.237609386444 2875.99992752075 44 49 42
68.1283995509148 336.467921733856 2878.00002098084 110 115 108
76.055683195591 336.814671754837 2881.00004196167 126 131 124
83.8242992758751 336.459636688232 2878.00002098084 138 143 136
91.7036309838295 336.571723222733 2878.99994850159 131 136 129
99.3460267782211 335.865080356598 2872.99990653992 96 101 94
107.216447591782 335.976362228394 2874.00007247925 99 104 97
114.971838891506 335.736513137817 2871.99997901917 53 58 51
122.972428798676 336.197644472122 2875.99992752075 46 51 44
130.903407931328 336.424589157104 2878.00002098084 34 39 32
138.603731989861 336.066603660584 2875 11 13 8
146.541878581047 336.292684078217 2877.00009346008 4 6 1
154.06109392643 335.5832695961 2871.00005149841 18 21 14
161.828935146332 335.457861423492 2869.99988555908 19 22 15
170.181855559349 336.500912904739 2878.99994850159 14 17 10
178.768709301949 337.894082069397 2891.00003242493 15 18 11
187.032923102379 338.585585355759 2897.0000743866 16 19 12
194.387167692184 337.640404701233 2888.99993896484 16 19 10
204.077452421188 340.668439865112 2914.99996185303 13 16 7
212.672144174576 341.709136962891 2924.00002479553 13 16 7
219.202280044556 339.477330446243 2904.99997138977 18 21 12
227.113619446754 339.465588331223 2904.99997138977 58 61 50
238.502949476242 344.478011131287 2947.99995422363 45 48 37
247.474908828735 334.871083498001 2865.9999370575 29 32 23
259.997427463531 341.050416231155 2918.99991035461 31 34 27
270.69628238678 344.541639089584 2948.99988174438 29 32 25
-139.900550246239 338.180214166641 2961.99989318848 189 190 184
-131.380945444107 337.045669555664 2951.99990272522 188 189 183
-122.99894541502 336.139053106308 2944.00000572205 172 173 165
-114.777237176895 335.574448108673 2938.99989128113 169 169 161
-106.618694961071 335.123658180237 2934.99994277954 168 165 156
-98.7503454089165 335.585832595825 2938.99989128113 168 165 156
-90.9215807914734 336.276054382324 2944.9999332428 143 141 129
-83.34119617939 338.10767531395 2960.99996566772 139 137 125
-66.6696429252625 335.489392280579 2937.99996376038 4 4 0
-57.9583719372749 331.496089696884 2903.00011634827 25 28 19
-49.7308298945427 329.443544149399 2884.99999046326 14 17 8
-42.2107093036175 332.186609506607 2908.99991989136 24 27 16
-34.5241688191891 334.5867395401 2930.0000667572 22 25 14
-26.0709449648857 328.764498233795 2878.99994850159 19 22 13
-18.2438623160124 329.222440719604 2882.99989700317 19 22 13
-10.3732878342271 328.99484038353 2881.00004196167 20 23 14
-2.53016990609467 330.936521291733 2898.00000190735 19 22 13
36.7229506373405 328.533828258514 2877.00009346008 21 24 17
44.6470640599728 329.102575778961 2881.99996948242 18 21 14
52.2338971495628 327.387094497681 2867.00010299683 11 14 7
59.9481724202633 326.813131570816 2861.99998855591 10 13 6
67.8716823458672 327.380657196045 2867.00010299683 8 11 4
76.0598033666611 328.975409269333 2881.00004196167 10 13 6
83.8288366794586 328.628599643707 2878.00002098084 13 16 9
91.8041467666626 329.080611467361 2881.99996948242 5 8 1
99.4897037744522 328.504592180252 2877.00009346008 24 27 20
107.483386993408 328.955799341202 2881.00004196167 16 19 12
115.258261561394 328.72149348259 2878.99994850159 21 24 17
123.363874852657 329.400211572647 2884.99999046326 14 17 10
131.365284323692 329.735964536667 2888.00001144409 14 17 10
138.755813241005 328.587085008621 2878.00002098084 12 14 9
145.683750510216 326.524436473846 2859.99989509583 9 11 6
152.459383010864 324.347376823425 2841.00008010864 13 16 9
160.935327410698 325.823277235031 2854.00009155273 15 18 11
169.126838445663 326.61372423172 2861.00006103516 13 16 9
178.716346621513 329.915195703506 2890.00010490417 9 12 5
186.009779572487 328.878194093704 2881.00004196167 24 27 18
194.66657936573 330.238074064255 2892.99988746643 29 32 23
203.948169946671 332.510679960251 2913.00010681152 22 25 16
211.374014616013 331.700801849365 2905.99989891052 12 15 6
218.836456537247 331.004798412323 2900.00009536743 18 21 12
226.265415549278 330.308467149735 2894.00005340576 45 48 37
233.74180495739 329.725921154022 2888.99993896484 33 36 25
242.862701416016 331.425607204437 2904.00004386902 32 35 26
249.387502670288 329.586982727051 2888.00001144409 33 36 27
257.605791091919 330.030500888824 2891.99995994568 32 35 28
263.366430997849 327.392518520355 2868.99995803833 29 32 25
-148.981526494026 332.341760396957 2982.00011253357 205 204 199
-140.096843242645 330.566048622131 2966.00008010864 184 183 178
-131.610408425331 329.570025205612 2957.00001716614 183 180 171
-123.172543942928 328.573554754257 2947.99995422363 178 175 166
-114.978559315205 328.133940696716 2944.00000572205 184 180 169
-106.805987656116 327.693909406662 2940.00005722046 168 162 150
-98.7891927361488 327.699303627014 2940.00005722046 170 164 152
-90.8337756991386 327.92717218399 2941.99991226196 169 163 149
-82.9797014594078 328.60055565834 2947.99995422363 143 137 123
-75.1942619681358 329.719364643097 2957.99994468689 137 133 121
-67.0135915279388 329.165756702423 2953.00006866455 12 10 0
-57.9215250909328 323.372662067413 2901.00002288818 27 29 18
-49.733467400074 321.591943502426 2884.99999046326 14 16 5
-42.0678444206715 323.154956102371 2898.9999294281 23 26 15
-34.1725014150143 323.268502950668 2900.00009536743 21 24 13
-26.470797136426 325.833946466446 2923.00009727478 18 21 12
-18.2258505374193 321.041792631149 2880.00011444092 16 19 10
-10.3882430121303 321.599900722504 2884.99999046326 17 20 11
-2.50236457213759 319.482237100601 2865.9999370575 16 19 10
5.3447806276381 321.26572728157 2881.99996948242 9 12 3
13.1371431052685 319.593191146851 2867.00010299683 16 19 12
20.8768639713526 318.366050720215 2855.99994659424 5 8 1
28.6769457161427 318.476229906082 2857.00011253357 19 22 15
36.8653200566769 321.930140256882 2888.00001144409 14 17 10
44.7578877210617 322.0394551754 2888.99993896484 16 19 12
52.3459948599339 320.253372192383 2872.99990653992 8 11 4
59.8047263920307 318.243950605392 2855.00001907349 14 17 10
67.5201639533043 317.906200885773 2851.99999809265 10 13 6
75.5886137485504 319.128602743149 2862.99991607666 11 14 7
83.5128575563431 319.570302963257 2867.00010299683 9 12 5
91.3311690092087 319.565683603287 2867.00010299683 13 16 9
99.0108028054237 319.114834070206 2862.99991607666 24 27 20
106.854811310768 319.220960140228 2864.00008201599 16 19 12
114.663802087307 319.21511888504 2864.00008201599 13 16 9
123.113811016083 320.880800485611 2878.99994850159 1 4 0
131.281226873398 321.654319763184 2885.99991798401 12 15 8
137.895211577415 318.749606609344 2859.99989509583 11 13 8
145.640462636948 318.630784749985 2858.99996757507 14 16 11
152.252674102783 316.171199083328 2836.99989318848 8 11 4
158.96999835968 314.15718793869 2819.00000572205 10 13 6
168.3080047369 317.269086837769 2846.99988365173 9 12 5
177.055880427361 319.043189287186 2862.99991607666 9 12 5
185.954868793488 320.928275585175 2880.00011444092 22 25 16
194.407477974892 321.9213783741 2888.99993896484 23 26 17
203.118458390236 323.248356580734 2901.00002288818 17 20 11
211.166709661484 323.460668325424 2903.00011634827 13 16 7
219.074100255966 323.449730873108 2903.00011634827 18 21 12
226.277038455009 322.435677051544 2894.00005340576 29 32 21
233.430087566376 321.421295404434 2884.99999046326 22 25 14
241.369649767876 321.520745754242 2885.99991798401 32 35 26
251.645445823669 324.627667665482 2914.00003433228 30 33 24
255.124598741531 319.044947624207 2864.00008201599 35 38 31
261.635482311249 317.472487688065 2849.99990463257 30 33 26
269.77065205574 317.904829978943 2854.00009155273 35 38 31
-149.488806724548 325.313538312912 2992.00010299683 212 211 206
-140.576407313347 323.581218719482 2976.0000705719 198 195 188
-132.062286138535 322.609603404999 2967.00000762939 208 204 195
-123.638540506363 321.74625992775 2959.00011062622 93 84 69
-115.218862891197 320.773750543594 2950.00004768372 102 90 76
-106.920510530472 320.018291473389 2943.00007820129 110 97 80
-98.962314426899 320.241004228592 2944.9999332428 129 116 99
-90.8384844660759 319.919675588608 2941.99991226196 127 112 93
-82.8714147210121 320.141613483429 2944.00000572205 120 107 90
-74.7660025954247 319.819450378418 2940.99998474121 97 88 71
-66.5404871106148 318.844348192215 2931.99992179871 20 13 0
-57.8247010707855 314.93267416954 2895.99990844727 30 26 14
-49.891222268343 314.717948436737 2894.00005340576 16 14 2
-42.0410148799419 315.046578645706 2897.0000743866 20 22 11
-34.3746170401573 317.22354888916 2917.00005531311 19 22 11
-26.3816136866808 316.790103912354 2913.00010681152 20 23 14
-18.3976776897907 316.13877415657 2907.00006484985 21 24 15
-10.3491749614477 312.550753355026 2874.00007247925 20 23 14
-2.51908553764224 313.747316598892 2884.99999046326 16 19 10
5.35062421113253 313.747256994247 2884.99999046326 14 17 8
13.1836533546448 312.876760959625 2877.00009346008 32 35 28
20.8779536187649 310.592114925385 2855.99994659424 40 43 36
28.7386700510979 311.352103948593 2862.99991607666 10 13 6
37.1863879263401 316.787898540497 2913.00010681152 21 24 17
45.039102435112 316.133260726929 2907.00006484985 4 7 0
52.4580478668213 313.085794448853 2878.99994850159 11 12 6
60.080174356699 311.886668205261 2868.00003051758 16 17 11
67.7841156721115 311.339646577835 2862.99991607666 16 17 11
75.2757042646408 310.031056404114 2851.0000705719 20 21 15
83.0219686031342 309.918195009232 2849.99990463257 22 23 17
90.9217596054077 310.348689556122 2854.00009155273 14 15 9
98.7046882510185 310.343861579895 2854.00009155273 17 18 12
106.337957084179 309.903591871262 2849.99990463257 22 23 17
114.509560167789 310.985326766968 2859.99989509583 17 18 12
122.863560914993 312.392830848694 2872.99990653992 21 22 16
130.150705575943 311.08158826828 2861.00006103516 7 8 2
137.227267026901 309.443831443787 2845.99995613098 8 10 5
145.749822258949 311.067551374435 2861.00006103516 7 9 4
153.119206428528 310.190141201019 2852.9999256134 16 19 12
158.808931708336 306.159496307373 2815.99998474121 15 18 11
167.96188056469 308.869272470474 2841.00008010864 7 10 3
177.930757403374 312.774330377579 2877.00009346008 12 15 8
186.48087978363 313.961029052734 2888.00001144409 20 23 14
193.542495369911 312.646925449371 2875.99992752075 19 22 13
201.448261737823 312.745749950409 2877.00009346008 21 24 15
210.449904203415 314.474731683731 2892.99988746643 19 22 13
218.63229572773 314.89884853363 2897.0000743866 11 14 5
226.288378238678 314.561694860458 2894.00005340576 19 22 11
234.574571251869 315.093696117401 2898.9999294281 20 23 12
244.141757488251 317.255675792694 2918.99991035461 22 25 14
251.744300127029 316.808700561523 2914.99996185303 20 23 14
254.513651132584 310.492843389511 2857.00011253357 31 34 27
262.474656105042 310.697555541992 2858.99996757507 29 32 25
-141.15035533905 316.752821207047 2987.99991607666 64 61 54
-132.469579577446 315.487563610077 2976.0000705719 62 58 47
-123.728357255459 313.90380859375 2960.99996566772 103 90 73
-115.185625851154 312.637597322464 2948.99988174438 119 103 87
-106.889583170414 311.901062726974 2941.99991226196 123 106 86
-98.9001467823982 312.012284994125 2943.00007820129 127 110 90
-90.7813534140587 311.698973178864 2940.00005722046 134 116 96
-82.7067196369171 311.491250991821 2937.99996376038 135 118 100
-74.6172592043877 311.177134513855 2934.99994277954 123 110 93
-66.6573569178581 311.39275431633 2937.00003623962 74 62 46
-58.2669489085674 309.381425380707 2917.99998283386 24 18 6
-50.0316917896271 307.687789201736 2901.99995040894 20 18 6
-42.3189029097557 309.174448251724 2915.99988937378 20 22 11
-34.2231690883636 307.904094457626 2904.00004386902 18 21 10
-26.4373049139977 309.49604511261 2918.99991035461 18 21 12
-18.4682365506887 309.391140937805 2917.99998283386 21 24 15
-10.4757435619831 308.437585830688 2908.99991989136 21 24 15
-2.52270698547363 306.317359209061 2888.99993896484 19 22 13
5.36202592775226 306.529343128204 2891.00003242493 17 20 11
13.179742731154 304.938435554504 2875.99992752075 32 35 28
20.8717118948698 302.711009979248 2855.00001907349 28 31 24
28.5694841295481 301.755487918854 2845.99995613098 13 16 9
36.9329564273357 306.737124919891 2892.99988746643 11 14 7
45.6456728279591 312.354505062103 2946.00009918213 11 14 7
53.1895942986012 309.489250183105 2918.99991035461 11 12 6
60.6279224157333 306.835770606995 2894.00005340576 12 13 7
68.5689076781273 307.044565677643 2895.99990844727 13 14 8
75.490765273571 303.118079900742 2858.99996757507 13 14 8
82.9679295420647 301.947832107544 2848.00004959106 13 14 8
90.5440673232079 301.307380199432 2842.00000762939 16 17 11
98.3638316392899 301.514685153961 2844.00010108948 15 16 10
106.007538735867 301.191478967667 2841.00008010864 16 17 11
114.355199038982 302.776157855988 2855.99994659424 21 22 16
122.313797473907 303.194314241409 2859.99989509583 22 23 17
130.293756723404 303.61208319664 2864.00008201599 23 24 18
137.234181165695 301.697224378586 2845.99995613098 14 16 11
143.566459417343 298.722058534622 2818.00007820129 13 15 10
163.610726594925 307.505041360855 2901.00002288818 14 17 10
169.803082942963 304.422825574875 2871.99997901917 11 14 7
176.640793681145 302.718341350555 2855.99994659424 11 14 7
184.294655919075 302.49747633934 2854.00009155273 17 20 11
192.47530400753 303.124129772186 2859.99989509583 17 20 11
198.937386274338 301.100820302963 2841.00008010864 27 30 21
208.277836441994 303.422451019287 2862.99991607666 22 25 16
219.624206423759 308.393061161041 2910.00008583069 12 15 6
227.785229682922 308.700114488602 2913.00010681152 17 20 9
235.880792140961 308.90080332756 2914.99996185303 18 21 10
251.583844423294 308.665335178375 2913.00010681152 20 23 14
255.862325429916 304.30880188942 2871.99997901917 30 33 26
-142.2438621521 310.994118452072 3010.99991798401 248 245 238
-132.921263575554 308.418691158295 2986.00006103516 181 175 163
-123.985193669796 306.462436914444 2967.00000762939 126 108 88
-115.113213658333 304.402470588684 2947.00002670288 136 115 94
-106.785885989666 303.581535816193 2938.99989128113 138 116 93
-98.7370237708092 303.483337163925 2937.99996376038 141 119 95
-90.6932279467583 303.3846616745 2937.00003623962 144 120 96
-82.682691514492 303.388923406601 2937.00003623962 135 113 90
-74.6718347072601 303.392827510834 2937.00003623962 129 112 92
-66.7287781834602 303.70619893074 2940.00005722046 121 108 89
-58.7291456758976 303.812563419342 2940.99998474121 24 16 3
-50.4997037351131 302.575647830963 2928.99990081787 26 20 8
-42.1904027462006 300.305247306824 2907.00006484985 20 22 11
-34.1659523546696 299.480706453323 2898.9999294281 20 23 12
-26.3118240982294 300.102025270462 2904.99997138977 19 22 13
-10.4906735941768 300.930291414261 2913.00010681152 11 14 5
-2.52283341251314 298.451244831085 2888.99993896484 14 17 8
5.34745492041111 297.831326723099 2882.99989700317 17 20 11
13.1483245640993 296.384632587433 2868.99995803833 26 29 22
20.9531765431166 296.073853969574 2865.9999370575 24 27 20
28.7114586681128 295.452803373337 2859.99989509583 14 17 10
36.5007296204567 295.34786939621 2858.99996757507 9 12 5
45.3225560486317 302.163928747177 2924.99995231628 5 8 1
52.3357875645161 296.686440706253 2871.99997901917 8 11 4
61.0290132462978 300.919055938721 2913.00010681152 9 12 5
68.5723349452019 299.159735441208 2895.99990844727 12 15 8
84.0499997138977 298.015922307968 2884.99999046326 10 13 6
90.4848352074623 293.363213539124 2839.99991416931 12 15 8
98.4032973647118 293.875098228455 2845.00002861023 14 17 10
106.199353933334 293.973326683044 2845.99995613098 17 20 13
114.320829510689 294.897586107254 2855.00001907349 19 22 15
122.148759663105 294.995069503784 2855.99994659424 18 21 14
130.02721965313 295.195490121841 2858.00004005432 14 16 11
137.530252337456 294.569253921509 2851.99999809265 11 13 8
164.577543735504 301.363825798035 2917.99998283386 13 16 9
170.520931482315 297.844350337982 2884.0000629425 9 12 5
173.556789755821 289.780706167221 2805.99999427795 11 14 7
187.14502453804 299.272894859314 2898.00000190735 18 21 14
191.609725356102 293.997138738632 2846.99988365173 20 23 14
198.947012424469 293.368220329285 2841.00008010864 25 28 19
207.851409912109 295.010656118393 2857.00011253357 23 26 17
219.030976295471 299.647063016891 2901.99995040894 18 21 12
228.343546390533 301.494985818863 2920.00007629395 16 19 8
235.649302601814 300.657957792282 2911.99994087219 17 20 9
242.408737540245 299.201190471649 2898.00000190735 17 20 11
250.904858112335 299.91227388382 2904.99997138977 19 22 13
258.36905837059 299.384117126465 2900.00009536743 23 26 19
266.631454229355 299.784749746323 2904.00004386902 33 36 29
276.710838079453 302.146345376968 2927.00004577637 31 34 27
-133.239284157753 300.992488861084 2993.00003051758 178 172 160
-124.074779450893 298.585057258606 2969.00010108948 134 113 92
-115.235969424248 296.679943799973 2950.00004768372 141 119 96
-106.863729655743 295.780152082443 2940.99998474121 148 124 100
-98.6409783363342 295.181632041931 2934.99994277954 156 130 105
-90.6667560338974 295.286774635315 2936.00010871887 158 132 107
-82.6304033398628 295.190364122391 2934.99994277954 146 122 96
-74.7517421841621 295.697003602982 2940.00005722046 124 106 84
-66.8455064296722 296.203315258026 2944.9999332428 112 97 78
-58.9716546237469 297.010987997055 2953.00006866455 22 14 1
-50.4849292337894 294.499129056931 2927.99997329712 33 27 15
-42.3521175980568 293.495565652847 2917.99998283386 18 20 9
-34.3208387494087 292.893916368485 2911.99994087219 18 21 10
-26.3765137642622 292.895376682281 2911.99994087219 19 22 13
-18.406767398119 292.494148015976 2907.99999237061 13 16 7
-10.4371644556522 291.489005088806 2898.00000190735 13 16 7
-2.51160399056971 289.276480674744 2875.99992752075 19 22 13
5.31989336013794 288.471788167953 2868.00003051758 18 21 12
13.1398001685739 288.370758295059 2867.00010299683 22 25 18
21.0492461919785 289.576888084412 2878.99994850159 20 23 16
28.7831388413906 288.368731737137 2867.00010299683 16 19 12
44.0231375396252 285.750061273575 2841.00008010864 7 10 3
51.9191920757294 286.552399396896 2848.99997711182 8 11 4
60.0263029336929 288.15895318985 2865.00000953674 11 14 7
68.6230361461639 291.474997997284 2898.00000190735 11 14 7
75.7622718811035 288.554728031158 2868.99995803833 10 13 6
89.4696414470673 282.411694526672 2808.00008773804 9 12 5
97.8200435638428 284.418672323227 2828.00006866455 13 16 9
106.204509735107 286.224067211151 2845.99995613098 17 20 13
114.286333322525 287.023365497589 2854.00009155273 19 22 15
121.855266392231 286.51487827301 2848.99997711182 17 20 13
129.260003566742 285.704344511032 2841.00008010864 13 15 10
162.385702133179 289.497941732407 2878.99994850159 11 14 7
166.390016674995 282.954186201096 2813.99989128113 10 13 6
178.018629550934 289.381295442581 2878.00002098084 11 14 7
186.895579099655 290.981471538544 2894.00005340576 19 22 13
194.311067461967 290.26871919632 2887.00008392334 16 19 10
199.936881661415 287.042140960693 2855.00001907349 14 17 8
208.516001701355 288.138508796692 2865.9999370575 17 20 11
218.663901090622 291.24516248703 2897.0000743866 17 20 11
227.806851267815 292.843282222748 2913.00010681152 18 21 10
235.660329461098 292.73197054863 2911.99994087219 20 23 12
243.842139840126 293.022513389587 2914.99996185303 21 24 15
252.125769853592 293.413132429123 2918.99991035461 23 26 17
261.321246623993 294.808596372604 2933.00008773804 26 29 22
272.152930498123 297.912240028381 2963.99998664856 27 30 23
280.127137899399 297.79914021492 2963.00005912781 26 29 22
-142.824396491051 295.77100276947 3023.00000190735 222 222 212
-133.290097117424 292.940020561218 2993.99995803833 139 133 121
-124.540351331234 291.576236486435 2980.00001907349 148 126 103
-115.475825965405 289.233565330505 2956.00008964539 149 125 101
-107.050493359566 288.260281085968 2946.00009918213 154 127 100
-98.78009557724 287.580102682114 2938.99989128113 159 132 103
-90.7328203320503 287.486732006073 2937.99996376038 149 122 93
-82.6624929904938 287.295132875443 2936.00010871887 129 102 75
-74.6535956859589 287.298828363419 2936.00010871887 113 92 71
-66.712498664856 287.5956594944 2938.99989128113 114 97 79
-58.7148405611515 287.696480751038 2940.00005722046 24 16 3
-50.3666326403618 285.839766263962 2921.0000038147 10 4 0
-42.4412228167057 286.135524511337 2924.00002479553 22 24 13
-34.4167724251747 285.745948553085 2920.00007629395 22 25 14
-26.3505987823009 284.670889377594 2908.99991989136 22 25 16
-18.3316860347986 283.399790525436 2895.99990844727 18 21 12
-10.3944418951869 282.421857118607 2885.99991798401 17 20 11
-2.51521752215922 281.83501958847 2880.00011444092 20 23 14
5.33313257619739 281.345665454865 2875 15 18 9
13.2000120356679 281.834542751312 2880.00011444092 12 15 8
21.0721865296364 282.029420137405 2881.99996948242 11 14 7
28.9049912244082 281.734704971313 2878.99994850159 16 19 12
36.3255031406879 278.405994176865 2845.00002861023 16 19 12
44.0872274339199 278.404086828232 2845.00002861023 10 15 8
52.0856864750385 279.673933982849 2858.00004005432 10 15 8
59.90344658494 279.769152402878 2858.99996757507 9 14 7
68.3894902467728 282.603919506073 2888.00001144409 9 14 7
82.0476710796356 275.551408529282 2815.99998474121 5 10 3
88.9959260821342 273.29683303833 2792.99998283386 7 12 5
95.8183705806732 271.041959524155 2769.99998092651 10 15 8
106.65737837553 279.647886753082 2858.00004005432 14 19 12
114.21162635088 279.055595397949 2851.99999809265 17 22 15
121.433302760124 277.778148651123 2838.99998664856 15 20 13
129.038602113724 277.478754520416 2835.99996566772 14 16 11
162.957355380058 282.637089490891 2888.99993896484 9 12 5
168.053492903709 278.031378984451 2842.00000762939 13 16 9
177.717626094818 281.056076288223 2872.99990653992 14 17 10
189.423054456711 286.917179822922 2933.00008773804 15 18 11
196.877777576447 286.125719547272 2924.99995231628 13 16 7
203.517809510231 284.257978200912 2905.99989891052 12 15 6
208.01630616188 279.651254415512 2858.99996757507 13 16 7
217.9946154356 282.478153705597 2888.00001144409 12 15 6
227.269843220711 284.228563308716 2905.99989891052 17 20 9
234.780892729759 283.72910618782 2901.00002288818 20 23 12
243.853256106377 285.087555646896 2914.99996185303 23 26 17
253.519266843796 287.032306194305 2934.99994277954 25 28 19
262.04589009285 287.60752081871 2940.99998474121 28 31 24
269.869655370712 287.40006685257 2938.99989128113 35 38 31
283.827036619186 293.548256158829 3002.00009346008 25 28 21
-143.445163965225 288.77454996109 3036.00001335144 223 225 214
-133.51882994175 285.261482000351 2999.00007247925 116 110 98
-124.253533780575 282.794237136841 2973.00004959106 147 122 100
-115.363955497742 280.897229909897 2953.00006866455 147 121 98
-106.982752680779 280.046194791794 2944.00000572205 153 126 99
-98.8518968224525 279.765516519547 2940.99998474121 157 127 99
-90.7987952232361 279.674738645554 2940.00005722046 134 107 78
-82.6944783329964 279.393315315247 2937.00003623962 118 91 64
-74.6824890375137 279.396921396255 2937.00003623962 106 86 62
-66.7383074760437 279.68555688858 2940.00005722046 112 95 75
-58.73753875494 279.783576726913 2940.99998474121 25 17 4
-50.3172464668751 277.598023414612 2917.99998283386 11 5 0
-42.4867458641529 278.4563601017 2927.00004577637 21 23 12
-34.4773083925247 278.267860412598 2924.99995231628 20 23 12
-26.3246484100819 276.461690664291 2905.99989891052 20 23 14
-18.3515306562185 275.7967710495 2898.9999294281 17 20 11
-10.3841200470924 274.275243282318 2882.99989700317 16 19 10
-2.50310706906021 272.658258676529 2865.9999370575 16 19 10
5.35007659345865 274.370640516281 2884.0000629425 14 17 8
13.1410397589207 272.752910852432 2867.00010299683 15 18 11
20.9561754018068 272.656977176666 2865.9999370575 14 17 10
28.9163794368505 273.987740278244 2880.00011444092 17 20 13
44.0117865800858 270.179003477097 2839.99991416931 11 16 9
51.6142547130585 269.415766000748 2832.00001716614 10 15 8
60.073871165514 272.742837667465 2867.00010299683 9 14 7
67.705899477005 271.978825330734 2858.99996757507 9 14 7
75.9014412760735 273.402512073517 2874.00007247925 9 14 7
82.9547494649887 270.830392837524 2846.99988365173 10 15 8
89.7329524159431 267.877459526062 2815.99998474121 9 14 7
105.990506708622 270.151525735855 2839.99991416931 9 14 7
113.496035337448 269.575834274292 2834.00011062622 12 17 10
121.994964778423 271.282613277435 2851.99999809265 12 17 10
129.499554634094 270.706176757813 2845.99995613098 14 16 11
135.668739676476 267.561316490173 2812.99996376038 11 13 8
146.905869245529 274.212956428528 2882.99989700317 9 11 6
155.947417020798 276.298582553864 2904.99997138977 8 11 4
160.652041435242 270.87014913559 2848.00004959106 8 11 4
168.475076556206 270.957857370377 2848.99997711182 15 18 11
177.168980240822 272.37668633461 2864.00008201599 16 19 12
189.367040991783 278.835386037827 2931.99992179871 14 17 10
198.838725686073 280.918896198273 2953.9999961853 15 18 9
202.756598591805 275.299221277237 2894.99998092651 17 20 11
211.591020226479 276.526242494583 2907.99999237061 17 20 11
218.608275055885 275.375604629517 2895.99990844727 16 19 10
226.419687271118 275.270640850067 2894.99998092651 15 18 7
235.438853502274 276.591628789902 2908.99991989136 17 20 9
242.190957069397 275.250017642975 2894.99998092651 21 24 15
252.925872802734 278.376638889313 2927.99997329712 22 25 16
261.25556230545 278.74568104744 2931.99992179871 22 25 18
269.146919250488 278.639048337936 2930.99999427795 27 30 23
278.544664382935 280.053108930588 2946.00009918213 18 21 14
-143.87683570385 281.336635351181 3045.00007629395 233 232 228
-133.747443556786 277.554631233215 3003.99994850159 149 142 134
-124.175526201725 274.511277675629 2970.99995613098 148 123 101
-115.056589245796 272.114247083664 2944.9999332428 149 122 101
-106.769517064095 271.472364664078 2937.99996376038 148 117 96
-98.7891256809235 271.569341421127 2938.99989128113 144 114 90
-90.802900493145 271.665960550308 2940.00005722046 114 86 62
-82.7826932072639 271.669834852219 2940.00005722046 110 82 60
-74.7367218136787 271.580964326859 2938.99989128113 95 74 55
-66.8094232678413 271.953761577606 2943.00007820129 107 90 72
-58.880016207695 272.418588399887 2947.99995422363 25 17 4
-50.7333986461163 271.866589784622 2941.99991226196 23 17 5
-42.6483489573002 271.499037742615 2937.99996376038 18 20 9
-34.4906635582447 270.391881465912 2926.00011825562 17 20 9
-26.2080766260624 267.343670129776 2892.99988746643 16 19 10
-18.2574074715376 266.512989997864 2884.0000629425 17 20 11
-10.305349715054 264.388173818588 2861.00006103516 15 18 9
-2.49710702337325 264.203637838364 2858.99996757507 13 16 7
5.29651995748281 263.833940029144 2855.00001907349 10 13 4
13.1508046761155 265.127271413803 2868.99995803833 14 17 10
20.8255089819431 263.185888528824 2848.00004959106 14 17 10
28.5260956734419 262.537896633148 2841.00008010864 15 18 11
36.2011454999447 261.981993913651 2835.00003814697 13 16 9
51.9811175763607 263.549000024796 2851.99999809265 10 15 8
68.5378611087799 267.424702644348 2894.00005340576 10 15 8
76.9613161683083 269.269615411758 2914.00003433228 11 16 9
84.0366408228874 266.493856906891 2884.0000629425 14 19 12
98.0411842465401 261.865586042404 2834.00011062622 8 13 6
105.510108172894 261.214256286621 2826.99990272522 8 13 6
114.422276616096 263.981342315674 2857.00011253357 10 15 8
123.240992426872 266.193628311157 2881.00004196167 11 16 9
131.598562002182 267.204314470291 2891.99995994568 10 15 8
138.375759124756 265.073269605637 2868.99995803833 10 12 7
145.485609769821 263.773530721664 2855.00001907349 10 12 7
162.013053894043 265.330612659454 2871.99997901917 9 12 5
169.901847839355 265.415668487549 2872.99990653992 14 17 10
180.331856012344 269.288063049316 2914.99996185303 13 16 9
195.077896118164 267.701268196106 2898.00000190735 16 19 10
210.872650146484 267.68359541893 2898.00000190735 18 21 12
218.240424990654 267.027765512466 2891.00003242493 20 23 14
226.429581642151 267.387628555298 2894.99998092651 15 21 9
234.154090285301 267.192989587784 2892.99988746643 18 21 10
242.787092924118 268.013954162598 2901.99995040894 21 24 15
251.381874084473 268.742263317108 2910.00008583069 21 24 15
258.593559265137 267.992526292801 2901.99995040894 19 22 15
283.095210790634 276.465177536011 2993.99995803833 25 28 21
285.506248474121 271.005272865295 2934.99994277954 25 27 22
-144.213885068893 273.669332265854 3052.00004577637 97 96 94
-134.198531508446 270.267844200134 3013.99993896484 134 127 119
-124.264545738697 266.596883535385 2973.00004959106 142 117 97
-115.217909216881 264.449894428253 2948.99988174438 141 114 95
-106.919579207897 263.826996088028 2941.99991226196 138 110 89
-98.8607108592987 263.741791248322 2940.99998474121 138 107 86
-90.8995568752289 263.92525434494 2943.00007820129 115 87 65
-82.8989744186401 264.018714427948 2944.00000572205 105 78 57
-75.045183300972 264.649897813797 2950.99997520447 89 68 49
-67.0166984200478 264.742642641068 2951.99990272522 110 93 77
-59.0623840689659 265.193819999695 2957.00001716614 35 26 11
-51.0460548102856 265.465289354324 2960.00003814697 23 15 4
-42.9550893604755 265.377640724182 2959.00011062622 20 16 5
-34.6218571066856 263.406246900558 2937.00003623962 16 19 10
-26.2817144393921 260.178923606873 2901.00002288818 15 18 9
-18.3215234428644 259.55206155777 2894.00005340576 14 17 8
-10.3598367422819 257.938325405121 2875.99992752075 13 16 7
-2.49285041354597 255.965530872345 2854.00009155273 16 19 10
5.30046550557017 256.234526634216 2857.00011253357 17 20 11
13.1972255185246 258.207201957703 2878.99994850159 16 19 10
21.0969969630241 258.744567632675 2884.99999046326 15 18 9
28.5072773694992 254.617959260941 2838.99998664856 16 19 10
36.3049060106277 254.975259304047 2842.99993515015 17 20 11
43.7677539885044 253.269493579865 2823.99988174438 12 15 8
52.8583116829395 260.083436965942 2900.00009536743 12 15 8
60.8545914292336 260.439693927765 2904.00004386902 12 15 8
69.1329836845398 261.782079935074 2918.99991035461 12 15 8
76.5685215592384 259.985268115997 2898.9999294281 13 16 9
84.6231430768967 260.430186986923 2904.00004386902 17 20 13
92.0673385262489 259.081155061722 2888.99993896484 15 18 11
98.6682251095772 255.758941173553 2851.99999809265 12 15 8
106.597132980824 256.113201379776 2855.99994659424 12 15 8
114.627547562122 256.646454334259 2861.99998855591 12 15 8
125.299766659737 262.649357318878 2928.99990081787 11 14 7
131.42229616642 258.967339992523 2888.00001144409 10 13 6
139.15354013443 258.692502975464 2884.99999046326 12 15 8
146.562114357948 257.879346609116 2875.99992752075 12 15 8
154.296860098839 257.693588733673 2874.00007247925 9 12 5
161.850839853287 257.238477468491 2868.99995803833 9 12 5
171.328589320183 259.741872549057 2897.0000743866 14 17 10
177.80314385891 257.672280073166 2874.00007247925 14 17 10
185.443475842476 257.395595312119 2871.00005149841 12 15 8
193.874552845955 258.194416761398 2880.00011444092 13 16 9
203.544691205025 260.516852140427 2905.99989891052 16 19 12
210.736125707626 259.611636400223 2895.99990844727 19 22 15
219.080150127411 260.14044880867 2901.99995040894 17 23 13
226.204544305801 259.234696626663 2891.99995994568 16 24 9
233.840256929398 258.956164121628 2888.99993896484 16 24 9
243.383035063744 260.738849639893 2908.99991989136 18 26 13
250.787764787674 260.190784931183 2903.00011634827 18 26 13
258.15886259079 259.642452001572 2897.0000743866 19 25 15
264.302492141724 257.928818464279 2878.00002098084 25 30 23
278.662800788879 264.101326465607 2947.00002670288 20 25 18
291.25764966011 268.301516771317 2993.99995803833 20 25 19
-134.426891803741 262.490838766098 3019.00005340576 115 108 100
-124.520651996136 259.018391370773 2979.00009155273 142 120 99
-115.496337413788 257.023602724075 2956.00008964539 139 114 94
-107.105866074562 256.245732307434 2947.00002670288 132 104 83
-98.9321619272232 255.902260541916 2943.00007820129 131 103 82
-90.9343287348747 255.993217229843 2944.00000572205 114 86 65
-82.9870030283928 256.257742643356 2947.00002670288 100 73 54
-74.9975442886353 256.435006856918 2948.99988174438 83 62 43
-66.8606534600258 256.09016418457 2944.9999332428 111 94 78
-58.8451959192753 256.17977976799 2946.00009918213 48 39 24
-50.8930347859859 256.616920232773 2950.99997520447 18 10 0
-43.0730767548084 258.010298013687 2967.00000762939 22 18 7
-34.4818793237209 254.359573125839 2924.99995231628 16 19 10
-26.1922460049391 251.404196023941 2891.00003242493 14 17 8
-18.2463396340609 250.622510910034 2881.99996948242 12 15 6
-10.2738281711936 248.014256358147 2851.99999809265 14 17 8
-2.48596956953406 247.492745518684 2845.99995613098 15 18 9
5.32110221683979 249.405845999718 2868.00003051758 15 18 9
13.3536560460925 253.318727016449 2913.00010681152 15 18 9
21.2587919086218 252.796232700348 2907.00006484985 15 18 9
28.8900919258595 250.186324119568 2877.00009346008 17 20 11
36.4980250597 248.532697558403 2858.00004005432 18 21 12
44.2966111004353 248.530969023705 2858.00004005432 12 15 8
51.8398247659206 247.311502695084 2844.00010108948 13 16 9
60.3752098977566 250.526607036591 2881.00004196167 13 16 9
68.5911923646927 251.828223466873 2895.99990844727 12 15 8
76.7302885651588 252.607762813568 2904.99997138977 12 15 8
84.247924387455 251.386970281601 2891.00003242493 16 19 12
92.4218446016312 252.165853977203 2900.00009536743 15 18 11
98.8800302147865 248.509794473648 2858.00004005432 12 15 8
106.974929571152 249.201029539108 2865.9999370575 11 14 7
115.433506667614 250.587582588196 2881.99996948242 11 14 7
122.866593301296 249.713093042374 2871.99997901917 11 14 7
132.747620344162 253.620326519012 2917.00005531311 11 14 7
136.795908212662 246.57216668129 2835.99996566772 11 14 7
153.17590534687 248.038068413734 2852.9999256134 10 13 6
162.139758467674 249.857202172279 2874.00007247925 12 15 8
170.389518141747 250.458836555481 2881.00004196167 16 19 12
179.976016283035 252.885699272156 2908.99991989136 15 18 11
185.838803648949 250.096350908279 2877.00009346008 13 16 9
194.017305970192 250.523149967194 2881.99996948242 14 17 10
203.273013234138 252.253502607346 2901.99995040894 16 19 12
214.674532413483 256.41718506813 2950.00004768372 20 23 16
218.938261270523 252.062320709229 2900.00009536743 18 24 14
225.118845701218 250.141084194183 2878.00002098084 15 23 8
234.0117841959 251.261591911316 2891.00003242493 16 24 9
242.054313421249 251.425713300705 2892.99988746643 19 25 13
252.353072166443 253.84908914566 2921.0000038147 19 25 13
257.991194725037 251.579314470291 2894.99998092651 19 25 15
264.405071735382 250.178396701813 2878.99994850159 19 24 17
277.350246906281 254.859924316406 2933.00008773804 17 22 15
286.697089672089 256.065130233765 2947.00002670288 31 36 29
-134.699612855911 254.769802093506 3025.00009536743 90 84 72
-125.111028552055 252.079993486404 2993.00003051758 109 88 69
-116.204433143139 250.484615564346 2973.99997711182 109 88 69
-107.619158923626 249.394282698631 2960.99996566772 109 84 64
-99.0707501769066 248.219326138496 2947.00002670288 113 86 67
-90.9998938441277 248.1389939785 2946.00009918213 110 83 64
-83.1030979752541 248.563706874847 2950.99997520447 95 69 52
-75.1786977052689 248.988136649132 2956.00008964539 78 59 42
-66.9088512659073 248.232960700989 2947.00002670288 97 81 65
-58.8676296174526 248.235538601875 2947.00002670288 61 51 39
-50.9124025702477 248.658955097198 2951.99990272522 14 6 0
-42.7845194935799 248.239755630493 2947.00002670288 21 17 6
-34.4008021056652 245.798498392105 2917.99998283386 14 17 8
-26.356428861618 245.041638612747 2908.99991989136 17 20 11
-18.221776932478 242.431238293648 2878.00002098084 17 20 11
-10.2094151079655 238.725453615189 2834.00011062622 14 17 8
-2.49044178053737 240.157723426819 2851.0000705719 13 16 7
5.34730078652501 242.769002914429 2881.99996948242 14 17 8
13.2900346070528 244.200617074966 2898.9999294281 14 17 8
21.3620662689209 246.053084731102 2921.0000038147 14 17 8
29.2427744716406 245.293915271759 2911.99994087219 14 17 8
36.6400368511677 241.670459508896 2868.99995803833 13 16 7
44.2519634962082 240.4894977808 2855.00001907349 14 17 10
52.0971901714802 240.740224719048 2858.00004005432 15 18 11
59.8537996411324 240.569442510605 2855.99994659424 15 18 11
67.5518810749054 240.229889750481 2851.99999809265 14 17 10
76.6014158725739 244.270071387291 2900.00009536743 15 18 11
83.3188742399216 240.813300013542 2858.99996757507 17 20 13
91.214582324028 241.062417626381 2861.99998855591 15 18 11
99.7491106390953 242.827296257019 2882.99989700317 16 19 12
108.808398246765 245.518282055855 2914.99996185303 17 20 13
115.077786147594 241.976231336594 2872.99990653992 16 19 12
