ply
format ascii 1.0
comment KinectMotionCapture
element vertex 798
property float x
property float y
property float z
property uchar red
property uchar green
property uchar blue
end_header
209.429696202278 6.81124953553081 2875.99992752075 16 17 11
218.480154871941 6.84889126569033 2891.99995994568 24 25 19
226.756036281586 6.8604713305831 2897.0000743866 13 14 8
236.273273825645 6.90756319090724 2917.00005531311 22 23 17
244.307830929756 6.9096521474421 2917.99998283386 18 19 13
-33.0429710447788 -1.0118696372956 2801.00011825562 6 9 2
-25.78429505229 -1.02740910369903 2844.00010108948 18 21 14
-17.6824573427439 -1.00826646666974 2790.99988937378 9 12 5
-10.1331574842334 -1.01549422834069 2811.00010871887 20 23 16
-2.4195141158998 -0.999961281195283 2767.99988746643 18 19 13
5.11685153469443 -0.995625974610448 2756.00004196167 17 18 10
12.7757387235761 -1.00610079243779 2785.00008583069 16 17 11
20.2636439353228 -1.0003176284954 2769.00005340576 15 16 10
28.0861239880323 -1.00970582570881 2795.00007629395 16 17 9
35.858791321516 -1.01367360912263 2805.99999427795 18 19 11
43.7999553978443 -1.02016876917332 2823.99988174438 18 21 12
51.2372925877571 -1.01474125403911 2809.00001525879 18 21 12
59.0328983962536 -1.01689854636788 2815.00005722046 17 20 11
66.7662173509598 -1.01760949473828 2816.99991226196 17 20 11
74.5630338788033 -1.01904140319675 2821.00009918213 15 18 9
81.9148123264313 -1.01469224318862 2809.00001525879 14 17 8
89.2963856458664 -1.01142539642751 2799.99995231628 10 13 6
97.3555147647858 -1.01574289146811 2812.00003623962 10 13 6
104.508616030216 -1.01066753268242 2798.00009727478 20 23 16
112.867437303066 -1.01714918855578 2815.99998474121 18 21 14
122.094638645649 -1.03013089392334 2851.99999809265 12 15 8
130.607053637505 -1.03588681668043 2868.00003051758 13 16 9
138.385713100433 -1.03550113271922 2867.00010299683 10 13 6
145.699381828308 -1.03186350315809 2857.00011253357 9 12 5
153.387665748596 -1.03111402131617 2855.00001907349 11 14 7
160.669252276421 -1.02783506736159 2845.99995613098 12 15 8
169.735714793205 -1.03575037792325 2868.00003051758 11 14 7
179.664462804794 -1.04799738619477 2901.99995040894 10 13 6
186.804637312889 -1.04363088030368 2890.00010490417 11 14 7
193.070188164711 -1.03492999915034 2865.9999370575 14 17 10
200.535833835602 -1.03308912366629 2861.00006103516 19 22 15
209.065705537796 -1.03666330687702 2871.00005149841 19 22 15
216.667160391808 -1.03554199449718 2868.00003051758 21 22 17
222.842514514923 -1.02792063262314 2846.99988365173 22 23 18
232.709422707558 -1.03726726956666 2872.99990653992 22 23 18
-34.8360612988472 -9.13049839437008 2953.00006866455 20 23 16
-25.6301444023848 -8.74095968902111 2826.99990272522 4 7 0
-17.6697745919228 -8.62349942326546 2789.00003433228 16 19 12
-10.0466320291162 -8.6173377931118 2786.99994087219 20 23 16
-2.40640062838793 -8.51222034543753 2753.00002098084 18 19 13
5.17440214753151 -8.6173452436924 2786.99994087219 17 18 12
12.8124263137579 -8.63588321954012 2792.99998283386 17 18 12
20.4685293138027 -8.64822417497635 2796.99993133545 16 17 11
27.9253218322992 -8.59253108501434 2779.00004386902 17 18 12
35.7948690652847 -8.66050366312265 2801.00011825562 19 20 14
43.520737439394 -8.6759002879262 2805.99999427795 17 20 11
51.5290983021259 -8.73457174748182 2825.00004768372 16 19 10
59.3054667115211 -8.7437592446804 2828.00006866455 16 19 10
67.0742690563202 -8.74984264373779 2829.99992370605 15 18 9
74.6422633528709 -8.73118080198765 2823.99988174438 13 16 9
80.5149748921394 -8.53627733886242 2760.99991798401 14 17 10
89.5833224058151 -8.68454668670893 2809.00001525879 15 18 11
97.3554253578186 -8.69367457926273 2812.00003623962 17 20 13
103.612080216408 -8.57603456825018 2773.9999294281 15 18 11
112.185977399349 -8.65315552800894 2799.00002479553 10 13 6
122.865103185177 -8.87246523052454 2869.99988555908 7 9 4
132.246375083923 -8.97737499326468 2904.00004386902 10 13 6
138.771742582321 -8.88751447200775 2875 11 14 7
144.730299711227 -8.77291616052389 2838.00005912781 13 16 9
152.527913451195 -8.77577625215054 2838.99998664856 12 15 8
161.741748452187 -8.855901658535 2865.00000953674 13 16 9
169.913113117218 -8.87419003993273 2871.00005149841 13 16 9
180.221512913704 -8.99755582213402 2911.00001335144 11 14 7
185.964182019234 -8.89218598604202 2877.00009346008 11 14 7
194.821506738663 -8.93825106322765 2891.99995994568 13 16 9
202.988907694817 -8.9503088966012 2895.99990844727 19 22 15
209.939360618591 -8.90981592237949 2882.99989700317 20 23 16
215.68489074707 -8.82295891642571 2855.00001907349 24 26 23
221.746489405632 -8.75463802367449 2832.99994468689 20 22 19
230.441272258759 -8.79137683659792 2845.00002861023 27 29 24
-33.4793515503407 -16.5245775133371 2838.00005912781 16 19 12
-25.8295424282551 -16.5887139737606 2848.99997711182 18 21 14
-17.6633987575769 -16.2335988134146 2788.00010681152 18 21 14
-9.94927901774645 -16.0706024616957 2759.99999046326 21 24 17
-2.43174424394965 -16.1987226456404 2782.00006484985 16 17 11
5.19110029563308 -16.280235722661 2796.0000038147 16 17 11
12.8857949748635 -16.3559019565582 2809.00001525879 16 17 11
20.6148438155651 -16.4024326950312 2816.99991226196 16 17 11
28.297059237957 -16.3965374231339 2815.99998474121 17 18 12
35.8586795628071 -16.3382161408663 2805.99999427795 18 19 13
43.768797069788 -16.4312589913607 2822.00002670288 17 20 11
50.9270504117012 -16.2564422935247 2792.00005531311 17 20 11
58.7600953876972 -16.3145046681166 2802.00004577637 16 19 10
66.7660012841225 -16.4016522467136 2816.99991226196 15 18 9
74.3249207735062 -16.3723323494196 2812.00003623962 12 15 8
81.7979052662849 -16.3313448429108 2805.0000667572 12 15 8
89.9977162480354 -16.4300687611103 2822.00002670288 15 18 11
97.4936932325363 -16.3948573172092 2815.99998474121 16 19 12
104.470916092396 -16.2839405238628 2796.99993133545 14 17 10
111.90515011549 -16.2545125931501 2792.00005531311 9 12 5
121.79458886385 -16.5627207607031 2845.00002861023 7 9 4
131.517440080643 -16.8126784265041 2888.00001144409 8 11 4
138.337001204491 -16.6842062026262 2865.9999370575 10 13 6
144.780963659286 -16.5266152471304 2838.99998664856 13 16 9
153.978168964386 -16.6833493858576 2865.9999370575 12 15 8
162.644654512405 -16.7702045291662 2881.00004196167 12 15 8
170.504555106163 -16.7697165161371 2881.00004196167 13 16 9
178.178057074547 -16.7517475783825 2878.00002098084 12 15 8
188.613906502724 -16.9840343296528 2917.99998283386 11 14 7
196.639969944954 -16.9892963021994 2918.99991035461 12 15 8
203.619286417961 -16.9072356075048 2904.99997138977 18 21 14
211.61375939846 -16.912454739213 2905.99989891052 21 24 17
216.439872980118 -16.673231497407 2865.00000953674 24 26 21
223.389759659767 -16.6085846722126 2854.00009155273 18 20 17
231.412768363953 -16.6253913193941 2857.00011253357 26 28 23
-33.243291079998 -24.103095754981 2818.00007820129 0 2 0
-25.6481245160103 -24.1973102092743 2828.9999961853 16 19 12
-17.7837070077658 -24.009233340621 2806.99992179871 16 19 12
-10.1078525185585 -23.98363314569 2803.99990081787 10 13 6
-2.4072602391243 -23.5559903085232 2753.99994850159 13 14 8
5.13723911717534 -23.6671790480614 2766.99995994568 14 15 9
12.8673976287246 -23.9921696484089 2805.0000667572 14 15 9
20.6220857799053 -24.1032894700766 2818.00007820129 15 16 10
28.477830812335 -24.2400355637074 2834.00011062622 16 17 11
36.2419262528419 -24.2569968104362 2835.99996566772 17 18 12
43.4429310262203 -23.9574629813433 2801.00011825562 16 19 10
51.2004643678665 -24.0085739642382 2806.99992179871 16 19 10
58.3824031054974 -23.8116141408682 2783.99991989136 16 19 10
66.3154423236847 -23.9310842007399 2798.00009727478 15 18 11
74.5889618992805 -24.1360459476709 2822.00002670288 14 17 10
82.1767002344131 -24.1014920175076 2818.00007820129 14 17 10
90.1568308472633 -24.1780914366245 2826.99990272522 12 15 8
97.7356731891632 -24.1434741765261 2822.99995422363 11 14 7
105.030804872513 -24.0489579737186 2812.00003623962 14 16 11
111.584082245827 -23.8090269267559 2783.99991989136 12 14 9
120.381407439709 -24.0479800850153 2812.00003623962 9 11 6
137.998640537262 -24.4487933814526 2858.99996757507 9 12 5
146.157369017601 -24.5080422610044 2865.9999370575 11 14 7
154.299974441528 -24.5587043464184 2871.99997901917 11 14 7
161.797225475311 -24.5067160576582 2865.9999370575 12 15 8
170.503959059715 -24.6342662721872 2881.00004196167 13 16 9
179.539442062378 -24.7959773987532 2900.00009536743 12 15 8
188.677877187729 -24.9576438218355 2918.99991035461 12 15 8
196.167692542076 -24.8969737440348 2911.99994087219 12 15 8
205.931603908539 -25.1184087246656 2937.99996376038 15 18 11
212.705299258232 -24.9721836298704 2921.0000038147 18 21 14
218.252211809158 -24.6977061033249 2888.99993896484 20 25 19
225.65883398056 -24.6454756706953 2882.99989700317 21 26 20
235.137864947319 -24.8154755681753 2903.00011634827 16 21 15
-25.802118703723 -32.1140848100185 2845.99995613098 14 17 10
-17.7646093070507 -31.6402800381184 2803.99990081787 27 30 23
-10.0753605365753 -31.5388105809689 2795.00007629395 18 21 14
-2.45969346724451 -31.7532382905483 2813.99989128113 17 20 13
5.15206577256322 -31.3131548464298 2775.00009536743 14 15 9
12.7434758469462 -31.3469581305981 2778.00011634827 14 15 9
20.4024445265532 -31.459704041481 2788.00010681152 16 17 11
28.2365214079618 -31.7078083753586 2809.99994277954 17 18 12
35.9861589968205 -31.7753292620182 2815.99998474121 17 18 12
43.504748493433 -31.6509753465652 2805.0000667572 15 18 9
51.2184537947178 -31.6845551133156 2808.00008773804 15 18 11
58.8015243411064 -31.6390991210938 2803.99990081787 15 18 11
66.1491975188255 -31.4920544624329 2790.99988937378 15 18 11
73.9806741476059 -31.5819196403027 2799.00002479553 14 17 10
82.3804140090942 -31.8748317658901 2825.00004768372 14 17 10
90.4434099793434 -31.9984517991543 2835.99996566772 12 15 8
98.0467796325684 -31.9527797400951 2832.00001716614 13 15 10
105.104975402355 -31.7491106688976 2813.99989128113 13 15 10
113.828033208847 -32.0418253540993 2839.99991416931 10 12 7
120.937339961529 -31.871922314167 2825.00004768372 12 14 9
129.967972636223 -32.1983844041824 2854.00009155273 10 13 6
138.818502426147 -32.4458181858063 2875.99992752075 9 12 5
147.227585315704 -32.5691029429436 2887.00008392334 10 13 6
152.418807148933 -32.0041924715042 2836.99989318848 12 15 8
160.441562533379 -32.0597104728222 2842.00000762939 14 17 10
169.85210776329 -32.374631613493 2869.99988555908 14 17 10
178.609892725945 -32.54284709692 2884.99999046326 12 15 8
186.673179268837 -32.5756631791592 2888.00001144409 13 16 9
197.244554758072 -33.0257602035999 2927.99997329712 13 16 9
204.318478703499 -32.8780077397823 2914.99996185303 13 16 9
212.485805153847 -32.9106822609901 2917.99998283386 16 19 12
219.610959291458 -32.7854156494141 2907.00006484985 11 16 9
227.223187685013 -32.73905813694 2903.00011634827 19 24 17
236.351668834686 -32.9069346189499 2917.99998283386 18 23 16
-17.6124442368746 -38.960512727499 2779.99997138977 18 21 14
-10.0644798949361 -39.1287878155708 2792.00005531311 12 15 8
-2.4483148008585 -39.25496712327 2801.00011825562 15 16 10
5.21330023184419 -39.3530577421188 2808.00008773804 15 16 10
12.6378862187266 -38.6102199554443 2755.00011444092 16 17 11
20.3730408102274 -39.0165224671364 2783.99991989136 16 17 11
28.0454121530056 -39.1144491732121 2790.99988937378 15 16 10
35.5258770287037 -38.9600619673729 2779.99997138977 15 16 10
43.4269197285175 -39.2400696873665 2799.99995231628 13 16 9
51.309309899807 -39.4219122827053 2812.99996376038 14 17 10
59.3673437833786 -39.6737717092037 2831.00008964539 14 17 10
66.670186817646 -39.4210740923882 2812.99996376038 14 17 10
74.3502303957939 -39.4205711781979 2812.99996376038 12 14 9
82.4965313076973 -39.6442264318466 2828.9999961853 12 14 9
90.6341671943665 -39.8257859051228 2842.00000762939 18 20 15
97.3191112279892 -39.3907092511654 2811.00010871887 17 19 14
104.91756349802 -39.3619611859322 2809.00001525879 2 4 0
114.668980240822 -40.089838206768 2861.00006103516 7 9 4
122.862972319126 -40.2151085436344 2869.99988555908 10 12 9
129.87607717514 -39.9619974195957 2851.99999809265 12 15 8
137.466117739677 -39.9050042033196 2848.00004959106 11 14 7
147.634595632553 -40.5625328421593 2894.99998092651 9 12 5
154.674306511879 -40.3372943401337 2878.99994850159 10 13 6
161.343768239021 -40.0419570505619 2858.00004005432 12 15 8
171.034663915634 -40.4891185462475 2890.00010490417 14 17 10
178.608775138855 -40.4178462922573 2884.99999046326 10 13 6
187.512278556824 -40.6407155096531 2901.00002288818 14 17 10
196.165502071381 -40.7934784889221 2911.99994087219 14 17 10
203.476116061211 -40.6660102307796 2903.00011634827 12 15 8
209.862992167473 -40.3704084455967 2881.99996948242 15 18 11
218.325316905975 -40.4809862375259 2890.00010490417 17 22 15
227.926209568977 -40.7875962555408 2911.99994087219 23 28 21
-25.874275714159 -47.7903448045254 2854.00009155273 15 18 11
-17.8910605609417 -47.2881756722927 2823.99988174438 1 4 0
-2.46927328407764 -47.3050959408283 2825.00004768372 12 15 8
5.20026311278343 -46.9032041728497 2801.00011825562 15 16 10
12.8900837153196 -47.0538288354874 2809.99994277954 15 16 10
20.5192361027002 -46.9532161951065 2803.99990081787 15 16 10
28.015049174428 -46.6850847005844 2788.00010681152 15 16 10
35.9728634357452 -47.1369288861752 2815.00005722046 14 15 9
43.7212586402893 -47.2035706043243 2819.00000572205 13 16 9
51.6919605433941 -47.4543385207653 2834.00011062622 13 16 9
67.2621801495552 -47.5202947854996 2838.00005912781 12 15 8
74.5346546173096 -47.2182929515839 2819.9999332428 12 14 9
82.2334289550781 -47.2176186740398 2819.9999332428 12 14 9
90.1232063770294 -47.3173521459103 2825.99997520447 18 20 15
97.8722795844078 -47.333300113678 2826.99990272522 15 17 12
105.215534567833 -47.1649989485741 2816.99991226196 2 4 0
113.946653902531 -47.5993864238262 2842.99993515015 6 8 3
123.247310519218 -48.2011139392853 2878.99994850159 10 12 9
130.603685975075 -48.0158813297749 2868.00003051758 12 14 9
139.106139540672 -48.2491180300713 2881.99996948242 11 14 7
148.041442036629 -48.5994815826416 2903.00011634827 9 12 5
155.049175024033 -48.3136102557182 2885.99991798401 10 13 6
162.528052926064 -48.1950901448727 2878.99994850159 12 15 8
172.2761541605 -48.7293712794781 2911.00001335144 13 16 9
177.864491939545 -48.0918027460575 2872.99990653992 14 17 10
186.282753944397 -48.2409335672855 2881.99996948242 15 18 11
195.759817957878 -48.6410669982433 2905.99989891052 14 17 10
201.652184128761 -48.1540150940418 2877.00009346008 11 14 7
208.332225680351 -47.8845201432705 2861.00006103516 13 16 9
218.55029463768 -48.4183318912983 2892.99988746643 22 28 18
228.628948330879 -48.8850958645344 2921.0000038147 9 15 5
-25.9284302592278 -55.6999035179615 2859.99989509583 1 4 0
-18.0809553712606 -55.5832721292973 2854.00009155273 7 10 3
-10.2950083091855 -55.6223653256893 2855.99994659424 17 20 13
-2.49110208824277 -55.5055700242519 2849.99990463257 15 18 11
5.25405490770936 -55.1160462200642 2829.99992370605 13 14 8
12.9771204665303 -55.0964772701263 2828.9999961853 14 15 9
20.570270717144 -54.7457560896873 2811.00010871887 14 15 9
28.3262897282839 -54.9013167619705 2819.00000572205 14 15 9
36.2536646425724 -55.2515499293804 2836.99989318848 13 14 8
51.6002736985683 -55.094875395298 2828.9999961853 11 14 7
59.1146871447563 -54.8995770514011 2819.00000572205 11 14 7
66.6453540325165 -54.7626316547394 2812.00003623962 14 16 11
74.2696672677994 -54.7229833900929 2809.99994277954 17 19 14
81.7077904939651 -54.5664206147194 2802.00004577637 18 20 15
90.6645208597183 -55.3639978170395 2842.99993515015 11 13 8
98.9446043968201 -55.655162781477 2858.00004005432 5 7 2
106.521815061569 -55.5373094975948 2851.99999809265 5 7 4
115.789256989956 -56.256715208292 2888.99993896484 5 7 4
123.331792652607 -56.0997538268566 2881.00004196167 9 11 8
131.877541542053 -56.3905797898769 2895.99990844727 12 14 9
138.718754053116 -55.9608824551106 2874.00007247925 12 15 8
145.33731341362 -55.4921738803387 2849.99990463257 10 13 6
154.994040727615 -56.1721809208393 2884.99999046326 10 13 6
161.510437726974 -55.7033568620682 2861.00006103516 12 15 8
169.13802921772 -55.6433349847794 2858.00004005432 13 16 9
179.162964224815 -56.3425272703171 2894.00005340576 11 14 7
185.828611254692 -55.9708550572395 2875 14 17 10
194.006606936455 -56.0663565993309 2880.00011444092 14 17 10
203.682988882065 -56.570578366518 2905.99989891052 13 16 9
210.296422243118 -56.2181882560253 2888.00001144409 15 18 11
221.721172332764 -57.1310073137283 2934.99994277954 18 21 12
-25.8012320846319 -63.1978884339333 2845.99995613098 12 15 8
-18.0680919438601 -63.3313730359077 2851.99999809265 27 30 23
-10.1615255698562 -62.5987276434898 2819.00000572205 9 12 5
-2.45261681266129 -62.3101256787777 2805.99999427795 12 13 7
5.22058177739382 -62.4433495104313 2812.00003623962 12 13 7
12.9586346447468 -62.731921672821 2825.00004768372 13 14 8
28.2757431268692 -62.487181276083 2813.99989128113 13 14 8
36.2277254462242 -62.9531443119049 2835.00003814697 12 13 7
44.0926104784012 -63.1303265690804 2842.99993515015 11 14 7
51.3078980147839 -62.4636299908161 2812.99996376038 12 14 9
59.030182659626 -62.5074207782745 2815.00005722046 12 14 9
66.6446462273598 -62.4400973320007 2812.00003623962 17 19 14
74.1102993488312 -62.2616596519947 2803.99990081787 19 21 16
82.7566906809807 -63.0157291889191 2838.00005912781 20 22 17
91.7478278279305 -63.8807043433189 2877.00009346008 5 7 2
100.155249238014 -64.2348825931549 2892.99988746643 2 4 1
109.135158360004 -64.8775994777679 2921.99993133545 5 7 4
118.874125182629 -65.8532530069351 2966.00008010864 5 7 4
125.684961676598 -65.1858076453209 2936.00010871887 6 8 5
131.694003939629 -64.2074719071388 2891.99995994568 13 15 10
139.344751834869 -64.0949532389641 2887.00008392334 13 16 9
144.927829504013 -63.0943179130554 2842.00000762939 14 17 10
151.392951607704 -62.5598654150963 2818.00007820129 15 18 11
161.790996789932 -63.6237114667892 2865.9999370575 15 18 11
170.201480388641 -63.8438537716866 2875.99992752075 15 18 11
177.056238055229 -63.4867623448372 2859.99989509583 19 22 15
185.826674103737 -63.8177171349525 2875 18 21 14
194.476157426834 -64.0819892287254 2887.00008392334 16 19 12
202.839821577072 -64.2351806163788 2894.00005340576 11 14 7
214.444801211357 -65.3648599982262 2944.9999332428 11 14 7
220.963448286057 -64.918577671051 2924.99995231628 15 16 8
228.076666593552 -64.6720007061958 2914.00003433228 25 26 18
-41.5605902671814 -71.3414400815964 2861.00006103516 24 27 20
-17.9158318787813 -70.5196857452393 2828.00006866455 20 23 16
-10.1505909115076 -70.2206268906593 2815.99998474121 13 16 9
-2.4394765496254 -69.5972964167595 2790.99988937378 11 12 6
5.16853621229529 -69.422721862793 2783.99991989136 12 13 7
12.9217812791467 -70.2455043792725 2816.99991226196 12 13 7
20.7088384777308 -70.5694705247879 2829.99992370605 12 13 7
28.4060332924128 -70.4943463206291 2826.99990272522 12 13 7
36.1250564455986 -70.4939365386963 2826.99990272522 11 12 6
43.6733365058899 -70.2191367745399 2815.99998474121 11 14 7
51.5261515974998 -70.4429522156715 2825.00004768372 14 16 11
58.8407479226589 -69.9684843420982 2805.99999427795 15 17 12
66.8334364891052 -70.316769182682 2819.9999332428 17 19 14
75.9594962000847 -71.6623514890671 2874.00007247925 18 20 15
84.3303352594376 -72.1101611852646 2891.99995994568 18 20 15
92.6715284585953 -72.4581182003021 2905.99989891052 3 5 0
101.365737617016 -73.0054378509521 2927.99997329712 2 4 1
109.806142747402 -73.3033120632172 2940.00005722046 5 7 4
115.626350045204 -71.9305798411369 2884.99999046326 5 7 4
124.998539686203 -72.8016942739487 2920.00007629395 5 7 4
131.646901369095 -72.0770582556725 2891.00003242493 11 13 8
138.715639710426 -71.6515332460403 2874.00007247925 12 15 8
145.487055182457 -71.1262077093124 2852.9999256134 15 18 11
152.841687202454 -70.9249079227448 2845.00002861023 16 19 12
161.958456039429 -71.5212449431419 2868.99995803833 16 19 12
170.732110738754 -71.9180330634117 2884.99999046326 16 19 12
176.744624972343 -71.168027818203 2855.00001907349 16 19 12
186.147689819336 -71.7889592051506 2880.00011444092 15 18 11
195.282205939293 -72.2601935267448 2898.9999294281 15 18 11
203.047722578049 -72.2078830003738 2897.0000743866 15 18 11
210.947155952454 -72.2053423523903 2897.0000743866 15 18 11
220.734268426895 -72.8257820010185 2921.99993133545 13 13 5
229.326337575912 -73.0224028229713 2930.0000667572 26 26 18
-34.1730266809464 -80.1488906145096 2897.0000743866 16 19 12
-25.7280543446541 -78.5170122981071 2838.00005912781 5 8 1
-18.0106181651354 -78.6556452512741 2842.99993515015 11 14 7
-10.1324310526252 -77.7705162763596 2811.00010871887 6 9 2
-2.45255464687943 -77.6322782039642 2805.99999427795 10 11 5
5.20002702251077 -77.4939209222794 2801.00011825562 11 12 6
12.8619773313403 -77.5767937302589 2803.99990081787 11 12 6
20.723195746541 -78.3512145280838 2832.00001716614 11 12 6
28.5362713038921 -78.5721987485886 2839.99991416931 11 12 6
35.9584540128708 -77.8524130582809 2813.99989128113 10 11 5
43.6572469770908 -77.8795331716537 2815.00005722046 13 16 9
51.1971563100815 -77.6575356721878 2806.99992179871 18 20 15
58.9238367974758 -77.7397528290749 2809.99994277954 20 22 17
67.1169459819794 -78.3475115895271 2832.00001716614 19 21 16
76.5927955508232 -80.1723748445511 2898.00000190735 11 13 8
84.8832353949547 -80.5308893322945 2911.00001335144 8 10 5
93.1486263871193 -80.806277692318 2921.0000038147 8 10 7
100.845105946064 -80.5836170911789 2913.00010681152 7 9 6
108.385421335697 -80.2778527140617 2901.99995040894 4 6 3
117.147780954838 -80.8571949601173 2923.00009727478 4 6 3
123.370207846165 -79.7213688492775 2881.99996948242 5 7 4
131.554082036018 -79.9132212996483 2888.99993896484 7 9 4
139.389514923096 -79.8836722970009 2888.00001144409 8 11 4
146.810963749886 -79.6327441930771 2878.99994850159 14 17 10
153.806656599045 -79.1881084442139 2862.99991607666 15 18 11
163.706302642822 -80.2092924714088 2900.00009536743 16 19 12
169.191226363182 -79.0730193257332 2858.99996757507 15 18 11
173.02793264389 -77.300600707531 2795.00007629395 18 21 14
184.27087366581 -78.8468942046165 2851.0000705719 17 20 13
196.694269776344 -80.7525143027306 2920.00007629395 16 19 12
203.535705804825 -80.3072974085808 2904.00004386902 15 18 11
212.255075573921 -80.608643591404 2914.99996185303 14 17 10
220.353722572327 -80.6610062718391 2917.00005531311 13 13 5
-56.8422004580498 -86.4447429776192 2844.00010108948 29 32 23
-49.2499992251396 -86.7495089769363 2854.00009155273 15 18 9
-41.8354198336601 -87.54051476717 2880.00011444092 13 16 9
-33.9248068630695 -87.4195098876953 2875.99992752075 12 15 8
-26.1628124862909 -87.7239406108856 2885.99991798401 11 14 7
-10.1755354553461 -85.8095213770866 2822.99995422363 9 12 5
-2.44552595540881 -85.0497037172318 2798.00009727478 10 13 6
5.22965332493186 -85.6272131204605 2816.99991226196 10 13 6
12.8250923007727 -84.9887505173683 2796.0000038147 10 13 6
28.4856129437685 -86.1735716462135 2835.00003814697 10 13 6
35.9834805130959 -85.595540702343 2815.99998474121 12 15 8
43.6410903930664 -85.5341330170631 2813.99989128113 19 22 15
51.269356161356 -85.4422226548195 2811.00010871887 17 20 13
59.6149489283562 -86.4140167832375 2842.99993515015 16 19 12
68.8933879137039 -88.3583202958107 2907.00006484985 15 18 11
76.1688053607941 -87.5973328948021 2881.99996948242 11 13 8
85.4360163211823 -89.055024087429 2930.0000667572 9 11 6
92.9878205060959 -88.6281281709671 2915.99988937378 5 7 4
101.293668150902 -88.9305770397186 2926.00011825562 5 7 6
109.317541122437 -88.9593437314034 2927.00004577637 5 7 6
117.62697994709 -89.2007350921631 2934.99994277954 5 7 6
131.233423948288 -87.5861942768097 2881.99996948242 3 5 2
139.821872115135 -88.0399867892265 2897.0000743866 5 7 2
145.839959383011 -86.9133770465851 2859.99989509583 10 12 7
155.523508787155 -87.9746973514557 2894.99998092651 13 15 10
163.703918457031 -88.1242156028748 2900.00009536743 15 17 12
167.650148272514 -86.0857591032982 2832.99994468689 15 17 12
175.749272108078 -86.2654820084572 2838.99998664856 14 17 10
196.826130151749 -88.7818112969399 2921.99993133545 8 11 4
208.859398961067 -90.5410051345825 2980.00001907349 12 15 6
209.266677498817 -87.3173475265503 2874.00007247925 8 11 2
-49.0076169371605 -94.0768197178841 2839.99991416931 15 18 9
-41.9509522616863 -95.6676304340363 2888.00001144409 8 11 4
-34.1601707041264 -95.9332808852196 2895.99990844727 8 11 4
-26.1623915284872 -95.6025123596191 2885.99991798401 10 13 6
-18.2001050561666 -95.1722487807274 2872.99990653992 10 13 6
-10.3808250278234 -95.4043865203857 2880.00011444092 12 15 8
-2.46558897197247 -93.4500247240067 2821.00009918213 14 17 10
5.25741558521986 -93.8143953680992 2832.00001716614 15 18 11
12.8248846158385 -92.6216840744019 2796.0000038147 15 18 11
20.2835183590651 -91.8263792991638 2772.0000743866 17 20 13
27.8923418372869 -91.9584780931473 2776.00002288818 18 21 14
35.8295626938343 -92.8854718804359 2803.99990081787 19 22 15
43.4387847781181 -92.785432934761 2801.00011825562 21 24 15
51.5421107411385 -93.6127677559853 2825.99997520447 15 18 9
60.3688545525074 -95.367468893528 2878.99994850159 13 16 7
77.5683000683784 -97.2201526165009 2934.99994277954 7 9 4
85.9303399920464 -97.6162776350975 2947.00002670288 6 8 3
100.391983985901 -96.056342124939 2900.00009536743 7 9 6
109.53988134861 -97.147636115551 2933.00008773804 7 9 6
117.424719035625 -97.0463827252388 2930.0000667572 7 9 8
123.109593987465 -95.2558144927025 2875.99992752075 6 8 7
132.096484303474 -96.0817113518715 2901.00002288818 5 7 4
147.316426038742 -95.6796407699585 2888.99993896484 6 8 5
153.103604912758 -94.3855419754982 2849.99990463257 8 10 5
160.76597571373 -94.3167060613632 2848.00004959106 11 13 8
168.594345450401 -94.3471193313599 2848.99997711182 11 13 8
175.684601068497 -93.9800143241882 2838.00005912781 7 10 3
186.333522200584 -95.4671651124954 2882.99989700317 12 15 8
197.766080498695 -97.2190350294113 2936.00010871887 14 17 10
200.025290250778 -94.5005789399147 2854.00009155273 6 9 0
-50.3182075917721 -104.554295539856 2915.99988937378 11 14 5
-41.6161268949509 -102.726504206657 2865.00000953674 10 13 6
-33.7821207940578 -102.691344916821 2864.00008201599 11 14 7
-26.0168891400099 -102.907009422779 2869.99988555908 12 15 8
-17.8893823176622 -101.258024573326 2823.99988174438 14 17 10
-10.1679833605886 -101.150721311569 2821.00009918213 14 17 10
-2.47078947722912 -101.365961134434 2826.99990272522 15 18 11
5.22762117907405 -100.971527397633 2815.99998474121 15 18 11
12.705403380096 -99.3219688534737 2769.99998092651 17 20 13
20.3636512160301 -99.7878015041351 2782.99999237061 18 21 14
27.9521383345127 -99.7515097260475 2782.00006484985 19 22 15
35.6117151677608 -99.9302044510841 2786.99994087219 19 22 15
43.5775928199291 -100.754164159298 2809.99994277954 20 23 14
51.1582046747208 -100.574024021626 2805.0000667572 13 16 7
60.1161867380142 -102.796040475369 2867.00010299683 10 13 4
68.1801289319992 -103.153422474861 2877.00009346008 9 12 5
77.6197984814644 -105.303339660168 2937.00003623962 7 9 4
86.1620977520943 -105.947226285934 2954.99992370605 6 8 3
93.4630185365677 -105.085127055645 2930.99999427795 8 10 7
100.563310086727 -104.151196777821 2904.99997138977 7 9 6
108.791045844555 -104.436129331589 2913.00010681152 7 9 6
116.541005671024 -104.254834353924 2907.99999237061 7 9 8
126.061007380486 -105.579122900963 2944.9999332428 7 9 8
134.461984038353 -105.863586068153 2953.00006866455 7 9 6
141.265094280243 -104.929022490978 2927.00004577637 7 9 6
147.007942199707 -103.349111974239 2882.99989700317 6 8 5
152.939811348915 -102.055922150612 2846.99988365173 7 9 4
161.384135484695 -102.48327255249 2858.99996757507 10 12 7
169.124037027359 -102.444492280483 2858.00004005432 11 13 8
184.391424059868 -102.25897282362 2852.9999256134 13 16 9
192.104637622833 -102.219797670841 2851.99999809265 7 10 1
210.861727595329 -103.789664804935 2895.99990844727 25 28 19
-49.6097803115845 -110.931821167469 2875 7 10 1
-41.2376746535301 -109.543636441231 2838.99998664856 15 18 11
-33.5691645741463 -109.814465045929 2845.99995613098 15 18 11
-25.6628692150116 -109.236270189285 2831.00008964539 15 18 11
-17.7940241992474 -108.387798070908 2809.00001525879 16 19 12
-10.0812884047627 -107.925042510033 2796.99993133545 16 19 12
5.17368735745549 -107.539281249046 2786.99994087219 19 22 15
12.6409493386745 -106.342926621437 2756.00004196167 22 25 18
20.3339979052544 -107.230089604855 2779.00004386902 22 25 18
28.0922707170248 -107.885576784611 2796.0000038147 21 24 17
35.8538143336773 -108.270801603794 2805.99999427795 18 21 14
43.7318421900272 -108.81020873785 2819.9999332428 14 17 8
51.9414693117142 -109.889678657055 2848.00004959106 9 12 5
59.7166568040848 -109.888575971127 2848.00004959106 8 11 4
67.4205124378204 -109.771594405174 2845.00002861023 8 11 4
85.4023844003677 -113.009624183178 2928.99990081787 8 10 5
101.426847279072 -113.044574856758 2930.0000667572 7 9 6
110.02141982317 -113.65982145071 2946.00009918213 7 9 6
119.304016232491 -114.853590726852 2976.99999809265 7 9 6
126.358285546303 -113.886713981628 2951.99990272522 7 9 8
134.914800524712 -114.308573305607 2963.00005912781 6 8 3
143.385991454124 -114.614509046078 2970.99995613098 6 8 3
147.056192159653 -111.25548183918 2884.0000629425 5 7 2
159.383237361908 -114.454373717308 2967.00000762939 6 8 3
163.131028413773 -111.480981111526 2890.00010490417 6 8 3
171.073660254478 -111.516334116459 2891.00003242493 6 8 3
185.357496142387 -110.622368752956 2868.00003051758 17 20 13
192.639961838722 -110.310189425945 2859.99989509583 25 28 21
-55.9387244284153 -115.637958049774 2799.00002479553 15 18 11
-48.4354197978973 -115.969553589821 2806.99992179871 20 23 14
-25.5535710602999 -116.467662155628 2819.00000572205 18 21 14
-17.7049841731787 -115.476556122303 2795.00007629395 19 22 15
-10.1315435022116 -116.137884557247 2811.00010871887 19 22 15
-2.4479697458446 -115.724854171276 2801.00011825562 20 23 16
5.17915189266205 -115.270353853703 2789.99996185303 21 24 17
12.704904191196 -114.443853497505 2769.99998092651 23 26 19
20.392119884491 -115.145869553089 2786.99994087219 23 26 19
28.0917007476091 -115.517199039459 2796.0000038147 20 23 16
35.8403138816357 -115.888379514217 2805.0000667572 16 19 12
43.6379164457321 -116.25936627388 2813.99989128113 13 16 9
52.943479269743 -119.935356080532 2903.00011634827 11 14 7
60.4283474385738 -119.066573679447 2881.99996948242 8 11 4
67.750908434391 -118.11501532793 2858.99996757507 8 11 4
86.975134909153 -123.234592378139 2983.00004005432 8 11 4
94.3203195929527 -122.199892997742 2957.99994468689 9 11 6
101.044028997421 -120.586730539799 2918.99991035461 8 10 5
110.056549310684 -121.741242706776 2947.00002670288 8 10 5
118.900880217552 -122.565060853958 2967.00000762939 8 10 7
126.526966691017 -122.108124196529 2956.00008964539 8 10 7
159.702360630035 -122.798532247543 2973.00004959106 7 9 4
172.72712290287 -120.561316609383 2918.99991035461 6 8 3
180.750742554665 -120.599001646042 2920.00007629395 9 12 5
186.258614063263 -119.025841355324 2881.99996948242 3 6 0
203.728660941124 -120.050370693207 2907.00006484985 21 24 17
-54.9982339143753 -121.207073330879 2752.00009346008 20 23 16
-48.3998693525791 -123.54252487421 2805.0000667572 14 17 10
-33.7210930883884 -125.922724604607 2858.99996757507 16 19 12
-25.8158929646015 -125.438913702965 2848.00004959106 17 20 13
-17.7996139973402 -123.765684664249 2809.99994277954 19 22 15
-10.1817818358541 -124.426670372486 2825.00004768372 18 21 14
-2.46714358218014 -124.33872371912 2822.99995422363 16 19 12
5.19017782062292 -123.149491846561 2796.0000038147 17 20 13
12.7596696838737 -122.532658278942 2782.00006484985 18 21 14
20.3843638300896 -122.708469629288 2786.00001335144 17 20 13
28.2217059284449 -123.720951378345 2809.00001525879 16 19 12
35.3923439979553 -122.002519667149 2769.99998092651 15 18 11
43.9161062240601 -124.732360243797 2832.00001716614 10 13 6
52.1034300327301 -125.83239376545 2857.00011253357 10 13 6
59.6931912004948 -125.390708446503 2846.99988365173 10 13 6
68.2233944535255 -126.798674464226 2878.99994850159 9 12 5
76.9808739423752 -128.294497728348 2913.00010681152 9 12 5
87.0315805077553 -131.463676691055 2984.99989509583 9 12 5
94.8284640908241 -130.97719848156 2973.99997711182 9 12 5
101.630330085754 -129.301503300667 2936.00010871887 10 12 7
107.925556600094 -127.273365855217 2890.00010490417 9 11 8
116.534009575844 -128.063589334488 2907.99999237061 9 11 8
124.726563692093 -128.325149416924 2914.00003433228 9 11 8
134.727090597153 -130.303949117661 2959.00011062622 6 8 3
144.683092832565 -132.018283009529 2997.99990653992 7 9 4
150.160416960716 -129.681199789047 2944.9999332428 9 11 6
163.124322891235 -127.252519130707 2890.00010490417 7 9 4
170.593276619911 -126.940652728081 2882.99989700317 7 9 4
180.870726704597 -128.653988242149 2921.99993133545 5 8 1
193.709805607796 -126.620590686798 2875.99992752075 10 13 6
205.826789140701 -129.301846027374 2937.00003623962 0 2 0
-56.0161732137203 -131.102815270424 2802.99997329712 12 14 9
-48.5367961227894 -131.571784615517 2812.99996376038 12 15 8
-41.2785820662975 -132.929250597954 2842.00000762939 14 17 10
-34.1449193656445 -135.409131646156 2894.99998092651 12 15 8
-26.0237790644169 -134.287282824516 2871.00005149841 13 16 9
-18.052576109767 -133.305549621582 2849.99990463257 14 17 10
-10.2788591757417 -133.399441838264 2851.99999809265 13 16 9
-2.50116991810501 -133.867308497429 2861.99998855591 12 15 8
5.27915824204683 -133.025363087654 2844.00010108948 12 15 8
12.8281712532043 -130.826756358147 2796.99993133545 14 17 10
20.5302257090807 -131.247326731682 2805.99999427795 15 18 11
36.0814742743969 -132.087901234627 2823.99988174438 10 13 6
43.5119196772575 -131.24506175518 2805.99999427795 10 13 6
52.1569438278675 -133.769661188126 2859.99989509583 10 13 6
60.2159947156906 -134.329602122307 2871.99997901917 10 13 6
68.1033506989479 -134.421661496162 2874.00007247925 9 12 5
75.6577998399735 -133.905470371246 2862.99991607666 9 12 5
83.851620554924 -134.511590003967 2875.99992752075 9 12 5
94.1886007785797 -138.157591223717 2953.9999961853 9 12 5
100.935712456703 -136.378049850464 2915.99988937378 10 12 7
107.960440218449 -135.206386446953 2891.00003242493 10 12 7
115.329176187515 -134.595811367035 2878.00002098084 10 12 7
124.466925859451 -135.995998978615 2907.99999237061 9 11 6
133.631303906441 -137.255668640137 2934.99994277954 11 14 7
140.963897109032 -136.597752571106 2921.0000038147 11 14 7
150.00407397747 -137.576416134834 2941.99991226196 10 13 6
154.48497235775 -134.486541152 2875.99992752075 9 12 5
163.064181804657 -135.09076833725 2888.99993896484 7 10 3
174.080520868301 -137.565135955811 2941.99991226196 7 10 3
192.627817392349 -133.718386292458 2859.99989509583 13 15 10
-34.0851210057735 -143.061876296997 2890.00010490417 8 11 4
-26.1772349476814 -142.963618040085 2888.00001144409 8 11 4
-18.1978214532137 -142.221629619598 2872.99990653992 9 12 5
5.3254347294569 -142.024084925652 2868.99995803833 9 12 5
12.827861122787 -138.459667563438 2796.99993133545 12 15 8
20.5077771097422 -138.756260275841 2802.99997329712 14 17 10
28.5318102687597 -140.587255358696 2839.99991416931 13 16 9
36.5277715027332 -141.526967287064 2858.99996757507 7 10 3
44.0846011042595 -140.733942389488 2842.99993515015 9 12 5
51.69977247715 -140.336722135544 2835.00003814697 9 12 5
60.4032389819622 -142.612412571907 2881.00004196167 9 12 5
68.4571340680122 -143.006786704063 2888.99993896484 10 13 6
76.131634414196 -142.609000205994 2881.00004196167 10 13 6
84.1994658112526 -142.953515052795 2888.00001144409 10 13 6
92.9428339004517 -144.287765026093 2914.99996185303 9 12 5
100.760206580162 -144.087374210358 2911.00001335144 10 13 6
108.219243586063 -143.441319465637 2898.00000190735 11 14 7
116.207979619503 -143.537551164627 2900.00009536743 11 14 7
123.821906745434 -143.18810403347 2892.99988746643 11 14 7
132.080122828484 -143.580913543701 2901.00002288818 13 16 9
140.043616294861 -143.627047538757 2901.99995040894 13 16 9
148.215979337692 -143.870964646339 2907.00006484985 12 15 8
164.245590567589 -144.011780619621 2910.00008583069 8 11 4
172.064632177353 -143.908694386482 2907.99999237061 7 10 3
180.738613009453 -144.498214125633 2920.00007629395 6 8 3
185.729131102562 -142.217457294464 2874.00007247925 14 16 11
194.037646055222 -142.559230327606 2881.00004196167 10 12 7
198.249012231827 -139.981433749199 2828.9999961853 13 15 10
-26.07686445117 -150.269687175751 2877.00009346008 9 12 5
-18.1023478507996 -149.277880787849 2858.00004005432 10 13 6
-10.2026648819447 -147.867992520332 2831.00008964539 11 14 7
-2.51153158023953 -150.114119052887 2874.00007247925 12 15 8
5.23805944249034 -147.398039698601 2822.00002670288 16 19 12
12.7403931692243 -145.099595189095 2778.00011634827 17 20 13
20.4194579273462 -145.77816426754 2790.99988937378 12 15 8
28.6114513874054 -148.754730820656 2848.00004959106 8 11 4
36.8206836283207 -150.529697537422 2881.99996948242 9 12 5
44.3470701575279 -149.379581212997 2859.99989509583 9 12 5
52.4643585085869 -150.266230106354 2877.00009346008 9 12 5
68.8581988215446 -151.777684688568 2905.99989891052 10 13 6
76.7638757824898 -151.723548769951 2904.99997138977 10 13 6
85.6258794665337 -153.392747044563 2937.00003623962 10 13 6
93.5143753886223 -153.181478381157 2933.00008773804 10 13 6
99.7538790106773 -150.515422224998 2881.99996948242 10 13 6
107.469655573368 -150.303795933723 2878.00002098084 12 15 6
116.725943982601 -152.128756046295 2913.00010681152 12 15 6
124.80317056179 -152.282267808914 2915.99988937378 12 15 6
132.076784968376 -151.495590806007 2901.00002288818 10 13 4
140.088349580765 -151.596516370773 2903.00011634827 10 13 4
149.792745709419 -153.420448303223 2937.99996376038 11 14 5
156.625911593437 -152.267679572105 2915.99988937378 11 14 7
164.636552333832 -152.315765619278 2917.00005531311 10 13 6
173.421159386635 -153.042420744896 2930.99999427795 10 13 6
179.062902927399 -151.053756475449 2892.99988746643 6 8 3
187.663182616234 -151.623412966728 2904.00004386902 8 10 5
192.551136016846 -149.2690294981 2858.99996757507 8 10 7
206.442952156067 -153.806164860725 2946.00009918213 12 14 11
213.018521666527 -152.756676077843 2926.00011825562 18 20 17
-56.2716536223888 -154.762595891953 2815.99998474121 12 14 9
-25.6954878568649 -155.811354517937 2835.00003814697 10 13 6
-17.8295075893402 -154.712736606598 2815.00005722046 11 14 7
-10.1771606132388 -155.207768082619 2823.99988174438 13 16 9
-2.47738370671868 -155.81251680851 2835.00003814697 16 19 12
5.21750096231699 -154.493436217308 2811.00010871887 18 21 14
12.9234930500388 -154.877901077271 2818.00007820129 18 21 14
20.5798596143723 -154.602631926537 2812.99996376038 10 13 6
36.7302633821964 -158.008560538292 2875 10 13 6
44.6714982390404 -158.337205648422 2881.00004196167 9 12 5
60.9870776534081 -159.873113036156 2908.99991989136 9 12 5
68.4772431850433 -158.827140927315 2890.00010490417 10 13 6
77.3959904909134 -160.968467593193 2928.99990081787 10 13 6
86.0317274928093 -162.17528283596 2950.99997520447 10 13 6
94.7234109044075 -163.271903991699 2970.99995613098 10 13 6
100.166544318199 -159.037709236145 2894.00005340576 11 14 7
108.362972736359 -159.474477171898 2901.99995040894 12 15 6
117.203660309315 -160.735309123993 2924.99995231628 12 15 6
124.671451747417 -160.072579979897 2913.00010681152 12 15 6
133.302494883537 -160.893321037292 2927.99997329712 9 12 3
141.1462277174 -160.724729299545 2924.99995231628 9 12 3
149.992719292641 -161.654889583588 2941.99991226196 10 13 4
158.555373549461 -162.200167775154 2951.99990272522 11 14 7
165.1401668787 -160.76722741127 2926.00011825562 10 13 6
180.667415261269 -160.373255610466 2918.99991035461 11 13 8
185.654997825623 -157.841071486473 2872.99990653992 8 10 5
199.01143014431 -162.340864539146 2954.99992370605 17 19 14
207.558736205101 -162.71997988224 2961.99989318848 8 10 7
215.196996927261 -162.384733557701 2956.00008964539 16 18 15
-56.4698912203312 -163.022175431252 2825.99997520447 20 23 16
-48.9112585783005 -163.542881608009 2835.00003814697 16 19 12
-41.7825542390347 -165.967062115669 2877.00009346008 12 15 8
-34.2120938003063 -167.35266149044 2901.00002288818 14 17 10
-18.2976853102446 -166.661903262138 2888.99993896484 12 15 8
-10.1516479626298 -162.508741021156 2816.99991226196 16 19 12
-2.47469218447804 -163.374274969101 2832.00001716614 24 27 20
5.30644319951534 -164.931803941727 2858.99996757507 18 21 14
13.2441418245435 -166.604518890381 2888.00001144409 10 13 6
20.8426471799612 -164.354175329208 2848.99997711182 9 12 5
28.5998228937387 -164.238065481186 2846.99988365173 12 15 8
37.0102860033512 -167.121529579163 2897.0000743866 10 13 6
44.8562949895859 -166.88959300518 2892.99988746643 10 13 6
53.0996769666672 -167.98423230648 2911.99994087219 10 13 6
60.6499277055264 -166.886538267136 2892.99988746643 10 13 6
67.9540485143662 -165.442541241646 2868.00003051758 9 12 5
77.4730816483498 -169.132307171822 2931.99992179871 9 12 5
86.2333625555038 -170.629739761353 2957.99994468689 9 12 5
92.5846770405769 -167.512267827988 2904.00004386902 12 15 8
101.202070713043 -168.663144111633 2924.00002479553 13 16 7
109.368093311787 -168.948501348495 2928.99990081787 13 16 7
118.242166936398 -170.214220881462 2950.99997520447 12 15 6
133.98166000843 -169.745594263077 2943.00007820129 11 14 5
142.010867595673 -169.74164545536 2943.00007820129 11 14 5
151.110142469406 -170.948639512062 2963.99998664856 11 14 5
156.724855303764 -168.29127073288 2917.99998283386 11 14 7
168.296068906784 -171.977713704109 2982.00011253357 10 13 6
174.417600035667 -170.012041926384 2947.99995422363 9 12 5
182.581096887589 -170.12232542038 2950.00004768372 7 9 4
193.727239966393 -172.885060310364 2997.99990653992 7 9 4
201.228365302086 -172.302857041359 2987.99991607666 10 12 7
216.647043824196 -171.599164605141 2976.0000705719 18 20 17
-41.8974980711937 -174.298956990242 2884.99999046326 13 16 9
-34.1285318136215 -174.843847751617 2894.00005340576 14 17 10
-25.9568318724632 -173.032283782959 2864.00008201599 14 17 10
-17.6448076963425 -168.320432305336 2786.00001335144 16 19 12
-10.1765729486942 -170.616686344147 2823.99988174438 18 21 14
-2.47024954296649 -170.798122882843 2826.99990272522 15 18 11
5.38052618503571 -175.148084759712 2898.9999294281 12 15 8
13.3125381544232 -175.389483571053 2903.00011634827 10 13 6
20.9371335804462 -172.911882400513 2861.99998855591 10 13 6
29.0911961346865 -174.965277314186 2895.99990844727 11 14 7
36.6514883935452 -173.333048820496 2868.99995803833 10 13 6
45.0100190937519 -175.385966897011 2903.00011634827 10 13 6
53.0069433152676 -175.626143813133 2907.00006484985 10 13 6
60.5433247983456 -174.476534128189 2888.00001144409 10 13 6
76.3082131743431 -174.472436308861 2888.00001144409 9 12 5
85.2105170488358 -176.584407687187 2923.00009727478 9 12 5
93.4108570218086 -177.004620432854 2930.0000667572 11 14 7
101.510584354401 -177.182912826538 2933.00008773804 11 14 7
110.261015594006 -178.387939929962 2953.00006866455 11 14 7
118.398956954479 -178.505331277847 2954.99992370605 11 14 7
126.204967498779 -178.139224648476 2948.99988174438 11 14 7
135.616615414619 -179.947510361671 2979.00009155273 10 13 6
143.550798296928 -179.701700806618 2974.99990463257 11 14 7
151.003792881966 -178.912088274956 2961.99989318848 12 15 8
159.137159585953 -178.967893123627 2963.00005912781 12 15 8
167.613953351974 -179.385840892792 2970.00002861023 11 14 7
175.654992461205 -179.320365190506 2969.00010108948 9 12 5
183.256596326828 -178.831875324249 2960.99996566772 9 11 6
189.844638109207 -177.437290549278 2937.99996376038 13 15 10
199.808374047279 -179.182946681976 2967.00000762939 15 17 12
210.139691829681 -181.109458208084 2999.00007247925 11 13 8
-69.8345974087715 -194.160491228104 3075.00004768372 14 16 11
-58.9241497218609 -186.206609010696 2948.99988174438 23 26 19
-50.1331612467766 -183.493211865425 2905.99989891052 19 22 13
-41.9107265770435 -182.231783866882 2885.99991798401 21 24 17
-33.7972864508629 -180.97011744976 2865.9999370575 15 18 11
-25.6478916853666 -178.697854280472 2829.99992370605 15 18 11
-17.8152602165937 -177.625119686127 2812.99996376038 19 22 15
-10.0573431700468 -176.236376166344 2790.99988937378 16 19 12
-2.51735746860504 -181.919574737549 2881.00004196167 13 16 9
5.294987000525 -180.151477456093 2852.9999256134 10 13 6
13.2616832852364 -182.61381983757 2891.99995994568 8 11 4
21.0608448833227 -181.792408227921 2878.99994850159 9 12 5
28.6181848496199 -179.897293448448 2848.99997711182 10 13 6
36.0627248883247 -178.254529833794 2822.99995422363 11 14 7
43.814804404974 -178.44270169735 2825.99997520447 11 14 7
51.9842207431793 -180.0197660923 2851.0000705719 10 13 6
69.6558058261871 -185.635611414909 2940.00005722046 10 13 6
77.0192444324493 -184.054762125015 2914.99996185303 9 12 5
85.1204544305801 -184.367954730988 2920.00007629395 9 12 5
93.7905386090279 -185.754165053368 2941.99991226196 10 13 6
103.064857423306 -188.024073839188 2977.9999256134 10 13 6
109.772257506847 -185.621544718742 2940.00005722046 10 13 6
117.393687367439 -184.986621141434 2930.0000667572 10 13 6
125.64480304718 -185.36165356636 2936.00010871887 10 13 6
134.656503796577 -186.746537685394 2957.99994468689 10 13 6
144.414946436882 -188.951805233955 2993.00003051758 11 14 7
151.916816830635 -188.126504421234 2980.00001907349 12 15 8
158.810093998909 -186.66972219944 2957.00001716614 12 15 8
167.270287871361 -187.10657954216 2963.99998664856 11 14 7
172.869086265564 -184.450030326843 2921.99993133545 9 12 5
182.508423924446 -186.148896813393 2948.99988174438 11 13 8
189.322009682655 -184.943869709969 2930.0000667572 11 13 8
206.630006432533 -186.131000518799 2948.99988174438 11 13 8
215.833619236946 -187.134385108948 2964.99991416931 14 16 11
-58.0631010234356 -191.417634487152 2905.99989891052 24 27 20
-41.4011217653751 -187.798038125038 2851.0000705719 19 22 15
-33.4542281925678 -186.87704205513 2836.99989318848 18 21 14
-25.7739443331957 -187.339127063751 2844.00010108948 19 22 15
-17.6310297101736 -183.387532830238 2783.99991989136 18 21 14
5.22800488397479 -185.561925172806 2816.99991226196 9 12 5
13.0457384511828 -187.406033277512 2845.00002861023 8 11 4
20.8772905170918 -187.998324632645 2854.00009155273 9 12 5
28.6172647029161 -187.668159604073 2848.99997711182 10 13 6
36.0743403434753 -186.020284891129 2823.99988174438 11 14 7
43.8133962452412 -186.150729656219 2825.99997520447 11 14 7
51.763754338026 -187.005504965782 2838.99998664856 11 14 7
59.6381314098835 -187.398880720139 2845.00002861023 10 13 6
69.3218931555748 -192.732185125351 2926.00011825562 10 13 6
77.7301415801048 -193.783670663834 2941.99991226196 9 12 5
85.3509232401848 -192.85885989666 2927.99997329712 9 12 5
93.4687554836273 -193.119421601295 2931.99992179871 11 14 7
101.884916424751 -193.906605243683 2944.00000572205 11 14 7
109.694071114063 -193.507954478264 2937.99996376038 11 14 7
116.788975894451 -191.989436745644 2914.99996185303 11 14 7
124.48538094759 -191.590368747711 2908.99991989136 11 14 7
134.652212262154 -194.813311100006 2957.99994468689 10 13 6
142.866402864456 -195.006415247917 2960.99996566772 11 14 7
151.096373796463 -195.199221372604 2963.99998664856 12 15 8
159.718051552773 -195.852756500244 2973.99997711182 12 15 8
168.732240796089 -196.901142597198 2990.00000953674 11 14 7
180.955529212952 -192.543715238571 2924.00002479553 11 13 8
189.122229814529 -192.735329270363 2927.00004577637 9 11 6
195.68844139576 -191.346421837807 2905.99989891052 12 14 9
211.177811026573 -198.451116681099 3013.99993896484 10 12 7
-65.6515806913376 -198.311910033226 2891.00003242493 18 20 15
-57.9612627625465 -198.999971151352 2901.00002288818 18 21 14
-49.491610378027 -196.806699037552 2868.99995803833 13 16 7
-41.1964356899261 -194.613099098206 2836.99989318848 13 16 9
-33.1229418516159 -192.69360601902 2809.00001525879 22 25 18
-25.0390376895666 -189.539074897766 2763.00001144409 22 25 18
