ply
format ascii 1.0
comment KinectMotionCapture
element vertex 796
property float x
property float y
property float z
property uchar red
property uchar green
property uchar blue
end_header
167.095705866814 -194.991394877434 2960.99996566772 11 14 7
174.046829342842 -193.734720349312 2941.99991226196 10 13 6
185.782670974731 -197.679981589317 3002.00009346008 13 16 9
193.386688828468 -197.08126783371 2993.00003051758 13 15 12
-57.4817508459091 -197.353646159172 2877.00009346008 21 24 17
-49.3536069989204 -196.257933974266 2861.00006103516 16 17 11
-41.2980876863003 -195.093303918839 2844.00010108948 15 18 9
-33.3351902663708 -193.928375840187 2826.99990272522 16 19 10
-25.7005840539932 -194.546803832054 2835.99996566772 15 18 9
-18.0167388170958 -195.164948701859 2845.00002861023 14 17 8
-10.2584641426802 -195.302590727806 2846.99988365173 12 15 6
-2.40360829047859 -188.717275857925 2750.99992752075 13 16 7
29.0984343737364 -198.730990290642 2897.0000743866 13 16 7
36.890659481287 -198.112487792969 2888.00001144409 15 18 9
53.694661706686 -202.019467949867 2944.9999332428 12 15 8
61.292115598917 -200.576990842819 2924.00002479553 10 13 6
69.3195834755898 -200.711965560913 2926.00011825562 10 13 6
76.8292769789696 -199.47475194931 2907.99999237061 12 15 8
84.6485048532486 -199.197635054588 2904.00004386902 13 16 9
93.8481763005257 -201.93837583065 2944.00000572205 14 17 10
102.469839155674 -203.101098537445 2960.99996566772 14 17 10
110.325135290623 -202.685952186584 2954.99992370605 14 17 10
117.666512727737 -201.44747197628 2937.00003623962 13 16 9
124.780796468258 -200.003027915955 2915.99988937378 13 16 9
132.963538169861 -200.341612100601 2921.0000038147 11 13 8
141.993224620819 -201.84588432312 2943.00007820129 11 13 8
151.703119277954 -204.104244709015 2976.0000705719 11 14 7
159.65910255909 -203.893259167671 2973.00004959106 11 14 7
170.419603586197 -207.111015915871 3019.99998092651 10 13 6
178.004696965218 -206.350833177567 3009.0000629425 10 13 6
185.652822256088 -205.727607011795 3000 12 15 8
194.026499986649 -205.927014350891 3003.00002098084 13 15 12
-58.4187693893909 -208.551347255707 2924.00002479553 24 27 20
-50.0763952732086 -207.055479288101 2903.00011634827 14 15 9
-33.2397073507309 -201.067104935646 2819.00000572205 16 19 10
-25.4368912428617 -200.212210416794 2806.99992179871 16 19 10
-17.9591178894043 -202.281445264816 2835.99996566772 14 17 8
-10.2328862994909 -202.567264437675 2839.99991416931 13 16 7
13.1044564768672 -203.850999474525 2858.00004005432 13 16 7
29.1376020759344 -206.916525959969 2901.00002288818 14 17 8
37.3619869351387 -208.627164363861 2924.99995231628 14 17 8
45.5777123570442 -209.695562720299 2940.00005722046 13 16 9
53.6016449332237 -209.693804383278 2940.00005722046 12 15 8
69.2697986960411 -208.548307418823 2924.00002479553 9 12 5
84.6164375543594 -207.045122981071 2903.00011634827 11 14 7
94.1637009382248 -210.679322481155 2953.9999961853 14 17 10
102.154850959778 -210.53321659565 2951.99990272522 14 17 10
110.284008085728 -210.67214012146 2953.9999961853 14 17 10
117.86276102066 -209.812328219414 2941.99991226196 12 15 8
125.204414129257 -208.667039871216 2926.00011825562 12 15 8
133.004486560822 -208.377256989479 2921.99993133545 13 15 10
143.580481410027 -212.223306298256 2976.0000705719 13 15 10
152.309611439705 -213.073894381523 2987.99991607666 12 15 8
159.707337617874 -212.070122361183 2973.99997711182 11 14 7
168.156668543816 -212.492272257805 2980.00001907349 11 14 7
177.643716335297 -214.126318693161 3003.00002098084 10 13 6
184.347003698349 -212.408781051636 2979.00009155273 13 16 9
188.786640763283 -208.33820104599 2921.99993133545 15 17 14
196.079462766647 -207.618594169617 2911.99994087219 13 15 12
-58.8162466883659 -218.005195260048 2944.00000572205 18 21 14
-50.0745922327042 -214.971095323563 2903.00011634827 21 22 16
-41.6581705212593 -212.455034255981 2868.99995803833 14 17 8
-25.5900230258703 -209.125131368637 2823.99988174438 14 17 8
-17.9521404206753 -209.940522909164 2835.00003814697 15 18 9
-2.48730950988829 -210.829898715019 2846.99988365173 17 20 11
5.27199683710933 -210.385546088219 2841.00008010864 14 17 8
13.1131522357464 -211.792185902596 2859.99989509583 11 14 5
28.2627567648888 -208.384245634079 2813.99989128113 14 17 8
35.9300822019577 -208.309009671211 2812.99996376038 13 16 7
44.6304492652416 -213.194996118546 2878.99994850159 14 17 10
52.7793169021606 -214.378029108047 2894.99998092651 12 15 8
70.2385678887367 -219.55706179142 2964.99991416931 8 11 4
77.5371491909027 -217.332854866982 2934.99994277954 8 11 4
86.274765431881 -219.181090593338 2960.00003814697 9 12 5
93.682199716568 -217.622801661491 2938.99989128113 15 18 11
101.666741073132 -217.545226216316 2937.99996376038 15 18 11
109.944067895412 -218.059703707695 2944.9999332428 15 18 11
117.137476801872 -216.500654816628 2924.00002479553 13 16 9
125.456690788269 -217.088609933853 2931.99992179871 13 16 9
134.183183312416 -218.268543481827 2947.99995422363 14 16 11
143.961325287819 -220.928892493248 2983.99996757507 13 15 10
151.029899716377 -219.368815422058 2963.00005912781 12 15 8
159.486904740334 -219.881489872932 2970.00002861023 12 15 8
167.586475610733 -219.875603914261 2970.00002861023 11 14 7
177.045911550522 -221.572145819664 2993.00003051758 11 14 7
183.659836649895 -219.714924693108 2967.99993515015 12 15 8
191.235050559044 -219.116032123566 2960.00003814697 15 17 14
-58.9538998901844 -226.569160819054 2950.99997520447 17 20 13
-49.7105084359646 -221.273556351662 2881.99996948242 18 19 13
-41.3807444274426 -218.818366527557 2849.99990463257 15 18 9
-33.4848687052727 -218.051999807358 2839.99991416931 16 19 10
-25.7521737366915 -218.206688761711 2842.00000762939 14 17 8
-18.0654469877481 -219.052091240883 2852.9999256134 15 18 9
-2.44965078309178 -215.290650725365 2803.99990081787 13 16 7
5.25881070643663 -217.594012618065 2834.00011062622 13 16 7
13.0163822323084 -217.977553606033 2838.99998664856 13 16 7
21.2912391871214 -223.505035042763 2911.00001335144 14 17 8
27.8901029378176 -213.215678930283 2776.99995040894 14 17 8
51.6106002032757 -217.357203364372 2831.00008964539 11 14 7
70.3070238232613 -227.871030569077 2967.99993515015 4 7 0
78.5381272435188 -228.252097964287 2973.00004959106 8 11 4
85.7178047299385 -225.792199373245 2940.99998474121 8 11 4
92.8500071167946 -223.639205098152 2913.00010681152 12 15 8
101.316958665848 -224.78711605072 2927.99997329712 13 16 9
108.596093952656 -223.324537277222 2908.99991989136 12 15 8
125.452056527138 -225.081413984299 2931.99992179871 13 16 9
133.040398359299 -224.385723471642 2923.00009727478 14 16 11
151.024386286736 -227.445647120476 2963.00005912781 12 15 8
157.655358314514 -225.367352366447 2936.00010871887 12 15 8
167.523950338364 -227.894365787506 2969.00010108948 12 15 8
173.017174005508 -224.510729312897 2924.99995231628 10 13 6
185.818895697594 -230.490952730179 3003.00002098084 8 11 4
194.587513804436 -231.174692511559 3012.00008392334 12 14 11
-59.171374887228 -235.488340258598 2961.99989318848 18 21 14
-40.7693609595299 -223.248660564423 2808.00008773804 15 18 9
-33.0473519861698 -222.852572798729 2802.99997329712 17 20 11
-25.7149394601583 -225.636407732964 2838.00005912781 15 18 9
-10.300193913281 -227.307423949242 2858.99996757507 15 18 9
-2.47663771733642 -225.399523973465 2835.00003814697 14 17 8
5.22706331685185 -223.968356847763 2816.99991226196 14 17 8
13.1625905632973 -228.261336684227 2871.00005149841 14 17 8
20.5809809267521 -223.728850483894 2813.99989128113 14 17 8
29.1946027427912 -231.121897697449 2907.00006484985 15 18 9
43.1544780731201 -221.339926123619 2783.99991989136 15 18 11
51.6997613012791 -225.472316145897 2835.99996566772 11 14 7
71.96244597435 -241.52709543705 3038.00010681152 5 8 1
79.3275982141495 -238.7415766716 3003.00002098084 8 11 4
85.7436656951904 -233.88883471489 2941.99991226196 9 12 5
92.8783118724823 -231.65936768055 2914.00003433228 12 15 8
100.482657551765 -230.860635638237 2904.00004386902 13 16 9
109.674505889416 -233.559429645538 2937.99996376038 13 16 9
125.960722565651 -234.027281403542 2944.00000572205 13 16 9
132.853254675865 -232.034951448441 2918.99991035461 14 16 11
141.586780548096 -233.301505446434 2934.99994277954 13 15 10
150.101229548454 -234.090805053711 2944.9999332428 12 15 8
159.313946962357 -235.833540558815 2967.00000762939 12 15 8
165.429979562759 -233.045354485512 2931.99992179871 11 14 7
176.6187697649 -237.330839037895 2986.00006103516 10 13 6
183.831885457039 -236.131727695465 2970.99995613098 9 12 5
191.673174500465 -235.806688666344 2967.00000762939 14 16 13
-68.227730691433 -247.095391154289 3005.00011444092 10 12 7
-60.7671141624451 -250.140398740768 3042.00005531311 21 24 17
-40.9419573843479 -231.889501214027 2819.9999332428 15 18 9
-32.975297421217 -229.99969124794 2796.99993133545 18 21 12
-25.1430999487638 -228.191792964935 2775.00009536743 16 19 10
-18.3362923562527 -238.142669200897 2895.99990844727 16 19 10
-10.4582998901606 -238.718897104263 2903.00011634827 15 18 9
-2.50099902041256 -235.429868102074 2862.99991607666 12 15 6
5.310351960361 -235.347598791122 2861.99998855591 12 15 6
12.9695190116763 -232.633545994759 2828.9999961853 13 16 7
20.9970325231552 -236.086621880531 2871.00005149841 13 16 7
28.8017820566893 -235.838890075684 2868.00003051758 13 16 7
35.9131619334221 -231.232672929764 2812.00003623962 13 16 7
44.2842915654182 -234.931424260139 2857.00011253357 13 16 9
72.8833675384521 -253.014743328094 3076.99990272522 7 10 3
78.6376670002937 -244.789004325867 2976.99999809265 11 14 7
85.0699692964554 -240.016579627991 2918.99991035461 10 13 6
93.0021405220032 -239.930793642998 2917.99998283386 12 15 8
101.20528191328 -240.502461791039 2924.99995231628 14 17 10
108.998291194439 -240.087151527405 2920.00007629395 13 16 9
133.849307894707 -241.79919064045 2940.99998474121 14 16 11
142.546027898788 -242.944732308388 2954.99992370605 13 15 10
151.216596364975 -243.9254373312 2967.00000762939 12 15 8
158.180177211761 -242.192849516869 2946.00009918213 12 15 8
169.429361820221 -246.87235057354 3003.00002098084 12 15 8
181.22610449791 -240.775227546692 2928.99990081787 12 15 8
190.438359975815 -242.329761385918 2947.99995422363 14 16 13
-67.8162723779678 -253.756165504456 2986.99998855591 18 21 14
-58.7071776390076 -249.68096613884 2938.99989128113 20 23 16
-49.6183633804321 -244.416028261185 2877.00009346008 17 18 12
-41.6371412575245 -243.653327226639 2868.00003051758 15 18 9
-33.480878919363 -241.276100277901 2839.99991416931 18 21 12
-25.8578285574913 -242.466747760773 2854.00009155273 16 19 10
-18.1835889816284 -243.996858596802 2871.99997901917 16 19 10
-10.3858215734363 -244.931995868683 2882.99989700317 14 17 8
-2.52360804006457 -245.442003011703 2888.99993896484 11 14 5
5.30456844717264 -242.893218994141 2858.99996757507 11 14 5
13.1019316613674 -242.807865142822 2858.00004005432 11 14 5
21.288700401783 -247.309908270836 2911.00001335144 12 15 6
28.8608577102423 -244.165450334549 2874.00007247925 12 15 6
36.1288003623486 -240.341067314148 2828.9999961853 12 15 6
43.7089912593365 -239.574819803238 2819.9999332428 13 16 9
51.6226813197136 -240.592285990715 2832.00001716614 11 14 7
70.5355256795883 -252.990514039993 2977.9999256134 7 10 3
78.5287991166115 -252.562671899796 2973.00004959106 10 13 6
84.9790647625923 -247.717037796974 2915.99988937378 9 12 5
101.339556276798 -248.813673853874 2928.99990081787 14 17 10
109.628409147263 -249.488934874535 2937.00003623962 15 18 11
117.439761757851 -249.059528112411 2931.99992179871 13 16 9
125.69397687912 -249.564185738564 2937.99996376038 12 15 8
132.433116436005 -247.180506587029 2910.00008583069 14 16 11
142.202600836754 -250.402629375458 2947.99995422363 13 15 10
150.955691933632 -251.585751771927 2961.99989318848 12 15 8
159.032881259918 -251.579433679581 2961.99989318848 12 15 8
166.996598243713 -251.402944326401 2960.00003814697 11 14 7
172.997012734413 -248.423352837563 2924.99995231628 10 13 6
181.156978011131 -248.67095053196 2927.99997329712 14 17 10
188.55744600296 -247.899115085602 2918.99991035461 14 16 13
-67.5182789564133 -260.756194591522 2973.99997711182 24 27 20
-49.7714765369892 -253.045380115509 2885.99991798401 19 20 12
-42.2741435468197 -255.327045917511 2911.99994087219 14 17 8
-34.0571068227291 -253.311991691589 2888.99993896484 18 21 12
-25.7751997560263 -249.455317854881 2845.00002861023 16 19 10
-18.1131809949875 -250.859141349792 2861.00006103516 15 18 9
-10.3457579389215 -251.824259757996 2871.99997901917 12 15 6
-2.52961600199342 -253.928929567337 2895.99990844727 9 12 3
5.36371488124132 -253.490447998047 2891.00003242493 11 14 5
13.133468106389 -251.210302114487 2865.00000953674 11 14 5
21.2366133928299 -254.629194736481 2904.00004386902 11 14 5
28.6286827176809 -249.980971217155 2851.0000705719 11 14 5
36.3060608506203 -249.278128147125 2842.99993515015 12 15 6
44.6525886654854 -252.608299255371 2881.00004196167 12 15 8
51.6934171319008 -248.66059422493 2835.99996566772 11 14 7
61.464250087738 -257.163137197495 2933.00008773804 7 10 3
70.2246576547623 -259.966015815735 2964.99991416931 6 9 2
77.6802822947502 -257.858574390411 2940.99998474121 8 11 4
85.6166109442711 -257.592082023621 2937.99996376038 7 10 3
93.8867926597595 -258.289694786072 2946.00009918213 12 15 8
101.923488080502 -258.28555226326 2946.00009918213 14 17 10
109.623827040195 -257.492005825043 2937.00003623962 15 18 11
117.034338414669 -256.172120571136 2921.99993133545 13 16 9
124.105863273144 -254.325956106186 2901.00002288818 12 15 8
132.56411254406 -255.372554063797 2913.00010681152 14 16 11
140.653178095818 -255.629777908325 2915.99988937378 13 15 10
150.388866662979 -258.691877126694 2950.99997520447 12 15 8
158.704161643982 -259.123682975769 2956.00008964539 12 15 8
166.93326830864 -259.379833936691 2959.00011062622 11 14 7
174.645856022835 -258.84672999382 2953.00006866455 10 13 6
189.131051301956 -256.64022564888 2927.99997329712 14 16 13
-65.8808276057243 -262.350589036942 2901.99995040894 11 14 7
-57.9831302165985 -262.443751096725 2903.00011634827 15 18 11
-49.286462366581 -258.377850055695 2858.00004005432 19 22 13
-42.4755439162254 -264.527440071106 2926.00011825562 16 19 10
-25.8193742483854 -257.659524679184 2849.99990463257 16 19 12
-17.9984401911497 -257.02765583992 2842.99993515015 12 15 8
-10.3345019742846 -259.378880262375 2868.99995803833 10 13 6
-2.52251862548292 -261.096894741058 2888.00001144409 9 12 5
5.31895598396659 -259.198278188705 2867.00010299683 10 13 6
13.0091328173876 -256.576091051102 2838.00005912781 11 14 7
21.0894402116537 -260.734081268311 2884.0000629425 12 15 8
28.7378914654255 -258.74400138855 2861.99998855591 12 15 8
36.2789481878281 -256.844043731689 2841.00008010864 13 16 9
44.9916198849678 -262.447446584702 2903.00011634827 13 15 10
53.5685382783413 -265.699833631516 2938.99989128113 14 16 11
61.6082772612572 -265.787750482559 2940.00005722046 9 11 6
69.6769058704376 -265.965670347214 2941.99991226196 8 10 5
77.4656385183334 -265.148818492889 2933.00008773804 9 11 6
86.3122716546059 -267.766863107681 2961.99989318848 7 9 4
93.723401427269 -265.86452126503 2940.99998474121 12 14 9
102.265037596226 -267.216235399246 2956.00008964539 13 15 10
110.402904450893 -267.39239692688 2957.99994468689 15 17 12
117.750220000744 -265.76030254364 2940.00005722046 15 17 12
126.196697354317 -266.658931970596 2950.00004768372 13 15 10
133.241027593613 -264.664679765701 2927.99997329712 16 18 13
140.743643045425 -263.754844665527 2917.99998283386 14 16 11
149.567067623138 -265.285134315491 2934.99994277954 11 14 7
161.489084362984 -271.876573562622 3007.99989700317 12 15 8
168.674990534782 -270.24257183075 2990.00000953674 12 15 8
176.708295941353 -270.054340362549 2987.99991607666 11 14 7
184.235125780106 -269.142806529999 2977.9999256134 13 16 9
-66.4227306842804 -272.491961717606 2926.00011825562 9 12 5
-57.6410070061684 -268.769592046738 2885.99991798401 23 26 19
-49.2325387895107 -265.88499546051 2855.00001907349 18 21 12
-33.9480303227901 -268.217027187347 2880.00011444092 17 20 13
-25.492100045085 -262.071669101715 2813.99989128113 15 18 11
-18.0546138435602 -265.611678361893 2851.99999809265 11 14 7
-10.3484494611621 -267.568081617355 2872.99990653992 10 13 6
-2.48921639285982 -265.426337718964 2849.99990463257 11 14 7
5.20740961655974 -261.421591043472 2806.99992179871 11 14 7
13.1552321836352 -267.288506031036 2869.99988555908 12 15 8
20.9422558546066 -266.728967428207 2864.00008201599 13 16 9
28.5357981920242 -264.678925275803 2842.00000762939 13 16 9
36.1879467964172 -263.932436704636 2834.00011062622 14 17 10
45.0206063687801 -270.542830228806 2904.99997138977 14 16 11
53.6755137145519 -274.265825748444 2944.9999332428 15 17 12
61.2912178039551 -272.400617599487 2924.99995231628 10 12 7
69.6974918246269 -274.074018001556 2943.00007820129 8 10 5
77.3037374019623 -272.580683231354 2927.00004577637 9 11 6
84.5892801880836 -270.34205198288 2903.00011634827 7 9 4
93.4961885213852 -273.224860429764 2934.00001525879 11 13 8
102.433495223522 -275.734812021255 2960.99996566772 13 15 10
110.323384404182 -275.264441967011 2956.00008964539 15 17 12
118.946522474289 -276.562988758087 2970.00002861023 15 17 12
124.351732432842 -270.691126585007 2907.00006484985 13 15 10
134.372755885124 -274.968683719635 2953.00006866455 14 16 11
143.148988485336 -276.3592004776 2967.99993515015 13 15 10
151.140213012695 -276.166439056396 2966.00008010864 11 14 7
170.698404312134 -281.738698482513 3026.00002288818 13 16 9
176.286667585373 -277.541309595108 2980.99994659424 12 15 8
185.2787733078 -278.836756944656 2994.99988555908 12 15 8
192.602649331093 -277.618169784546 2982.00011253357 8 10 7
-49.9545149505138 -277.688205242157 2897.0000743866 17 20 11
-41.3540378212929 -273.089319467545 2848.99997711182 21 24 17
-33.4632098674774 -272.132515907288 2838.99998664856 17 20 13
-25.5362279713154 -270.216763019562 2819.00000572205 14 17 10
-10.1354699581861 -269.739151000977 2813.99989128113 11 14 7
-2.49172281473875 -273.477822542191 2852.9999256134 12 15 8
5.24612842127681 -271.081358194351 2828.00006866455 12 15 8
13.0262924358249 -272.422909736633 2842.00000762939 13 16 9
21.0217293351889 -275.585383176804 2875 13 16 9
28.6750569939613 -273.762941360474 2855.99994659424 14 17 10
36.2756736576557 -272.32363820076 2841.00008010864 14 17 10
44.197216629982 -273.376166820526 2851.99999809265 14 16 11
53.2903410494328 -280.275404453278 2924.00002479553 15 17 12
61.8122555315495 -282.764911651611 2950.00004768372 10 12 7
69.7653591632843 -282.37846493721 2946.00009918213 8 10 5
76.7720341682434 -278.636902570724 2907.00006484985 10 12 7
84.9350765347481 -279.399991035461 2914.99996185303 8 10 5
93.8424468040466 -282.271295785904 2944.9999332428 11 13 8
101.564034819603 -281.404197216034 2936.00010871887 12 14 9
110.206425189972 -283.028692007065 2953.00006866455 14 16 11
118.060074746609 -282.54422545433 2947.99995422363 14 16 11
125.244379043579 -280.62179684639 2927.99997329712 14 16 11
132.865130901337 -279.849201440811 2920.00007629395 14 16 11
139.911204576492 -278.022021055222 2901.00002288818 13 15 10
151.235312223434 -284.436374902725 2967.99993515015 12 15 8
160.669550299644 -286.825120449066 2993.00003051758 13 16 9
166.79859161377 -283.36775302887 2957.00001716614 14 17 10
176.51529610157 -286.043167114258 2984.99989509583 13 16 9
178.404062986374 -276.356786489487 2884.0000629425 14 17 10
-59.2133738100529 -292.27951169014 2964.99991416931 14 17 10
-50.3832437098026 -288.043320178986 2921.99993133545 18 21 12
-41.6133590042591 -282.623708248138 2867.00010299683 17 20 13
-33.3673506975174 -279.0766954422 2831.00008964539 15 18 11
-25.6074983626604 -278.683751821518 2826.99990272522 13 16 9
-17.8567133843899 -278.093338012695 2821.00009918213 12 15 8
-10.3510925546288 -283.318728208542 2874.00007247925 13 16 9
-2.48985947109759 -281.05166554451 2851.0000705719 13 16 9
5.26814162731171 -279.967218637466 2839.99991416931 13 16 9
13.039430603385 -280.459702014923 2845.00002861023 13 16 9
21.1231037974358 -284.796386957169 2888.99993896484 14 17 10
28.9247091859579 -284.006595611572 2881.00004196167 14 17 10
36.4654920995235 -281.540542840958 2855.99994659424 14 17 10
44.3191155791283 -281.932950019836 2859.99989509583 14 16 11
53.4518659114838 -289.126813411713 2933.00008773804 15 17 12
62.8569796681404 -295.728653669357 3000 9 11 6
70.4488158226013 -293.261080980301 2974.99990463257 8 10 5
77.7719542384148 -290.300399065018 2944.9999332428 9 11 6
86.2130895256996 -291.676551103592 2959.00011062622 8 10 5
94.0929800271988 -291.080832481384 2953.00006866455 10 12 7
101.386345922947 -288.907706737518 2930.99999427795 12 14 9
109.342962503433 -288.804143667221 2930.0000667572 14 16 11
119.536265730858 -294.219940900803 2984.99989509583 14 16 11
127.248883247375 -293.228507041931 2974.99990463257 14 16 11
133.359476923943 -288.885593414307 2930.99999427795 15 17 12
149.088323116302 -288.379639387131 2926.00011825562 13 16 9
158.783376216888 -291.526228189468 2957.99994468689 14 17 10
166.678130626678 -291.223019361496 2954.99992370605 12 15 8
174.969807267189 -291.609287261963 2959.00011062622 11 14 7
185.26203930378 -295.148640871048 2994.99988555908 10 13 6
184.899941086769 -282.132029533386 2862.99991607666 13 15 12
-59.8495751619339 -303.595900535584 2996.99997901917 12 15 8
-51.0360226035118 -299.850463867188 2960.00003814697 15 18 11
-33.5896722972393 -288.711369037628 2849.99990463257 14 17 10
-17.9064907133579 -286.58652305603 2828.9999961853 11 14 7
-10.35419665277 -291.24715924263 2875 11 14 7
-2.51157162711024 -291.348785161972 2875.99992752075 13 16 9
5.28087187558413 -288.410902023315 2846.99988365173 13 16 9
13.1717128679156 -291.145652532578 2874.00007247925 13 16 9
20.9466181695461 -290.233075618744 2865.00000953674 13 16 9
28.8530439138412 -291.143625974655 2874.00007247925 13 16 9
36.4765115082264 -289.419919252396 2857.00011253357 13 16 9
44.1620349884033 -288.708835840225 2849.99990463257 13 15 10
52.0825386047363 -289.516896009445 2858.00004005432 12 14 9
62.141627073288 -300.454556941986 2966.00008010864 8 10 5
70.5401599407196 -301.768213510513 2979.00009155273 7 9 4
78.5604417324066 -301.359415054321 2974.99990463257 8 10 5
86.500309407711 -300.747632980347 2969.00010108948 6 8 3
93.769870698452 -298.109591007233 2943.00007820129 9 11 6
101.900346577168 -298.408776521683 2946.00009918213 10 12 7
110.419936478138 -299.72043633461 2959.00011062622 12 14 9
119.290344417095 -301.740705966949 2979.00009155273 14 16 11
126.515731215477 -299.60772395134 2957.99994468689 14 16 11
133.853614330292 -297.98087477684 2941.99991226196 15 17 12
142.791584134102 -299.898684024811 2960.99996566772 14 16 11
151.017397642136 -300.19548535347 2963.99998664856 14 17 10
158.93691778183 -299.884229898453 2960.99996566772 15 18 11
166.895881295204 -299.673914909363 2959.00011062622 13 16 9
176.262408494949 -301.893770694733 2980.99994659424 12 15 8
184.511110186577 -302.087754011154 2983.00004005432 11 14 7
193.028330802917 -302.686452865601 2989.00008201599 10 12 9
-51.1541999876499 -308.638691902161 2967.00000762939 11 14 7
-43.3944426476955 -311.033636331558 2990.00000953674 17 20 13
-33.6705259978771 -297.200232744217 2857.00011253357 14 17 10
-25.7318094372749 -295.537263154984 2841.00008010864 13 16 9
-17.8739633411169 -293.769896030426 2823.99988174438 10 13 6
-10.4977376759052 -303.237020969391 2914.99996185303 10 13 6
-2.53851874731481 -302.405148744583 2907.00006484985 9 12 5
5.34367607906461 -299.700379371643 2881.00004196167 13 16 9
13.2168931886554 -300.011992454529 2884.0000629425 13 16 9
21.0113860666752 -298.970878124237 2874.00007247925 13 16 9
28.7411995232105 -297.825366258621 2862.99991607666 13 16 9
36.4874862134457 -297.30361700058 2858.00004005432 13 16 9
44.0823920071125 -295.949280261993 2845.00002861023 12 14 9
53.045779466629 -302.812486886978 2911.00001335144 11 13 8
61.2586624920368 -304.161906242371 2924.00002479553 8 10 5
70.347286760807 -309.047698974609 2970.99995613098 6 8 3
78.609399497509 -309.668123722076 2976.99999809265 7 9 4
93.2873785495758 -304.56268787384 2927.99997329712 9 11 6
110.601127147675 -308.29718708992 2963.99998664856 11 13 8
118.683896958828 -308.291524648666 2963.99998664856 14 16 11
125.183776021004 -304.437160491943 2927.00004577637 14 16 11
133.255675435066 -304.638773202896 2928.99990081787 13 15 10
142.495334148407 -307.336211204529 2954.99992370605 13 15 10
151.876196265221 -310.033142566681 2980.99994659424 14 17 10
158.714547753334 -307.529479265213 2957.00001716614 15 18 11
167.451843619347 -308.769524097443 2969.00010108948 14 17 10
175.721779465675 -309.073150157928 2971.99988365173 13 16 9
184.007436037064 -309.376388788223 2974.99990463257 11 14 7
-51.1861108243465 -316.930174827576 2969.00010108948 16 18 13
-42.8988412022591 -315.544873476028 2956.00008964539 18 21 14
-34.446619451046 -312.024146318436 2923.00009727478 13 16 9
-26.0384492576122 -306.901752948761 2875 12 15 8
-18.5376089066267 -312.667310237885 2928.99990081787 12 15 8
-10.6088453903794 -314.482808113098 2946.00009918213 12 15 8
5.28405653312802 -304.128408432007 2848.99997711182 12 15 8
13.0604198202491 -304.234683513641 2849.99990463257 12 15 8
21.0176408290863 -306.902527809143 2875 13 16 9
28.8200601935387 -306.474268436432 2871.00005149841 13 16 9
36.7154404520988 -307.006359100342 2875.99992752075 13 16 9
44.5449911057949 -306.897521018982 2875 12 14 9
53.1342215836048 -311.271667480469 2915.99988937378 13 15 10
62.3030513525009 -317.460000514984 2973.99997711182 9 11 6
70.5331787467003 -317.990362644196 2979.00009155273 7 9 4
85.0351676344872 -311.577886343002 2918.99991035461 6 8 3
100.091814994812 -308.900058269501 2894.00005340576 9 11 6
109.923988580704 -314.445078372955 2946.00009918213 13 15 10
125.006467103958 -311.978369951248 2923.00009727478 14 16 11
131.929785013199 -309.517115354538 2900.00009536743 15 17 12
141.427457332611 -313.032329082489 2933.00008773804 14 16 11
159.082412719727 -316.325753927231 2963.99998664856 16 19 12
165.413290262222 -313.009321689606 2933.00008773804 15 18 11
174.235075712204 -314.494878053665 2947.00002670288 14 17 10
183.75101685524 -317.04717874527 2970.99995613098 15 18 11
191.52444601059 -316.504329442978 2966.00008010864 12 14 11
-42.7369996905327 -322.387605905533 2944.9999332428 18 21 14
-34.5155522227287 -320.638120174408 2928.99990081787 13 16 9
-26.2182354927063 -316.917657852173 2894.99998092651 11 14 7
-18.150607123971 -313.963145017624 2868.00003051758 12 15 8
-2.53826077096164 -318.233579397202 2907.00006484985 11 14 7
5.26152923703194 -310.570508241653 2836.99989318848 12 15 8
13.1605602800846 -314.401537179947 2871.99997901917 12 15 8
20.9142193198204 -313.196450471878 2861.00006103516 13 16 9
28.9289969950914 -315.494060516357 2881.99996948242 13 16 9
36.8667393922806 -316.149145364761 2888.00001144409 13 16 9
44.9920073151588 -317.898541688919 2904.00004386902 12 14 9
52.5666549801826 -315.816134214401 2884.99999046326 13 15 10
61.4409819245338 -321.067631244659 2933.00008773804 10 12 7
69.251075387001 -320.188492536545 2924.99995231628 7 9 4
77.4925127625465 -321.279376745224 2934.99994277954 8 10 5
84.9143043160439 -319.085866212845 2914.99996185303 6 8 3
92.0673832297325 -316.344767808914 2890.00010490417 8 10 5
101.435489952564 -321.046561002731 2933.00008773804 9 11 6
109.61988568306 -321.588397026062 2937.99996376038 12 14 9
117.430783808231 -321.035295724869 2933.00008773804 13 15 10
124.914593994617 -319.715619087219 2921.0000038147 14 16 11
133.014857769012 -320.037335157394 2924.00002479553 15 17 12
138.671904802322 -314.776718616486 2875.99992752075 14 17 10
148.396909236908 -318.819016218185 2913.00010681152 15 18 11
155.961588025093 -318.045109510422 2905.99989891052 16 19 12
165.122970938683 -320.444643497467 2927.99997329712 17 20 13
174.758419394493 -323.500365018845 2956.00008964539 16 19 12
182.381212711334 -322.725236415863 2948.99988174438 15 18 11
-50.7843196392059 -330.513149499893 2946.00009918213 19 21 18
-42.4880795180798 -328.496158123016 2927.99997329712 16 18 13
-34.5373079180717 -328.834772109985 2930.99999427795 11 14 7
-26.3889264315367 -326.929152011871 2914.00003433228 10 13 6
-18.1686393916607 -322.106003761292 2871.00005149841 11 14 7
-2.54860450513661 -327.492386102676 2918.99991035461 11 14 7
5.3261611610651 -322.219252586365 2871.99997901917 11 14 7
13.0407335236669 -319.301724433899 2845.99995613098 12 15 8
20.7523051649332 -318.515449762344 2838.99998664856 12 15 8
28.5560972988606 -319.187343120575 2845.00002861023 12 15 8
36.3031588494778 -319.073438644409 2844.00010108948 12 15 8
43.9516641199589 -318.285942077637 2836.99989318848 12 14 9
60.997873544693 -326.694637537003 2911.99994087219 10 12 7
69.0580606460571 -327.252179384232 2917.00005531311 8 10 5
76.4324069023132 -324.780195951462 2894.99998092651 9 11 6
84.3564197421074 -324.888110160828 2895.99990844727 8 10 5
95.088854432106 -334.867805242538 2984.99989509583 10 12 7
101.776033639908 -330.150961875916 2943.00007820129 11 13 8
110.17382889986 -331.267178058624 2953.00006866455 14 16 11
117.62485653162 -329.578518867493 2937.99996376038 14 16 11
125.977158546448 -330.46954870224 2946.00009918213 15 17 12
133.599326014519 -329.45317029953 2937.00003623962 16 18 13
141.316533088684 -328.772962093353 2930.99999427795 15 17 12
147.828876972198 -325.51246881485 2901.99995040894 16 19 12
156.221881508827 -326.514065265656 2911.00001335144 17 20 13
164.325013756752 -326.842188835144 2914.00003433228 19 22 15
173.803582787514 -329.749643802643 2940.00005722046 19 22 15
182.31001496315 -330.637663602829 2947.99995422363 20 23 16
189.761772751808 -329.618662595749 2938.99989128113 16 18 15
-50.6781823933125 -337.84094452858 2940.00005722046 17 19 16
-42.0795157551765 -333.246946334839 2900.00009536743 15 17 12
-34.3233682215214 -334.742873907089 2913.00010681152 11 14 7
-26.3060126453638 -333.825200796127 2904.99997138977 10 13 6
-10.3911412879825 -331.64381980896 2885.99991798401 11 14 7
-2.53187981434166 -333.252996206284 2900.00009536743 10 13 6
5.33143896609545 -330.38005232811 2875 11 14 7
13.0491992458701 -327.276825904846 2848.00004959106 11 14 7
20.6781011074781 -325.092524290085 2828.9999961853 12 15 8
28.5445302724838 -326.814919710159 2844.00010108948 12 15 8
36.2373925745487 -326.238602399826 2838.99998664856 12 15 8
43.9338199794292 -325.891673564911 2835.99996566772 12 14 9
61.0783956944942 -335.078924894333 2915.99988937378 10 12 7
69.1253915429115 -335.535079240799 2920.00007629395 8 10 5
76.7979249358177 -334.267139434814 2908.99991989136 9 11 6
84.2062905430794 -332.194477319717 2891.00003242493 8 10 5
94.0326228737831 -339.19894695282 2951.99990272522 11 13 8
102.738872170448 -341.376811265945 2970.99995613098 12 14 9
110.093355178833 -339.073061943054 2950.99997520447 14 16 11
118.179075419903 -339.181810617447 2951.99990272522 15 17 12
124.559424817562 -334.694355726242 2913.00010681152 15 17 12
133.182868361473 -336.410880088806 2927.99997329712 16 18 13
141.068011522293 -336.17377281189 2926.00011825562 14 16 11
148.381412029266 -334.672510623932 2913.00010681152 14 17 10
156.267330050468 -334.549516439438 2911.99994087219 16 19 12
165.61333835125 -337.413132190704 2937.00003623962 19 22 15
171.607255935669 -333.49820971489 2903.00011634827 19 22 15
182.609692215919 -339.23277258873 2953.00006866455 17 20 13
193.109199404716 -343.588143587112 2990.9999370575 16 18 15
-50.5547635257244 -345.017194747925 2933.00008773804 17 19 16
-34.0387225151062 -339.845955371857 2888.99993896484 10 13 6
-17.9262217134237 -333.261251449585 2832.99994468689 10 13 6
-10.3797717019916 -339.143842458725 2882.99989700317 10 13 6
5.36637986078858 -340.4381275177 2894.00005340576 11 14 7
13.1401186808944 -337.379068136215 2868.00003051758 11 14 7
21.2324485182762 -341.73059463501 2904.99997138977 11 14 7
29.0347430855036 -340.317577123642 2892.99988746643 12 15 8
36.835290491581 -339.492321014404 2885.99991798401 12 15 8
44.3806499242783 -337.019801139832 2865.00000953674 12 14 9
52.6675321161747 -340.075612068176 2891.00003242493 14 16 11
61.7662519216537 -346.895098686218 2948.99988174438 10 12 7
69.5240423083305 -345.479905605316 2937.00003623962 8 10 5
77.2953256964684 -344.417214393616 2927.99997329712 10 12 7
85.1337313652039 -343.824625015259 2923.00009727478 9 11 6
93.3904647827148 -344.878315925598 2931.99992179871 11 13 8
102.110892534256 -347.343146800995 2953.00006866455 12 14 9
110.497750341892 -348.395884037018 2961.99989318848 13 15 10
117.772370576859 -346.037238836288 2941.99991226196 14 16 11
126.006454229355 -346.618711948395 2947.00002670288 14 16 11
134.130850434303 -346.84681892395 2948.99988174438 14 16 11
148.729979991913 -343.420743942261 2920.00007629395 12 15 8
157.063871622086 -344.235718250275 2927.00004577637 13 16 9
164.476752281189 -343.050956726074 2917.00005531311 16 19 12
173.726052045822 -345.629036426544 2938.99989128113 16 19 12
181.177765130997 -344.561129808426 2930.0000667572 16 19 12
-41.291419416666 -342.528402805328 2845.99995613098 11 14 7
-33.8129736483097 -345.418989658356 2869.99988555908 10 13 6
-25.8413348346949 -343.495011329651 2854.00009155273 10 13 6
-17.988495528698 -342.17232465744 2842.99993515015 10 13 6
-10.148786008358 -339.28456902504 2819.00000572205 10 13 6
-2.53771129064262 -349.876314401627 2907.00006484985 10 13 6
5.54037606343627 -359.625071287155 2987.99991607666 11 14 7
13.5104767978191 -354.930609464645 2948.99988174438 10 13 6
21.5089935809374 -354.207545518875 2943.00007820129 9 12 5
29.1736293584108 -349.873334169388 2907.00006484985 9 12 5
37.2033640742302 -350.834250450134 2914.99996185303 10 13 6
60.8412995934486 -349.622488021851 2904.99997138977 8 11 4
69.9225887656212 -355.516046285629 2953.9999961853 6 9 2
78.1357511878014 -356.234014034271 2960.00003814697 13 16 9
85.5076313018799 -353.341072797775 2936.00010871887 11 14 7
93.3534502983093 -352.734327316284 2930.99999427795 12 15 8
101.55200958252 -353.450953960419 2937.00003623962 12 15 8
109.670989215374 -353.80607843399 2940.00005722046 10 13 6
120.367787778378 -361.862540245056 3006.99996948242 9 12 5
128.137275576591 -360.652267932892 2996.99997901917 8 11 4
136.170133948326 -360.28391122818 2993.99995803833 5 10 3
148.619964718819 -351.122856140137 2917.99998283386 4 10 0
157.430872321129 -353.039652109146 2934.00001525879 5 10 3
167.850732803345 -358.204692602158 2976.99999809265 6 11 5
172.416254878044 -350.976020097733 2917.00005531311 7 12 6
184.506833553314 -359.027594327927 2983.99996757507 8 13 7
-49.756295979023 -355.313420295715 2887.00008392334 9 11 6
-41.5792316198349 -352.731436491013 2865.9999370575 11 14 7
-33.5754454135895 -350.764364004135 2849.99990463257 10 13 6
-2.53320252522826 -357.168525457382 2901.99995040894 9 12 5
5.38431713357568 -357.414603233337 2904.00004386902 8 11 4
13.5280378162861 -363.444834947586 2953.00006866455 8 11 4
21.3762260973454 -359.997630119324 2924.99995231628 8 11 4
29.1519016027451 -357.534676790237 2904.99997138977 9 12 5
37.2522994875908 -359.255850315094 2918.99991035461 11 14 7
44.6544699370861 -354.822814464569 2882.99989700317 9 12 5
60.733150690794 -356.909066438675 2900.00009536743 8 11 4
69.6582794189453 -362.197428941727 2943.00007820129 7 10 3
77.8673812747002 -363.054722547531 2950.00004768372 14 17 10
85.881382226944 -362.926959991455 2948.99988174438 11 14 7
93.1252464652061 -359.845191240311 2924.00002479553 10 13 6
100.64735263586 -358.239829540253 2911.00001335144 9 12 5
111.044958233833 -366.355985403061 2976.99999809265 8 11 4
119.400396943092 -367.087870836258 2983.00004005432 8 11 4
129.327178001404 -372.249305248261 3025.00009536743 7 10 3
136.435389518738 -369.165360927582 3000 8 14 4
149.273782968521 -360.658645629883 2930.99999427795 7 13 3
175.598308444023 -365.553081035614 2970.99995613098 9 14 8
185.424089431763 -368.988126516342 2999.00007247925 4 9 5
-49.8223602771759 -363.668322563171 2891.00003242493 12 14 9
-42.0700684189796 -364.803165197372 2900.00009536743 8 11 4
-35.5643630027771 -379.774987697601 3019.00005340576 8 11 4
-26.1733550578356 -363.674968481064 2891.00003242493 7 10 3
5.34136407077312 -362.419426441193 2881.00004196167 10 13 6
13.2478242740035 -363.802641630173 2891.99995994568 10 13 6
21.506529301405 -370.217204093933 2943.00007820129 10 13 6
29.4211525470018 -368.831992149353 2931.99992179871 10 13 6
36.8545539677143 -363.295078277588 2888.00001144409 11 14 7
45.2869050204754 -367.821305990219 2924.00002479553 13 16 9
54.2432591319084 -374.611228704453 2977.9999256134 13 16 9
62.3421221971512 -374.482065439224 2976.99999809265 9 12 5
69.7962716221809 -370.956063270569 2948.99988174438 11 14 7
77.387809753418 -368.813395500183 2931.99992179871 14 17 10
85.4396522045136 -369.060218334198 2934.00001525879 10 13 6
92.8969755768776 -366.916686296463 2917.00005531311 10 13 6
100.849017500877 -366.911083459854 2917.00005531311 9 12 5
108.912579715252 -367.282450199127 2920.00007629395 9 12 5
149.010688066483 -368.000030517578 2926.00011825562 11 17 7
158.110663294792 -370.632350444794 2947.00002670288 11 16 9
168.790310621262 -376.533925533295 2993.99995803833 11 16 10
179.075345396996 -381.051421165466 3029.99997138977 11 16 10
-51.2669757008553 -382.324725389481 2974.99990463257 12 15 8
-35.3855825960636 -386.056780815125 3003.99994850159 7 10 3
-26.5248790383339 -376.548528671265 2930.0000667572 7 10 3
-18.3712802827358 -373.208492994308 2904.00004386902 9 12 5
-10.5861686170101 -377.964437007904 2940.99998474121 10 13 6
5.23167150095105 -362.671375274658 2822.00002670288 11 14 7
13.2195604965091 -370.895802974701 2885.99991798401 12 15 8
21.4029662311077 -376.420915126801 2928.99990081787 13 16 9
29.4595640152693 -377.319067716599 2936.00010871887 13 16 9
37.5542193651199 -378.216654062271 2943.00007820129 13 16 9
45.0983978807926 -374.230265617371 2911.99994087219 14 17 10
54.1125871241093 -381.809622049332 2970.99995613098 13 16 9
62.6316368579865 -384.376376867294 2990.9999370575 10 13 6
70.0051859021187 -380.131602287292 2957.99994468689 12 15 8
77.5944218039513 -377.814114093781 2940.00005722046 12 15 8
84.8522856831551 -374.468147754669 2914.00003433228 10 13 6
92.8278714418411 -374.591380357742 2914.99996185303 11 14 7
99.5986014604568 -370.21666765213 2881.00004196167 11 14 7
108.309492468834 -373.166084289551 2904.00004386902 12 15 8
117.705680429935 -377.913892269135 2940.99998474121 13 16 9
127.474129199982 -383.175134658813 2982.00011253357 14 17 10
159.174531698227 -381.21435046196 2967.00000762939 14 19 12
171.430125832558 -390.712469816208 3040.99988937378 13 18 11
-60.2727718651295 -396.315276622772 3019.99998092651 12 14 9
-43.2690307497978 -391.465961933136 2983.00004005432 10 13 6
-34.7003005445004 -386.612683534622 2946.00009918213 10 13 6
-26.3422485440969 -381.890088319778 2910.00008583069 10 13 6
-10.4415640234947 -380.711197853088 2901.00002288818 12 15 8
-2.52141011878848 -379.136800765991 2888.99993896484 11 14 7
5.24248136207461 -371.131420135498 2828.00006866455 12 15 8
13.3470194414258 -382.416993379593 2914.00003433228 12 15 8
21.3651563972235 -383.728325366974 2924.00002479553 13 16 9
29.337402433157 -383.726745843887 2924.00002479553 12 15 8
37.2840240597725 -383.462280035019 2921.99993133545 11 14 7
45.4673804342747 -385.29708981514 2936.00010871887 9 12 5
53.7451133131981 -387.262523174286 2950.99997520447 10 13 6
61.8950538337231 -387.915253639221 2956.00008964539 12 15 8
70.1903402805328 -389.223575592041 2966.00008010864 12 15 8
77.9329016804695 -387.513160705566 2953.00006866455 12 15 8
85.4295864701271 -385.01501083374 2934.00001525879 13 16 9
91.4531126618385 -376.873761415482 2871.99997901917 11 14 7
99.7655391693115 -378.70517373085 2885.99991798401 13 16 9
110.913686454296 -390.246272087097 2973.99997711182 14 17 10
119.179472327232 -390.764325857162 2977.9999256134 15 18 11
133.001372218132 -383.794903755188 2924.99995231628 15 20 13
150.47000348568 -387.714356184006 2954.99992370605 17 22 15
157.019406557083 -384.031623601913 2927.00004577637 15 20 14
171.420112252235 -398.978859186172 3040.99988937378 12 17 11
-58.4131591022015 -392.067492008209 2927.00004577637 2 4 0
-50.08914321661 -389.39180970192 2907.00006484985 10 13 6
-42.3091202974319 -390.734106302261 2917.00005531311 12 15 8
-34.4273000955582 -391.540169715881 2923.00009727478 12 15 8
-26.5307370573282 -392.613649368286 2930.99999427795 11 14 7
5.33299287781119 -385.382771492004 2877.00009346008 14 17 10
12.988967821002 -379.890114068985 2835.99996566772 12 15 8
21.0716035217047 -386.31883263588 2884.0000629425 10 13 6
29.5663792639971 -394.756257534027 2947.00002670288 8 11 4
37.3455621302128 -392.075181007385 2927.00004577637 4 7 0
45.5110818147659 -393.680036067963 2938.99989128113 6 9 2
53.6325834691525 -394.48070526123 2944.9999332428 7 10 3
61.9331747293472 -396.218538284302 2957.99994468689 12 15 8
69.9021369218826 -395.678728818893 2953.9999961853 11 14 7
78.3240348100662 -397.549480199814 2967.99993515015 13 16 9
86.821973323822 -399.419695138931 2982.00011253357 16 19 12
94.6953818202019 -398.342609405518 2973.99997711182 13 16 9
99.8632311820984 -386.951744556427 2888.99993896484 15 18 11
111.913904547691 -401.946395635605 3000.99992752075 17 20 13
119.652524590492 -400.466114282608 2990.00000953674 17 20 13
124.552458524704 -390.279740095139 2914.00003433228 14 17 10
130.856424570084 -385.450482368469 2878.00002098084 16 21 14
140.578180551529 -390.66556096077 2917.00005531311 17 22 15
149.239018559456 -392.531782388687 2930.99999427795 16 21 14
-57.3319718241692 -392.642676830292 2872.99990653992 17 20 13
-18.6019651591778 -401.948034763336 2940.99998474121 15 18 11
-2.56735249422491 -402.085989713669 2941.99991226196 14 17 10
5.38827059790492 -397.302448749542 2907.00006484985 13 16 9
13.4232444688678 -400.581926107407 2930.99999427795 12 15 8
28.9024394005537 -393.74577999115 2881.00004196167 10 13 6
36.7053523659706 -393.19708943367 2877.00009346008 10 13 6
45.7095727324486 -403.444647789001 2951.99990272522 15 18 11
53.8113936781883 -403.851628303528 2954.99992370605 5 8 1
61.7828145623207 -403.301358222961 2950.99997520447 11 14 7
69.9451714754105 -403.980612754822 2956.00008964539 10 13 6
78.2664567232132 -405.342668294907 2966.00008010864 12 15 8
86.2052664160728 -404.654294252396 2960.99996566772 18 21 14
93.4478715062141 -401.095539331436 2934.99994277954 10 13 6
102.518603205681 -405.325949192047 2966.00008010864 17 20 13
110.340900719166 -404.362797737122 2959.00011062622 28 31 24
118.244700133801 -403.809130191803 2954.99992370605 14 17 10
124.37392026186 -397.652417421341 2910.00008583069 20 23 16
131.075799465179 -393.955022096634 2882.99989700317 16 21 14
139.268532395363 -394.903302192688 2890.00010490417 13 18 11
149.993687868118 -402.546435594559 2946.00009918213 13 18 11
160.218879580498 -408.139228820801 2986.99998855591 11 16 10
168.299645185471 -407.992660999298 2986.00006103516 18 23 19
-58.8848255574703 -411.321818828583 2950.99997520447 18 21 14
-26.7175082117319 -411.471992731094 2951.99990272522 17 20 13
-18.4300355613232 -406.176656484604 2914.00003433228 13 16 9
-10.5475932359695 -408.547163009644 2930.99999427795 11 14 7
-2.56370147690177 -409.523278474808 2937.99996376038 10 13 6
5.46392425894737 -410.91713309288 2947.99995422363 13 16 9
13.4956762194633 -410.77709197998 2947.00002670288 13 16 9
21.3027633726597 -406.454980373383 2915.99988937378 13 16 9
28.2586198300123 -392.654031515121 2816.99991226196 11 14 7
36.2182781100273 -395.718544721603 2838.99998664856 11 14 7
45.3351214528084 -408.121317625046 2927.99997329712 7 10 3
54.1722141206265 -414.669305086136 2974.99990463257 10 13 6
62.0720535516739 -413.27178478241 2964.99991416931 11 14 7
69.8461681604385 -411.455720663071 2951.99990272522 11 14 7
77.9977217316628 -412.008583545685 2956.00008964539 17 20 13
85.9087780117989 -411.306530237198 2950.99997520447 9 12 5
93.8877835869789 -411.022126674652 2948.99988174438 11 14 7
101.648189127445 -409.901052713394 2940.99998474121 21 24 17
108.245961368084 -404.598295688629 2903.00011634827 8 11 4
116.276770830154 -405.009418725967 2905.99989891052 13 16 9
124.323487281799 -405.420005321503 2908.99991989136 22 25 18
131.931498646736 -404.436439275742 2901.99995040894 20 25 18
140.994682908058 -407.772779464722 2926.00011825562 15 20 13
149.729922413826 -409.854143857956 2940.99998474121 18 23 17
159.619078040123 -414.722084999084 2976.0000705719 20 25 19
-65.9944042563438 -413.509428501129 2910.00008583069 15 17 12
-58.0630302429199 -413.513362407684 2910.00008583069 21 24 17
-42.1416722238064 -412.951350212097 2905.99989891052 17 20 13
-34.1028980910778 -411.53272986412 2895.99990844727 17 20 13
-10.3634065017104 -409.263342618942 2880.00011444092 16 19 12
-2.52252933569252 -410.82689166069 2891.00003242493 14 17 10
5.46543067321181 -419.068902730942 2948.99988174438 14 17 10
13.4948203340173 -418.784081935883 2947.00002670288 14 17 10
46.0599176585674 -422.7554500103 2974.99990463257 10 13 6
54.1869960725307 -422.894328832626 2976.0000705719 11 14 7
61.8587881326675 -419.906467199326 2954.99992370605 8 11 4
69.6288198232651 -418.197125196457 2943.00007820129 6 9 2
77.9663994908333 -419.897586107254 2954.99992370605 18 21 14
86.5728929638863 -422.592222690582 2973.99997711182 11 14 7
94.4230705499649 -421.449720859528 2966.00008010864 10 13 6
101.918265223503 -419.027894735336 2948.99988174438 22 25 18
108.984865248203 -415.32689332962 2923.00009727478 27 30 23
115.54928123951 -410.346686840057 2888.00001144409 13 16 9
124.572105705738 -414.175420999527 2914.99996185303 19 22 15
133.377954363823 -416.86686873436 2934.00001525879 18 23 16
141.94954931736 -418.563157320023 2946.00009918213 20 25 18
150.535121560097 -420.11684179306 2957.00001716614 25 30 24
158.16105902195 -418.970555067062 2948.99988174438 19 24 18
167.77166724205 -422.938287258148 2976.99999809265 20 25 21
-57.9196438193321 -420.404672622681 2903.00011634827 22 25 18
-50.851721316576 -427.504152059555 2951.99990272522 25 28 19
-42.2404743731022 -421.859294176102 2913.00010681152 18 21 14
-34.1949053108692 -420.558333396912 2904.00004386902 18 21 14
-26.8136393278837 -429.104775190353 2963.00005912781 17 20 13
-18.617395311594 -426.354616880417 2944.00000572205 17 20 13
-10.2619901299477 -413.031965494156 2851.99999809265 17 20 13
-2.52585695125163 -419.259697198868 2894.99998092651 17 20 13
5.40763000026345 -422.590523958206 2917.99998283386 17 20 13
13.4573196992278 -425.631135702133 2938.99989128113 17 20 13
21.4242190122604 -424.761146306992 2933.00008773804 16 19 12
29.3984469026327 -424.469798803329 2930.99999427795 15 18 11
37.540253251791 -426.205545663834 2943.00007820129 14 17 10
46.3975481688976 -434.023082256317 2996.99997901917 10 13 6
54.3473735451698 -432.281970977783 2984.99989509583 9 12 5
62.06414103508 -429.381847381592 2964.99991416931 5 8 1
69.8845833539963 -427.784591913223 2953.9999961853 0 2 0
77.9878050088882 -428.069531917572 2956.00008964539 11 14 7
86.7419987916946 -431.539684534073 2980.00001907349 8 11 4
95.308355987072 -433.561146259308 2993.99995803833 14 17 10
102.602921426296 -429.934591054916 2969.00010108948 16 19 12
109.947264194489 -427.031606435776 2948.99988174438 15 18 11
117.382273077965 -424.852281808853 2934.00001525879 20 23 16
124.820590019226 -422.962129116058 2921.0000038147 5 8 1
133.233115077019 -424.401819705963 2930.99999427795 0 2 0
141.747832298279 -425.985813140869 2941.99991226196 22 27 21
149.609312415123 -425.542145967484 2938.99989128113 107 112 106
157.561153173447 -425.387561321259 2937.99996376038 115 120 116
166.352301836014 -427.404344081879 2951.99990272522 39 43 42
-50.4522323608398 -432.128548622131 2928.99990081787 22 25 16
-42.4552112817764 -431.984066963196 2927.99997329712 20 23 16
-34.7343012690544 -435.23246049881 2950.00004768372 20 23 16
-26.5223272144794 -432.431221008301 2930.99999427795 19 22 15
-18.5592696070671 -433.022856712341 2934.99994277954 18 21 14
