ply
format ascii 1.0
comment KinectMotionCapture
element vertex 794
property float x
property float y
property float z
property uchar red
property uchar green
property uchar blue
end_header
194.569127074795 -116.474273546723 2857.05100789146 16 19 12
163.268947890235 -113.015081150762 2873.9024784177 13 16 9
155.67321381548 -113.280471877239 2870.86519216499 12 15 8
148.085709772512 -113.545236109642 2867.83358073425 21 24 17
149.098321586967 -115.183491652225 2857.4431334676 15 18 11
139.16568267161 -115.073550609355 2856.41908051794 8 11 4
152.555977000693 -118.72081246187 2835.22924499365 6 9 2
157.315687158985 -120.997100662818 2821.37643989927 9 12 5
127.258504339995 -117.623482681024 2837.89322046027 10 13 6
118.129876474955 -117.636430842732 2836.21635319218 16 19 12
111.321975350992 -118.026091482464 2832.51422330086 18 21 14
76.9508214245476 -113.87089658192 2853.31848171178 19 22 15
81.6821672657571 -116.14936312125 2839.44510368491 18 21 14
89.3964533426015 -118.939535478251 2822.79108980928 18 21 14
65.9055565386741 -116.537762139895 2834.18210666173 17 20 11
54.6260806119991 -116.159061596454 2834.6531373979 17 20 9
58.4717589397643 -118.321224143471 2821.3733458213 18 21 10
44.1978709380084 -117.431508154029 2824.61669272812 17 20 11
37.4751263262385 -117.813164906 2820.97633515108 15 18 11
41.978177635396 -120.110334951792 2806.93736680892 15 18 11
69.5438285907684 -126.378331542035 2771.3077758359 17 20 13
75.3411538305406 -128.947862102169 2755.73560146912 16 18 13
69.9438521888456 -129.598916608441 2750.58435349929 21 23 18
-3.48079753076691 -118.429753001995 2809.81041058726 15 17 12
228.511371152888 -108.930605254294 2959.5075778571 0 2 3
228.293243522873 -110.308369909553 2950.69662847499 14 19 15
230.493008888654 -112.06288118971 2939.93114866537 18 20 15
224.507220162727 -112.573068465754 2935.58933847576 16 19 12
226.640341936615 -114.33366567396 2924.77551647771 16 19 10
197.958514705694 -111.34022850202 2938.5822860777 13 16 7
194.433280863433 -112.223795929989 2932.31688902539 15 18 11
215.860891563225 -117.00179991585 2905.83153513737 14 17 10
220.272098046272 -119.151455552309 2892.96177033947 13 16 9
180.571411476775 -114.37851513083 2916.08143790248 15 18 11
189.780762402463 -117.284862761881 2899.27530888515 15 18 11
191.736653331241 -119.061430728086 2888.33292757015 15 18 11
193.647978007898 -120.841907776806 2877.35821942763 16 19 12
171.748293033809 -118.825063543052 2886.19538558726 18 21 14
183.906644556586 -122.257247677796 2866.58394557817 18 21 14
199.902482478087 -126.333554516935 2843.57564112404 14 17 10
169.422258348907 -122.911671518468 2859.78599448297 13 16 9
148.478416418267 -121.007686669547 2868.08046337926 14 17 10
159.648594211245 -124.330048772322 2848.98826804422 13 16 9
180.849003768796 -129.322536707437 2821.10238264381 12 15 8
172.374308485597 -129.463492691575 2818.66358556883 4 7 0
139.897272694348 -125.629018213505 2837.13390176165 13 16 9
132.287627895138 -125.890368023785 2834.08655179595 8 11 4
120.064495630593 -125.379628844723 2835.10921134509 12 15 8
99.4265359934294 -123.449370523354 2843.62555392409 15 18 11
86.5300586600011 -122.801561750701 2845.39611665363 17 20 13
92.000887537147 -125.249826652884 2830.82261449246 20 23 16
74.5599847124172 -123.82375617617 2836.71357697871 20 23 16
76.2143353443445 -127.180706018299 2815.66342125691 20 23 12
57.3533362046219 -125.486911868775 2822.99635494966 20 23 12
57.3836746870899 -127.038784420969 2813.129605435 19 22 13
52.8750219684713 -127.811935517459 2807.38690296171 18 21 12
47.6082679680498 -128.455391041262 2802.33062473042 14 17 10
75.1650866376514 -134.847444251618 2766.69400267371 13 16 9
86.9007952488472 -138.508820524451 2745.53998226582 23 25 20
80.7290533652876 -139.034669518224 2741.06329133411 25 27 22
64.9426139643827 -137.854717995274 2745.68199528785 17 19 14
221.316024998653 -116.56680456931 2956.72320675405 18 22 21
206.170706716831 -117.070019944418 2950.68193442319 14 16 11
222.160905962372 -121.025404738802 2928.90519149571 15 17 12
208.876137577313 -120.385572552306 2930.39423335241 11 14 7
198.053425617715 -120.127004547339 2929.96073691194 11 14 7
210.61632602376 -123.587085555209 2910.64242171868 10 13 6
202.191550999568 -123.715255331093 2908.23958319245 9 12 5
168.143050015364 -119.724732377374 2926.80683225269 12 15 8
167.802845010538 -121.133655459647 2917.90722855274 14 17 10
197.707654281691 -127.449307213683 2883.97310198014 14 17 10
186.097651005187 -127.0615069107 2884.20457247868 17 20 13
176.102298713686 -126.930000609122 2883.13516649657 19 22 15
169.288976983128 -127.315231257502 2879.42912953062 19 22 15
189.270444718085 -132.113494716819 2853.13066423317 15 18 11
180.032533684666 -132.114605160339 2851.37434074746 14 17 10
176.296462266925 -133.02555859137 2844.95596432169 13 16 9
180.544541695766 -138.380313088267 2812.18994680802 6 9 2
140.292586294095 -133.146281634856 2837.3823966053 3 6 0
132.682752245424 -133.402478936439 2834.33493554709 13 16 9
118.147185403195 -132.476309069741 2837.38877052402 10 13 6
99.0496849784739 -130.75704553189 2844.55038839555 10 13 6
93.048474268715 -131.269945884087 2840.19738473847 10 13 6
86.2826556673832 -131.651029530154 2836.52580481005 13 16 9
88.6597977508652 -133.616295293491 2824.6528050263 15 18 11
90.2284812714549 -135.453475975556 2813.42942178233 13 16 7
87.2087577721787 -136.499827117767 2806.29461880498 14 17 6
69.0696199028 -134.895250145903 2812.91535660609 18 21 10
55.5170545717179 -134.081561711637 2815.44618398691 19 22 13
59.2725264572804 -136.322814180438 2802.10059922921 20 23 14
77.1904898521756 -141.099235664966 2775.54140286138 20 23 14
88.2505853914832 -144.687333727394 2755.13302391716 21 24 17
107.393059505835 -149.753088777369 2726.98996271228 19 22 15
75.9390102742845 -145.737103940408 2746.20278307959 30 32 27
83.0955694411304 -148.672499415607 2729.1437254807 29 31 28
219.248725678365 -123.555102436426 2958.89458461663 19 23 22
200.245494982715 -121.979990441519 2964.8887738414 23 25 22
194.342714095698 -122.483542772604 2960.60717141299 14 16 13
216.055286595865 -127.422980447873 2934.32757472198 15 17 12
229.517815466141 -131.068791901089 2914.42544201094 12 14 9
225.102166356598 -131.845491145756 2908.7501418666 13 16 9
199.730062211183 -129.216514613849 2920.01391330544 11 14 7
172.052235066098 -126.185076142248 2933.31336537193 10 13 6
210.196610033027 -133.918294720683 2892.99384583474 11 14 7
165.793756371885 -128.119029926822 2920.12081938832 14 17 10
187.742678785541 -133.239083349174 2892.77660630999 14 17 10
188.080460581279 -134.809363830303 2883.13263577449 16 19 12
172.532668643739 -133.739981893783 2886.68844920445 18 21 14
176.003947868002 -135.842122656825 2874.37288285603 17 20 13
163.659779934003 -135.298531632769 2875.30796746643 13 16 9
167.068300499294 -137.406174753799 2862.94687815626 12 15 8
200.297731313169 -146.160127373819 2815.35383612865 12 15 8
186.326008976882 -145.355960111133 2817.58075942453 9 12 5
149.859871579663 -140.677723780449 2839.33933665171 30 33 26
140.687656145516 -140.662638773404 2837.63071934108 3 6 0
120.713352364616 -138.772334380335 2845.39292120968 11 14 7
113.146499546179 -139.019683137939 2842.37636850513 10 13 6
97.1354135303386 -137.789971906348 2846.83247337625 11 14 7
96.5040740521057 -139.243420335016 2837.72159455376 11 14 7
74.4498767589596 -136.931104675129 2847.68328468607 11 14 7
96.670242727396 -142.427677949311 2818.06386642782 11 14 7
105.054716248126 -145.508896539235 2800.65888042 11 14 5
95.1773533209654 -145.353612755274 2799.67512788375 11 14 3
87.5868860873172 -145.602456337159 2796.64144901409 12 15 4
53.6492812697404 -141.10704697306 2817.76201415678 15 18 9
56.6625770276414 -143.247703842488 2805.11395625105 16 19 10
61.8680423933089 -145.800510051637 2790.34755689494 17 20 11
57.3032179088209 -146.589702013655 2784.56434753668 23 26 19
60.9149903122512 -148.878591391745 2771.11435066735 17 19 14
245.024548625007 -135.035633084936 2939.23279732749 3 5 2
241.469147298913 -135.946308252831 2932.94568839333 17 19 16
221.609185427817 -134.198539690592 2939.55472607422 13 16 9
162.829452332575 -126.051962074987 2977.26828311489 9 12 5
208.847142106612 -135.085637564121 2931.53379181877 14 17 10
209.33638134908 -136.664409278743 2921.99957300889 13 16 9
195.285910155698 -135.839049781003 2924.16951692054 13 16 9
200.565274597457 -138.224432272364 2910.6925732451 14 17 10
196.165461305232 -139.005782790456 2905.02902374009 15 18 11
204.544129605152 -141.936937845801 2888.8556261344 18 21 14
199.293552718724 -142.588671725296 2883.81103310678 19 22 15
193.243029156018 -143.106224150502 2879.42225794654 15 18 11
184.814035128225 -143.219281578125 2877.01673199862 12 15 8
160.588382960302 -140.630319533639 2887.87605715495 9 12 5
160.899144973381 -142.225352567109 2878.2120795488 10 13 6
155.14188111167 -144.339674140861 2864.14692466611 17 20 13
150.672545846951 -145.127622973478 2858.43264930078 11 14 7
176.593522987245 -151.220042611685 2826.55242398284 11 14 7
108.281436408107 -140.850244772113 2875.89405742436 57 60 53
103.877611902138 -141.632517681405 2870.22759543281 9 12 5
160.523782480909 -153.203556064852 2811.18767489325 20 23 16
110.455755696465 -145.934449524621 2845.33120720401 13 16 9
81.3869777719476 -142.341087963276 2861.33057998198 15 18 11
76.9710621367836 -143.124220901247 2855.65534851662 16 19 12
99.2899359919974 -148.713930345223 2826.1068689747 16 19 12
92.4923628317078 -149.092747215671 2822.41228097048 16 19 12
103.931694971746 -152.775495280256 2802.27833931051 20 23 16
96.3307448013131 -153.020099514261 2799.2373770864 19 22 15
69.0991804401664 -149.674421912654 2814.09696288103 19 22 13
45.0023302866898 -146.871200163198 2826.28578126326 21 24 15
46.541884606822 -148.765615329613 2815.04099173629 22 25 16
48.785257142967 -150.802328018638 2803.07065766013 21 24 15
55.4586968663413 -153.676004716787 2786.89672571336 25 28 21
52.3799033511172 -154.749007425418 2779.71896662539 22 24 19
67.0942178145335 -159.163875764888 2755.77964910966 17 19 16
274.085221534062 -147.225319539413 2917.00852934752 20 22 19
241.862224534524 -143.407593658336 2933.19284558857 14 16 11
217.926192674935 -140.935288023769 2943.02620069329 13 16 9
212.773818897266 -141.580559951643 2938.05282992603 18 21 12
193.840996743811 -139.912966188033 2944.09852824402 13 16 7
196.797598766576 -141.919033384954 2932.64509019222 16 19 12
183.586450285177 -141.20014060734 2934.18790114568 15 18 11
180.059194950684 -142.117866029569 2927.92086565354 15 18 11
166.899518988469 -141.394893019586 2929.50101080182 16 19 12
175.36158890172 -144.368241312303 2913.38815356547 17 20 13
196.499142828326 -149.54391864615 2886.69051703854 17 20 13
192.047192570736 -150.335676324758 2880.98911962036 12 15 8
181.243937367909 -150.027807155542 2880.5696830412 12 15 8
194.974454913154 -153.988604087738 2859.62518894706 12 15 8
183.365859477804 -153.544261700471 2859.85796641651 13 16 9
207.166756967144 -159.314053395911 2830.14759417658 14 17 10
154.750528200569 -151.679710236245 2865.06108248829 16 19 12
116.665037073623 -146.516582348822 2888.11857944482 9 12 5
119.770115361006 -151.798453629457 2856.99441843711 5 8 1
118.405465975105 -153.148108827724 2848.58750997531 14 17 10
134.743191497777 -157.707697575971 2824.58926811514 15 18 11
89.4604320106538 -151.106172805585 2854.78755264989 18 21 14
85.7893883682372 -152.036731202256 2848.41651142021 20 23 16
84.3972943818216 -153.388579847328 2839.98969667157 19 22 15
80.6917756893637 -154.321971337813 2833.59335491519 17 20 13
92.1696354249226 -158.064538346794 2813.48703973669 20 22 17
89.9075854059568 -159.28515873261 2805.66527662047 19 21 16
72.5129285845831 -157.692002223136 2811.59061014519 20 23 16
46.8972714818139 -154.54247431651 2825.15053480131 21 24 15
43.1765156957207 -155.476681974802 2818.74314321653 23 26 17
60.4103395416273 -160.369515548024 2792.9224464684 22 25 16
70.0400272818795 -163.85865478898 2773.94800336559 28 31 24
66.1758558760783 -164.80465994333 2767.43658698079 23 25 20
186.825511264181 -140.000999723487 2985.94703835156 9 11 8
225.914389917985 -148.103471088564 2946.31063383255 16 18 13
222.390007587701 -149.028521358033 2940.04564394068 9 12 5
226.978455114819 -151.341018649137 2927.30354013305 20 23 14
210.437485020061 -150.049771876509 2931.37583241672 15 18 9
194.761367138841 -148.892865659458 2934.83906295922 17 20 13
184.7796675967 -148.705856589188 2933.77983527896 16 19 12
159.54552457933 -145.869306233254 2945.14437460908 15 18 11
153.65683326558 -146.373151003338 2940.87298453175 14 17 10
158.960626934346 -148.83349413046 2927.41366491095 14 17 10
184.135475726543 -154.797519598351 2897.46327883049 14 17 10
169.382439009123 -153.770525103216 2900.35997595047 12 15 8
175.29305055064 -156.387356706942 2886.10472228157 14 17 10
194.580056308745 -161.398368975315 2860.53678569108 15 18 11
206.629005254613 -165.155430849344 2840.84439184943 16 19 12
194.985771014386 -164.69519477742 2841.05213941464 15 18 11
157.495229224462 -159.577627042877 2863.30536596505 18 21 14
127.217053894172 -155.716349396537 2879.66470890776 11 14 7
129.824779478884 -157.783538574078 2867.95805328574 5 8 1
157.265806929447 -164.386698110391 2834.7067901435 19 22 15
135.668167454037 -162.07229584349 2843.76442272119 6 9 2
110.291604938937 -159.040430328777 2856.26203953403 11 14 7
122.031686568699 -162.824007495377 2836.3456068782 14 17 10
107.530879592348 -161.775623677226 2839.42525906147 20 23 16
86.1779936494087 -159.440098794223 2848.66072016539 22 25 18
74.84954202293 -158.952748737019 2849.09679770278 22 25 18
83.3684869815379 -162.179064742275 2831.78855796303 21 24 17
73.5628395716788 -161.977594740925 2830.85673300103 20 22 17
70.5984889358917 -163.063999077884 2823.76186811681 19 21 16
66.8602103262588 -164.008378749228 2817.34172234004 20 23 16
57.0803486643827 -163.80436137773 2816.42889739701 22 25 16
58.5900249124389 -165.756460030246 2805.16215643973 23 26 17
75.0353743698686 -170.593631681754 2780.00549082535 22 25 14
87.6138957570372 -174.720710706908 2758.2247534028 16 19 10
60.616079235658 -171.201798162336 2773.25495994106 17 19 14
223.035533501222 -154.945324691752 2949.12947503468 12 14 9
213.815283129862 -154.889950498987 2947.38624024561 14 17 10
204.612031430332 -154.833258968045 2945.65533482911 13 16 7
208.395515727285 -157.03960235782 2933.56556479382 8 11 2
212.126060199422 -159.250692900797 2921.43709902746 14 17 10
194.841673691851 -157.77725133845 2926.20643236991 14 17 10
184.050269193048 -157.43534356996 2925.79605350824 13 16 9
173.28457440529 -157.091353028152 2925.40432271444 13 16 9
180.136998936079 -159.879425540898 2910.59561090556 14 17 10
159.805204966072 -157.823685823729 2918.09920399237 14 17 10
162.614242054587 -159.903502044456 2906.53871389422 17 20 13
168.546771391799 -162.559721550964 2892.29914939567 17 20 13
191.021447408691 -168.229074325027 2864.09824738576 16 19 12
188.888308933655 -169.46673359311 2856.36984869354 16 19 12
178.867363158868 -169.270566807534 2855.28221696731 15 18 11
182.20096673188 -171.516771309004 2842.8658224129 14 17 10
197.212755548786 -175.927027625769 2820.37750487146 11 14 7
157.511180490915 -170.256977029178 2844.73610901938 9 12 5
170.88274358356 -174.385827747723 2823.5302554795 1 4 0
94.4410194617342 -163.424951505066 2870.68693946453 10 13 6
108.543817361686 -167.702023368965 2848.77568072029 11 14 7
108.690975794402 -169.377312805742 2838.99269687275 13 16 9
103.434787835709 -170.038612176485 2833.943987808 15 18 11
85.1760932765875 -168.227418146919 2840.47910296938 20 23 16
70.7987313389062 -167.138534686281 2843.64844823431 21 24 17
75.4726203290708 -169.691429068826 2829.73202847879 20 22 17
64.1670357427482 -169.183018889765 2830.18478949527 19 21 16
62.7163512015736 -170.572771840625 2821.71530921031 19 22 15
60.4847546774185 -171.818307334624 2813.91579075947 20 23 14
61.9871968241674 -173.798653416457 2802.64366256898 19 22 13
67.9398466482777 -176.663411447282 2787.18229644582 16 19 8
76.062217960938 -179.975026336096 2769.58613995116 20 23 14
90.8030325302871 -184.61814989474 2745.66487677008 21 23 18
229.145909831285 -163.345329792797 2944.87062419794 5 7 2
223.170061910747 -163.855996244768 2940.53601788317 21 24 17
167.604341628183 -155.579784821066 2975.63969702916 6 9 0
193.380556489344 -161.704733978258 2946.12443893567 15 18 9
220.602465448885 -168.133389912608 2915.18558375363 14 17 10
248.450691635566 -174.722282216321 2883.4646165608 14 17 10
225.450988717223 -172.204591762474 2892.74222422816 15 18 11
208.156764518597 -170.694189071614 2897.50461323383 15 18 11
195.722224233548 -170.049812782263 2898.37469549554 17 20 13
188.107559316606 -170.274737215999 2895.32389084107 18 21 14
182.887283778425 -170.935666392319 2890.30121733147 16 19 12
180.041857585256 -172.034402733603 2883.29220637262 16 19 12
189.834489510812 -175.469587116555 2865.67119490833 16 19 12
179.817999066903 -175.259587169164 2864.58686301422 17 20 13
195.781844375685 -179.875772255132 2841.55233736559 17 20 13
181.028612235568 -178.789397880736 2844.44948806731 12 15 8
168.82633733461 -179.835720372558 2835.59849875246 9 12 5
115.510531363986 -173.078301915563 2862.44461382529 14 17 10
105.655770723724 -172.854583098732 2861.47729832908 11 14 7
90.4230342995764 -171.595611277132 2865.26275701148 14 17 10
101.391182652107 -175.357624948321 2846.02187930166 14 17 10
94.6234878402148 -175.724073994107 2842.3490133953 13 16 9
80.2123285746426 -174.608225459419 2845.49428931641 15 18 11
71.186262378232 -174.526903990482 2843.89195420793 16 19 12
73.5813437616759 -176.672487028181 2832.03104566302 19 21 16
63.7977441401616 -176.442166961809 2831.11534974459 19 22 15
63.1060287621152 -177.997201876583 2821.96018858825 19 22 13
61.6290613400015 -179.405722686446 2813.47156021909 19 22 13
68.3913886817495 -182.458868046774 2797.36115575968 18 21 12
49.6016518316265 -180.435280275354 2804.74741947668 15 18 7
35.3682497109071 -179.303358602704 2808.02163675923 16 19 10
69.6019670487527 -187.909350726348 2766.09781390828 16 18 13
303.925471757691 -184.079882807685 2886.5783213008 16 18 13
239.050225016175 -174.053869915515 2928.52876996024 7 10 3
200.508689803032 -168.697722506642 2950.02131740193 15 18 9
220.526409658419 -173.907632065613 2924.98208360078 8 11 2
253.342725740875 -181.484059579858 2889.44707448494 13 16 9
252.881161828271 -183.038163700414 2880.45875975224 13 16 9
233.084717130713 -181.054578668295 2887.11503684466 14 17 10
202.132601037318 -176.99704381815 2902.98652535 15 18 11
195.313620079479 -177.364739680303 2899.27676918359 18 21 14
196.476066856198 -179.213163656268 2888.99387593417 18 21 14
195.211814527097 -180.620284282357 2880.65945636771 18 21 14
190.74730960154 -181.436011012495 2874.94854191779 20 23 16
188.646650034466 -182.698481051523 2867.24385668467 21 24 17
189.679395784025 -184.55833828629 2856.866882481 16 19 12
190.672099310412 -186.421708234866 2846.46086302261 12 15 8
175.148140690406 -185.155142387402 2850.03524698548 13 16 9
130.727546307778 -178.356417374077 2878.38945900369 9 12 5
96.2116971191804 -175.038370293813 2889.20370242474 15 18 11
95.7280008388341 -176.595402515471 2880.19932863493 12 15 8
89.0240465932539 -176.953999392847 2876.57270939816 14 17 10
97.7521168947524 -180.319006551674 2859.41536658439 17 20 13
94.0883742842855 -181.282739097294 2853.04915551796 18 21 14
76.6039702298724 -179.534708400152 2858.91021382645 19 22 15
42.3584662097913 -174.461198593065 2879.81020998204 18 21 14
76.9119580695943 -182.972052566098 2839.3540115061 16 19 12
80.8142326810874 -185.451619474936 2826.11364006773 17 20 13
77.8344064944281 -186.572883400149 2819.00738005573 17 20 13
80.8845574174075 -188.908784568996 2806.38505029483 19 22 13
80.865613893228 -190.641879541107 2796.48165727453 21 24 13
74.0458548021881 -191.00958905529 2792.77104247659 21 24 13
66.4801641005841 -191.224631393704 2789.75579033074 18 21 10
54.4388991789626 -190.524408272183 2790.91124917153 17 20 11
26.0406530975974 -186.463866518668 2807.39907115223 12 14 9
320.341222061883 -192.998660680926 2883.61165619907 6 8 5
243.007570724239 -180.555896661035 2935.07000463526 7 9 4
244.335102871969 -182.413500171098 2924.90673879824 10 13 6
253.755077199107 -185.769593257702 2908.25101713015 12 15 6
248.492661089629 -186.438924898831 2903.19775246095 13 16 7
242.416500719253 -186.959002269982 2898.79037984237 11 14 7
222.626831340751 -184.928447417054 2905.45180641957 11 14 7
209.346815957585 -184.093674450221 2906.94528124225 11 14 7
189.687606100646 -182.052282073953 2913.70133560497 13 16 9
186.903989656048 -183.16753842328 2906.73734265187 18 21 14
181.708578634641 -183.832069215073 2901.73267571822 20 23 16
188.443716011647 -186.762005717858 2886.83822137946 20 23 16
185.586135001948 -187.883981305995 2879.82028142334 21 24 17
188.249386058592 -190.067075602216 2868.15358479564 20 23 16
182.972607166861 -190.739034512357 2863.08989493143 15 18 11
153.29621446265 -186.707476608229 2878.65101433932 12 15 8
137.375762646013 -186.977237456731 2873.28405028931 12 15 8
118.896209932299 -185.054709528505 2879.65962458922 6 9 2
80.2542778015321 -179.161444414135 2903.55248050523 8 11 4
81.3696482790296 -181.039132960619 2893.23531241103 18 21 14
90.9561798162359 -184.601868422614 2875.46424830546 17 20 13
105.083529716729 -189.090486054534 2853.56942183234 17 20 13
81.3968296586207 -186.07989363177 2864.82158051588 18 21 14
74.6881077486385 -186.436148041164 2861.19181143952 20 23 16
63.3932164879543 -185.870324062391 2861.65261508817 20 23 16
71.9606446584837 -189.300979326543 2844.3784868448 20 23 16
81.2043098853992 -192.892835019268 2826.35872413406 21 24 17
85.8089049340349 -195.567007010078 2812.39145742653 21 24 17
88.8388837817202 -197.937670287514 2799.75432842083 22 25 16
78.2434093127273 -197.530690969724 2799.48631301935 21 24 13
79.7021383974204 -199.597413096851 2788.18205878558 21 24 13
71.3712558941815 -199.653562340263 2785.84794422678 19 22 11
63.8002581104566 -199.863697898433 2782.82857524063 19 22 13
45.8042303882644 -197.89850404028 2789.55488323718 17 19 14
283.028447050632 -193.71436996207 2913.37501171222 10 12 9
233.58661032221 -186.188914437716 2943.03334002247 12 14 9
228.416984935914 -186.852730413244 2938.04736926669 13 16 9
237.883344826049 -190.256863639711 2921.42503015036 13 16 7
227.797588077292 -190.010923212026 2920.29066767927 12 15 6
219.351394610177 -190.068527745892 2917.87295437056 12 15 8
210.110991602718 -189.972457648335 2916.11531663829 12 15 8
196.060048904941 -188.957360118748 2918.28587980687 12 15 8
189.274229140494 -189.31703284133 2914.59990905901 12 15 8
179.291188256136 -189.063159617908 2913.54004769126 12 15 8
171.723681291915 -189.268132901451 2910.52352989962 12 15 8
172.918608668207 -191.163273977966 2900.26394589868 17 20 13
170.105350741089 -192.292551790004 2893.27839418085 17 20 13
172.814119945317 -194.502049977965 2881.6442664118 16 19 12
166.002632935593 -194.86447872916 2877.93996944726 15 18 11
187.529507020726 -200.787177595859 2850.28573897122 14 17 10
168.088765060938 -198.681606195277 2857.20049045433 13 16 9
164.375508387654 -199.66640679142 2850.79827887325 13 16 9
130.989791624153 -194.761521522574 2869.85062578498 8 11 4
133.55860480412 -196.983283738469 2858.11497878742 10 13 6
96.4971465064943 -191.283841109768 2880.68249890656 14 17 10
111.462261709567 -195.993859728615 2858.1585338342 13 16 9
123.992786819391 -200.246654860385 2837.57769721527 16 19 12
97.9416837692568 -196.710342749297 2850.82391694952 17 20 13
87.3502038232195 -196.287327207204 2850.55887848961 17 20 13
72.1937389331999 -194.923968066934 2854.39986230014 16 19 12
57.0890682785041 -193.556133810432 2858.27871000156 15 18 11
74.7474919802236 -198.92256136227 2832.76371038048 13 16 9
88.4764124503583 -203.516194316458 2810.57952198707 14 17 10
81.6692889756085 -203.878040955773 2806.87809671365 15 18 9
63.5536399599812 -201.880209263379 2813.51785399881 16 19 8
63.5539205420086 -203.655568956939 2803.62818286422 15 18 7
71.7654547352673 -207.168167853999 2786.09564442091 14 18 4
52.9810969920024 -205.005359432241 2793.4865127473 14 17 6
43.9600835251057 -204.890470818432 2791.88801049448 19 22 15
73.5991483714868 -213.001681650455 2754.04703536878 20 22 17
250.622729629317 -195.105677555387 2939.28166170324 8 10 7
256.877830467894 -197.937948601854 2925.27474995728 11 13 8
224.72855758893 -193.503668453544 2941.51563335559 12 15 8
211.430104042474 -192.62084204724 2942.99569088334 11 14 5
207.906189760154 -193.596058717897 2936.73108066374 11 14 5
205.987390086209 -194.883356841457 2929.15780931206 13 16 9
199.20438864155 -195.239784186038 2925.47389806284 15 18 11
195.644310634368 -196.218777293508 2919.18275838189 16 19 12
177.624563995606 -194.393641912672 2924.65612597663 16 19 12
174.876870308972 -195.527884226251 2917.71807802975 16 19 12
163.331357047237 -194.945322259159 2917.99728522252 15 18 11
174.103482795489 -198.740084295365 2899.8491772958 18 21 14
175.25723551818 -200.663553406296 2889.5598958997 18 21 14
166.080404474911 -200.552236565898 2887.84842006872 15 18 11
145.079361940463 -198.084692049412 2896.10427756741 14 17 10
127.309990922404 -196.238835730794 2901.75895827149 13 16 9
161.416602676436 -204.773406472643 2863.44905447529 11 14 7
170.248601996383 -208.285656732411 2846.36630620961 10 13 6
159.480784888583 -207.861602178392 2845.97344244073 9 12 5
165.864175184484 -210.909858943685 2830.82339982076 10 13 6
139.574563469594 -207.323237277759 2843.89697436171 13 16 9
131.975559627115 -207.52632160385 2840.85733890177 12 15 8
128.243463248013 -208.52100220202 2834.44171444876 13 16 9
112.183215414528 -206.978004095344 2838.86376772888 13 16 9
100.016688046672 -206.224540441015 2839.92869082296 14 17 10
77.170667782231 -203.241174116404 2850.55510169517 13 16 9
78.8386163608994 -205.3454633626 2839.40232485269 13 16 9
57.6358582994123 -202.670420569952 2848.74804210988 12 15 8
57.7630472288084 -204.457316122975 2838.95001663623 12 15 6
64.662429452385 -207.685550109444 2822.93807932714 14 17 6
50.366571644286 -206.440077057309 2826.16730183214 15 18 7
50.4077323229644 -208.233991243493 2816.30717156988 14 18 4
45.9136623680632 -209.068602363719 2810.57472914608 13 17 3
58.388449057114 -217.209470465679 2768.93669761881 22 24 19
245.273355360097 -201.462609873761 2944.01743237719 6 8 5
277.722950512609 -209.366749101852 2909.44966166076 13 15 10
256.120170091033 -206.897139950174 2917.26931698113 14 17 10
231.345681581498 -203.790151750114 2927.7334028653 12 15 6
209.917362391477 -201.30608070205 2935.67960210797 14 17 8
208.80380131876 -202.765397488592 2927.45415746532 17 20 13
199.59281728514 -202.645197377335 2925.7179683983 17 20 13
185.569439743301 -201.573440147061 2927.90880112924 17 20 13
175.602802067048 -201.290965029213 2926.86097567134 16 19 12
176.864894908482 -203.229505522921 2916.64986152286 13 16 9
171.700329161711 -203.899961381414 2911.66752497543 12 15 8
175.288235394435 -206.321583989031 2899.43459131885 12 15 8
168.501962265218 -206.676573677814 2895.74831563768 13 16 9
168.053169927646 -208.307429605741 2886.76887052924 13 16 9
143.886887626979 -205.150004915458 2897.67411354474 13 16 9
125.332248488478 -203.103228692184 2903.99588543501 13 16 9
135.112821741998 -206.81346471425 2886.36473919123 13 16 9
149.502829791828 -211.492984266484 2864.65935226011 10 13 6
177.831840181732 -219.070629484575 2830.8118343098 12 15 8
154.581140611092 -216.062244555678 2841.14501124083 14 17 10
139.966520244677 -214.814873695458 2844.14316557734 16 19 12
113.786640318512 -211.148058287449 2857.29669323085 18 21 14
106.248037686336 -211.340633523264 2854.3008971279 16 19 12
94.0985089492221 -210.563975939348 2855.37855485101 17 20 13
88.1242440384216 -211.077023390114 2851.04508403356 18 21 14
81.3839066928645 -211.428381383854 2847.39212657754 19 22 15
90.6743876373617 -215.180590613593 2829.40548935729 19 22 15
98.3542675134434 -218.616065117058 2812.72326510988 18 21 12
55.8726081402421 -211.34367203394 2841.25012061128 18 21 12
53.7016381621389 -212.667280260884 2833.49415618373 20 23 12
42.4549442219102 -212.040108083334 2833.99020983928 20 24 10
44.0259520301121 -214.179702896133 2822.76697973382 19 23 9
20.8014477020431 -210.940815847048 2834.3553503231 19 23 9
232.538485662932 -206.34283239196 2954.52299272126 8 10 7
246.211405200214 -210.692210240131 2934.76951851518 15 17 12
269.57069528603 -216.972830960584 2907.20679592977 15 18 11
251.26797724744 -215.089218470721 2912.47532771595 12 15 6
228.972670175184 -212.397565089567 2921.02911701499 14 17 8
214.858772880155 -211.306017276709 2923.15443028826 15 18 11
222.583282779778 -214.555588590557 2907.74053756287 15 18 11
194.006413735461 -210.56215063641 2921.62816431633 14 17 10
188.031436825259 -211.074568713194 2917.29418054322 14 17 10
186.859715301269 -212.556012467042 2909.02646207079 12 15 8
183.265735138141 -213.55494788763 2902.71093945877 11 14 7
174.880681302625 -213.584070724678 2900.33739736218 12 15 8
164.919916634316 -213.288035932162 2899.2938980555 13 16 9
168.44260308436 -215.748368734128 2887.01348911182 15 18 11
167.173688218767 -217.238691519058 2878.67556261484 15 18 11
143.828314442745 -214.178451903172 2888.94007637113 13 16 9
137.069883025141 -214.528726248015 2885.27430210205 14 17 10
175.735509143567 -224.331929430383 2842.8517960331 10 13 6
186.037352358427 -228.282384938364 2824.3622761205 11 14 7
147.187224125958 -221.949125075321 2848.10643489941 13 16 9
129.486951786148 -220.01594145397 2853.81164904 14 17 10
107.980109704105 -217.258412197588 2862.93734711142 17 20 13
91.9652511495768 -215.640940632118 2867.39268127126 16 19 12
83.7061455630259 -215.659760282285 2865.11078841291 17 20 13
81.6012234603019 -216.991818716047 2857.40266069779 17 20 13
82.5360209250792 -218.983848117925 2846.95401221407 17 20 13
88.0106360305106 -221.967379724689 2832.3805435392 17 20 13
97.2242854611269 -225.780867089603 2814.33789912904 17 20 11
82.8214669097993 -224.485051674649 2817.49013297963 18 21 12
49.5474694447471 -219.053855023309 2837.8608756181 19 22 11
57.9315395835964 -222.708039120986 2820.45298948392 19 23 9
47.4222900208798 -222.228655146544 2820.24784710099 17 21 7
54.1926489954823 -225.560791140427 2804.14155732405 16 20 6
148.049368713281 -250.192634136291 2696.66766745004 14 17 6
244.414508085232 -216.01075254253 2945.79121970661 8 10 7
242.511649392146 -217.336837010479 2938.2296023287 16 18 15
234.873797997369 -217.52487642982 2935.16188165447 15 18 11
236.19751114832 -219.506149941209 2924.99551540927 11 14 5
217.999696029715 -217.573065246072 2930.34004967033 12 15 6
227.392163107056 -221.191630785659 2913.66305793512 12 15 8
210.057536072412 -219.417615194257 2918.39778779105 12 15 8
224.99114699498 -224.191493399262 2897.08599223825 12 15 8
205.281900752195 -221.923005707287 2903.80692443958 13 16 9
185.646737270199 -219.648277510233 2910.58159242461 13 16 9
180.460299938352 -220.326360104925 2905.58336206747 14 17 10
176.065507334055 -221.169507561296 2899.92284467559 15 18 11
173.249680094962 -222.343114323778 2892.9352058738 17 20 13
171.999914017337 -223.848295878977 2884.61079100224 17 20 13
147.028372914515 -220.401726412526 2896.16878593148 16 19 12
137.126468021803 -220.087451091437 2895.16804772414 13 16 9
140.598464734971 -222.585137760553 2882.85070350373 14 17 10
179.263209914302 -232.544034589013 2840.42706468124 9 12 5
166.908837798467 -231.741653468565 2841.35606288532 9 12 5
132.780778430349 -226.286165798896 2861.10809533949 11 14 7
111.236657732933 -223.47737927 2870.20702897525 11 14 7
109.915728538201 -224.989032398723 2861.83128813863 15 18 11
94.6670704264951 -223.503408242887 2865.60605841166 18 21 14
81.0103604668626 -222.346892923561 2868.06312561445 18 21 14
76.6113652694029 -223.190908172806 2862.39985175457 18 21 14
67.6088732282105 -223.032429599155 2860.81499687026 18 21 14
78.4740096124907 -227.224878442932 2841.49726334726 17 20 13
73.2544330234859 -227.906243125185 2836.47499301097 18 21 12
72.5843393971104 -229.594666946908 2827.33483028274 19 22 13
63.5568980701557 -229.438030312199 2825.73187979895 20 23 12
50.7725245726709 -228.43907666473 2827.5854876096 19 22 11
59.0972231568272 -232.150296973324 2810.13397839169 17 20 9
100.181382439176 -245.161766706506 2752.15677740788 18 21 10
91.7703472298674 -245.18450034445 2749.76472769853 17 20 13
247.267164362087 -223.936755831787 2944.11361998655 2 6 7
240.447316630814 -224.284477862257 2940.40333664898 8 12 13
210.776260507807 -219.995549124596 2954.73429718626 12 17 13
216.237288556686 -222.824648645316 2941.38709229931 8 13 7
247.617286758997 -230.970363101356 2907.27805540742 10 15 8
201.873575851312 -223.348554336007 2934.67728110138 13 16 9
212.869881027615 -227.352739044021 2916.69091933619 13 16 9
219.747238709387 -230.532533307504 2901.89829795267 14 17 10
193.625897236607 -226.882891378405 2913.85884328703 14 17 10
175.622836898576 -224.893094502289 2919.34514118021 15 18 11
188.037291334632 -229.247647311552 2899.91468365929 15 18 11
182.029762816728 -229.763479101182 2895.55708523995 14 17 10
166.489372547171 -228.269694435562 2899.12070845749 15 18 11
163.675839892394 -229.454238019127 2892.13438317466 15 18 11
143.464596834771 -226.947633387687 2899.72794438724 14 17 10
128.058516078359 -225.442669434564 2903.38898806247 13 16 9
145.699093550935 -230.998975801656 2879.09483170756 12 15 8
149.106152304652 -233.535130372567 2866.73051220402 10 13 6
117.306222987389 -228.488574298338 2884.46278013304 7 10 3
108.241629882559 -228.324790923383 2882.83293373226 10 13 6
79.7735435048299 -223.934932720795 2898.0367584152 13 16 7
85.5152205296088 -226.977841947134 2883.65658786569 13 16 7
99.6867910310786 -231.889388313875 2861.79167563251 14 17 8
96.798628781301 -233.080684294333 2854.75151003839 15 18 9
78.5316420770026 -230.878720543859 2861.28259337244 18 21 12
74.8850369954384 -231.899404594051 2854.92851719585 19 22 13
73.5153796492081 -233.431564641663 2846.5170539337 20 23 12
64.5042061739343 -233.262965372063 2844.92625143288 20 23 14
44.8805574463735 -230.705841958282 2852.94573372578 19 22 13
44.2612927258983 -232.409086861183 2843.84234288449 17 20 11
51.9138915270476 -235.99443863359 2827.13928836871 18 21 12
48.9494535594255 -237.191674822584 2820.04379879059 17 20 11
37.7116385498977 -236.506638393395 2820.54658206634 16 19 10
63.1681102468873 -244.219281225203 2787.08638346042 17 19 14
71.2800250950916 -248.000373690625 2769.48026885504 18 20 19
221.191423238348 -227.684771952664 2956.07004586767 0 2 3
281.37443384336 -241.826863402607 2899.58103325238 12 17 13
255.708232363269 -238.307213455518 2910.63611869342 8 13 7
242.327502700885 -237.309145077273 2912.05711623218 10 15 8
216.838020340516 -233.774760703953 2923.24038376724 13 16 9
175.300466155325 -226.850441728186 2947.50943720984 13 16 9
168.590148854404 -227.187628103831 2943.87831370688 13 16 9
197.227540015813 -234.979914203181 2911.48829698982 14 17 10
187.224173131256 -234.64649576761 2910.41410378293 15 18 11
167.655767696025 -232.273637023081 2917.23766315131 15 18 11
172.858788848599 -235.164681980814 2903.70310979324 16 19 12
160.520998043415 -234.316866653671 2904.64435827648 16 19 12
160.102251902031 -236.022029435237 2895.68631791801 15 18 11
165.973244817324 -239.094490988452 2881.39974152892 14 17 10
140.260974668011 -235.342396536057 2893.65764481492 12 15 8
157.872727432337 -240.983115669678 2869.34245972357 13 16 9
154.196878707541 -242.014532915233 2862.96712984016 10 13 6
89.9264007387144 -231.56081833547 2899.18238258266 11 14 7
72.3841764270285 -229.491628955935 2905.00315248474 14 17 8
87.4467787962892 -234.636172492147 2882.54795146229 14 17 8
108.570770662204 -241.16746956204 2854.59858039772 14 17 8
86.4000924383515 -238.0652477812 2864.47983204776 15 18 9
81.9885741089337 -238.921509381052 2858.8074178721 17 20 11
71.4397943328184 -238.397353511149 2858.57384597233 18 21 12
73.1371752313734 -240.636340595156 2847.44172297556 20 23 12
66.4125284390176 -240.975882695719 2843.80019978623 20 23 14
60.45084436529 -241.488179805545 2839.47585288668 19 22 13
40.8591436554842 -238.879299086127 2847.51875714041 16 19 10
56.8300680621814 -244.422133619461 2823.24992746663 17 20 11
56.8644017635318 -246.326659332907 2813.38399343659 17 20 11
65.8697269822808 -250.321736980766 2795.1894105688 17 20 11
53.0829222957263 -249.273751383006 2797.04150431511 16 18 13
95.5534877425648 -261.1236692209 2747.48603096589 16 18 17
285.441390871455 -248.3798438397 2906.20146942203 0 4 5
258.909180802526 -244.627559311085 2917.86498172469 5 10 6
260.175070901495 -246.687669567578 2907.65600451442 12 17 11
216.731206710111 -239.324199240113 2933.01572527445 9 14 7
209.127974896749 -239.493711105498 2929.97348939635 12 15 8
157.104561754593 -230.214999229703 2962.7096994536 13 16 9
161.72279419706 -232.952610352013 2949.98703408139 13 16 9
196.009671819999 -242.065107427354 2913.03991817901 13 16 9
201.233077834932 -244.992318818915 2899.51995905258 14 17 10
192.811237538386 -244.992030263349 2897.12019311685 14 17 10
170.058995804694 -241.881778071163 2906.57989764305 16 19 12
162.496506379891 -242.049064737376 2903.56720806296 17 20 13
161.281907148173 -243.600566545769 2895.26805176729 16 19 12
163.991735379855 -246.020844736418 2883.63362406758 14 17 10
173.745243692196 -250.006750634602 2865.98146154808 13 16 9
176.337496519419 -252.437260311656 2854.26204358101 12 15 8
162.423878114565 -251.221321497713 2856.53317336088 10 13 6
125.109099343642 -244.780438391866 2878.92051712796 9 12 5
102.775507831847 -241.63488639666 2888.68418341194 12 15 8
99.9609568318238 -242.842035895875 2881.69700540549 15 18 9
95.5780966126181 -243.701412556378 2876.04535032711 15 18 9
86.5498039908434 -243.512881944916 2874.44194427081 17 20 11
102.965010616878 -249.097282494204 2850.49467924219 16 19 10
91.5930158972653 -248.386552903048 2850.90032292349 15 18 9
83.3154677430401 -248.374575074763 2848.60521664955 16 19 10
78.1060919010281 -249.063716492135 2843.59030166175 17 20 9
66.7978121488186 -248.347287583713 2844.04216255083 20 23 14
62.3553465653663 -249.211563045651 2838.34697898145 18 21 12
58.6605955823534 -250.252696487607 2831.95789723321 15 18 9
60.2377929749021 -252.52908116236 2820.73846122192 16 19 10
78.3348056174469 -258.691979768911 2794.30233317188 17 20 11
119.56316298259 -270.344021296185 2746.31772669215 17 20 11
83.414494208804 -263.802158199885 2769.55091996574 18 20 15
84.7578336450518 -266.098085415308 2758.16185634432 21 23 22
334.973354238174 -266.373863051782 2867.90960513792 6 10 11
328.723569265945 -266.908663133967 2863.37629376669 13 18 14
216.586873225668 -244.83275524034 2942.76436939388 12 17 11
227.680204807444 -249.000196372531 2924.84722273767 7 12 5
228.959507824333 -251.084133204023 2914.64784815154 12 15 8
214.848254403241 -249.856364412604 2916.77576801157 12 15 8
187.888417579619 -245.830136334849 2929.36570876103 13 16 9
204.433904577852 -251.237277838468 2906.74911571277 13 16 9
192.808731907392 -250.528239183066 2906.97121672949 14 17 10
196.398020516158 -253.146426442422 2894.73828954809 14 17 10
183.19756460673 -252.085171799588 2896.29058590551 16 19 12
170.036103272559 -251.020698417464 2897.87116656626 16 19 12
157.70626719585 -250.128864658771 2898.81840456397 15 18 11
183.350023274502 -257.682214725108 2867.96485251082 14 17 10
186.748015942386 -260.317392684449 2855.59316475817 13 16 9
171.228519220384 -258.72429401444 2859.17243719924 11 14 7
153.409537302455 -256.597050168434 2864.79287366358 9 12 5
95.3641079784018 -247.194562408647 2895.63459035906 13 16 9
110.448326971696 -252.48469336388 2873.19402778269 15 18 9
106.037233355848 -253.352092650638 2867.52186507637 15 18 9
104.708289494188 -254.9303028433 2859.13968263498 14 17 8
100.269706881182 -255.800058891401 2853.4472861535 15 18 9
105.811404899975 -258.983126705603 2838.92173110093 15 18 9
93.6627654769335 -258.076195790494 2840.00039888988 17 20 11
80.7843503217103 -256.987896354026 2841.78628644993 18 21 10
66.4211214006714 -255.539345326452 2844.96769882737 18 21 12
61.9810342748521 -256.408914179417 2839.27450711764 17 20 11
62.8338763025478 -258.531103223604 2828.76578810432 15 18 9
78.7517996765787 -264.237040850827 2804.45741622451 16 19 10
79.4801123350615 -266.369736369418 2793.85836999649 17 20 11
81.6697404414786 -268.864527361108 2781.84675517935 17 20 11
127.233652797845 -281.779396145763 2729.58787983983 18 20 15
120.98617825017 -282.315741628433 2725.0562355169 21 23 22
337.018363673399 -274.469598163844 2866.88070189038 0 4 5
272.767857769403 -262.476222753519 2908.05896696538 6 11 7
235.711768608909 -256.2857578725 2928.1624986757 13 18 12
235.383070397727 -258.038899154907 2919.26919848597 16 21 14
203.422611160816 -252.891126899629 2935.65057090108 12 15 8
211.197876043748 -256.414723825424 2920.2720835525 12 15 8
195.527482089481 -254.800572209019 2923.74207400692 12 15 8
182.320586558666 -253.714876690961 2925.2895314662 13 16 9
185.182619878965 -256.181422896321 2913.76550060384 13 16 9
183.200273768475 -257.584634023298 2906.14557596195 14 17 10
174.021144472761 -257.386506013682 2904.43316827144 14 17 10
169.628942755569 -258.257164709552 2898.77438971905 14 17 10
167.605473035336 -259.664354131133 2891.12492802102 15 18 11
190.06626440607 -266.613648080585 2862.9074775804 14 17 10
173.739705286307 -264.810442453729 2867.13779412813 13 16 9
173.978878826066 -266.763375126755 2857.42010767766 10 13 6
156.935310429579 -264.775387359041 2862.36662148612 8 11 4
96.9554567570317 -252.911332458191 2904.16975073463 9 12 5
87.1702487782353 -252.519495436314 2903.25400147593 15 18 11
112.388109957487 -260.218889442183 2872.09096937981 15 18 9
114.949762945975 -262.712468634417 2860.34875500006 14 17 8
105.867425964402 -262.506857830787 2858.70655202555 16 19 10
113.759652942881 -266.268995737515 2842.17631363281 16 19 10
118.497595027785 -269.315472346184 2828.30382724135 17 20 11
103.24699705239 -267.666715135641 2832.0783120439 16 19 10
82.6992302774765 -264.746643632192 2840.66475647544 15 18 7
61.4720240741038 -261.638078870842 2849.99494662707 16 19 10
55.5281189037662 -262.149174666478 2845.68349411891 16 19 10
51.0985871702703 -263.02332510213 2839.99793103172 16 19 10
70.8331337497157 -269.713833375601 2812.27555161982 17 20 11
52.7564384852743 -267.32080707964 2818.9455490491 17 20 11
79.7129089308757 -277.82989570634 2774.20702279827 16 18 13
134.829234288771 -293.318450440661 2712.80349966477 17 19 14
230.681177184453 -260.714476730176 2941.78497397674 14 19 15
218.99225429733 -259.971291122889 2941.96103406195 12 17 11
205.70848134448 -258.866661028804 2943.45315182173 8 13 6
226.501196096808 -265.30784767504 2917.7344550702 11 14 7
202.696868681511 -261.865984277829 2927.66819653851 11 14 7
183.018699995417 -259.316572778377 2934.41308045838 11 14 7
174.668355683066 -259.285220616919 2932.06530083068 11 14 7
185.570106259369 -263.584672028375 2914.00889883399 11 14 7
181.189980785064 -264.459430638185 2908.35885384093 11 14 7
165.638774167058 -262.803003395234 2911.91545987337 13 16 9
159.68064956123 -263.314952404648 2907.59369507127 14 17 10
187.022664927581 -271.439076120115 2875.49798860194 14 17 10
184.134053356313 -272.685014347712 2868.45722051133 13 16 9
193.843174904714 -276.838393353864 2850.77203279509 12 15 8
179.088983200903 -275.363622914914 2853.67016071422 11 14 7
91.0806127926396 -258.737930599989 2909.76261456585 11 14 7
89.1093686780047 -260.154700344767 2902.15066932061 13 16 9
107.330871488709 -266.320170268337 2877.03981045519 14 17 8
116.111876091409 -270.304315869964 2859.91770478777 16 19 10
110.119473241025 -270.819937956698 2855.57107234979 16 19 10
105.668360893968 -271.701821402619 2849.86953136903 17 20 11
115.044864246736 -275.884237225613 2831.94307454715 17 20 11
101.336739425967 -274.569025443218 2834.36367384872 18 21 12
83.8500267958424 -272.331521457133 2840.22553790011 18 21 10
69.4772379099922 -270.824001078132 2843.40031874643 18 21 12
74.9106283560197 -274.098110247128 2828.79578808056 17 20 11
54.5137729163576 -271.112989351505 2837.49225532465 16 19 10
35.7109622726624 -268.489617153772 2844.87207959604 18 21 12
47.116364055432 -273.245364661064 2824.70810614227 17 20 11
16.3549499740645 -267.659250167659 2843.19594889857 16 19 10
83.8521732944626 -286.297936800506 2770.98929395112 16 18 13
251.80382054521 -270.886760312004 2934.81327811901 8 12 13
221.26508163331 -265.945442730139 2949.75387246969 8 13 9
227.529773162582 -269.186559934195 2935.75213681071 9 14 8
241.043276763016 -274.074079643999 2915.8806672723 11 16 9
222.029154393939 -271.672826720769 2921.87085098021 11 14 7
233.802391685233 -276.206022263634 2903.20998771236 11 14 7
209.201343279298 -272.520703146427 2913.80273338913 11 14 7
162.993175475238 -263.885557836569 2942.10543374548 11 14 7
197.182542726454 -273.55201281035 2905.0848245877 11 14 7
195.970145415041 -275.168456997201 2896.7869355651 11 14 7
173.998482636402 -272.014215992711 2905.577684617 13 16 9
175.970370628956 -274.365687243974 2894.64398791645 14 17 10
169.17479152591 -274.697652781974 2890.95108275811 14 17 10
176.617799701321 -278.343935542265 2875.33111400361 13 16 9
179.253894220482 -280.890799390428 2863.64288845784 12 15 8
146.451769853138 -275.138477478504 2881.88725527947 10 13 6
131.05137558008 -273.437093142979 2885.55341611579 7 10 3
123.523822225845 -273.580410645656 2882.56587937035 10 13 6
87.1496805797833 -266.874723497675 2904.40141571892 13 16 9
105.382055240886 -273.123670947169 2879.29801525975 14 17 8
123.478078637943 -279.384570885288 2854.09541584066 16 19 10
110.506425846934 -278.230997026414 2855.81404407655 16 19 10
89.8628889910209 -275.215615528 2864.33183997347 16 19 10
97.7507693479289 -279.076324391727 2847.79795134067 17 20 11
106.325366433115 -283.130113966079 2830.52615817541 17 20 11
87.2945116118169 -280.480288540928 2837.74080234657 17 20 9
75.9605184804331 -279.690068057688 2838.17439682721 17 20 11
57.8157833803044 -277.216104446636 2844.79548069102 17 20 11
89.761616627567 -287.07649843364 2806.14750351504 16 19 10
70.0997756928103 -284.22858918764 2814.14077234945 17 20 11
27.9110180971771 -275.753144395627 2842.88634677135 17 20 11
27.2542888599814 -277.574311698814 2833.75519980214 16 19 10
103.724031467179 -298.734607972339 2753.2185256603 19 21 16
140.12318211798 -309.976508655235 2709.14601034645 17 19 14
268.237288041724 -283.848193016872 2913.31225239831 10 15 11
284.160078588156 -289.358225667507 2891.47876886839 15 20 14
265.822928165036 -287.109630016841 2896.72389411885 8 13 6
265.38645773342 -288.929383449558 2887.7524246199 11 14 7
235.004262979715 -283.893893481126 2902.80697817337 11 14 7
208.784785476561 -279.775196686053 2914.69905293737 11 14 7
200.36523468091 -279.733379935268 2912.3011570582 11 14 7
202.38355295858 -282.107556325762 2901.40100365619 11 14 7
200.35908779276 -283.5552833108 2893.75032053063 11 14 7
195.121791592806 -284.259830227884 2888.71508744762 13 16 9
178.744914988644 -282.354297143562 2892.90944608582 13 16 9
164.010871040624 -280.817314283093 2895.82249466128 14 17 10
149.324492366329 -279.276399901682 2898.77041120185 13 16 9
140.207407066564 -279.040815103186 2897.10287577708 11 14 7
167.289815132849 -287.416760263271 2864.81769891037 9 12 5
169.087075001414 -289.811055371378 2853.75719364472 7 10 3
142.681211403394 -285.455210261055 2866.75039098305 9 12 5
107.808918370083 -279.023807807663 2887.20289240056 12 15 8
98.7656479669155 -278.782292564774 2885.58919148552 14 17 8
116.885683642005 -285.125545763817 2860.40358194371 16 19 10
91.5579086219886 -280.931982395192 2872.94245008157 16 19 10
79.4500949311936 -279.934577914103 2874.05117158154 16 19 10
87.3711113214521 -283.841522215851 2857.54136425188 17 20 11
98.2797999947409 -288.511081831737 2838.25278605253 17 20 11
86.9169870650688 -287.70437677178 2838.66557194397 17 20 9
70.2472930434994 -285.569779801952 2843.8838578702 17 20 11
