ply
format ascii 1.0
comment KinectMotionCapture
element vertex 762
property float x
property float y
property float z
property uchar red
property uchar green
property uchar blue
end_header
65.5843758470853 535.863088106107 2627.32838026724 139 139 141
114.38033073942 531.846436977634 2675.82352544977 162 162 164
156.230638389194 528.420429381469 2718.37564462011 176 176 178
178.232985059863 526.70354268364 2744.95937729019 185 185 187
186.682010451126 526.155625834755 2760.73949965929 192 192 194
191.969753429279 525.879212161724 2773.95071903325 185 186 188
194.881854018433 525.806908624888 2785.2397532338 183 184 186
200.266154530807 525.518204402779 2798.35690608669 194 194 196
204.075907394593 525.364298449063 2810.18352842809 198 198 200
203.04049760389 525.630447565724 2818.2572533638 202 202 204
203.658908398874 525.751555887462 2827.54464129554 202 202 204
203.486181061975 525.94045211998 2836.19003706209 202 202 204
205.799404688969 525.911289545384 2846.650479406 205 205 207
204.858235758423 526.165102800089 2854.63278285144 200 198 201
202.288290433874 526.560344327311 2861.37742581953 198 196 199
197.25152764492 527.17086572915 2866.28877092943 201 199 202
193.87201216671 527.636028871981 2872.40974748378 203 201 204
191.331343133879 528.027225844493 2879.12591644483 202 200 203
186.306468197588 528.635776843001 2884.02574796605 194 192 195
182.950699868605 529.097520460651 2890.1239864965 197 195 198
180.439371172477 529.48463532015 2896.81162340399 207 205 208
180.454195888166 529.648914650723 2905.27441557715 206 204 207
177.973332079298 530.03204150505 2911.93238982667 200 198 201
174.663017549954 530.487730620478 2917.98638691492 203 201 204
172.204901226349 530.867901339605 2924.62220949079 221 219 222
169.759158471633 531.246394236113 2931.24599291129 216 214 217
166.477802190781 531.698268835621 2937.2714599725 192 191 196
161.505911436994 532.299285288057 2942.11979101987 197 196 201
154.831709497066 533.050869266416 2945.80246978985 202 201 206
149.85726932955 533.652030206481 2950.65331108752 209 208 213
146.594197579038 534.101363875105 2956.66099688829 216 215 220
141.625030077152 534.701801143062 2961.50670930948 190 189 194
134.938033166345 535.454703286672 2965.20189885043 171 170 175
127.382685866932 536.284966712899 2968.33069204035 226 225 230
118.953330677195 537.193321086231 2970.89893685998 219 218 223
107.913901857028 538.334425361889 2971.77355724953 211 210 215
91.6461194267306 539.942122951742 2969.26891618484 163 162 167
76.1975849461676 541.478397079794 2967.37821546954 164 164 166
65.0576070951079 542.631734892256 2968.35087442176 176 177 172
64.3646032947092 542.853037681677 2976.09121341499 176 177 172
71.7744613582085 525.876949826891 2553.22385652682 183 182 178
68.4726041509105 526.376136304179 2560.6799357959 176 175 173
63.6118531718362 527.002663529093 2566.83104224071 156 154 157
58.7556760178853 527.628260337717 2572.97774432469 161 159 162
56.2726504616791 528.057432117271 2581.04796911914 162 160 163
53.8061002750609 528.484248517077 2589.10251959414 156 154 157
52.1489800910451 528.843103532222 2597.77991024967 151 149 152
47.3307403550711 529.462590927913 2603.88984288534 139 139 141
60.8545405523344 528.560965927526 2624.60229551345 135 135 137
108.83825244072 524.795240816337 2672.45001393258 157 157 159
153.87818358408 521.263722061346 2717.51835943855 173 173 175
177.479940800005 519.50568361411 2745.35375463959 184 184 186
187.536634966984 518.869977993871 2762.38456976819 187 187 189
190.404928479596 518.830381664105 2773.71227093241 187 188 190
195.739566076153 518.583172115469 2786.87260690023 180 181 183
198.692789219818 518.532692149754 2798.11758028197 190 190 192
204.123899047034 518.273232290323 2811.18392848922 201 201 203
206.347291598295 518.280161257302 2821.72824010519 202 202 204
207.789580858638 518.350916964397 2831.62151811185 202 202 204
205.98916176362 518.69241371062 2839.0268629312 203 203 205
206.666714386462 518.824919843202 2848.25349972014 204 204 206
204.904815536235 519.161311587291 2855.62168572606 199 197 200
202.334687989212 519.564890691086 2862.36527735358 199 197 200
197.297752439103 520.175728716345 2867.27674722106 203 201 204
193.089821436126 520.716360511975 2872.79228908609 203 201 204
190.547057447391 521.116077222673 2879.50927915574 196 194 197
187.184351285876 521.584457962843 2885.61308825065 194 192 195
184.66435738725 521.981068266574 2892.3079264098 199 197 200
182.992985635947 522.305163099032 2899.58803514642 208 206 209
182.1754484775 522.556199877691 2907.44764293451 206 204 207
180.538179011839 522.875890675436 2914.69420066978 201 199 202
176.391753083564 523.408048115297 2920.1502574345 208 206 209
173.093465526497 523.867747662955 2926.19138097937 222 220 223
168.958180977401 524.398294164048 2931.63661228591 212 210 213
163.979654855019 525.000441954259 2936.49136514115 189 188 193
159.001895118429 525.602375191711 2941.34538867478 200 199 204
154.024816194814 526.204163633042 2946.19875755186 206 205 210
150.755145375067 526.659960742127 2952.21204103225 214 213 218
146.638616303721 527.187831526602 2957.63870549989 220 219 224
140.812172231932 527.86183277099 2961.90792418655 175 174 179
134.982454070014 528.536276250875 2966.1803287309 181 180 185
127.427136144227 529.358663635754 2969.31025682785 228 227 232
118.997834830216 530.256455797255 2971.88000923838 220 219 224
104.498190252898 531.676245216845 2970.48117252874 201 200 205
88.222859330116 533.25016177532 2967.98902005037 161 160 165
75.3737310794467 534.530987961682 2967.80622925386 163 163 165
70.3279075718091 535.140823577458 2972.72667315024 179 180 175
79.2470543404322 534.54665997641 2986.629883974 169 170 164
62.6697571769603 518.513964498936 2536.42990429835 159 158 154
71.0497180140228 518.10455731486 2553.67504644048 183 182 178
68.5293773721054 518.550479340986 2561.78018782953 177 176 174
64.4538500810659 519.118010100965 2568.57718451386 153 151 154
58.8118647316427 519.808485490383 2574.0777074087 157 155 158
54.7496280624329 520.373620092473 2580.86219830216 159 157 160
51.4873131173843 520.874662023174 2588.27873728508 156 154 157
49.8239670572049 521.247953192265 2596.96017667043 153 151 154
44.2043793751488 521.934248716818 2602.43907613267 139 139 141
56.125159940005 521.225292135559 2621.88071816711 134 134 136
102.497416466642 517.768982700866 2668.44908544484 154 154 156
153.929422270573 513.898159456889 2718.55610560167 172 172 174
179.136504672702 512.109060851937 2747.63613631692 185 185 187
190.001491860652 511.459922886155 2765.28319913945 186 186 188
192.875213161295 511.446826926472 2776.60159368679 184 185 187
197.406337224012 511.298983945943 2789.12823481874 190 191 193
200.363096411599 511.2752133503 2800.36574922336 199 199 201
205.797669045688 511.050491854037 2813.42352449729 198 198 200
208.024433805239 511.081421832652 2823.96060227955 203 203 205
207.837074979861 511.305083648457 2832.61572683442 202 202 204
203.58063968734 511.855633669793 2838.17796826657 204 204 206
202.611138578114 512.140350696873 2846.18383842021 200 200 202
201.661538486519 512.422512953551 2854.16998632111 198 196 199
203.205586222652 512.501803549586 2863.96129304617 202 200 203
198.996733818528 513.045676850274 2869.47727078314 203 201 204
195.620939309017 513.521650398239 2875.5932924294 201 199 202
190.593167282655 514.131215278074 2880.49585095268 194 192 195
187.230282411444 514.605220585956 2886.5990062003 198 196 199
185.544353049753 514.942295744719 2893.89165237268 204 202 205
183.874498969574 515.277209974664 2901.16831709522 207 205 208
183.0587288907 515.541704752609 2909.02418106076 204 202 205
180.583389262743 515.940764405224 2915.67431485634 207 205 208
176.436894430435 516.47582000403 2921.13001169715 217 215 218
172.294782123725 517.010247700519 2926.58111158696 214 212 215
167.311619477504 517.613215873537 2931.44034732669 202 200 203
163.176693916124 518.146590144519 2936.88446636798 196 195 200
158.196976236409 518.749006087117 2941.74036282446 202 201 206
154.920958460893 519.211280784672 2947.759329383 207 206 211
152.506783259564 519.602246392075 2954.34992229511 222 221 226
148.394053806711 520.132586615589 2959.7724487034 206 205 210
141.713998309027 520.874366145883 2963.4620513939 178 177 182
135.886216036373 521.546088885454 2967.73293569583 212 211 216
128.332797431234 522.360452945691 2970.86216358317 220 219 224
119.042472727539 523.31889550618 2972.86105152772 205 204 209
104.5430110235 524.709324880513 2971.46637262408 178 177 182
87.4010534568304 526.320332545104 2968.41240184718 162 161 166
76.2878597277856 527.43323188596 2969.36444055874 165 165 167
74.7271522982804 527.753826242467 2976.53483751472 175 176 171
65.066967706096 510.45148519872 2539.49213552032 175 174 170
69.5437190756314 510.384190902078 2553.4777737978 186 185 181
69.3698786543075 510.664510755334 2563.52800966213 178 177 175
66.0817132295901 511.178128624329 2570.96835983531 154 152 155
58.8682135641014 511.987452112186 2575.17769750277 152 150 153
52.4372619400575 512.737513716699 2580.03595943708 154 152 155
49.1687701230461 513.247619460379 2587.45729251757 156 154 157
47.4992826825025 513.635395100203 2596.14268958596 153 151 154
43.464257236284 514.201728348145 2602.8999821734 140 140 142
54.5850719417613 513.613198269419 2621.70095598768 135 135 137
98.5544134757239 510.5155152494 2666.35138275213 151 151 153
152.378736898159 506.653761839162 2718.33285926851 170 170 172
178.384012325373 504.906283723382 2748.03103033798 186 186 188
190.856307628838 504.188226546752 2766.92601730613 183 184 186
194.538686123432 504.140115672161 2778.86382565457 183 184 186
199.881930673771 503.962242896969 2792.00502900323 192 193 195
202.844305987123 503.964994859362 2803.23338433144 200 200 202
207.471395966438 503.837411289444 2815.66139771554 197 197 199
208.887220726083 503.955186129867 2825.57434379723 202 202 204
208.70135155695 504.195066522504 2834.22525416087 203 203 205
204.446885732847 504.74824469564 2839.78548928407 203 203 205
204.299473302027 504.982998607732 2848.39930707164 199 199 201
201.708574988484 505.405897412484 2855.16033109201 200 198 201
203.252295925301 505.507047672563 2864.94873148482 203 201 204
199.043289313583 506.05385937048 2870.46442805838 201 199 202
196.495524625315 506.471042098772 2877.18380242681 198 196 199
192.299701023939 507.015897024633 2882.68669728627 195 193 196
188.940758348277 507.495082809972 2888.78551004513 201 199 202
186.424269065737 507.907880510228 2895.47447557857 207 205 208
184.756184770147 508.25362828567 2902.74778168556 205 203 206
183.942370377834 508.531573732497 2910.60005346444 202 200 203
180.628821254049 509.00460771106 2916.6543611476 210 208 211
179.007675061274 509.344248248438 2923.88229751374 219 217 220
175.71498140939 509.814564610148 2929.91629706759 205 203 206
171.585045139059 510.35034679628 2935.3551057803 196 194 197
164.069530048154 511.152725281546 2938.44880422243 205 204 209
157.392452391742 511.889293963859 2942.13622003359 208 207 212
155.817272116903 512.222887445103 2949.31906747397 211 210 215
152.551534851627 512.689468159507 2955.32718890647 218 217 222
147.583466064403 513.290504027354 2960.17172181495 192 191 196
140.04423289121 514.095443325467 2963.2882563344 193 192 197
136.790106875508 514.560396388798 2969.28475034854 227 226 231
130.961028919144 515.229835263589 2973.55725883776 215 214 219
119.950339032891 516.311738421026 2974.41209094052 193 192 197
103.723088385244 517.81048223222 2971.88330453739 166 165 170
89.1802711531469 519.176850324193 2970.53557240305 163 162 167
82.4153608645046 519.923636657419 2974.30869715207 171 171 173
84.3515180964505 519.974989758395 2983.71476250092 160 161 156
65.1250003168937 502.571565571161 2540.59915695955 180 179 175
70.3828259827333 502.483478986463 2555.22915932321 191 190 186
70.9940982669455 502.726281018729 2565.92222110013 177 175 176
66.9239503828729 503.304383626933 2572.71265128126 159 157 160
59.7121772643998 504.108329683787 2576.92106924397 145 143 146
53.2829058881861 504.855761744477 2581.77805131277 145 143 146
49.2247365454155 505.431263343928 2588.55697105328 152 150 153
46.7615897381468 505.890302977057 2596.60304150046 150 148 151
41.1337069029587 506.578115988078 2602.08995388855 142 142 144
49.8564176515619 506.221176652545 2618.98698557664 135 135 137
90.6161497110149 503.52515961327 2661.09726082661 146 146 148
150.828098979525 499.397459574093 2718.11098747273 166 166 168
180.843640900921 497.462109158526 2750.9395565053 185 185 187
190.101482205375 497.038697545694 2767.31535805629 181 182 184
195.395188401899 496.902349671872 2780.49995420231 190 191 193
200.740128038499 496.759513524449 2793.63463374897 198 199 201
206.947054995562 496.550450842797 2807.34004471445 195 195 197
207.519828895742 496.753837510533 2816.66025221176 208 208 210
208.120558632576 496.953611447619 2825.95323311003 206 206 208
208.749180968839 497.149721657286 2835.21905774205 203 203 205
206.13152126019 497.584679025109 2842.005211815 201 201 203
205.987764140274 497.835394945355 2850.61304064698 197 197 199
203.400741003024 498.266165758012 2857.36939092266 203 201 204
203.299184581944 498.511296249909 2865.93613936072 204 202 205
199.090044213446 499.061132220143 2871.45152177061 196 194 197
198.198698369301 499.362974772339 2879.37725144555 194 192 195
194.006589082855 499.910339375522 2884.87608700616 197 195 198
189.81907272608 500.457007029289 2890.37046472854 205 203 206
187.304399258061 500.877919906219 2897.05642771175 211 209 212
186.474175054135 501.171703291524 2904.92265383575 199 197 200
184.82595240001 501.525915393197 2912.17498601543 204 202 205
180.67443085308 502.06760306305 2917.63435639898 219 217 220
177.369395326683 502.545152767992 2923.67988037369 225 223 226
176.603908095021 502.830552191919 2931.48272303108 195 193 196
173.321705626703 503.305076005022 2937.50602066708 193 191 194
166.657385564794 504.035112492828 2941.1817334538 203 202 207
160.835767765947 504.701458534061 2945.44729101577 216 215 220
157.565343895614 505.174350045668 2951.4591335833 217 216 221
154.303214129065 505.646120538375 2957.46256782727 203 202 207
147.62843535806 506.377138146189 2961.14885909961 180 179 184
140.946432468062 507.108932084832 2964.84187144556 230 229 234
136.83496800398 507.64492126582 2970.26230678785 229 228 233
130.144842963591 508.377608155012 2973.9635904135 206 205 210
117.406147781119 509.573202740701 2973.68339729914 176 175 180
102.038243192462 510.971703649219 2971.73299273092 152 151 156
90.0925487967994 512.109755511487 2972.09109006166 174 173 178
85.9361466625121 512.651085471289 2977.55535980999 198 198 200
90.4923440102658 512.522388712327 2988.63736367834 136 137 132
66.7425350484354 494.584025583116 2543.00729461693 189 189 187
69.6588969862457 494.693692908896 2555.68244918096 183 183 181
67.1334110831427 495.173210704449 2563.78739660838 178 176 177
62.2676005003293 495.812022116038 2569.94171171708 168 166 169
55.8315460349741 496.558156930727 2574.80562122607 147 142 146
50.181713039553 497.249975453576 2580.31373843485 150 145 149
46.115435537827 497.832101253812 2587.09973064307 151 149 152
44.4374493632802 498.248368798411 2595.78935598888 152 150 153
38.8035059488407 498.937152232638 2601.28214319363 129 127 130
45.1283848536859 498.795657808577 2616.27768673206 145 143 146
150.879977382973 492.017634320381 2719.15020640079 167 167 169
180.894456546919 490.201122129983 2751.96226652943 184 184 186
190.956672807109 489.770138269196 2768.95734035119 192 192 194
197.058745261654 489.612329056736 2782.75929814734 185 185 187
202.407125638788 489.504322507533 2795.88541318838 202 202 204
206.995989626891 489.446793899784 2808.34136929602 197 197 199
207.568483026941 489.669292344385 2817.65903062184 198 198 200
208.983675985037 489.830724796202 2827.5661515159 204 204 206
210.430526761663 489.988031892814 2837.44210761189 200 200 202
210.272163027156 490.257100480334 2846.06172851187 201 201 203
208.496768002108 490.639374320649 2853.43619722312 199 199 201
206.737679651968 491.019445023424 2860.79479878789 204 204 206
204.170606972524 491.455926915168 2867.53049386906 203 203 205
199.136999595135 492.067377325837 2872.43856830153 196 195 200
196.588871000429 492.501176170559 2879.15584817969 193 192 197
194.053136694683 492.933353549394 2885.86105999763 201 200 205
191.529797485657 493.363820907271 2892.55421604165 207 206 211
189.01883184552 493.792610442529 2899.2353329303 208 207 212
187.356179670977 494.159727753904 2906.50008645271 200 199 204
185.709727339949 494.524714364359 2913.7490682077 204 203 208
181.560238229405 495.069110701139 2919.20635785407 220 219 224
179.940445500335 495.430589023098 2926.42938475372 212 211 216
177.493258553302 495.851013912143 2933.04840474835 193 192 197
175.058444636652 496.269820015282 2939.65537739676 198 197 202
170.093216959653 496.871323279612 2944.49701995979 213 211 216
163.429624830143 497.596049258829 2948.17279478973 212 210 215
159.313326848219 498.135832098172 2953.59746918564 222 220 225
153.495048543233 498.799221483603 2957.86014757328 182 181 186
148.528802877817 499.400587721829 2962.70282126626 184 183 188
140.991583433207 500.189616934028 2965.8197076272 242 241 246
136.880049526585 500.728563310675 2971.23977485474 222 221 226
129.328925598612 501.519214428372 2974.37056669828 205 204 209
117.451366698056 502.627814802189 2974.66501955028 159 158 163
102.08366948478 503.994269494966 2972.71914547194 144 145 149
91.0049967533677 505.04726828101 2973.64575759838 207 208 212
83.3752223106172 505.847434801925 2976.85290635133 197 198 200
85.3131082508347 505.942059481285 2986.25085954692 153 153 151
72.2588875540566 486.353496152432 2548.66532243761 189 189 187
70.4983184514649 486.795742357491 2557.43311421709 179 179 177
66.4074444693434 487.387986225254 2564.24203564799 176 176 176
59.9682225161451 488.132469481098 2569.10899677691 181 176 180
55.1011105426675 488.773997059701 2575.26454057947 157 155 158
48.6595353495027 489.518069352916 2580.13389925056 152 150 153
43.7977652024633 490.158274852327 2586.28433394323 142 140 143
40.5271783422041 490.693205225726 2593.7040783632 144 142 145
34.8832834903954 491.383508556475 2599.20652285233 130 128 131
38.0090899235923 491.494441493205 2611.67317103754 125 123 126
146.125659281555 484.955269973675 2716.4129973331 162 162 164
179.339605634768 483.045584946795 2751.73002310539 174 174 176
189.39735597299 482.666555418711 2768.721852826 188 188 190
197.915758194425 482.385807657132 2784.39359550273 185 185 187
203.265666040154 482.312871904478 2797.51301029646 200 200 202
209.477469415736 482.179116836882 2811.20244847379 200 200 202
210.055485368696 482.420054460132 2820.51190052038 202 202 204
213.105301108691 482.493114217001 2831.64269690902 198 198 200
212.928503946461 482.781047386808 2840.2778342982 199 199 201
211.957014221586 483.121105032332 2848.27716201535 199 199 201
208.544485843079 483.624884216968 2854.42555127559 200 200 202
206.785169240534 484.016010865136 2861.78274543448 204 204 206
204.217914069363 484.46085985181 2868.51738507965 201 201 203
200.010545098265 485.01641532282 2874.03050096801 195 194 199
197.464000924684 485.458371552941 2880.74466399258 196 195 200
195.760320144782 485.841970148714 2888.04806144198 210 209 214
193.240645707977 486.280378561595 2894.73640462854 209 208 213
192.40132917308 486.602830175152 2902.607084578 201 200 205
190.746207319013 486.980113793771 2909.86285780509 207 206 211
188.269541945482 487.412775902296 2916.50934165731 214 213 218
184.96546460819 487.901674249027 2922.55223681177 217 216 221
179.986328975195 488.505461551637 2927.40735260085 201 200 205
175.851506413266 489.05082299409 2932.84959766345 194 193 198
173.412704988841 489.478446390477 2939.45922677392 212 211 216
170.98619156049 489.904461720883 2946.0568913941 215 213 218
166.873012384084 490.446858795386 2951.47808238722 222 220 225
161.06168510778 491.107101593384 2955.73432336487 184 182 187
155.247212639081 491.767622955206 2959.99364639345 177 176 181
151.140029727687 492.309116683161 2965.40901652099 194 193 198
144.465815604435 493.029727117016 2969.09594742354 230 229 234
138.643776967063 493.690995923728 2973.36267329744 211 210 215
129.374255542706 494.594245191499 2975.34906082263 185 184 189
117.496848257027 495.681568189906 2975.64650790562 149 148 153
104.724280614896 496.833373343764 2975.40642270332 164 165 169
90.1839239283055 498.111567693423 2974.06927925152 219 220 224
77.3392924023311 499.272162800756 2973.8994553999 194 195 197
67.072832390378 500.252148336848 2975.44722893338 175 175 173
73.0968871678055 478.446142413694 2550.41878918025 186 186 184
71.3379360654924 478.901894896264 2559.18297803962 177 177 175
67.248626038491 479.499602609977 2565.98953888592 173 173 173
60.8113369850951 480.241411433293 2570.85531373872 173 171 174
55.9456673790049 480.885718657802 2577.0086765767 161 159 162
48.7164571988266 481.676118256678 2581.23641196002 160 158 161
42.2717163472601 482.417775574267 2586.10960895103 151 149 152
35.8238752437368 483.159440430505 2590.98588342387 146 144 147
30.963256844605 483.801695618281 2597.1345336288 139 137 140
31.6873862697045 484.093632218766 2607.70826452876 127 125 128
180.193772329754 475.726323621585 2753.38051589548 177 177 179
191.862655073518 475.296762794604 2771.61375445983 182 182 184
199.579566300208 475.11247303075 2786.6502237749 185 185 187
204.124127333507 475.125719552074 2799.1397128384 199 199 201
211.148323107475 474.97812024702 2813.44172668674 199 199 201
213.355133210175 475.13416201745 2823.98012827004 199 199 201
217.227176593032 475.18131686836 2835.71551634805 198 198 200
213.79335814991 475.69383734655 2841.88341715583 199 199 201
211.186694373447 476.152440769243 2848.65515722898 198 198 200
207.772051946967 476.662176954971 2854.80476532796 201 201 203
206.832880030994 477.011605319612 2862.77061599493 203 203 205
205.089873244347 477.41154256691 2870.11064990481 198 198 200
200.884095181422 477.969888442314 2875.6214357353 194 193 198
197.511191985587 478.473697631216 2881.73013432677 198 197 202
196.637348995656 478.814464427 2889.63273042253 213 212 217
195.783471606846 479.152579857365 2897.51555440989 208 207 212
194.949914966796 479.488120496556 2905.37891798833 201 200 205
191.628692151995 479.985047701393 2911.4376521937 209 208 213
189.15380007583 480.425830346555 2918.08117492365 214 213 218
187.531019186496 480.809946105591 2925.3038233073 212 211 216
183.399208598692 481.357994219824 2930.74268034615 195 194 199
180.115956833645 481.849780757546 2936.76446852615 205 204 209
175.995350862244 482.396268929781 2942.19242977403 213 212 217
173.574585815924 482.829933158655 2948.78325566202 214 212 217
167.768254048463 483.487246409155 2953.03496901138 226 224 229
161.958609740196 484.144842873902 2957.2895920618 180 178 183
155.292728707202 484.859495338815 2960.96946650974 202 201 206
151.185518601169 485.403970420824 2966.38442299913 229 228 233
147.082943672706 485.94777271181 2971.7948761269 198 197 202
142.125792100975 486.548493730053 2976.62861461364 214 213 218
131.141798540278 487.553025514233 2977.46837232566 149 148 153
120.13153072455 488.560722163675 2978.33375299562 164 163 168
110.824634939401 489.455192240123 2980.35821353222 230 231 235
96.2979805041124 490.702440149765 2979.01203741264 207 208 212
73.9102962173348 492.482463255697 2972.64003881618 180 181 183
64.5070573408453 493.388712058769 2974.75876641804 204 204 202
65.6024132293775 470.654028677219 2534.92343598589 195 196 191
68.4775239264948 470.858689453571 2547.62517580923 184 184 184
69.8330473251123 471.148277529314 2558.9895174304 176 176 176
66.5230278585356 471.706577283159 2566.44496502714 169 169 171
61.6544156709504 472.354557721105 2572.60070699271 172 170 173
56.7903980285571 473.001664099492 2578.75201569259 158 156 159
50.3524152629571 473.740376059624 2583.61893712689 157 155 158
43.1198750502366 474.525711361151 2587.85072778269 157 155 158
36.6737994981059 475.264706435283 2592.72564362952 148 146 149
29.4292336620909 476.050820647374 2596.96926078437 143 143 145
28.5549192670453 476.459503099407 2606.27919640577 141 141 143
46.0835262691366 475.773008898491 2630.06790486714 119 119 121
182.65411380143 468.315451987137 2756.28374982983 193 193 195
195.938088071844 467.845668492884 2775.75328000285 177 177 179
202.050429423252 467.800521979982 2789.52838913482 188 188 190
204.982803610963 467.94293327508 2800.76555659392 192 192 194
213.629787170011 467.738055615372 2816.29840253369 195 195 197
215.02969163075 467.966988760251 2826.21072855868 195 195 197
218.090468701183 468.093094894091 2837.32279995281 200 200 202
212.208946154268 468.759798683835 2841.64779094009 199 199 201
211.235037379188 469.127611277801 2849.64541864059 200 200 202
206.999657402064 469.69310913678 2855.18454254942 203 203 205
206.880790764771 470.006231066831 2863.75843118321 199 199 201
203.488910325829 470.518404936741 2869.88507600342 197 197 199
200.931665164592 470.978591727264 2876.60750864004 193 192 197
197.558561461978 471.488087200574 2882.71556590736 200 199 204
196.684529224017 471.842617590649 2890.61631567599 212 211 216
194.998443460727 472.246006465191 2897.89897817724 204 203 208
194.162741783554 472.595557256965 2905.76240111482 202 201 206
192.511202554327 472.994443569901 2913.0114238737 211 210 215
189.200238991189 473.495679471569 2919.059333667 215 214 219
188.417050604445 473.838387291286 2926.87128367718 201 200 205
184.28710456611 474.389207759582 2932.30787943813 187 186 191
181.849212595842 474.833522620369 2938.91413845604 214 213 218
176.886866661444 475.435694549719 2943.75282057767 209 208 213
174.467853115406 475.877541031925 2950.34069786652 218 216 221
169.512864533462 476.478579059202 2955.17224161863 225 223 228
163.707278444201 477.133292129992 2959.42359880395 188 186 191
158.751781002676 477.734246885038 2964.25566016875 223 222 227
155.507428936141 478.226449729964 2970.23842100106 236 235 240
151.414644478439 478.77213008644 2975.63921231137 203 202 207
143.030654195166 479.591059243305 2978.1756261162 225 224 229
130.326546690715 480.686852456945 2977.87583752547 160 159 164
118.451312851066 481.731443902879 2978.1774420492 198 197 202
110.005675655984 482.557820303961 2980.77397144933 224 225 229
95.4772910912895 483.775919848317 2979.43382148948 188 189 193
77.4318550576152 485.222935179198 2975.88400902177 185 186 188
71.5193030782215 485.890336920899 2980.23970953721 207 207 205
60.2180021909566 463.043715618783 2531.47599578171 190 191 186
66.9770528893996 463.067997014831 2547.43247019277 186 186 186
68.3282283741033 463.382634761612 2558.79742702629 176 176 176
65.7974932501588 463.906864018239 2566.90097867319 171 171 173
59.355848636697 464.644298032097 2571.77172525645 171 169 172
53.6983711571644 465.338466031056 2577.28708629942 159 157 160
49.6204688585409 465.944937226326 2584.08102386405 155 153 156
42.3857643347194 466.725444570166 2588.3156772828 155 153 156
37.523834059213 467.374174805238 2594.46467319121 147 147 149
30.2811825694409 468.154992810994 2598.70750999092 142 142 144
29.408503920473 468.579891869417 2608.01342448494 143 143 145
185.917444776553 460.874302858335 2759.81098763504 187 188 190
197.598891777331 460.55689593549 2778.01551125038 179 179 181
201.294154729082 460.686498009586 2789.9139214042 189 189 191
205.032935603688 460.810437051556 2801.76995461099 186 186 188
211.247479888886 460.790280668016 2815.44021903066 194 194 196
213.453630444412 460.995349710826 2825.97202934461 194 194 196
216.510162919547 461.149146087942 2837.08422307874 199 199 201
213.07419780859 461.673246164496 2843.25288194182 200 200 202
212.10201305742 462.054581154424 2851.24679905688 202 202 204
208.688925406473 462.575443350677 2857.39321882127 204 204 206
208.573692282999 462.904589005579 2865.96113102258 197 197 199
204.361056009106 463.469873256575 2871.47770166906 195 195 197
200.979435360334 463.986296786602 2877.59353026805 197 196 201
198.434445321245 464.453135291133 2884.30281026679 208 207 212
197.561948500208 464.821195407574 2892.19969781407 203 202 207
197.541724265873 465.137891931759 2900.67510476007 198 197 202
194.209746433446 465.647614929795 2906.74262764428 212 211 216
194.229872324724 465.959077257443 2915.17873993102 213 212 217
189.246920905527 466.56449549265 2920.03740380107 220 219 224
189.303275478664 466.87122675073 2928.43790187919 187 186 191
185.175340079631 467.424817602648 2933.87242942609 199 198 203
184.426401878276 467.776888410028 2941.64898465039 212 211 216
178.624278526275 468.429101038838 2945.89727285065 215 214 219
176.209057573174 468.878842977804 2952.48021709358 222 220 225
170.408256588684 469.530695548195 2956.72690753784 196 194 199
164.60456306377 470.182781793705 2960.97677362241 217 215 220
158.797723807953 470.835205639752 2965.22971356705 228 227 232
154.698069344736 471.384743033231 2970.63641898401 213 212 217
151.460380571619 471.881783317992 2976.61218593796 229 228 233
142.217199033334 472.742363370833 2978.57838621625 191 190 195
131.233501676835 473.709766421912 2979.42333740366 213 212 217
119.360456208989 474.732987595432 2979.72626520077 233 232 237
110.916618543909 475.548594755133 2982.32226148818 201 202 206
99.8576690555084 476.525130720186 2983.24058931429 195 196 200
83.5597874982983 477.824353362615 2980.81142959009 213 214 216
83.7556408267233 478.113220188418 2989.07638153932 181 181 179
68.8319556790447 454.68399612424 2539.74479154173 191 191 189
70.1547798930013 455.026974906302 2551.13371281358 183 183 183
68.3869072335619 455.524982849377 2559.90051557246 170 170 172
62.7218746122877 456.221017310809 2565.42310312052 167 167 169
57.8429401426819 456.876254887892 2571.58802266273 170 168 171
53.7561818653511 457.489857340295 2578.38970034844 162 160 163
48.8885421622798 458.142963406672 2584.54371905686 160 158 161
42.4431450247944 458.877420809459 2589.41863189376 159 159 161
37.5808893960614 459.529228955038 2595.5674959689 155 155 157
31.9282685652476 460.221723257381 2601.07828165953 149 149 151
31.0591381265364 460.662686278937 2610.37829848157 147 147 149
155.948284330118 454.847555176782 2728.11315573375 184 185 187
186.772239101539 453.581396891159 2761.45729971086 183 184 186
196.040211406879 453.44900013105 2777.77969131808 182 182 184
198.924489520818 453.652020864957 2789.05566084083 189 189 191
203.465882771325 453.763466534353 2801.53378176828 181 181 183
211.297380530159 453.694787064221 2816.4393778121 194 194 196
214.31592943261 453.880703925282 2827.58454240191 195 195 197
217.374063151897 454.061483069137 2838.69115803579 197 197 199
214.756304684218 454.546841749332 2845.46996088596 201 201 203
214.606122131056 454.897006097733 2854.0691339919 203 203 205
210.378316335119 455.46758037763 2859.60032417604 205 205 207
209.444273435216 455.857640326834 2867.55507632378 195 195 197
206.057816294332 456.380511487362 2873.67475467396 195 195 197
203.506029922752 456.856816226259 2880.38938442603 199 198 203
200.96665990647 457.331408264217 2887.09193769018 211 210 215
200.099776890446 457.712559376733 2894.9813158026 200 199 204
199.253215161688 458.091076661361 2902.85124169695 196 195 200
196.758830987097 458.559702675046 2909.51000513108 216 215 220
195.9485401881 458.933513048499 2917.34427129342 214 213 218
191.807143009127 459.491968841805 2922.7911097086 183 182 187
190.189881339125 459.908575226947 2930.00381316751 190 189 194
186.063579096165 460.464980641653 2935.43596513314 218 217 222
183.629275430023 460.925619770822 2942.03624819227 211 210 215
178.670665350864 461.527939908937 2946.87119864923 221 220 225
176.255325143259 461.986099939601 2953.45301712338 216 214 219
173.002746752759 462.490897733364 2959.44208528906 180 178 183
166.353499695064 463.188416170635 2963.10797435544 229 227 232
160.550298927124 463.837976643496 2967.35738659115 224 223 228
155.599302649614 464.438983127976 2972.18497058796 202 201 206
151.506379037578 464.990607394128 2977.58502157332 230 229 234
143.122494620981 465.788618755829 2980.12442189196 168 167 172
134.723689941971 466.58843563835 2982.67803355457 231 230 235
123.721454936804 467.539570989839 2983.54379726003 228 227 232
112.692818125144 468.493887286479 2984.43530820732 194 195 199
100.771074216021 469.501753535056 2984.78886372772 206 207 211
88.8190201809311 470.513218019223 2985.17164799162 217 218 220
89.0263724274494 470.817146495105 2993.4229552399 166 166 164
75.112721126581 446.492665775059 2546.05452387958 192 192 190
75.6710823844773 446.895326056201 2556.77683795042 183 183 183
73.1349975134346 447.442696856343 2564.88228166525 170 170 172
66.6979428928047 448.175100082273 2569.74921386603 169 169 171
61.0431359163717 448.869815954281 2575.26184208455 164 162 165
56.176358647853 449.526145035776 2581.41452802248 166 164 167
49.7357847965629 450.257930477772 2586.28504617953 162 160 163
42.5007062843874 451.028224392979 2590.52158051453 155 155 157
36.0519538044977 451.760392223972 2595.40016365376 157 157 159
29.5999334549859 452.492601762393 2600.28164782949 163 163 165
27.9275752231651 452.989966024219 2608.95403632757 146 146 148
164.010877255821 447.080974027755 2735.42488577667 185 186 188
188.42984000227 446.252942334098 2763.72823853108 175 176 178
194.481872043809 446.329326540741 2777.54527351201 184 184 186
196.555086234169 446.600468710094 2788.19966386447 180 180 182
203.516507787564 446.623478085244 2802.53879755338 185 185 187
211.347524170412 446.598260356493 2817.43844798428 192 192 194
215.99079241419 446.729308956735 2829.81217039082 197 197 199
217.423518422337 447.019471368204 2839.68285447518 197 197 199
217.254816330128 447.388629092246 2848.29761054453 201 201 203
215.47362405536 447.838167050777 2855.66823224515 201 201 203
213.708507331357 448.285514562133 2863.02287659135 200 200 202
209.492795526951 448.857407743813 2868.54152448803 197 197 199
206.930366366693 449.343516201929 2875.26527370116 199 199 201
205.206431006841 449.785288850618 2882.57984830626 206 205 210
204.327088746578 450.181884769566 2890.47965373873 215 214 219
203.467711279675 450.575917878167 2898.35967477652 199 198 203
201.796773794129 451.010701420656 2905.62299253782 206 205 210
199.308052428752 451.487046089447 2912.27499190483 220 219 224
197.667561292094 451.917827517316 2919.50832966041 212 211 216
194.367669079889 452.434722728045 2925.54259315753 192 191 196
192.756024458423 452.861736618759 2932.74818057943 207 206 211
189.477030504527 453.375879334315 2938.7620986147 214 213 218
185.363074366564 453.933617798812 2944.18179369138 212 211 216
181.25391994682 454.490767376935 2949.59714547004 222 221 226
177.996569378446 455.001945724541 2955.59000943583 186 184 189
173.898726675752 455.557433405688 2960.99437413988 210 208 213
167.251144032534 456.249683735901 2964.65905120001 231 229 234
161.450002638843 456.896671769773 2968.90713649399 203 202 207
154.790474560069 457.59022162105 2972.58348347957 222 221 226
148.981214274702 458.238026779329 2976.83951018238 180 179 184
143.168764933515 458.88626345318 2981.09863988695 198 197 202
136.492105134134 459.581678185919 2984.79172329568 234 233 238
127.219573446485 460.419481288353 2986.79043512949 237 236 241
116.198843579058 461.354314061934 2987.67697402047 211 212 216
104.284945812708 462.340050855251 2988.02600892893 212 213 217
88.8658563455498 463.520893405959 2986.15860151195 217 218 220
86.4610732664639 463.985624365576 2992.72896542098 188 188 186
79.0606441529826 438.445520228069 2550.40876482342 190 190 188
76.5098937631428 439.006061864565 2558.52682497134 183 183 183
73.1939749951223 439.598864972254 2565.983031081 170 169 174
66.7566873503835 440.32887985269 2570.85054767458 169 168 173
63.4578028954618 440.918857373044 2578.29025608009 159 159 161
57.0218427340565 441.647951346279 2583.15625273079 164 164 166
50.58299083999 442.377190439561 2588.02543730809 162 162 164
43.3496383363221 443.142165960479 2592.26104374749 154 154 156
36.9026293414865 443.87175524442 2597.1382766884 155 155 157
31.247622703467 444.565081035108 2602.65130862724 153 154 156
27.1876238089761 445.18518732055 2609.42545258654 146 147 149
167.267645528711 439.588759664544 2738.96618786157 177 178 180
191.693454615973 438.859846526142 2767.24809241915 172 173 175
196.947996157115 439.010808205033 2780.42911542051 180 180 182
198.220017159974 439.343431799086 2790.45310620654 178 178 180
205.184619776375 439.40674167888 2804.78278681387 186 186 188
215.450988296082 439.310173289666 2821.52570796336 192 192 194
219.291076035608 439.511062061102 2833.26976881928 196 196 198
217.473151300501 439.976611713424 2840.67449987467 196 196 198
217.304171682431 440.362227242185 2849.28709907496 199 199 201
216.341087773283 440.78379800465 2857.26636993173 200 200 202
214.577740295361 441.242038098218 2864.61764747153 197 197 199
212.008430037558 441.737593992269 2871.34683338935 198 198 200
209.451621169362 442.231426465456 2878.06385996332 201 201 203
207.733302858046 442.683606619717 2885.37131853142 210 209 214
206.031312480216 443.133580956455 2892.66288923906 212 211 216
204.34583810435 443.581401181982 2899.93871553128 202 201 206
201.844539419779 444.067793448303 2906.60171933165 210 209 214
200.189490403479 444.511584720834 2913.84759042756 223 222 227
198.550746985071 444.953290929252 2921.07757799528 200 199 204
196.090565081157 445.434204927921 2927.70056191021 208 207 212
193.642819714103 445.913521619096 2934.31143224154 207 206 211
190.365623021167 446.43315773752 2940.32275364757 215 214 219
186.253676714744 446.99375514071 2945.74036822392 217 216 221
182.146156258835 447.55363072655 2951.15335670759 219 218 223
179.73831566429 448.027651427371 2957.72538375498 197 195 200
175.643976064692 448.585806388011 2963.12553776114 220 218 223
171.55448150823 449.143278547243 2968.52131932758 220 218 223
164.056403968368 449.873298886526 2971.60805868413 199 198 203
159.113097372185 450.473984621581 2976.42805412033 192 191 196
151.599119493665 451.205891513545 2979.53030391656 187 186 191
145.792306946603 451.851012895956 2983.78395879796 214 213 218
137.399557277144 452.629237414656 2986.33508693051 236 235 240
129.854927222979 453.364713656271 2989.46724724195 215 214 219
117.110492950929 454.369782803205 2989.22125054702 220 221 225
106.932141367276 455.244133843076 2990.69714384112 201 202 206
91.5190833178627 456.392284418203 2988.82857899687 213 214 216
84.7669173579582 457.091809216686 2992.59637151526 216 216 214
78.342907819867 430.612348489755 2550.8623176566 183 183 181
75.7898880849668 431.18423286822 2558.98095484541 187 187 189
73.253133584835 431.753801395678 2567.08378269741 171 170 175
69.9493232829531 432.35303883039 2574.52701393047 166 165 170
64.3017595577278 433.047490232584 2580.03248858199 164 164 166
57.080267211008 433.806547930283 2584.2571923619 157 157 159
49.8519723612016 434.566155309542 2588.48890772723 160 160 162
45.7812865855014 435.19419690823 2595.27215323972 155 155 157
38.5467898855114 435.95396695657 2599.51000309155 148 149 151
30.5101427316878 436.747754735358 2603.12212523658 130 131 133
25.6507871049081 437.407541378559 2609.26693034844 131 132 134
162.515255319058 432.459370080459 2736.23697066967 176 177 179
190.140076519137 431.694157939506 2767.01588684073 170 174 175
194.585382389521 431.9156182398 2779.57282600068 170 170 172
196.657914158608 432.235967471656 2790.22062122521 171 171 173
205.235660258539 432.270091561213 2805.78689663124 185 185 187
216.312048159071 432.189652448738 2823.13998197895 191 191 193
220.153900439874 432.420291382065 2834.87823140035 194 194 196
217.52302825466 432.932600881284 2841.66607304661 196 196 198
216.537392179053 433.370914899215 2849.66492605022 200 200 202
214.753619454208 433.84290451232 2857.03445398918 199 199 201
215.447334871807 434.202866702558 2866.21176082 200 200 202
212.057384533257 434.743498624638 2872.33194509231 203 203 205
211.973013398542 435.134533361419 2880.8600637033 206 206 208
208.608126625475 435.67175670961 2886.9562011123 212 211 216
205.251641326093 436.207727565567 2893.04384300955 192 191 196
202.733917250619 436.704682024413 2899.72159637846 205 204 209
201.060441293643 437.161970898227 2906.98377075929 210 209 214
201.071121026713 437.540610181041 2915.41933449613 198 197 202
199.434125865063 437.993182133295 2922.64598006686 183 182 187
196.975759237163 438.482270345352 2929.2659532407 213 212 217
193.690130901631 439.008794282209 2935.2849672179 213 212 217
191.254639310456 439.494910279178 2941.88266443421 210 209 214
187.144326160107 440.058322245156 2947.2979034293 220 219 224
183.884274316116 440.581356499142 2953.29203534592 197 196 201
181.480140741692 441.063342413361 2959.85920401247 214 212 217
177.38960022208 441.624025849754 2965.25521176842 214 212 217
174.154977972035 442.143660946381 2971.22425627431 212 210 215
166.662877333151 442.865307785801 2974.30663592146 228 227 232
161.72530732174 443.465624146155 2979.12098943759 196 195 200
152.5028416052 444.271287291416 2981.07473529361 207 206 211
146.698174005204 444.913766478198 2985.32698856822 225 224 229
137.446288841237 445.722873052545 2987.30943943312 217 216 221
129.038924629303 446.492384546599 2989.87636780362 186 185 190
116.292414977503 447.473845991312 2989.63558335754 207 208 212
106.979178340108 448.290320042851 2991.67820607457 202 203 207
93.3037527730276 449.321560589846 2990.93558221697 206 207 209
88.2966720610567 449.930109159046 2995.81774416945 224 224 222
77.1823206967217 450.839358173908 2996.80103185921 209 209 207
77.6252339813142 422.772606886765 2551.31644161289 183 183 181
73.5109820461739 423.413646179556 2558.14136575422 186 186 188
70.1866415632306 424.024169671707 2565.6033156862 173 172 177
68.4414835348304 424.574037145592 2574.33989766466 169 168 173
62.7897722330388 425.269247291021 2579.8493787791 166 166 168
57.1388719882231 425.964001376871 2585.35812190738 162 162 164
50.6995753045154 426.688461099183 2590.22845455631 160 160 162
46.6307909009616 427.321940453547 2597.00934612223 148 148 150
40.1909288794635 428.045806342075 2601.87999008633 150 151 153
32.1580087454119 428.831399354533 2605.48962242851 135 136 138
28.0994152779068 429.462709447083 2612.26071486024 138 139 141
157.76331790705 425.296635511488 2733.51223221723 170 171 173
185.375521145052 424.64369855245 2764.2870839883 174 178 179
192.223116116358 424.803283507693 2778.7187255028 170 170 172
195.903043807183 425.084380225554 2790.61031079723 172 172 174
204.478305904342 425.165019538678 2806.172177925 186 186 188
214.741672376856 425.171759691834 2822.90281119429 191 191 193
220.204223335554 425.366966226153 2835.87073839875 195 195 197
217.573104075121 425.887739415315 2842.65757446467 198 198 200
215.770925668178 426.37322394972 2850.04338497457 198 198 200
214.803255707896 426.822953821089 2858.02271010192 198 198 200
213.856035394106 427.26994522961 2865.98247101361 200 200 202
213.75114668335 427.680195741929 2874.52812379768 203 203 205
212.846107991516 428.121646649368 2882.44647877686 206 206 208
210.309086732452 428.629731726731 2889.14174943378 206 205 210
205.300263881697 429.2407112512 2894.0252820617 189 188 193
203.612272292979 429.71103412807 2901.29994425946 207 206 211
204.436578511399 430.073226390856 2910.34724289083 208 207 212
203.620787365055 430.502983960903 2918.17870200818 187 186 191
201.989473027672 430.965955378784 2925.39816939995 188 187 192
198.699050986437 431.498892067823 2931.42099579581 207 206 211
194.577335148667 432.066955324775 2936.8468703693 211 210 215
190.460318802705 432.634278714046 2942.26818763007 208 207 212
188.035146456893 433.127437895117 2948.85459670365 212 211 216
184.776955380339 433.655987030383 2954.84606575365 192 191 196
183.221962565806 434.108983094652 2961.9912190979 212 210 215
177.436657503221 434.747134323488 2966.22488475692 217 215 220
174.201940500774 435.272501341329 2972.1931761779 222 220 225
166.709825372092 435.986425091149 2975.2767116829 203 202 207
161.772209343226 436.587130550106 2980.09105338644 197 196 201
155.121110775259 437.264433254787 2983.76143106434 220 219 224
148.463040201764 437.942526438306 2987.43861521438 226 225 230
140.937045121685 438.660321550455 2990.5548839843 193 192 197
131.674605788279 439.457595559343 2992.54990198546 198 197 202
118.934096295821 440.414447698322 2992.3067965371 204 205 209
109.626761540111 441.217086644418 2994.34560342092 196 197 201
97.6945279486761 442.141432180729 2994.72158183372 200 201 203
96.1795050286525 442.588976622914 3001.82785022922 247 247 245
77.6854906276596 414.900279222523 2552.42013246309 184 184 184
75.1298667331533 415.494605206614 2560.53803876137 174 174 174
70.2463236146209 416.16594902499 2566.70549210665 170 170 172
67.7174478566807 416.756372262019 2574.79741393422 175 175 177
62.0636085431476 417.452086552446 2580.30893368337 157 157 159
57.9851361145862 418.093126385145 2587.09832816595 153 153 155
50.7582123921932 418.842372342935 2591.32987555306 156 156 158
45.1067411275883 419.536874086358 2596.83922300854 145 145 147
36.2836439999019 420.342519924058 2599.81363966983 137 137 139
27.4458388986512 421.149695606981 2602.80243545585 144 145 147
25.7661986654818 421.703067802625 2611.47343929877 148 149 151
161.821695683073 417.783149910952 2737.67791525484 170 174 175
183.82267230419 417.443547972348 2764.05910847646 179 183 184
189.861386752374 417.673708123238 2777.86697784905 171 172 174
192.728243136319 418.015143132201 2789.13978983783 175 175 177
203.721222833257 418.053485714509 2806.55814488208 186 186 188
214.792667130522 418.082025040435 2823.9000323353 187 187 189
219.442119305969 418.342910008485 2836.24842424781 190 190 192
219.252317827333 418.780818662017 2844.87430880443 194 194 196
217.453736365595 419.277024336944 2852.25496291467 193 193 195
217.30821892635 419.709084923947 2860.83773710722 193 193 195
215.546329202517 420.200445593501 2868.18300971099 198 198 200
214.622710708683 420.658184907665 2876.11740728881 200 200 202
212.895286281827 421.144918872681 2883.42880132611 201 201 203
211.184082687809 421.629548975154 2890.72439878658 186 185 190
207.833314778597 422.176284946488 2896.80510999351 198 197 202
206.981041388125 422.624604257051 2904.67039094344 206 205 210
206.148732252506 423.070419793981 2912.51587930782 204 203 208
204.502817518327 423.546406416488 2919.74792146789 185 184 189
201.201819438416 424.086484812656 2925.7801944853 200 199 204
198.746997251217 424.592050244844 2932.39421265119 200 199 204
196.30459088081 425.095962012806 2938.99614613832 205 204 209
193.032891994384 425.632094458281 2944.99956999127 207 206 211
188.082726135173 426.235178101919 2949.82602236721 199 198 203
184.824482823372 426.769453798437 2955.81669690433 198 197 202
182.421980956218 427.268099094401 2962.37978301209 212 210 215
179.182533754545 427.799900342836 2968.35182061435 215 213 218
174.249122615884 428.400547459181 2973.16199542278 218 216 221
168.463329964772 429.036283465586 2977.39650223323 175 174 179
161.819416793154 429.707743401965 2981.06094610694 205 204 209
156.025294846293 430.344365579877 2985.30325521345 222 221 226
148.510211377286 431.053148647042 2988.41002056859 223 222 227
142.706181559559 431.690888893944 2992.66234092922 180 179 184
133.447688318745 432.474574355681 2994.65544878345 202 201 206
122.440688957285 433.333742310319 2995.53919846423 207 208 212
110.540915143687 434.232989835733 2995.88699115484 199 200 204
97.7421648138481 435.173065907641 2995.70419921434 238 238 238
93.6154749673981 435.743748119611 3001.13496381356 229 229 227
76.9685043556709 407.050059389472 2552.87546017544 185 185 185
75.1899895852866 407.632289625346 2561.64038268971 181 181 181
71.0875842695358 408.282862634079 2568.4521338838 170 170 170
66.9937057972345 408.932124823403 2575.25561153483 167 167 169
62.908187627734 409.579992288671 2582.05065557921 162 160 163
58.8314064365014 410.226509405787 2588.83756109787 155 153 156
