ply
format ascii 1.0
comment KinectMotionCapture
element vertex 788
property float x
property float y
property float z
property uchar red
property uchar green
property uchar blue
end_header
33.807280686359 444.468541974853 2549.43771488336 148 150 147
22.4886409956722 443.440354429201 2549.87352328268 135 137 134
16.0193573648071 442.926605987623 2545.18119928018 163 165 162
13.6666163086057 442.850579709191 2536.06445326123 144 146 143
12.6545225907013 442.91784305508 2525.44992916342 129 129 127
8.19680482017215 442.618813571723 2518.51151541125 123 123 121
-1.03280134801498 441.811157714304 2516.75742146507 124 124 122
-5.50350025488955 441.51074802315 2509.80959041911 147 147 145
-4.58668902954518 441.785944255393 2496.88901953598 162 162 160
164.017321060988 442.628642309443 2958.77774216978 143 145 140
175.860711450572 443.917269616286 2940.19692858348 12 14 9
180.380191572775 444.482929539878 2927.4194072659 148 149 143
173.630915401949 443.933718105797 2923.75926217501 134 135 127
159.697891767037 442.672599897173 2926.00377790732 113 114 106
148.197212360386 441.651819701423 2926.30736487429 56 56 44
142.286008158333 441.185014488098 2922.01984233644 54 52 40
140.334144261129 441.111242639594 2914.42874877353 56 54 42
132.040765119743 440.408133813396 2912.11854422426 57 54 45
121.396798630586 439.471205641746 2911.80856876611 59 59 51
111.563614226831 438.614408584562 2910.85171579531 48 49 41
108.017629486238 438.382682760849 2904.57457768019 6 7 2
103.676653567606 438.072119998226 2898.95577079872 1 3 0
98.5470470094025 437.683230993666 2894.00020310478 110 112 109
94.1888325165703 437.371316522143 2888.36889276631 217 219 216
87.4975108030598 436.826939046592 2884.75049010627 216 218 217
81.581822464968 436.359890055871 2880.45971568773 203 204 206
74.1249857413413 435.738954410486 2877.52131818396 192 193 195
69.7476093290415 435.425487609787 2871.87610909828 171 172 174
65.3603202673199 435.111213196359 2866.22400450779 169 170 172
64.0174382727334 435.101627667728 2857.83966340956 166 167 169
58.0792701001678 434.632682879943 2853.53258327669 152 153 155
52.8991613606609 434.239657827619 2848.54038452385 152 153 155
45.4430032485456 433.618602503465 2845.60218387682 143 144 146
40.2586136835059 433.225155976764 2840.60687972735 141 142 144
34.3163613938207 432.755730970406 2836.29683649841 144 145 147
29.1233105856166 432.361493170693 2831.29524962097 142 143 145
22.4286866370695 431.816489714385 2827.67444992957 147 149 148
17.2291419596458 431.421621287166 2822.6681523135 156 158 155
12.7680080115553 431.101085408855 2816.96218979637 167 169 168
6.81378234053032 430.63042157791 2812.64346053289 184 186 185
0.858596234764253 430.159635133179 2808.32403440869 196 198 195
-5.0976441210111 429.688673666716 2804.00384314965 223 225 222
-6.64541779555972 429.662205843869 2795.47088618787 229 231 230
-9.68618690198975 429.485617869037 2788.32523232266 226 228 227
-14.2066163322037 429.159919932501 2782.57625909828 227 229 226
-16.5520339030578 429.054141782188 2774.70000243728 223 225 224
-23.2772396190368 428.505958871833 2771.05701726545 230 232 231
-29.2751973882659 428.031169751021 2766.70656477528 219 221 220
-35.9960539494815 427.483140425728 2763.06702765352 187 189 188
-35.5182956223334 427.664173776134 2752.29806873649 183 185 184
-35.7984930098367 427.769161369842 2742.21430298878 214 216 215
-37.5454619601092 427.726088916028 2733.53715549187 220 222 219
-40.0326710993042 427.60835069443 2725.55775603986 207 209 208
-41.8323548267314 427.560833101906 2716.84207748348 173 175 174
-38.7001246240946 428.015140891773 2703.05834507332 150 152 151
-27.8571668772278 429.254950162008 2681.28197598264 178 180 179
-10.7844443149099 431.131090249439 2652.90870640364 190 192 189
2.63236043483728 432.638080165537 2628.05879178577 131 133 130
80.0062348769264 440.815098605192 2524.85897304902 203 205 202
51.1726491457822 438.021227907987 2543.46685681203 206 208 205
37.7263207725522 436.795758647028 2546.06436889507 160 162 159
25.0138404094828 435.644143174587 2547.95920051657 169 171 168
19.2265582816198 435.199843850461 2542.52629462547 124 126 123
16.1792931037676 435.03601334045 2534.14095960934 138 140 137
13.7932132310628 434.940259258746 2524.99994564561 139 139 137
8.65168270337113 434.562497700003 2518.8004592682 142 142 140
1.46076168698883 433.97456572517 2514.81996027643 134 134 132
-1.66103080739388 433.804134682701 2506.38027090803 152 152 150
171.699600836141 436.018993775448 2953.19709846001 137 139 134
182.721356340116 437.168684563568 2935.25529157594 45 46 40
172.769101149298 436.315344853775 2934.21184468563 56 53 44
166.842622981393 435.846645096909 2929.91324012773 49 46 37
152.927857667695 434.613816052994 2932.17113499694 54 50 39
145.428670243017 433.994363457315 2929.2020440781 48 45 28
137.14305660821 433.299471188282 2926.89751052876 47 44 27
134.415090293123 433.136872403138 2919.97868494055 48 45 28
125.348873581086 432.36705700732 2918.34293269042 60 57 42
115.511683722342 431.523083680531 2917.38294655752 57 55 43
105.695301361 430.680731671692 2916.43834691286 44 44 32
102.950766382773 430.516910127685 2909.50750415363 19 20 12
104.093959146159 430.726743750227 2899.22107873955 12 15 8
99.7436377319034 430.409419644808 2893.59546286133 8 10 5
93.8299522445463 429.942010148949 2889.306138526 5 10 4
85.591278847359 429.250950434564 2887.03565236931 5 10 6
81.9996003735093 429.006874991617 2880.72532733854 38 42 41
75.312594539743 428.464993350228 2877.11036047075 64 68 67
73.2375250561268 428.367320166256 2869.42983148393 131 135 134
65.7783938840675 427.751127509713 2866.4897947097 147 151 150
61.3818046190375 427.430055192387 2860.83061929361 155 159 158
54.6908541531614 426.88779424799 2857.21279095657 167 171 170
50.2812655960305 426.565668843031 2851.54418674213 176 180 179
45.1047127272242 426.169571266286 2846.5545501529 156 160 159
37.6582019077221 425.55419647327 2843.62337180719 164 168 167
30.9718824902485 425.012146399948 2840.00890168407 169 173 172
25.039581189445 424.542930096515 2835.70607319646 166 170 169
20.60284845862 424.218426479321 2830.0177795451 159 164 160
15.4100331303253 423.820817294594 2825.01634629535 157 162 156
11.6995447017527 423.566877945047 2818.61984343024 153 158 154
5.74977730330328 423.096052525518 2814.30434524521 145 150 146
2.01743658262199 422.84023834493 2807.89199169082 143 148 142
-4.67830405546188 422.297056226403 2804.27039171277 143 148 142
-4.0198511792644 422.467814679509 2793.63237008618 148 153 149
-7.06667706241948 422.279235353791 2786.48226479571 168 173 169
-10.1321344389913 422.089131733367 2779.3186454172 194 199 193
-16.1301952415427 421.614020610677 2774.96811660497 217 222 218
-22.1293343668663 421.138732516094 2770.61680519715 234 239 235
-28.8535523986719 420.592795332473 2766.97454739371 236 241 237
-35.5746531129431 420.04698662113 2763.33484452804 209 214 210
-37.9741589332396 419.922298613934 2755.41898788154 194 199 195
-38.9620151089956 419.93563983418 2746.05709207531 208 213 209
-42.8427272777245 419.667133793694 2739.53711660505 211 216 210
-43.1725148669921 419.745546160201 2729.41756173003 203 205 202
-44.249338575945 419.751490428241 2719.99083951629 190 192 189
-40.3977555644222 420.239763741422 2705.49371672191 185 187 184
-32.370273896698 421.137589136324 2686.6150577143 189 191 188
-18.7983416016255 422.579638871789 2661.87756390683 187 189 186
48.8470173126401 429.680426417178 2546.67914985466 208 210 207
38.1806640580105 428.75473869148 2546.35300268754 178 180 179
29.6127134875199 428.034569293384 2543.84366903451 131 133 132
22.4345765374432 427.450604995015 2539.87216310527 108 110 109
18.0060626395973 427.136884491799 2532.95484545074 145 147 146
14.2476055642891 426.889206315661 2525.28856417479 160 162 161
9.78836560260898 426.572727811439 2518.34895857104 132 134 131
5.31488364302213 426.254931251064 2511.39902196285 127 129 126
5.57126096777116 426.403637668029 2499.23437886118 161 163 158
181.807189517976 429.583091821454 2945.67038310844 167 169 164
177.501997480404 429.263016174663 2940.07746854138 28 27 22
170.777417687866 428.720111554916 2936.4349638504 53 50 41
162.45430946387 428.029829014352 2934.10327302237 71 67 56
154.143621135137 427.340582495723 2931.78059088911 71 65 53
143.455050621414 426.43179473842 2931.43842355841 77 71 55
136.76474466677 425.891771233452 2927.82077929737 67 62 43
126.116232881452 424.98619880799 2927.50766768007 54 51 34
118.653748884645 424.37464846405 2924.56522388585 58 55 40
106.471705576211 423.326863618113 2925.60977546471 37 35 22
101.395526755709 422.935581676941 2920.69292655734 24 25 11
92.3962854855223 422.18155759078 2919.10580622043 23 25 14
131.85905298815 425.911448680142 2876.09467611401 25 28 21
125.094595047814 425.36565243505 2872.42354273302 27 30 23
97.3550917330224 422.877450867517 2886.88536299208 26 31 25
79.0349089496085 421.260208631041 2893.35853832185 27 32 26
78.5537632754938 421.295376480378 2884.36407832818 24 29 25
78.0410308350801 421.328045193194 2875.3467077549 28 33 29
69.0462703998858 420.574324360825 2873.76283720695 32 37 33
61.5999168049113 419.964050887417 2870.83209315286 30 35 31
55.6891563606423 419.496221170702 2866.54488711519 31 36 32
49.7773391905794 419.028261039552 2862.25691437386 33 38 34
48.4211696506054 418.983604840713 2853.86276321055 41 46 42
45.5230069059747 418.79592666562 2846.82043156634 35 40 36
35.0560721544482 417.904605567909 2846.63872672464 42 47 43
26.8728905098503 417.22537485766 2844.40852763989 39 44 40
19.4524067424693 416.616913345673 2841.49654635386 36 41 37
18.0272496148772 416.566578767143 2833.0523558539 32 37 31
16.5746503625557 416.514006134513 2824.5882606359 29 34 28
15.0946081602434 416.45921031688 2816.10426017693 28 33 27
9.13601086911076 415.987146819187 2811.78235474314 32 37 31
3.17635850270737 415.514923168861 2807.45968365157 32 37 31
-4.99673844483017 414.836106160789 2805.23679727442 23 28 22
-2.1292184295576 415.187857010521 2792.49598243534 30 35 29
-3.71363270553382 415.124471467347 2783.9362769241 29 34 28
-8.24890396067635 414.785607478478 2778.17647785543 28 33 27
-14.2513901655161 414.30963002642 2773.82273658651 23 28 22
-22.4342881688795 413.629645624677 2771.59273930175 14 19 13
-26.983986199254 413.289399225193 2765.82276943068 14 19 13
-37.319537181608 412.407511865761 2765.73635527087 13 18 11
-40.4316896003254 412.201751342896 2758.53880635449 9 14 8
-42.8449643379827 412.061649614477 2750.61318472943 6 11 5
-43.8504324043505 412.053788872341 2741.23841429572 16 21 15
-45.6009912549333 411.976406071391 2732.55819613778 14 16 11
-43.8239468533146 412.230360697782 2720.26111904949 15 17 12
-39.2614947204486 412.746430765928 2705.04442461871 28 30 25
-31.9397428653654 413.522555198949 2686.88858719874 168 170 167
-23.2942709485111 414.42420863922 2667.22290527189 190 192 189
-13.3380586929577 415.450329226044 2646.03766970437 184 186 183
58.5992521947052 422.40318148755 2548.7714513696 207 209 206
49.3020599836038 421.622884210939 2546.96820695815 183 185 182
42.1014631613081 421.039714204355 2542.98042341147 120 122 121
33.5219361149246 420.32640355049 2540.4627324649 109 111 110
25.643432526568 419.678865779121 2537.21852490705 124 125 127
19.1462572205587 419.161394077328 2532.50596277495 102 103 105
13.3325787504801 418.708305278085 2527.05417156866 146 148 147
8.87812729039261 418.383536906738 2520.11799526209 143 145 142
6.44968575124638 418.2502522751 2510.94608232268 155 157 154
11.4505093451518 418.819610059344 2493.57707489669 160 162 157
184.647680973957 422.436551439859 2943.98791298341 80 82 77
175.502420162531 421.681048758384 2942.29493247547 30 31 25
170.391236772472 421.283495787322 2937.35267624459 59 56 47
165.275086588423 420.885589835993 2932.40652321381 63 61 49
156.158087578361 420.132461713759 2930.73433679344 59 55 44
145.464542112829 419.239152426342 2930.38834693848 68 62 46
133.206838753812 418.206666788646 2931.37842290254 59 54 35
123.361074197808 417.388226350621 2930.41235011771 54 51 34
111.955672924057 416.430965469598 2930.78532797441 58 56 41
105.308727220464 415.89663070021 2927.1994397763 32 33 19
102.59502412082 415.71222047522 2920.29054894109 22 22 10
135.407038983739 418.748071891978 2873.6899619705 24 27 20
162.145321603734 421.187975229769 2841.21010562872 25 28 21
96.2182050540137 415.375324015342 2888.49357756 21 26 20
36.8276788425685 410.141781185028 2930.63732015872 22 27 21
51.1507044250918 411.475531800144 2908.91383460645 21 26 22
59.1943043541598 412.250563737562 2892.5163113558 23 28 24
68.694551495553 413.156277345245 2874.70533142577 27 32 28
56.6531376469528 412.140955107132 2875.85228720778 27 32 28
35.4781914547275 410.310132036436 2885.19534278363 24 29 25
34.9581759896167 410.322405668293 2876.17258928521 24 29 25
33.6468119486319 410.264277547459 2867.81085034638 23 28 24
25.4915613587787 409.595031452254 2865.60094965334 28 33 29
27.921235105564 409.871491539861 2853.77709149975 36 41 37
18.2534465016087 409.067016482606 2852.9404024952 32 37 33
16.8654829282802 409.002682945389 2844.52310348899 31 36 32
15.450029909958 408.936092584649 2836.0858653662 34 39 33
9.52877098481775 408.466590896443 2831.79104028683 33 38 32
14.7692846510252 408.996129303003 2817.06595535192 33 38 32
3.6188642799897 408.058613625546 2817.6238743199 41 46 40
-3.80288967558529 407.454739103643 2814.71099548135 46 51 45
-13.4295417459667 406.653138127384 2813.90384730864 49 54 48
-17.1521461721758 406.380488269749 2807.49846652587 53 58 52
-15.0236157128774 406.63251794314 2795.45647390863 47 52 46
-13.6755031444602 406.815001499319 2784.08342407175 55 60 54
-20.3891666861837 406.274519620871 2780.44884507561 64 69 63
-14.0209911683769 406.908122664012 2764.0713856549 49 54 48
-26.5628496655999 405.844501412095 2766.09035041627 36 41 35
-36.8993542456302 404.978488399272 2766.00332537985 28 33 26
-48.6506968105502 403.985022215186 2767.36067073105 28 33 27
-49.6012247604423 403.961896776181 2758.02565024155 29 34 28
-40.1840562959162 404.934465143105 2727.80353371516 24 26 21
-56.199884227472 403.556835322662 2733.47803100312 16 18 13
-36.7073585316469 405.374713510954 2703.15322888413 16 18 13
-29.3893666100846 406.097899046242 2684.99439766214 16 18 15
-21.45174373429 406.87769477945 2666.05000025508 12 14 11
5.35953669725942 409.359062310412 2627.44779398604 79 81 78
73.9702137849534 415.610524214064 2545.05816585223 214 214 212
61.846255381151 414.586319361208 2546.14523833239 199 201 198
52.5395022199686 413.81577738844 2544.33511239672 155 157 154
41.1688171559272 412.85865537184 2544.73325747809 132 134 133
33.2843460296921 412.215816939318 2541.48474772776 122 124 123
25.4078459116807 411.573479465397 2538.24172439184 124 125 127
20.286473911808 411.179841456794 2532.05706542112 116 117 119
13.7860087496868 410.661520737767 2527.34211410167 147 149 148
7.96711503448 410.204713177295 2521.88622893961 161 163 160
5.54377843374487 410.05491508937 2512.7182275121 160 162 159
13.2637736164596 410.823109975468 2492.38067727912 153 155 150
197.184525018045 416.100493237555 2934.51702357346 7 9 4
182.365477084058 414.871486017976 2937.35444066036 30 31 26
177.23690130919 414.469253095896 2932.39955261368 29 29 21
171.301941540594 413.998268087729 2928.09478798719 33 30 21
160.5707384931 413.117825265376 2927.72185899562 46 42 31
146.677091119116 411.96719686511 2929.99547907247 51 48 33
130.44192253605 410.616327740137 2934.27607056018 48 45 30
118.22622438735 409.608533304672 2935.29642758642 40 38 23
110.787365597352 409.008739659513 2932.3711697588 45 43 30
110.450782265618 409.015874097731 2923.48136409748 33 33 21
110.082754953641 409.020550838599 2914.56875157511 25 25 13
114.386308948785 409.42482535893 2901.63388335105 26 27 19
122.540521133642 410.158752805518 2885.31633708286 25 28 21
123.599203562911 410.2862940683 2874.96852597404 24 27 20
104.407909088257 408.681684612402 2882.04531446511 20 25 19
37.2337572562733 402.970806169175 2930.89537266478 22 27 21
43.8317407715783 403.571603545928 2915.91937642782 17 22 16
77.3337429400382 406.475926638706 2877.22882401541 19 24 18
75.2586832038453 406.33547309513 2869.54837988077 26 31 25
33.3119347590145 402.780579435455 2897.17312475861 28 33 27
25.9562817542323 402.187339687412 2894.30821777718 27 32 26
16.3228069952828 401.398874798946 2893.4961902288 26 31 25
22.6646389801783 401.979234700083 2878.33440076106 23 28 22
16.8144692602272 401.515014079785 2874.0911365133 30 35 29
9.45256270122652 400.92117064041 2871.22169313914 34 39 33
15.6551985422344 401.490388525116 2855.9589409796 25 30 24
9.02027372352743 400.958958897082 2852.38148721558 24 29 23
-7.34523399832243 399.592718705435 2857.80284632876 20 25 19
-16.9309779723232 398.807784483898 2857.02543772853 24 29 23
-7.14287820091397 399.685420935966 2838.18794946756 29 34 28
-2.64326673914583 400.10961666124 2824.16027176076 30 35 29
-7.08558528687764 399.766378923133 2818.46783393951 32 37 31
-27.7683774097872 398.028388712879 2828.16813272003 43 48 42
-38.8020455942122 397.118642743951 2828.81082849875 33 38 32
-38.0723610447704 397.219356855509 2818.22408944385 54 59 53
-46.2115860920085 396.596271273535 2806.14515783311 50 55 49
-28.1336449207545 398.188959927517 2778.49915693876 46 51 45
-57.2352248001702 396.037353680692 2714.16238104667 19 21 16
-14.6761798197501 399.744810836082 2659.80940857718 45 47 44
-0.522413740868588 401.005630519382 2634.2577439014 24 26 23
73.7267401469186 407.448663790632 2546.07565629014 19 19 17
66.4903437161937 406.867447801501 2542.06193074079 194 196 193
55.7778511068769 405.986235532374 2541.70256144775 147 149 146
42.3161668894028 404.867524158693 2544.28948250133 132 134 133
33.737755537536 404.169837280477 2541.77267948303 116 118 117
25.171484285651 403.472999462166 2539.26468138295 117 118 120
19.3657283663167 403.014313826777 2533.81831057667 121 122 124
12.8696202341487 402.495912933108 2529.10651735512 153 155 154
9.78542227864798 402.272109792481 2520.69410520708 140 142 139
8.03900642410627 402.163926812871 2510.78169775721 142 144 141
203.260387462422 409.152745277905 2930.24050885314 34 36 31
193.259925263743 408.34811505051 2929.1626568742 31 32 27
185.692047258464 407.742810320356 2926.14354787226 27 28 20
173.322498248686 406.744025573335 2927.05271523883 30 30 20
160.987560543321 405.748049305545 2927.98669282709 40 38 26
147.09238285398 404.624121905691 2930.25933879151 35 33 20
131.650206025658 403.373301093929 2933.88025706076 40 38 25
124.188007863239 402.776550141645 2930.9378009588 35 33 20
116.733517901393 402.180426529972 2928.00123035057 38 36 24
117.171328237856 402.231366935885 2918.43768996534 28 28 18
109.710674823382 401.634758951766 2915.49664888532 16 16 6
104.610097991865 401.231702513916 2910.56205369894 22 23 15
108.104543579524 401.533532767799 2898.27516325186 20 23 16
116.22318867661 402.214777836082 2881.93186127308 19 22 15
90.0540823704796 400.083768664724 2895.06383182916 16 21 14
62.4477059792103 397.83456576873 2909.62336921154 14 19 13
57.3820379553074 397.434277589795 2904.71409418656 24 27 20
84.6874266315565 399.689928110901 2871.40937522157 22 25 18
69.5261946643697 398.461490676833 2875.23377531551 17 20 13
36.7874350333297 395.790442453432 2894.71674166261 16 19 12
30.1870458401186 395.264148072984 2891.16434952157 19 22 15
35.0213589869037 395.6763560404 2877.37924348877 21 24 17
27.6348616492244 395.085538954184 2874.49198906343 20 23 16
17.2255720994969 394.246540921289 2874.35233748537 29 32 25
15.9072353818503 394.153804319601 2865.98566308266 31 34 27
5.52221654157803 393.316675401147 2865.86361532727 21 24 17
-4.83761190787413 392.481492991981 2865.76013296026 20 23 16
-6.18527086635567 392.386318327559 2857.37189541311 29 31 26
-4.5736008086017 392.534225300653 2846.18972888764 29 31 26
-12.6854840184796 391.883518016394 2844.01136003658 26 28 23
-16.3314372960137 391.599587754742 2837.66148816983 27 29 24
-20.7318177238183 391.253678897237 2831.99973313399 30 32 27
-35.472577759688 390.058124438491 2836.12910886301 42 44 39
-38.3904254955958 389.833879023753 2829.07232192824 44 46 41
-35.4590725480748 390.09030448775 2816.37729810214 50 52 47
-27.4623292101064 390.763118239326 2798.71025312417 50 52 47
-8.32887822472417 392.383186547575 2749.59712631541 35 37 32
-68.7024047788207 387.450716097412 2788.55972272003 30 35 28
69.2800487568848 398.945898876443 2551.45493198228 184 184 182
63.4554421976818 398.48310220899 2545.99487512167 187 189 186
53.448976927478 397.67596931209 2544.91265871155 152 154 151
39.994492555055 396.584815538713 2547.50493867114 119 121 120
32.1159407757907 395.952523472171 2544.26077340118 108 110 109
24.9346250383833 395.37747233221 2540.28700824807 134 135 137
21.1925774710711 395.085524042277 2532.63239833781 136 137 139
16.7469008578784 394.735537715595 2525.70245537111 149 151 150
15.7008384196158 394.665461336629 2515.0626109702 137 139 136
15.9794336804771 394.704455823143 2502.91351841202 137 139 136
195.59724672823 401.087340203035 2936.9957314517 11 16 10
193.678816181592 400.930607088199 2929.42874869996 22 24 19
182.895108326857 400.077661738284 2929.01760265621 32 33 25
169.731610511668 399.037897523316 2930.58604865014 33 35 24
159.00529869117 398.189574910765 2930.2168281086 29 29 19
149.102033759044 397.4059520269 2929.20924843178 32 32 22
138.424590060371 396.561580809233 2928.87547344923 32 32 20
125.393642243286 395.532457538652 2930.54006166404 33 33 23
117.936761541955 394.941069115172 2927.60178194239 33 33 23
111.276399956636 394.412223906994 2924.005901614 28 29 21
107.7650534029 394.130632521643 2917.75362088084 24 25 17
89.340112641561 392.67818318865 2924.15168962532 22 23 15
96.7901791767876 393.257166509866 2908.55823943217 20 23 16
112.742704048879 394.503553872595 2885.54520244263 20 23 16
94.3566677612062 393.054203960006 2891.9714895695 19 22 15
62.8579423944808 390.575603834589 2909.88399027058 17 22 15
60.8851867763134 390.414775970162 2902.27760537443 25 28 21
70.4551302010716 391.159947973736 2884.51604211571 25 28 19
64.5596104160386 390.691127463273 2880.23987933861 27 30 21
46.3968941235158 389.259488094005 2886.82814560324 28 31 22
44.3565397106389 389.093228781184 2879.17272938681 27 30 21
36.195391708461 388.446588446407 2876.95866803635 26 29 20
29.566572457592 387.920171563482 2873.38566571929 22 25 16
19.1517404550994 387.09660433939 2873.24236893605 22 25 16
17.830148070106 386.986626390446 2864.87295262276 30 33 24
4.42586975226611 385.928470809911 2867.50179516512 21 24 15
3.08458914806264 385.816838151827 2859.11809806013 22 25 16
3.96310221996687 385.879312209071 2848.6390542839 19 22 15
14.5098995824235 386.700251484902 2829.11623828652 20 23 16
7.83198179786737 386.16967784174 2825.50762233976 21 24 17
-7.75225692796711 384.940336297774 2830.26070233368 21 24 17
-24.7610125422777 383.599251353982 2836.45092136751 22 25 18
-35.8001675772655 382.726497857163 2837.08982698533 25 28 21
-29.1490609159237 383.241353956493 2820.91686891193 25 28 21
-22.573743530389 383.75012713267 2804.68864428685 27 30 23
-12.4172959255482 384.539622956275 2784.8826961524 27 30 23
-21.3192928908599 383.834169749432 2783.36631630847 26 29 22
-13.4825446076712 384.441440091908 2765.58295551054 29 32 25
-56.4701525175608 381.062728737989 2797.39478701807 20 25 18
-63.1016935089117 380.535247482342 2793.81980626199 19 25 15
-58.2027904054543 380.911870760572 2778.84601151752 19 24 17
-62.7083207021961 380.550909111232 2773.10795485232 18 23 16
15.8163046986579 386.648431295734 2618.85644035767 2 4 0
65.5314357208723 390.535829290463 2556.10569246189 163 163 161
63.2120068040507 390.344515099799 2547.01251116769 198 200 197
53.9031520747106 389.605302803134 2545.20102045139 172 174 171
41.8350786703052 388.64979469357 2546.32865864578 133 135 134
35.3352938672913 388.130543318269 2541.61419581922 121 123 122
28.8344797122928 387.6111040023 2536.89898584147 158 159 161
25.081894945894 387.306853673141 2529.23667497847 166 167 169
21.3106587396235 387.001002753622 2521.56083518135 144 146 145
23.6670252228386 387.17502678212 2507.21324291072 139 141 138
24.603429108752 387.237594211422 2494.30609263558 139 141 138
176.612414443361 392.225508623543 2952.83127488792 0 2 0
171.522422433232 391.81646900743 2947.90432255848 40 42 37
170.447766559236 391.709102751594 2939.71392902063 39 40 32
163.732839700259 391.177968411536 2936.078776043 24 25 17
161.02019538553 390.947469458765 2929.17041929508 34 34 24
151.111635727195 390.176556704795 2928.15936021458 33 33 23
145.20074197158 389.705900761084 2923.87204322127 33 33 23
127.392509136881 388.34215827775 2929.48229491442 36 36 26
119.930975681591 387.75530685811 2926.54066529296 36 36 28
105.378868952018 386.636397975425 2929.57215142553 27 28 20
96.3796971523081 385.934366994743 2927.9856392816 23 24 16
81.122686104814 384.762970022564 2931.74089599739 26 27 19
81.5601900661118 384.768983553978 2922.17720042781 24 27 20
96.0009198193821 385.824931640428 2900.53763401628 24 27 20
90.1048515848206 385.355536473077 2896.26107074565 21 24 17
60.1654719976801 383.083736619066 2912.83465422916 18 23 16
46.6018175714251 382.039942847972 2915.34803437468 18 21 12
49.2757480627 382.213158426899 2903.7010146711 18 21 12
45.7486613077895 381.921517036857 2897.43727262495 18 21 12
55.2427550750041 382.605239425756 2879.62070755338 18 21 12
51.6498986427525 382.308322234203 2873.30926094156 17 20 11
36.6069681530923 381.153897666259 2877.22008966802 16 19 10
22.3759728225694 380.06047962965 2880.48448542278 15 18 9
20.3201835553095 379.878668745729 2872.81780137924 20 23 14
22.0206860710923 379.977841569214 2861.69949007327 26 29 20
11.618267043934 379.17111951356 2861.56527704485 18 21 12
12.5122369800907 379.209629281601 2851.09761137257 22 25 16
13.3657103743721 379.24487789165 2840.60027789741 31 34 27
17.1665809528658 379.500308079601 2827.30024981094 30 33 26
4.52321961939628 378.525838916744 2829.24608457304 29 32 25
-14.7649959525178 377.054770789555 2837.48832593467 22 25 18
-22.8690082394882 376.419965682613 2835.31574343126 20 23 16
-29.4843498959634 375.896440417573 2831.75252595662 20 23 16
-17.6962176690125 376.747848183888 2810.65936668739 22 25 18
-14.0866516887483 376.987750693986 2797.22057916427 25 28 21
-11.9987335487104 377.113657032559 2785.14850697054 25 28 21
-9.96016948949441 377.235562249773 2773.04034220686 24 27 20
-27.6058050525532 375.887677664736 2780.00387556182 25 28 21
-64.7570842657832 373.084226436842 2806.16832363628 31 37 27
-67.025722156576 372.88468702216 2798.34725128462 29 35 25
-51.3024679232754 374.02725779422 2772.69741200625 27 32 25
-39.3044523634059 374.891190430774 2750.5211339789 21 26 19
-76.1184582756345 372.114375047765 2776.93021358282 19 24 17
-53.0909200128973 373.768341766675 2733.1105331829 9 12 5
38.0493074070487 380.425925288677 2596.6530200017 14 16 11
61.0798555265131 382.105899310076 2561.48179307873 156 157 152
61.5708605374632 382.1069204739 2549.48648853908 154 156 153
53.6607058575234 381.482348733747 2546.21915827993 155 157 154
42.9817268129282 380.651698765109 2545.88433979319 198 200 199
37.1715118375322 380.183260071912 2540.43498159787 181 183 182
32.0456418376391 379.765573829996 2534.24664564488 124 125 127
31.0347434855389 379.65367558676 2523.6323750815 126 127 129
27.2465356729019 379.335035818752 2515.94387294968 134 136 135
28.9039278743295 379.420835359255 2502.32446353713 151 153 150
26.4222619078218 379.198708924904 2493.11351707321 152 154 151
157.421060015558 383.433265264449 2959.87161313495 1 6 0
164.428700870579 383.888946928305 2945.19214568341 20 23 16
165.751666997282 383.936495037218 2935.03521980884 27 30 21
165.434520499657 383.866163008264 2926.15911194044 45 47 36
156.312090474191 383.164613949893 2924.48295524221 36 37 31
137.660838201723 381.780593816215 2930.71731254993 33 34 28
120.665490286209 380.51573312686 2935.6823060954 26 27 21
115.596615710218 380.10525277217 2930.77065494701 24 25 19
93.9560960818087 378.50868931161 2939.77739297424 23 24 18
91.2828468077618 378.269928810316 2932.89784716269 23 24 18
73.6858659187778 376.963574889952 2938.66153058402 27 30 23
67.8882459272683 376.501453138385 2934.45637138706 28 31 24
62.8697328096788 376.095030219541 2929.58124888634 30 33 26
71.0705994168395 376.633170447966 2913.29653170366 31 34 27
53.5925515594275 375.336297492423 2919.14677471771 27 30 23
40.8206774472561 374.376039281112 2920.99951980521 29 32 25
33.4867507476351 373.804279642677 2918.15017701002 28 31 24
36.1592481049153 373.946678268736 2906.50196230309 26 29 22
54.1212710159273 375.179368717545 2881.24047406161 25 28 21
58.1807165529105 375.41941465323 2868.12781455654 23 26 19
30.917732215332 373.425997806025 2882.93757977375 23 26 19
20.504367330636 372.63437795238 2882.79550835524 18 21 14
15.4233646209558 372.222832935858 2877.87505987118 25 28 21
13.3609449763687 372.026203255198 2870.20319978847 30 33 26
15.7978588461094 372.149651415048 2858.38410959597 19 22 15
16.682384989323 372.162166414175 2847.90917177099 22 25 18
10.7819327557297 371.691594616551 2843.62942448604 17 20 13
11.6049280910704 371.699139869983 2833.10985649256 19 22 15
-0.277270610425262 370.803059825446 2834.37283471774 23 26 19
-12.1252386327786 369.909675277502 2835.66034666895 25 28 21
-16.5335278290459 369.545060685432 2829.99276364984 27 30 23
-17.2596376591967 369.441781874677 2820.81972817501 32 35 28
-16.5455853693075 369.44040733316 2810.22143433942 28 31 24
-27.6155427238143 368.602431177646 2810.83818685256 31 34 27
-43.7780764881923 367.403424639332 2816.40723871359 31 34 27
-10.9995160707084 369.675163490014 2774.71897051458 30 33 26
-19.9148226718633 368.989497581691 2773.19304245816 29 32 25
-65.0715958011185 365.736109596516 2807.13843895808 28 34 24
-67.337116663317 365.522578373566 2799.31926085868 28 34 24
-41.5166414498203 367.297199375977 2763.70062329637 26 32 22
-52.5369098729467 366.462763159553 2764.35341430676 24 29 22
-32.00850989753 367.860334040765 2733.54237399113 23 28 21
-57.3489157198488 366.012793017191 2748.51155966452 25 28 21
-42.7031733198047 366.992693367034 2723.31482173441 29 32 25
-45.2198138198288 366.75868422927 2715.31349792572 27 30 23
12.4502179071651 370.716522232497 2634.86232129243 22 24 19
37.0888028517813 372.396083996187 2598.38642475764 0 1 0
60.1303463321203 373.961072744474 2563.22229170632 145 146 141
65.5180444847061 374.279429879893 2546.13246653646 164 166 163
55.5069032861546 373.511670221684 2545.0470598793 111 113 110
46.9053419657133 372.843331549252 2542.51362360919 119 121 120
41.0843704707258 372.370807337541 2537.05615261228 137 139 138
37.3273161485268 372.043395191043 2529.39048435372 120 121 123
34.239301460238 371.76279218483 2520.97472319509 132 133 135
29.0716959566097 371.335596583031 2514.75637859501 138 140 139
29.3601368846539 371.291739869141 2502.61400371342 148 150 147
137.810549647999 374.838203774578 2985.13611688416 10 16 12
194.933067481303 378.676400909098 2930.22526029256 42 47 41
181.733652888093 377.7059618847 2931.76772611634 32 35 28
167.770534256296 376.683845338848 2933.99163593369 28 31 22
151.450527299715 375.501354373367 2938.21157914248 26 27 19
137.580140252618 374.486690376233 2940.50274981319 21 22 16
134.095578133483 374.180847126524 2934.26976284782 24 25 20
128.216861814314 373.711632909622 2930.00577926752 30 31 26
119.963537140897 373.080653560946 2927.72497640691 30 31 25
99.8870141075168 371.644654918306 2935.39622897728 24 27 20
87.7571387554545 370.750493136496 2936.47937635214 22 25 18
79.5845101104247 370.125976386299 2934.25710449899 23 26 19
77.683694103809 369.928095309346 2926.70268248068 23 26 19
66.397018859035 369.092001731683 2927.1623411058 24 27 20
68.3672575489172 369.156899769479 2916.23968817737 26 29 22
65.6376320310121 368.902113396745 2909.3188983723 27 30 21
48.9629399764557 367.700669266779 2914.51695788892 33 34 28
33.1203700544047 366.55638554308 2919.08319892026 32 33 27
45.0283168506034 367.29427981873 2899.31135745025 29 30 24
43.0266742439813 367.088317388049 2891.68350866718 29 30 24
41.7668319020597 366.932305727122 2883.3586231081 30 31 25
31.3271652127214 366.154499264655 2883.19755491764 30 31 25
25.4759437027472 365.687445222136 2878.953513853 32 33 27
15.8320529520299 364.963880013217 2878.1345587366 43 44 38
9.98974125283691 364.497495488898 2873.89697997518 46 47 41
4.14637241521865 364.030987984693 2869.65863424865 30 31 25
5.06744196051701 364.021176837152 2859.21007442938 31 32 26
-12.0405057321107 362.794177164626 2865.32867039614 34 35 29
-20.1158593698443 362.177159908039 2863.17695325814 34 35 29
0.135493819958921 363.4697946832 2834.63491202849 31 32 26
-14.6853271776002 362.397495556361 2838.70687417035 29 30 24
-13.8995399943171 362.376698047277 2828.16048410873 27 28 22
-16.8467264803245 362.104129982302 2821.08188964712 28 29 23
-39.6934622284277 360.492797241335 2832.91954542256 30 31 25
-38.9482816702704 360.468635462989 2822.3437017111 30 31 25
-28.7287307932704 361.080446794426 2802.58230400133 30 31 25
-39.0392568791711 360.312407639203 2802.51490206364 29 30 24
-25.3165661084998 361.15747955678 2779.11870911134 28 29 23
-59.5841108804132 358.782267832673 2802.43507147092 29 35 25
-79.2189705226618 357.390041397418 2811.66175360314 29 35 25
-72.8186511874747 357.742935808623 2795.30617407707 29 35 25
-51.4016675476794 359.100186627958 2763.90404616479 29 35 25
-46.6325625128974 359.341213669993 2748.83547120864 30 36 26
-44.073537714288 359.43353534552 2735.86941306645 33 36 29
-60.794919655158 358.236540336457 2742.26868525294 24 27 20
-2.75238805483369 361.951421196552 2662.08631110155 38 41 34
3.71750599893517 362.300037228286 2644.54581499671 28 31 24
41.7534625604881 364.751833613494 2594.31840776479 34 37 30
64.0870348376121 366.153689608275 2559.87555608607 103 104 99
64.5743668320629 366.098463133872 2547.87730399299 181 183 180
58.7468465642611 365.622376399908 2542.41506760603 174 176 173
51.5247209113143 365.053379467118 2538.412043617 120 122 121
45.6905428038903 364.576566674471 2532.94497714238 102 104 103
41.9208557143174 364.236705128276 2525.27008806249 138 139 141
38.1323735735566 363.895216421649 2517.581565807 148 149 151
33.6396288584617 363.506668557283 2510.61730684695 134 136 135
32.5494667411603 363.343332100344 2499.94531574392 142 144 141
180.829604397712 370.314489954358 2942.19113590365 23 28 22
154.545360030268 368.430938939577 2945.3597173816 45 48 39
118.257043719832 365.989248854363 2965.97610044932 35 36 30
108.466823938977 365.267167168837 2965.05107581049 22 23 18
128.93673130645 366.505016351317 2939.13697044996 23 24 19
135.770348109139 366.858194215631 2924.33083004708 26 27 22
120.374707694983 365.772620546495 2927.98602608842 28 29 23
100.295444100112 364.385128437077 2935.65553766243 34 37 30
84.2292126984017 363.258041701938 2940.05972882014 37 40 33
90.97841887503 363.604497961397 2925.19206882973 26 29 22
64.0044062640408 361.77458101355 2938.97710734853 25 28 21
77.7295327861802 362.56998272813 2918.05250179348 24 27 20
70.331943418982 362.00300100331 2915.15732725003 24 27 20
62.1661148942199 361.386667411083 2912.94002639848 24 27 18
47.8219706867122 360.37308640225 2916.12280250789 31 32 26
45.0996320950168 360.107347749919 2909.2075341527 31 32 26
58.5171880772894 360.878139007698 2888.0598394926 30 31 25
60.3151592922169 360.901248308939 2877.01209452702 30 31 25
-0.66620237886994 356.896300019772 2921.71423398911 30 31 25
27.921806731837 358.638192043187 2886.86663840305 31 32 26
27.4062053757076 358.512553674812 2877.84638623497 28 29 23
21.5495756064641 358.044479000779 2873.59841943808 38 39 33
12.6668397204215 357.382795161596 2872.09622406204 39 40 34
0.0303950347380066 356.481412425591 2874.04714856987 30 31 25
-16.3271520333992 355.342940717107 2879.47543222309 36 37 31
-13.8821737114498 355.405518103428 2867.66158532461 31 32 26
-12.981801291104 355.368754046542 2857.19817967298 32 33 27
-11.3766035255891 355.376224144579 2846.01060990429 33 34 28
-2.3858037344795 355.853265533728 2827.8281494086 33 34 28
-12.0058565586461 355.144503364482 2827.02625541717 34 35 29
-40.0718968965332 353.26311720765 2843.72480339465 37 38 32
-29.7103418460789 353.825456429431 2824.06609695474 30 31 25
-53.9576674333115 352.188863612952 2837.35867505389 27 28 22
-49.5451592447449 352.372188112959 2823.26663426523 27 28 22
-40.8161275053895 352.82803830655 2804.89430518484 28 29 23
-30.7209180453647 353.368882712882 2785.04241026686 27 28 22
-39.5857377463384 352.708105122183 2783.55320730605 25 28 21
-74.4714492623428 350.402045951258 2807.65712877804 22 28 18
-79.6186884295937 349.977950849206 2802.68860050368 21 27 17
-68.9565586797054 350.551808177583 2782.01280879026 22 28 18
-81.3297315642161 349.670755575058 2784.15498209842 22 28 18
-57.2275596382239 351.089330826599 2749.75897962906 25 28 21
-53.254447881756 351.236992103526 2735.34823034833 19 22 15
-55.0243151478382 351.022150329953 2726.65331885114 27 30 23
-60.3609958200475 350.582506717911 2721.54738163068 19 22 15
61.1912471079648 358.001504178751 2575.02673605219 26 29 22
71.5509796018679 358.538420495598 2552.89650637172 30 31 26
68.5227957397076 358.234599796367 2544.52400025362 124 126 123
63.3809086814505 357.798001926992 2538.3242518791 90 92 89
58.2292485291904 357.36051235391 2532.1171197865 64 66 65
52.3751756722763 356.878886992993 2526.63590128382 81 83 82
47.2059025100062 356.439821210136 2520.41599316057 120 121 123
41.3386705168959 355.956972984917 2514.92522912518 129 130 132
38.2090912109101 355.644519917236 2506.47917556131 140 142 141
34.3727424427711 355.287570647797 2498.75587545531 142 144 141
189.312177541713 363.441551795498 2935.95427169301 15 20 14
136.698356312023 360.094603193376 2969.43386197449 20 23 16
132.48711058691 359.727853521534 2963.90881468111 16 19 12
116.261743026552 358.623004346141 2968.1977572789 23 26 19
115.256608881752 358.453311535916 2960.05744582994 30 32 27
128.550690841669 359.159976826548 2940.05524851152 34 36 31
130.626772592499 359.177334954257 2929.20908267776 39 41 36
117.619257966614 358.270513334642 2930.8909831179 36 38 33
106.228698346609 357.463316867021 2931.27577458899 28 30 25
93.2938871791138 356.562317826555 2933.0104088102 26 28 23
84.3222709658367 355.904048575218 2931.44409396073 31 34 27
73.8019734040192 355.151625355726 2931.22440882417 34 37 30
75.0153433142486 355.114886208525 2920.98790185883 35 38 29
63.7344115054637 354.316470842117 2921.45191487084 32 35 26
51.707187487553 353.473229771383 2922.60973431196 28 29 23
51.3237342014143 353.33846192379 2913.68523285738 27 28 22
52.4523107971566 353.294925361843 2903.38692850153 27 28 23
65.0842093718378 353.948633467267 2882.90443207688 28 29 24
36.9374570977978 352.128008339445 2898.30974138675 27 28 23
21.1603474946163 351.059054850992 2902.92381756273 25 26 21
35.1968114228001 351.795355628577 2880.98957115049 24 25 20
32.3800212807233 351.510457194909 2874.00573580267 21 22 17
25.7516127080937 350.99493948789 2870.4330864015 30 31 26
19.1266228804627 350.479691269366 2866.86291668656 31 32 27
7.97950316923579 349.691832392053 2867.42398641448 26 27 22
0.622240523304729 349.132822406839 2864.55808595032 31 32 27
8.26911996878765 349.476749253276 2847.87108239943 34 35 29
7.61219105059308 349.319898618969 2838.74792629223 35 36 30
6.92315480798245 349.160434887759 2829.60177614152 35 36 30
-8.66226434767459 348.106592256642 2834.35488935326 33 34 28
-27.1557096250903 346.879542291319 2841.9394760335 32 33 27
-33.0152794402077 346.4104154313 2837.68937260508 34 35 29
-41.0858879005662 345.808979919991 2835.54117427203 29 30 24
-34.4559274928025 346.086172206823 2819.35168301407 23 24 18
-50.6007409530811 345.002263819167 2824.93416369653 22 23 17
-34.5640081127989 345.838621808177 2799.51002072221 26 27 21
-26.6666697628828 346.187325819201 2781.76956774428 26 27 21
-44.2504460442155 345.017900866917 2788.77855366891 25 28 21
-63.2118885346777 343.767975647832 2797.25909442042 30 36 26
-72.7191389276887 343.081032358293 2796.53908383558 30 36 26
-88.6767092473684 342.011855032984 2802.25767015939 28 34 24
-87.3702573945747 341.966857087818 2790.85326734202 28 33 26
-60.3834594607571 343.440878341781 2753.60823167782 30 33 26
-50.6979960344596 343.887597526244 2733.45882635277 29 32 25
-65.9671890516396 342.858386966047 2738.44130340718 26 29 22
-65.6044937451519 342.752484355312 2727.5874794637 30 33 26
68.6762649614048 350.399099378799 2568.06302783019 19 22 15
72.0039597050932 350.455738283619 2553.18394093676 24 25 19
66.8791026822135 350.014572637022 2546.99622038461 84 89 85
64.5320381324512 349.736063946684 2537.88256377299 80 84 83
59.3782579919844 349.292423671818 2531.6741581782 74 76 75
54.9072134621933 348.888449949624 2524.72555201057 72 74 73
46.97032699262 348.281517711126 2521.43893265419 100 101 103
43.8578546338864 347.956323975061 2513.00551022449 110 111 113
43.4658994904789 347.789166774153 2501.60431379826 120 122 121
247.458318194399 359.536850543189 2899.03763806143 19 26 19
201.832554079739 356.748676373177 2926.46963728692 24 29 23
158.030161763676 354.071223140389 2952.75392520687 20 23 16
144.130487591303 353.134616670691 2955.02426039222 19 22 15
139.078954026235 352.712222838067 2950.12482529158 19 20 12
126.039590556607 351.826885818889 2951.78404112596 22 23 17
122.591585588649 351.497597339807 2945.57743646494 30 31 25
131.037679364909 351.855756064384 2929.46987252577 43 44 38
103.778415578843 350.149789991241 2943.04875421582 39 42 35
102.689862604942 349.95646916573 2934.84785099683 28 33 26
101.574105758157 349.760974395037 2926.62721609838 27 32 25
83.1587988349729 348.56888491941 2933.03358739173 26 31 24
69.5101628640824 347.652480920106 2935.48600785625 29 32 25
63.7117531347053 347.188032393964 2931.28026437588 30 31 25
61.0265102563767 346.902215391523 2924.39178579418 30 31 25
52.8883877860959 346.303405779431 2922.19465841522 35 36 30
50.9556989431332 346.0601631852 2914.6166068556 33 34 28
52.0876499391809 345.991646179838 2904.32091662069 30 33 26
43.9422097615334 345.392236283863 2902.11848143893 25 28 21
24.2957984555541 344.136875910486 2910.10215167096 23 26 19
22.330375983703 343.890976949682 2902.50065182719 26 29 22
27.9739064636804 344.077686379796 2888.06569140801 27 30 23
19.0920410371827 343.436916181069 2886.56423297838 35 38 31
14.7792041907429 343.056002344189 2880.96576284582 37 40 33
5.91727390054864 342.416794837987 2879.47876373728 33 36 29
2.35246623526431 342.078073909709 2873.18743853105 29 32 25
10.0561682778322 342.376647832335 2856.54110269492 26 29 22
10.1796639614493 342.244874946866 2846.74907790822 28 31 24
5.78040304209049 341.856919565966 2841.08762697699 28 31 24
1.37113359488783 341.468141337138 2835.41921095947 26 29 22
-21.6325438777449 340.032078480725 2847.14398410602 26 29 22
-29.7124394257122 339.437642371768 2844.98908881833 24 27 20
-34.824144995516 339.010194704257 2840.04600814865 24 27 20
-26.6795777610573 339.326180691265 2822.48461094201 29 32 25
-36.9839684060873 338.60652782063 2822.42160732539 33 36 29
-44.3336636477207 338.052768493213 2819.56121922972 35 38 31
-47.2945746054569 337.744380326741 2812.47278864681 34 37 30
-34.9866262364087 338.287564031156 2790.51956287055 32 35 28
-47.4662430829051 337.446579489996 2792.58477563167 30 33 26
-59.9072435036316 336.608656098194 2794.67799776928 25 31 21
-67.9815111167683 336.014332387786 2792.52718286097 26 29 22
-77.4818334265654 335.341108925547 2791.81226408513 29 32 25
-79.0746963463809 335.106671991001 2783.24556756265 28 30 25
-57.1083594538617 336.175521841885 2751.00488563307 24 25 20
-51.7038263462437 336.324559418656 2735.16173795066 24 25 20
-54.1843645110422 336.036524180837 2727.18631184239 25 26 21
-63.7695762243347 335.35623992118 2726.41011363903 23 24 19
68.4230830895478 342.316215051017 2569.07358611469 25 27 22
71.7551219748231 342.334230508317 2554.19745274682 105 108 101
67.3319977360967 341.925580562595 2547.28356133487 73 82 79
63.5915488050451 341.553854427207 2539.62970621963 68 77 76
58.442620357587 341.10461498571 2533.42449488274 95 99 100
52.5910232421021 340.616722919464 2527.94503935576 83 84 86
47.4244801341106 340.165937006389 2521.72705094234 104 104 104
44.3127212061283 339.826582038155 2513.29407396439 144 146 145
46.6662735783956 339.783366151571 2498.94334132168 114 116 115
213.080124861458 350.056107764297 2927.17882795001 22 29 22
212.742719128218 349.885397498338 2918.28723081677 20 25 18
180.979401031927 347.994011918397 2934.77586032974 31 34 27
162.200263718928 346.815919217174 2940.91855410542 24 27 20
158.701757479808 346.473764699065 2934.67527482615 24 25 17
152.794183612515 345.999931231993 2930.39034839595 21 20 15
128.57270704878 344.52893358081 2941.23213604062 22 21 16
121.919932877411 344.015870498861 2937.6418359301 32 33 27
108.935811111065 343.159066761303 2939.34124218081 39 42 35
105.466141566414 342.819293144904 2933.1188792965 39 44 37
96.4702624389493 342.179835082252 2931.5347765481 36 41 34
85.9204355249794 341.456772650101 2931.29412814918 30 35 28
61.3007150907574 339.974386767761 2943.08249373577 25 30 23
59.4309251962786 339.721919844123 2935.54999224319 23 24 18
61.431518276041 339.677331952304 2924.64878929196 22 23 17
64.1637321456785 339.67091839113 2913.04311059618 23 22 17
60.6525113613072 339.327808532828 2906.79060943274 30 31 25
47.8619860924647 338.486536020679 2908.63014210773 31 34 27
41.2690637898043 337.978287158099 2905.08354875614 35 38 31
26.2349079990343 337.018573652107 2909.00143022198 35 38 31
26.5624867236509 336.880784212711 2899.35731911201 29 32 25
26.0906532815763 336.699373392979 2890.36851274043 26 29 22
26.3483183414328 336.555943414557 2880.67339667538 32 35 28
11.3911581467274 335.602362015261 2884.64741942933 34 37 30
-1.24408174240154 334.773470605684 2886.59987897978 32 35 28
-1.0137139580646 334.627806839587 2876.88496322259 33 36 29
0.685000894965704 334.558867996437 2865.76479896003 32 35 28
9.84002042549381 334.882867564471 2847.70060967108 31 34 27
3.19924869073063 334.370611674662 2844.11930894861 32 35 28
-6.4209195811471 333.701398026499 2843.31753158772 32 35 28
-20.4814053582152 332.799075468905 2846.70650129291 31 34 27
-34.4947484476243 331.900515141347 2850.12995927192 29 32 25
-33.6779151278439 331.781203033665 2839.60528174431 28 31 24
-30.6909219782157 331.774391176362 2826.94896486219 29 32 25
-34.3705203934743 331.417435482793 2820.57433302887 24 27 20
-43.9248080837697 330.753334013564 2819.82063427875 22 25 18
-45.4243739478732 330.509626095067 2811.32152382365 21 24 17
-51.3202259638961 330.036335223933 2807.04509756195 23 26 19
-60.1208403212268 329.412068475257 2805.60262335957 23 29 19
-69.6287780393194 328.75154263924 2804.88254280475 25 31 21
-68.2928798261846 328.653065976463 2793.49921540216 28 31 24
-72.0373182990759 328.290640943779 2787.07755192402 27 29 24
-66.4736430697559 328.408092380388 2771.34931529485 25 27 22
-53.8325818654195 328.888028296707 2748.40221313016 23 23 21
-59.1247968322033 328.442342010535 2743.32847944118 27 27 25
-48.7915661459617 328.79859867746 2722.41315958722 25 25 23
68.1690627936828 334.238508211724 2570.08385730975 14 15 9
71.5056098261528 334.217903149409 2555.21050189643 0 3 0
67.7844979950844 333.836295126187 2547.57061460394 162 168 164
62.6502445433172 333.382314949343 2541.37601747184 175 181 179
56.1158794026046 332.856991207155 2536.63645586276 80 80 80
50.2732475148058 332.366591790338 2531.16348672043 163 159 160
45.1156819624199 331.910554200291 2524.95227420491 124 120 119
44.767264789134 331.696560024304 2513.58240214385 121 120 118
47.8089394188292 331.651815988039 2498.49545964123 163 163 161
182.146305825209 341.157319230728 2961.52497587342 214 221 214
187.59326182982 341.268070681634 2948.182166309 15 22 15
186.519497786033 341.041815535976 2939.99181708224 24 29 22
160.459578011674 339.53219574872 2951.97105011589 24 27 20
156.990880127675 339.183628891113 2945.74934706963 27 30 23
154.308986456138 338.874936217375 2938.86318052962 31 32 24
