ply
format ascii 1.0
comment KinectMotionCapture
element vertex 785
property float x
property float y
property float z
property uchar red
property uchar green
property uchar blue
end_header
215.979024767876 963.515281677246 2598.99997711182 18 12 0
222.587645053864 961.652636528015 2594.00010108948 19 13 1
229.43452000618 960.901856422424 2592.00000762939 24 17 7
236.635342240334 961.633861064911 2594.00010108948 30 23 13
243.658870458603 961.624205112457 2594.00010108948 27 23 12
250.488936901093 960.872888565063 2592.00000762939 21 17 8
257.009983062744 959.009349346161 2586.99989318848 17 13 4
267.994165420532 973.456561565399 2625.99992752075 15 11 2
274.684548377991 971.963346004486 2621.99997901917 15 12 3
278.451472520828 960.461437702179 2591.00008010864 14 16 5
281.389266252518 946.735322475433 2553.99990081787 13 15 4
296.488553285599 950.791954994202 2565.00005722046 15 16 8
112.651601433754 976.135969161987 2651.99995040894 19 21 7
119.835376739502 976.130425930023 2651.99995040894 27 20 4
127.162709832191 977.228701114655 2654.99997138977 111 74 55
134.455591440201 977.958798408508 2657.00006484985 108 71 52
141.599208116531 977.584183216095 2655.99989891052 73 41 20
148.28909933567 974.264860153198 2647.0000743866 74 43 22
154.93007004261 970.945119857788 2638.00001144409 90 64 41
161.583602428436 967.993378639221 2630.00011444092 86 61 41
168.450206518173 966.513454914093 2625.99992752075 77 56 37
176.23096704483 970.186054706573 2635.99991798401 41 27 14
184.135302901268 974.226593971252 2647.0000743866 27 14 5
189.425006508827 964.648962020874 2621.00005149841 19 12 6
195.923268795013 961.695849895477 2612.99991607666 20 13 5
203.07731628418 962.055265903473 2614.00008201599 37 27 15
209.914967417717 960.942029953003 2611.00006103516 36 26 16
216.736167669296 959.828555583954 2608.00004005432 20 10 0
223.111897706985 956.874907016754 2599.99990463257 21 13 2
229.709669947624 955.02507686615 2595.00002861023 33 25 14
237.101227045059 956.48729801178 2598.99997711182 44 35 26
244.420275092125 957.581281661987 2601.99999809265 42 35 25
251.272231340408 956.835091114044 2599.99990463257 30 23 13
257.914394140244 955.352663993835 2595.99995613098 23 16 8
269.73968744278 972.638189792633 2642.99988746643 19 12 4
276.476234197617 971.155345439911 2638.99993896484 19 15 6
113.251805305481 974.114060401917 2665.99988937378 27 29 15
120.021939277649 970.454454421997 2655.99989891052 22 15 0
127.264648675919 970.813810825348 2657.00006484985 115 80 60
134.512647986412 971.17280960083 2657.99999237061 101 66 46
141.552641987801 970.069944858551 2654.99997138977 74 42 19
148.352146148682 967.505395412445 2648.00000190735 67 37 13
154.878661036491 963.478982448578 2637.00008392334 100 74 51
161.591187119484 960.913896560669 2630.00011444092 97 75 52
168.393895030022 959.079205989838 2625 75 58 40
175.436824560165 958.705723285675 2624.00007247925 44 31 14
181.778475642204 954.678297042847 2612.99991607666 27 15 3
188.566297292709 953.208327293396 2608.99996757507 33 24 15
195.632219314575 953.199565410614 2608.99996757507 32 22 12
202.853336930275 953.92119884491 2611.00006103516 53 37 22
209.843888878822 953.546345233917 2609.99989509583 65 49 34
216.8288230896 953.171491622925 2608.99996757507 53 37 24
223.636522889137 952.065706253052 2605.99994659424 53 39 26
230.339244008064 950.594186782837 2601.99999809265 64 52 38
237.567543983459 951.314806938171 2604.00009155273 63 51 39
244.806379079819 952.034950256348 2605.99994659424 61 51 39
252.055883407593 952.754855155945 2608.00004005432 41 32 23
258.719921112061 951.282858848572 2604.00009155273 32 23 14
267.505377531052 957.482278347015 2621.00005149841 24 15 6
276.801705360413 965.142428874969 2641.99995994568 21 17 6
277.613401412964 943.578064441681 2582.99994468689 17 19 8
285.708159208298 947.219729423523 2592.99993515015 16 18 7
105.000898241997 957.515239715576 2640.00010490417 18 20 7
119.982749223709 962.944209575653 2654.99997138977 19 12 0
127.17516720295 962.938010692596 2654.99997138977 107 75 54
134.418070316315 963.294088840485 2655.99989891052 103 71 50
141.399651765823 961.836457252502 2651.99995040894 80 48 27
148.303374648094 960.015833377838 2647.0000743866 88 57 36
155.062392354012 957.469642162323 2640.00010490417 106 79 58
161.906197667122 955.648422241211 2634.99999046326 104 79 59
168.786913156509 954.189717769623 2631.00004196167 94 72 51
175.578907132149 952.367961406708 2625.99992752075 44 25 8
182.065397500992 949.095368385315 2617.00010299683 37 20 4
188.936591148376 947.998523712158 2614.00008201599 55 39 24
195.866301655769 947.264015674591 2611.99998855591 71 55 39
203.09579372406 947.979927062988 2614.00008201599 77 54 36
209.933936595917 946.882307529449 2611.00006103516 84 61 43
217.004895210266 946.872353553772 2611.00006103516 77 56 39
224.161520600319 947.224855422974 2611.99998855591 64 45 28
231.323346495628 947.576999664307 2612.99991607666 59 42 26
238.672837615013 948.654353618622 2615.9999370575 70 54 39
246.038377285004 949.731469154358 2618.99995803833 66 53 37
253.903210163116 952.621579170227 2627.00009346008 58 49 34
260.817557573318 951.884984970093 2625 47 38 23
268.537372350693 954.049229621887 2631.00004196167 43 35 22
277.23240852356 959.47676897049 2645.99990844727 25 17 4
284.826159477234 960.915386676788 2650.00009536743 31 25 13
292.110800743103 961.265861988068 2651.00002288818 22 18 6
112.668536603451 954.726040363312 2651.99995040894 26 24 11
120.260052382946 957.959949970245 2661.00001335144 31 22 7
127.469077706337 957.953631877899 2661.00001335144 114 82 61
134.576737880707 957.226753234863 2658.99991989136 98 65 46
141.460120677948 955.059766769409 2653.00011634827 102 71 51
148.42289686203 953.612387180328 2648.9999294281 85 54 34
155.305102467537 951.804757118225 2644.00005340576 105 76 58
162.344381213188 951.076745986938 2641.99995994568 106 79 60
169.051870703697 948.54861497879 2634.99999046326 95 70 50
175.788134336472 946.380078792572 2628.99994850159 46 25 6
182.213395833969 942.771315574646 2618.99995803833 44 23 6
189.017996191978 941.322326660156 2615.00000953674 67 48 31
196.025714278221 940.953075885773 2614.00008201599 82 64 44
203.02776992321 940.583229064941 2612.99991607666 93 66 45
209.863424301147 939.493417739868 2609.99989509583 96 69 50
216.931954026222 939.483225345612 2609.99989509583 89 63 46
224.429428577423 941.272616386414 2615.00000953674 75 52 34
231.953740119934 943.061530590057 2619.99988555908 66 45 28
239.504888653755 944.850325584412 2625 70 53 37
246.895030140877 945.918917655945 2628.00002098084 72 56 40
254.784435033798 948.787033557892 2635.99991798401 69 57 41
261.226534843445 946.255803108215 2628.99994850159 67 55 39
268.957406282425 948.403537273407 2634.99999046326 59 50 35
277.558714151382 953.430414199829 2648.9999294281 41 34 18
286.45059466362 959.176659584045 2664.99996185303 36 28 15
294.106602668762 960.603833198547 2668.99991035461 18 14 2
121.034726500511 956.874489784241 2677.99997329712 26 13 0
127.906918525696 954.009354114532 2670.00007629395 121 86 66
134.735599160194 951.143860816956 2661.99994087219 124 89 69
141.627430915833 948.992729187012 2655.99989891052 111 78 59
148.6546844244 947.913348674774 2653.00011634827 89 58 38
155.724287033081 947.190821170807 2651.00002288818 105 77 56
162.65994310379 945.753335952759 2647.0000743866 102 75 56
169.124603271484 941.814541816711 2635.99991798401 87 60 41
175.863891839981 939.662098884583 2630.00011444092 47 24 6
182.500839233398 937.151849269867 2622.99990653992 60 37 19
189.750269055367 937.85697221756 2625 89 68 51
196.635350584984 936.7755651474 2621.99997901917 98 75 57
203.503951430321 935.693621635437 2618.99995803833 105 77 56
210.27572453022 934.254348278046 2615.00000953674 105 77 56
217.441141605377 934.601008892059 2615.9999370575 103 76 57
225.126788020134 937.091112136841 2622.99990653992 94 69 49
232.673019170761 938.866317272186 2628.00002098084 81 58 40
240.154877305031 940.283954143524 2631.99996948242 62 41 24
247.846052050591 942.415952682495 2638.00001144409 68 49 32
255.182862281799 943.118572235107 2640.00010490417 51 35 19
262.232154607773 942.749261856079 2638.99993896484 61 48 32
269.582003355026 943.451464176178 2641.00003242493 68 55 39
278.304576873779 948.797404766083 2655.99989891052 66 54 40
287.108212709427 954.143047332764 2671.0000038147 65 57 44
297.425359487534 964.132130146027 2698.99988174438 41 37 26
115.144960582256 961.023688316345 2710.00003814697 18 10 0
121.674038469791 954.634010791779 2691.99991226196 41 25 9
128.34495306015 950.017154216766 2678.99990081787 116 81 61
135.046526789665 946.109294891357 2667.99998283386 122 87 67
141.848295927048 943.265020847321 2660.00008583069 106 74 53
148.830682039261 941.838681697845 2655.99989891052 108 77 56
155.849978327751 940.76669216156 2653.00011634827 99 71 50
162.606999278069 938.275933265686 2645.99990844727 102 75 56
169.005110859871 934.012055397034 2634.0000629425 67 42 22
175.939857959747 932.939171791077 2631.00004196167 58 36 15
182.788550853729 931.511342525482 2627.00009346008 74 51 33
190.121442079544 932.565569877625 2630.00011444092 97 74 56
196.87032699585 930.782556533813 2625 103 78 58
203.747361898422 929.708540439606 2621.99997901917 109 78 57
210.607901215553 928.634285926819 2618.99995803833 111 80 59
217.867568135262 929.332494735718 2621.00005149841 106 78 57
225.309520959854 930.73970079422 2625 100 73 52
232.772931456566 932.146549224854 2628.99994850159 92 67 47
240.166500210762 933.198571205139 2631.99996948242 80 57 39
247.669994831085 934.60488319397 2635.99991798401 87 66 47
255.388289690018 936.720132827759 2641.99995994568 60 43 25
262.641936540604 937.06214427948 2642.99988746643 66 49 33
270.309090614319 938.822269439697 2648.00000190735 72 56 40
278.212636709213 941.291213035584 2654.99997138977 72 60 44
288.196265697479 950.495898723602 2680.99999427795 51 43 30
114.811412990093 950.917601585388 2701.99990272522 83 67 52
121.635556221008 947.039842605591 2690.99998474121 119 98 81
128.495752811432 943.865478038788 2681.99992179871 125 89 67
135.458886623383 941.746652126312 2676.00011825562 124 88 66
142.389327287674 939.627408981323 2670.00007629395 112 80 59
149.287074804306 937.507927417755 2664.00003433228 105 73 52
156.034633517265 934.684157371521 2655.99989891052 113 85 63
162.554278969765 930.804371833801 2644.99998092651 100 72 51
169.014140963554 926.924407482147 2634.0000629425 79 52 33
176.216706633568 927.267074584961 2634.99999046326 76 49 30
183.146134018898 926.201701164246 2631.99996948242 89 62 43
190.637469291687 927.951216697693 2637.00008392334 102 75 56
197.330594062805 925.829589366913 2631.00004196167 104 76 55
204.301863908768 925.115287303925 2628.99994850159 110 78 55
211.020827293396 923.34508895874 2624.00007247925 110 78 57
218.211188912392 923.685729503632 2625 105 74 53
225.578457117081 924.730002880096 2628.00002098084 103 75 53
232.961714267731 925.773978233337 2631.00004196167 100 72 51
240.452215075493 927.169442176819 2634.99999046326 88 63 43
247.870147228241 928.212761878967 2638.00001144409 88 66 45
255.690783262253 930.663287639618 2644.99998092651 78 57 38
263.250917196274 932.057917118073 2648.9999294281 71 50 33
270.730376243591 933.100402355194 2651.99995040894 73 54 37
278.644979000092 935.550034046173 2658.99991989136 61 45 30
288.317263126373 943.62884759903 2681.99992179871 51 43 30
108.490638434887 952.386498451233 2726.99999809265 27 13 0
114.775434136391 943.29971075058 2700.99997520447 131 112 97
121.597237884998 939.451396465302 2690.00005722046 134 111 93
128.502994775772 936.650335788727 2681.99992179871 136 100 78
135.668978095055 935.944378376007 2680.0000667572 123 87 65
142.663940787315 934.190273284912 2674.99995231628 137 105 84
149.575561285019 932.086706161499 2668.99991035461 127 96 75
156.16075694561 928.236603736877 2657.99999237061 111 83 61
162.747606635094 924.735546112061 2648.00000190735 102 75 54
169.536754488945 922.631084918976 2641.99995994568 97 70 49
176.694422960281 922.621428966522 2641.99995994568 81 54 35
183.712750673294 921.913266181946 2640.00010490417 93 66 47
190.719991922379 921.204566955566 2638.00001144409 105 78 59
197.416141629219 919.098913669586 2631.99996948242 108 80 59
204.468131065369 918.738782405853 2631.00004196167 114 79 57
211.273223161697 917.330980300903 2627.00009346008 111 79 58
218.555137515068 918.01792383194 2628.99994850159 109 78 57
225.675970315933 918.006122112274 2628.99994850159 111 80 59
233.062222599983 919.041812419891 2631.99996948242 106 78 57
240.555718541145 920.4261302948 2635.99991798401 92 65 46
247.976660728455 921.461164951324 2638.99993896484 88 63 43
255.510210990906 922.84494638443 2642.99988746643 84 61 43
262.667685747147 922.831833362579 2642.99988746643 79 56 40
270.539551973343 925.262689590454 2650.00009536743 91 70 53
279.182553291321 930.13721704483 2664.00003433228 72 56 41
101.36628895998 947.483062744141 2733.99996757507 86 73 57
108.059294521809 941.238880157471 2716.00008010864 128 109 92
114.697098731995 935.341060161591 2698.99988174438 143 116 97
121.468640863895 931.175529956818 2687.00003623962 138 107 86
128.366634249687 928.395807743073 2678.99990081787 137 101 77
135.474234819412 927.348613739014 2676.00011825562 136 101 79
142.672061920166 926.993906497955 2674.99995231628 136 106 82
149.640113115311 925.252854824066 2670.00007629395 131 103 79
156.463369727135 922.81836271286 2663.00010681152 118 92 69
163.125544786453 919.690430164337 2654.00004386902 107 81 58
170.123800635338 918.64150762558 2651.00002288818 104 78 55
177.038669586182 917.245507240295 2647.0000743866 101 74 53
184.001266956329 916.195869445801 2644.00005340576 103 76 57
190.802782773972 914.452850818634 2638.99993896484 107 78 60
197.7269500494 913.402497768402 2635.99991798401 108 77 57
204.712390899658 912.698447704315 2634.0000629425 108 76 53
211.767137050629 912.340521812439 2632.99989700317 108 76 55
218.899354338646 912.328839302063 2632.99989700317 109 78 57
226.117193698883 912.663400173187 2634.0000629425 108 80 58
233.517289161682 913.690626621246 2637.00008392334 109 81 60
241.024628281593 915.063977241516 2641.00003242493 108 81 62
248.365372419357 915.744006633759 2642.99988746643 91 66 46
255.523353815079 915.730774402618 2642.99988746643 69 46 28
262.780457735062 916.063845157623 2644.00005340576 82 59 43
270.655244588852 918.475449085236 2651.00002288818 111 90 73
280.244529247284 926.430106163025 2674.00002479553 132 116 101
101.075701415539 937.378287315369 2726.0000705719 132 115 99
107.826985418797 931.87016248703 2710.00003814697 152 129 111
114.746369421482 928.424775600433 2700.00004768372 147 115 94
121.656633913517 925.323009490967 2690.99998474121 140 105 83
128.661677241325 923.252403736115 2684.99994277954 136 100 76
135.634034872055 921.181440353394 2678.99990081787 135 101 76
142.627030611038 919.454097747803 2674.00002479553 134 104 78
149.424582719803 916.694641113281 2665.99988937378 128 101 74
156.237363815308 914.278864860535 2658.99991989136 113 89 63
163.257852196693 913.237988948822 2655.99989891052 113 89 65
170.326039195061 912.54073381424 2654.00004386902 110 86 62
177.115634083748 910.467743873596 2648.00000190735 104 80 56
184.220463037491 910.113573074341 2647.0000743866 106 79 58
190.958097577095 908.039808273315 2641.00003242493 107 79 58
197.888016700745 906.997442245483 2638.00001144409 106 78 57
204.723730683327 905.610859394073 2634.0000629425 106 75 54
212.020114064217 906.286776065826 2635.99991798401 107 76 55
219.24389898777 906.618654727936 2637.00008392334 107 76 56
226.472869515419 906.950235366821 2638.00001144409 107 79 58
233.795553445816 907.625317573547 2640.00010490417 110 81 63
241.311326622963 908.987522125244 2644.00005340576 113 86 69
248.566493391991 909.318089485168 2644.99998092651 84 58 41
255.633503198624 908.96087884903 2644.00005340576 73 50 34
262.595355510712 908.259510993958 2641.99995994568 92 69 55
270.362943410873 910.308241844177 2648.00000190735 99 77 63
279.734820127487 917.513132095337 2668.99991035461 137 121 106
100.859336555004 927.998960018158 2720.00002861023 167 146 125
107.833504676819 924.580931663513 2710.00003814697 157 129 107
114.753305912018 921.16242647171 2700.00004768372 151 114 88
121.890000998974 919.790506362915 2696.00009918213 143 107 81
129.052758216858 918.759405612946 2693.00007820129 135 101 76
136.047199368477 916.704475879669 2687.00003623962 131 99 74
142.848879098892 913.625597953796 2677.99997329712 128 101 74
149.489477276802 909.864127635956 2667.00005531311 124 98 71
156.481608748436 908.490359783173 2663.00010681152 112 88 62
163.51330280304 907.45747089386 2660.00008583069 112 88 64
170.464307069778 906.082928180695 2655.99989891052 109 85 61
177.25969851017 904.025912284851 2650.00009536743 105 81 57
184.439897537231 904.015362262726 2650.00009536743 107 80 59
191.330596804619 902.639865875244 2645.99990844727 108 80 59
198.349416255951 901.946425437927 2644.00005340576 107 79 58
204.968512058258 899.546921253204 2637.00008392334 106 78 56
212.192893028259 899.876177310944 2638.00001144409 107 76 55
219.339296221733 899.863958358765 2638.00001144409 102 74 53
226.828843355179 901.21591091156 2641.99995994568 104 77 56
234.162673354149 901.885211467743 2644.00005340576 106 79 60
241.598322987556 902.895390987396 2647.0000743866 89 63 46
248.86192381382 903.222858905792 2648.00000190735 59 36 18
256.324052810669 904.232442378998 2651.00002288818 79 58 41
263.305157423019 903.536140918732 2648.9999294281 95 73 59
270.887762308121 904.886245727539 2653.00011634827 96 74 60
93.5960412025452 921.704590320587 2723.00004959106 197 189 170
100.531831383705 917.636811733246 2710.99996566772 176 154 131
107.64118283987 915.599346160889 2704.99992370605 163 133 109
114.802844822407 914.238512516022 2700.99997520447 151 112 83
122.078314423561 913.89262676239 2700.00004768372 143 104 75
129.348173737526 913.546442985535 2698.99988174438 130 99 71
136.460542678833 912.184357643127 2694.9999332428 124 93 65
143.284291028976 909.129679203033 2686.00010871887 119 93 66
150.115087628365 906.412839889526 2677.99997329712 119 95 67
156.843572854996 903.357326984406 2668.99991035461 112 92 65
163.768962025642 901.655435562134 2664.00003433228 107 87 60
170.47443985939 898.937582969666 2655.99989891052 104 84 57
177.403941750526 897.573471069336 2651.99995040894 102 80 56
184.659540653229 897.901237010956 2653.00011634827 107 81 58
191.775664687157 897.551536560059 2651.99995040894 107 79 58
198.661029338837 896.186351776123 2648.00000190735 106 78 57
205.21354675293 893.467009067535 2640.00010490417 103 76 55
212.365970015526 893.454909324646 2640.00010490417 103 76 55
219.850704073906 894.796073436737 2644.00005340576 101 76 56
227.35683619976 896.136939525604 2648.00000190735 101 79 58
234.530106186867 896.123766899109 2648.00000190735 99 76 58
241.703063249588 896.11029624939 2648.00000190735 78 57 40
248.875692486763 896.096527576447 2648.00000190735 61 40 23
256.724923849106 898.451268672943 2654.99997138977 58 39 24
264.015316963196 898.775279521942 2655.99989891052 42 23 9
272.84249663353 904.174745082855 2671.99993133545 63 44 30
86.537204682827 917.744576931 2733.00004005432 198 195 178
93.2581946253777 911.022782325745 2713.00005912781 184 176 157
100.352726876736 908.66607427597 2706.00008964539 171 147 123
107.528544962406 907.316327095032 2701.99990272522 157 125 100
114.810019731522 906.973481178284 2700.99997520447 147 106 76
122.085928916931 906.630277633667 2700.00004768372 139 98 68
129.260361194611 905.614972114563 2697.00002670288 124 93 65
136.367708444595 904.26367521286 2693.00007820129 119 88 60
143.346458673477 902.24015712738 2687.00003623962 114 88 61
150.404617190361 900.888025760651 2683.00008773804 113 89 61
157.440856099129 899.535357952118 2678.99990081787 106 87 57
164.086312055588 896.167755126953 2668.99991035461 104 84 57
170.805722475052 893.471419811249 2661.00001335144 101 81 54
177.682220935822 891.781866550446 2655.99989891052 100 78 54
185.088232159615 892.778217792511 2658.99991989136 105 79 56
192.148700356483 892.095386981964 2657.00006484985 106 78 56
198.972895741463 890.4048204422 2651.99995040894 105 77 55
205.614313483238 888.042628765106 2644.99998092651 100 75 53
212.861061096191 888.365983963013 2645.99990844727 100 75 55
220.362439751625 889.696180820465 2650.00009536743 98 75 57
227.971017360687 891.361653804779 2654.99997138977 99 76 58
235.163569450378 891.348242759705 2654.99997138977 92 69 53
242.081940174103 890.327274799347 2651.99995040894 69 47 33
249.077767133713 889.641940593719 2650.00009536743 65 46 31
257.126092910767 892.648816108704 2658.99991989136 57 38 24
265.421748161316 896.326899528503 2670.00007629395 52 33 19
276.227414608002 908.061146736145 2704.99992370605 73 55 41
79.2495086789131 911.731839179993 2736.99998855591 210 195 172
86.004450917244 904.731094837189 2716.00008010864 194 176 152
93.1954234838486 903.059780597687 2710.99996566772 181 161 134
100.35914182663 901.387989521027 2706.00008964539 149 122 95
107.455797493458 899.382650852203 2700.00004768372 140 110 84
114.732287824154 899.042308330536 2698.99988174438 131 97 72
122.003212571144 898.701667785645 2697.99995422363 127 95 70
129.316449165344 898.693680763245 2697.99995422363 118 88 62
136.426910758018 897.352814674377 2694.00000572205 113 86 59
143.462151288986 895.678520202637 2688.99989128113 108 82 57
150.582179427147 894.670009613037 2686.00010871887 104 78 53
157.744497060776 893.994152545929 2684.00001525879 105 81 57
164.649814367294 891.985654830933 2677.99997329712 107 83 59
171.393975615501 889.310538768768 2670.00007629395 98 73 51
178.161427378654 886.968195438385 2663.00010681152 99 72 51
185.308381915092 886.623919010162 2661.99994087219 102 75 54
192.23265349865 885.280013084412 2657.99999237061 100 72 51
199.134975671768 883.935928344727 2654.00004386902 101 74 53
206.093102693558 882.924497127533 2651.00002288818 97 75 52
213.356480002403 883.244931697845 2651.99995040894 96 74 51
220.791280269623 884.230971336365 2654.99997138977 102 78 54
228.242039680481 885.216653347015 2657.99999237061 97 73 49
235.531628131866 885.536074638367 2658.99991989136 77 52 30
242.369830608368 884.18984413147 2654.99997138977 64 42 21
249.28006529808 883.176445960999 2651.99995040894 59 38 19
257.140785455704 885.492920875549 2658.99991989136 89 73 58
267.126828432083 894.802331924438 2687.00003623962 82 70 58
64.0840455889702 899.753987789154 2723.00004959106 207 200 184
71.1517855525017 895.784437656403 2710.99996566772 214 203 185
78.4728527069092 895.449101924896 2710.00003814697 202 182 157
85.7567116618156 894.782781600952 2707.99994468689 187 166 139
93.0639803409576 894.446492195129 2707.00001716614 156 129 100
100.291483104229 893.448948860168 2703.9999961853 142 115 86
107.502564787865 892.450928688049 2700.99997520447 135 105 79
114.824742078781 892.443597316742 2700.99997520447 124 94 70
122.101522982121 892.105519771576 2700.00004768372 122 92 68
129.372671246529 891.766905784607 2698.99988174438 112 85 58
136.486291885376 890.436768531799 2694.9999332428 109 81 57
143.577992916107 889.106154441834 2690.99998474121 104 78 55
150.759935379028 888.435900211334 2688.99989128113 100 74 51
158.04834663868 888.426065444946 2688.99989128113 101 75 52
165.090560913086 887.094259262085 2684.99994277954 106 79 58
171.982452273369 885.101199150085 2678.99990081787 102 75 54
178.640887141228 882.116854190826 2670.00007629395 100 73 52
185.667932033539 881.11424446106 2667.00005531311 102 75 54
192.606136202812 879.780948162079 2663.00010681152 101 73 52
199.597403407097 878.777682781219 2660.00008583069 100 73 52
206.649884581566 878.104388713837 2657.99999237061 97 77 53
213.771685957909 877.761244773865 2657.00006484985 96 74 50
220.970913767815 877.747893333435 2657.00006484985 95 69 44
228.255704045296 878.064632415771 2657.99999237061 92 66 41
235.45703291893 878.050684928894 2657.99999237061 76 52 28
242.566779255867 877.706170082092 2657.00006484985 58 36 15
249.858722090721 878.021836280823 2657.99999237061 60 39 20
258.219599723816 881.970822811127 2670.00007629395 63 50 34
34.8085090517998 898.998618125916 2743.00003051758 254 255 253
41.8766215443611 891.130149364471 2719.00010108948 255 255 253
49.0862056612968 888.177454471588 2710.00003814697 246 243 238
56.3718490302563 887.190580368042 2707.00001716614 228 223 217
63.8294219970703 888.825297355652 2711.99989318848 225 216 201
71.1040273308754 887.837648391724 2709.00011062622 221 208 191
78.5070285201073 888.487994670868 2710.99996566772 181 163 139
85.7623890042305 887.499332427979 2707.99994468689 164 143 116
93.0357500910759 886.837959289551 2706.00008964539 132 106 79
100.260995328426 885.848343372345 2703.00006866455 125 98 69
107.509627938271 885.185897350311 2700.99997520447 124 94 66
114.87478017807 885.506272315979 2701.99990272522 116 86 60
122.154727578163 885.170876979828 2700.99997520447 115 85 59
129.429057240486 884.834885597229 2700.00004768372 107 80 53
136.647090315819 884.170651435852 2697.99995422363 106 79 52
143.854081630707 883.506119251251 2696.00009918213 100 74 49
151.218205690384 883.824229240417 2697.00002670288 96 70 45
158.469945192337 883.48650932312 2696.00009918213 93 67 42
165.777519345284 883.476078510284 2696.00009918213 94 68 45
172.699630260468 881.49893283844 2690.00005722046 101 75 52
179.321318864822 878.210842609406 2680.0000667572 99 73 50
186.027750372887 875.577628612518 2671.99993133545 98 71 50
192.979872226715 874.254882335663 2667.99998283386 100 74 51
199.910014867783 872.931778430939 2664.00003433228 95 71 47
207.05147087574 872.591435909271 2663.00010681152 95 73 50
214.026257395744 871.595323085785 2660.00008583069 95 71 47
220.901265740395 870.27108669281 2655.99989891052 94 68 43
228.097856044769 870.257318019867 2655.99989891052 96 72 46
235.648468136787 871.553719043732 2660.00008583069 95 71 47
243.311703205109 873.177409172058 2664.99996185303 87 66 45
251.001715660095 874.800741672516 2670.00007629395 73 55 35
260.749578475952 883.304059505463 2696.00009918213 97 85 71
4.95045492425561 872.773468494415 2684.99994277954 234 236 235
12.3044736683369 877.973735332489 2700.99997520447 249 251 250
19.6580421179533 879.272878170013 2704.99992370605 253 255 254
27.013311162591 879.92137670517 2707.00001716614 255 255 255
34.2651680111885 877.643942832947 2700.00004768372 250 250 250
41.5097996592522 876.016080379486 2694.9999332428 244 243 239
48.7815961241722 875.362932682037 2693.00007820129 251 248 243
56.167408823967 876.659512519836 2697.00002670288 235 230 224
63.5983571410179 878.280699253082 2701.99990272522 209 199 187
71.0038244724274 879.25124168396 2704.99992370605 200 187 171
78.338548541069 879.246175289154 2704.99992370605 168 150 128
85.7048183679581 879.565715789795 2706.00008964539 155 133 109
92.9044485092163 878.259479999542 2701.99990272522 123 97 70
100.156418979168 877.602875232697 2700.00004768372 118 91 64
107.437185943127 877.270877361298 2698.99988174438 120 90 62
114.924944937229 878.563582897186 2703.00006866455 112 82 54
122.208058834076 878.230571746826 2701.99990272522 112 82 54
129.43759560585 877.572178840637 2700.00004768372 109 82 53
136.706754565239 877.238214015961 2698.99988174438 107 80 51
144.023597240448 877.228915691376 2698.99988174438 100 74 47
151.452377438545 877.869307994843 2700.99997520447 97 71 44
158.715397119522 877.534031867981 2700.00004768372 94 68 41
166.095733642578 877.848386764526 2700.99997520447 90 64 39
173.096016049385 876.212477684021 2696.00009918213 97 71 46
179.801240563393 873.275876045227 2687.00003623962 98 74 50
186.596661806107 870.98902463913 2680.0000667572 97 73 49
193.498507142067 869.351923465729 2674.99995231628 100 75 53
200.523033738136 868.364274501801 2671.99993133545 96 71 49
207.53102004528 867.376327514648 2668.99991035461 99 75 51
214.281052350998 865.413188934326 2663.00010681152 96 72 48
221.164539456367 864.099502563477 2658.99991989136 94 70 46
228.19784283638 863.435506820679 2657.00006484985 95 71 47
235.574349761009 864.070951938629 2658.99991989136 93 68 46
243.600487709045 866.980910301209 2667.99998283386 63 45 25
252.427130937576 872.489869594574 2684.99994277954 68 51 33
-24.1756942123175 865.549325942993 2684.99994277954 246 250 249
-16.7493857443333 858.136355876923 2661.99994087219 254 255 255
-9.51224192976952 856.525480747223 2657.00006484985 254 255 255
-2.31261551380157 858.782410621643 2664.00003433228 251 253 252
4.92313830181956 860.71652173996 2670.00007629395 253 255 254
12.1823148801923 862.005472183228 2674.00002479553 252 252 252
19.4631665945053 863.293766975403 2677.99997329712 246 246 246
26.7956163734198 865.548670291901 2684.99994277954 248 248 248
34.1025367379189 866.191387176514 2687.00003623962 246 246 246
41.3740240037441 865.866363048553 2686.00010871887 219 215 212
48.6581362783909 865.86332321167 2686.00010871887 196 193 186
55.9838078916073 866.504311561584 2687.99996376038 207 200 194
63.4144023060799 868.434309959412 2694.00000572205 189 179 169
70.8511620759964 870.041489601135 2698.99988174438 166 154 140
78.2570093870163 871.00350856781 2701.99990272522 147 130 112
85.6156349182129 871.320247650146 2703.00006866455 136 115 94
92.8419977426529 870.347082614899 2700.00004768372 111 87 61
100.12611746788 870.018124580383 2698.99988174438 110 84 57
107.325039803982 869.044065475464 2696.00009918213 111 84 57
114.80513215065 870.325863361359 2700.00004768372 108 78 50
122.125811874866 870.317816734314 2700.00004768372 111 81 53
129.494205117226 870.631575584412 2700.99997520447 109 82 53
136.867836117744 870.944976806641 2701.99990272522 108 81 52
144.139930605888 870.613217353821 2700.99997520447 99 73 46
151.574581861496 871.248006820679 2703.00006866455 97 71 44
159.078627824783 872.204661369324 2706.00008964539 94 68 41
166.660144925117 873.483121395111 2710.00003814697 89 63 38
173.942059278488 873.149514198303 2709.00011062622 94 68 43
180.61600625515 869.914710521698 2698.99988174438 98 74 50
187.374696135521 867.324233055115 2690.99998474121 98 74 50
194.379091262817 866.02258682251 2687.00003623962 99 74 52
201.361492276192 864.720582962036 2683.00008773804 98 73 51
208.166390657425 862.773597240448 2677.00004577637 98 74 50
214.85798060894 860.503971576691 2670.00007629395 96 72 48
221.594452857971 858.556389808655 2664.00003433228 98 74 50
228.555738925934 857.575178146362 2661.00001335144 97 75 52
235.766276717186 857.560575008392 2661.00001335144 95 73 50
244.16346848011 861.735045909882 2674.00002479553 93 76 58
254.699200391769 872.998654842377 2709.00011062622 72 56 40
-38.4528562426567 851.929724216461 2664.99996185303 218 222 221
-31.2016680836678 851.292788982391 2663.00010681152 230 234 233
-23.8712262362242 847.45866060257 2651.00002288818 247 251 250
-16.6435856372118 845.542013645172 2644.99998092651 246 248 247
-9.46278125047684 844.903588294983 2642.99988746643 243 245 244
-2.30149086564779 847.461402416229 2651.00002288818 246 248 247
4.89397766068578 848.420381546021 2654.00004386902 246 248 247
12.1284909546375 850.977122783661 2661.99994087219 245 245 245
19.3555001169443 851.29576921463 2663.00010681152 238 238 238
26.7076641321182 855.449914932251 2676.00011825562 240 240 240
33.9906737208366 856.0870885849 2677.99997329712 237 237 237
41.28447920084 856.723845005035 2680.0000667572 228 224 221
48.5709309577942 857.040345668793 2680.99999427795 197 194 189
55.862732231617 857.356309890747 2681.99992179871 181 176 170
63.2304772734642 858.630895614624 2686.00010871887 205 197 186
70.6198066473007 859.904825687408 2690.00005722046 167 157 145
78.1176015734673 862.13743686676 2697.00002670288 141 125 109
85.6532156467438 864.36939239502 2703.9999961853 130 111 94
92.9859355092049 864.363074302673 2703.9999961853 108 86 63
100.244283676147 863.717138767242 2701.99990272522 109 85 59
107.412002980709 862.431347370148 2697.99995422363 110 84 59
114.812977612019 863.063037395477 2700.00004768372 108 81 52
122.179366648197 863.374471664429 2700.99997520447 114 87 58
129.694804549217 864.644408226013 2704.99992370605 111 86 56
136.978417634964 864.315688610077 2703.9999961853 108 83 53
144.469872117043 865.265130996704 2707.00001716614 100 73 44
151.753008365631 864.935517311096 2706.00008964539 99 72 43
159.383222460747 866.523027420044 2710.99996566772 97 70 41
166.978776454926 867.790579795837 2714.99991416931 89 63 36
174.531519412994 868.738055229187 2717.99993515015 86 60 33
181.364104151726 866.169214248657 2710.00003814697 93 69 45
188.222661614418 863.919734954834 2703.00006866455 92 70 47
195.115283131599 861.989378929138 2697.00002670288 87 66 45
202.125161886215 860.6978058815 2693.00007820129 90 69 48
209.035292267799 859.086275100708 2687.99996376038 94 72 51
215.676560997963 856.515765190125 2680.0000667572 97 75 54
222.440496087074 854.583978652954 2674.00002479553 93 70 52
229.343354701996 853.291094303131 2670.00007629395 89 68 49
236.578658223152 853.276193141937 2670.00007629395 92 73 56
244.909346103668 857.095837593079 2681.99992179871 94 81 65
-45.5123446881771 841.588616371155 2654.99997138977 224 226 223
-38.2535569369793 840.323746204376 2651.00002288818 238 240 239
-31.0398228466511 839.692115783691 2648.9999294281 238 240 239
-23.7918607890606 837.475180625916 2641.99995994568 216 218 217
-16.6132971644402 836.842715740204 2640.00010490417 237 239 238
-9.44912806153297 836.526572704315 2638.99993896484 224 226 225
-2.29383958503604 837.47798204422 2641.99995994568 228 230 229
4.87588252872229 838.111877441406 2644.00005340576 234 234 234
12.0746707543731 840.013206005096 2650.00009536743 226 226 226
19.29871737957 841.597020626068 2654.99997138977 218 218 218
26.6097374260426 845.082223415375 2665.99988937378 217 217 217
33.9423008263111 847.615957260132 2674.00002479553 207 207 207
41.2565767765045 848.881244659424 2677.99997329712 217 213 210
48.5381186008453 849.195003509521 2678.99990081787 222 219 214
55.7833388447762 848.874270915985 2677.99997329712 187 182 176
63.0936622619629 849.504053592682 2680.0000667572 198 189 180
70.4409778118134 850.450396537781 2683.00008773804 204 194 184
78.007198870182 853.614926338196 2693.00007820129 128 115 99
85.5641663074493 856.144845485687 2700.99997520447 126 109 93
92.9924175143242 857.089519500732 2703.9999961853 105 84 63
100.177057087421 855.814874172211 2700.00004768372 109 87 64
107.499100267887 855.807662010193 2700.00004768372 107 83 57
114.820912480354 855.799853801727 2700.00004768372 112 85 56
122.233033180237 856.425523757935 2701.99990272522 107 80 51
129.655778408051 857.050776481628 2703.9999961853 109 84 54
137.038469314575 857.358515262604 2704.99992370605 108 83 53
144.586488604546 858.616650104523 2709.00011062622 103 76 47
151.931598782539 858.606517314911 2709.00011062622 99 72 43
159.570425748825 860.180497169495 2713.99998664856 95 68 39
167.297601699829 862.071096897125 2720.00002861023 93 67 40
174.86435174942 863.010227680206 2723.00004959106 81 55 28
182.112455368042 862.364292144775 2720.99995613098 89 65 41
189.140513539314 860.767245292664 2716.00008010864 87 65 42
196.068778634071 858.852744102478 2710.00003814697 92 71 52
202.814057469368 856.304049491882 2701.99990272522 84 63 44
209.593430161476 854.072034358978 2694.9999332428 84 63 44
216.495484113693 852.473497390747 2690.00005722046 85 64 45
223.370045423508 850.874543190002 2684.99994277954 89 71 51
230.560824275017 850.542843341827 2684.00001525879 74 57 41
238.100245594978 851.478338241577 2687.00003623962 84 68 53
-60.7760772109032 846.382319927216 2693.00007820129 200 202 199
-52.6575185358524 833.500444889069 2651.99995040894 230 232 229
-45.3612990677357 831.618189811707 2645.99990844727 237 239 236
-38.1264016032219 830.364048480988 2641.99995994568 242 244 241
-30.9365764260292 829.737961292267 2640.00010490417 242 244 241
-23.7575378268957 829.111278057098 2638.00001144409 197 199 196
-16.5956038981676 828.798532485962 2637.00008392334 185 187 184
-9.42473765462637 827.22795009613 2631.99996948242 177 177 175
-2.28445255197585 826.914072036743 2631.00004196167 173 173 171
4.8596328124404 828.171133995056 2634.99999046326 171 171 169
12.0481932535768 830.999314785004 2644.00005340576 182 182 180
19.2782878875732 833.512425422668 2651.99995040894 194 194 192
26.5517476946115 836.025238037109 2660.00008583069 195 194 192
33.8558629155159 838.223099708557 2667.00005531311 200 199 197
41.1824844777584 840.106189250946 2673.00009727478 202 198 195
48.5053397715092 841.360151767731 2677.00004577637 197 193 190
55.787306278944 841.670632362366 2677.99997329712 202 198 195
63.0039647221565 841.037809848785 2676.00011825562 175 170 166
70.3672096133232 842.290341854095 2680.0000667572 171 164 158
77.8678804636002 844.799220561981 2687.99996376038 194 185 176
85.4118093848228 847.307741641998 2696.00009918213 151 139 127
92.8957983851433 848.872780799866 2700.99997520447 112 95 77
100.184112787247 848.551690578461 2700.00004768372 103 85 65
107.665911316872 849.801421165466 2703.9999961853 111 91 67
114.914022386074 849.165022373199 2701.99990272522 109 85 57
122.196324169636 848.842442035675 2700.99997520447 109 85 57
129.472985863686 848.519325256348 2700.00004768372 106 82 54
136.94666326046 849.452793598175 2703.00006866455 107 81 54
144.596487283707 851.328611373901 2709.00011062622 105 78 49
152.110323309898 852.261066436768 2711.99989318848 101 74 45
159.698978066444 853.507280349731 2716.00008010864 99 69 41
167.309045791626 854.753077030182 2720.00002861023 87 60 33
175.004720687866 856.31251335144 2724.99990463257 83 57 32
182.86107480526 858.500003814697 2732.00011253357 89 67 44
190.267592668533 858.48730802536 2732.00011253357 84 63 44
197.239637374878 856.588780879974 2726.0000705719 78 61 43
203.878536820412 853.432893753052 2716.00008010864 64 48 32
210.385128855705 849.962532520294 2704.99992370605 75 59 46
217.958569526672 850.890934467316 2707.99994468689 73 59 48
225.797474384308 852.761507034302 2713.99998664856 63 49 38
233.410850167274 853.688895702362 2717.00000762939 59 49 37
241.128727793694 854.930102825165 2720.99995613098 36 26 17
-59.945359826088 827.608704566956 2655.99989891052 212 214 211
-52.502453327179 823.87363910675 2644.00005340576 226 228 225
-45.2102683484554 821.695923805237 2637.00008392334 202 204 201
-38.0137003958225 820.764124393463 2634.0000629425 209 211 208
-30.8684930205345 820.766687393188 2634.0000629425 222 224 221
-23.7142201513052 820.456981658936 2632.99989700317 196 198 195
-16.5716260671616 820.45841217041 2632.99989700317 173 175 172
-9.4182575121522 819.524645805359 2630.00011444092 155 155 153
-2.2846176289022 819.836616516113 2631.00004196167 160 160 158
4.85813990235329 820.771276950836 2634.0000629425 160 160 158
12.0262783020735 822.328746318817 2638.99993896484 167 167 165
19.236059859395 824.508786201477 2645.99990844727 179 179 177
26.4937654137611 827.000021934509 2654.00004386902 190 189 187
33.7948277592659 829.490661621094 2661.99994087219 193 192 190
41.0775989294052 830.734372138977 2665.99988937378 194 190 187
48.3819879591465 831.977605819702 2670.00007629395 203 199 196
55.7288192212582 833.531737327576 2674.99995231628 187 183 180
62.9614070057869 833.215951919556 2674.00002479553 196 192 189
70.319727063179 834.457457065582 2677.99997329712 167 162 158
77.6996240019798 835.698485374451 2681.99992179871 188 181 175
85.1010754704475 836.939036846161 2686.00010871887 186 176 167
92.5240814685822 838.179111480713 2690.00005722046 123 107 92
100.005693733692 839.730143547058 2694.9999332428 105 88 70
107.633724808693 842.215418815613 2703.00006866455 113 95 73
115.007221698761 842.519104480743 2703.9999961853 109 88 61
122.250199317932 841.887474060059 2701.99990272522 114 90 62
129.434138536453 840.943872928619 2698.99988174438 108 84 58
136.90559566021 841.869056224823 2701.99990272522 110 84 59
144.553229212761 843.728601932526 2707.99994468689 107 80 53
152.345299720764 846.210837364197 2716.00008010864 103 76 47
159.945294260979 847.446143627167 2720.00002861023 101 71 43
167.566671967506 848.680913448334 2723.99997711182 93 66 39
175.337925553322 850.538372993469 2730.00001907349 89 63 38
183.609947562218 854.576051235199 2743.00003051758 81 60 39
191.882506012917 858.30169916153 2755.00011444092 79 60 43
200.292140245438 862.338185310364 2767.99988746643 108 91 75
205.994322896004 854.847550392151 2743.99995803833 99 86 70
213.821694254875 856.390953063965 2749.00007247925 59 47 35
-67.2053173184395 821.076631546021 2657.99999237061 211 213 210
-59.7465746104717 817.683219909668 2647.0000743866 198 200 197
-52.4069741368294 815.21600484848 2638.99993896484 198 200 197
-45.1792664825916 813.983976840973 2634.99999046326 184 186 183
-37.9731692373753 812.751352787018 2631.00004196167 142 144 139
-30.8238659054041 812.445044517517 2630.00011444092 152 154 149
-23.6979369074106 812.755823135376 2631.00004196167 178 180 175
-16.5665429085493 813.066303730011 2631.99996948242 178 179 174
-9.42252669483423 812.758326530457 2631.00004196167 150 151 146
-2.28391611017287 812.449812889099 2630.00011444092 156 157 152
4.85296081751585 812.75862455368 2631.00004196167 164 165 160
12.0089268311858 813.993752002716 2634.99999046326 154 153 149
19.2083846777678 816.154956817627 2641.99995994568 149 148 144
26.4457818120718 818.315625190735 2648.9999294281 177 176 172
33.7084196507931 820.167005062103 2654.99997138977 172 171 167
40.9727245569229 821.399927139282 2658.99991989136 191 190 188
48.2767783105373 822.941184043884 2664.00003433228 182 181 179
55.6495301425457 825.099766254425 2671.0000038147 191 189 190
62.9659742116928 826.022207736969 2674.00002479553 177 175 176
70.3248307108879 827.252864837646 2677.99997329712 178 176 177
77.6762738823891 828.174233436584 2680.99999427795 151 147 146
85.0438550114632 829.095065593719 2684.00001525879 155 150 146
92.3931673169136 829.70654964447 2686.00010871887 170 160 150
99.9386683106422 831.861793994904 2693.00007820129 128 116 100
107.5219810009 834.016561508179 2700.00004768372 105 90 71
115.100532770157 835.86198091507 2706.00008964539 111 94 68
122.485168278217 836.162269115448 2707.00001716614 107 87 60
129.731103777885 835.5353474617 2704.99992370605 112 88 64
137.118011713028 835.834801197052 2706.00008964539 113 87 64
144.776970148087 837.678015232086 2711.99989318848 110 83 56
152.636513113976 840.44736623764 2720.99995613098 107 80 53
160.42697429657 842.598438262939 2727.9999256134 107 77 51
168.070554733276 843.822419643402 2732.00011253357 97 69 45
175.799742341042 845.354557037354 2736.99998855591 89 63 40
184.158205986023 849.666059017181 2750.99992752075 83 62 43
193.079888820648 856.13888502121 2772.0000743866 82 63 48
202.766343951225 865.390658378601 2802.00004577637 162 146 131
-74.8690664768219 818.819582462311 2674.00002479553 203 208 204
-67.0332387089729 811.781883239746 2651.00002288818 209 211 208
-59.6380904316902 809.030592441559 2641.99995994568 199 201 198
-52.3313842713833 806.891202926636 2634.99999046326 203 205 202
-45.1311394572258 805.976033210754 2631.99996948242 177 179 176
-37.9470959305763 805.060505867004 2628.99994850159 152 154 149
-30.8378543704748 805.675506591797 2631.00004196167 151 154 147
-23.7086899578571 805.983662605286 2631.99996948242 156 157 151
-16.5866483002901 806.903898715973 2634.99999046326 164 165 159
-9.43754706531763 806.904852390289 2634.99999046326 154 155 149
-2.28755851276219 806.599080562592 2634.0000629425 157 158 152
4.85516339540482 805.986523628235 2631.99996948242 160 161 155
12.0143694803119 807.210743427277 2635.99991798401 155 154 149
19.2098002880812 809.046983718872 2641.99995994568 147 146 141
26.4577157795429 811.495125293732 2650.00009536743 173 172 167
33.6728096008301 812.105298042297 2651.99995040894 174 173 168
40.8986918628216 812.71505355835 2654.00004386902 181 181 179
48.1715835630894 813.936710357666 2657.99999237061 180 180 180
55.549431592226 816.382527351379 2665.99988937378 184 184 186
62.9234910011292 818.215489387512 2671.99993133545 185 185 187
70.3037157654762 819.741666316986 2677.00004577637 175 175 177
77.6819512248039 820.961117744446 2680.99999427795 175 171 172
84.9866792559624 821.261405944824 2681.99992179871 148 143 140
92.2278687357903 820.948660373688 2680.99999427795 174 164 155
99.6861308813095 822.47269153595 2686.00010871887 157 145 131
107.2908192873 824.914813041687 2694.00000572205 110 94 71
115.066297352314 828.27490568161 2704.99992370605 111 93 69
122.448734939098 828.572571277618 2706.00008964539 113 93 68
129.836365580559 828.869581222534 2707.00001716614 115 91 67
137.178495526314 828.859925270081 2707.00001716614 115 89 66
144.947469234467 831.299304962158 2714.99991416931 114 87 60
152.871772646904 834.350526332855 2724.99990463257 114 84 58
160.732418298721 836.788833141327 2733.00004005432 113 83 57
168.328523635864 837.695717811584 2736.00006103516 101 73 49
176.069051027298 839.214265346527 2740.9999370575 88 62 39
184.238091111183 842.569410800934 2752.00009346008 111 90 71
193.023681640625 848.373115062714 2770.99990844727 119 100 85
202.780425548553 857.850313186646 2802.00004577637 152 136 121
211.954072117805 864.265024662018 2822.99995422363 255 250 241
-74.5945870876312 808.589637279511 2664.00003433228 216 216 214
-66.9623240828514 803.738474845886 2648.00000190735 215 216 211
-59.5747865736485 801.011502742767 2638.99993896484 199 200 195
-52.2756800055504 798.890948295593 2631.99996948242 185 186 181
-45.1173484325409 798.591077327728 2631.00004196167 156 157 152
-37.9210449755192 797.380089759827 2627.00009346008 146 147 141
-30.7932607829571 797.382593154907 2627.00009346008 148 149 143
-23.7014461308718 798.598647117615 2631.00004196167 153 154 148
-16.5752898901701 799.207270145416 2632.99989700317 151 152 146
-9.43108461797237 799.208223819733 2632.99989700317 152 153 147
-2.28512310422957 798.601627349854 2631.00004196167 157 158 152
4.85368026420474 798.601567745209 2631.00004196167 149 150 144
12.0107047259808 799.814999103546 2634.99999046326 152 153 147
19.1966872662306 801.331579685211 2640.00010490417 151 152 146
26.4097601175308 802.847504615784 2644.99998092651 159 160 154
33.611822873354 803.452372550964 2647.0000743866 168 169 163
40.8092550933361 803.753077983856 2648.00000190735 166 166 164
48.1207855045795 805.874526500702 2654.99997138977 169 169 167
55.470198392868 807.9953789711 2661.99994087219 174 174 174
62.857486307621 810.115575790405 2668.99991035461 174 172 175
70.2301189303398 811.628401279449 2674.00002479553 172 170 173
77.6007547974586 812.83700466156 2677.99997329712 174 169 173
84.9295631051064 813.438057899475 2680.0000667572 176 170 172
92.1314433217049 812.824487686157 2677.99997329712 150 143 137
99.4707494974136 813.424408435822 2680.0000667572 162 155 145
107.019878923893 815.541505813599 2687.00003623962 131 124 108
114.73436653614 818.568348884583 2697.00002670288 107 92 69
122.231386601925 819.77379322052 2700.99997520447 121 105 80
129.653915762901 820.371568202972 2703.00006866455 117 92 70
137.087062001228 820.968866348267 2704.99992370605 118 91 70
144.957929849625 823.993563652039 2714.99991416931 120 90 66
152.770563960075 826.41077041626 2723.00004959106 120 90 64
160.743936896324 829.434454441071 2733.00004005432 120 90 64
168.340548872948 830.333113670349 2736.00006103516 120 90 66
176.017343997955 831.534624099731 2740.00000953674 121 94 73
183.849439024925 833.342671394348 2746.00005149841 117 96 79
192.1316832304 836.970925331116 2757.99989700317 138 119 105
201.63668692112 845.454096794128 2786.00001335144 159 143 130
210.392102599144 850.295126438141 2802.00004577637 242 233 226
219.233930110931 855.135381221771 2818.00007820129 253 249 246
-82.2581946849823 805.627048015594 2677.99997329712 207 209 206
-74.2641016840935 797.811269760132 2651.99995040894 217 217 215
-66.840872168541 795.109033584595 2642.99988746643 212 213 208
-59.5114976167679 793.007850646973 2635.99991798401 196 195 191
