ply
format ascii 1.0
comment KinectMotionCapture
element vertex 770
property float x
property float y
property float z
property uchar red
property uchar green
property uchar blue
end_header
130.511722898148 452.983216575171 2981.78654009868 198 198 200
122.951659655513 453.720579446589 2984.93374695136 156 156 158
114.515927835689 454.503927704168 2987.52679970824 227 227 229
106.932141367276 455.244133843076 2990.69714384112 231 231 233
98.468902294949 456.03080240484 2993.31702096686 193 193 195
84.7669173579582 457.091809216686 2992.59637151526 213 211 214
84.1155210921203 457.47265510086 3000.27181321187 223 221 224
134.137031151475 426.506786964559 2556.99622120788 201 202 197
136.264366765232 426.890088469241 2568.99720040379 194 194 194
133.788971506745 427.453484363234 2577.04000993432 191 191 193
130.554236771489 428.045635367934 2584.41569547985 190 190 192
124.221319895098 428.761414769257 2589.18133651319 185 185 187
119.444564288644 429.414018614982 2595.24551804014 180 180 182
109.201785534329 430.288678353912 2596.78534284153 169 169 171
102.853697276073 431.005295872196 2601.56626325001 166 166 168
93.3608076248555 431.851330431303 2603.78257719343 176 176 178
85.423954950826 432.63412968856 2607.29722604347 157 157 159
75.8978004453423 433.483548694037 2609.54641010122 136 136 136
64.7705052626573 434.401122444676 2610.54132080163 125 125 123
52.82347932138 435.354871233692 2610.92764244859 134 135 130
169.723622141212 432.151253660942 2741.87769271373 186 188 185
180.505643332348 432.107835696241 2759.51761684592 183 185 184
188.147027360682 432.193296767077 2774.58921672989 174 175 177
193.430966903511 432.375756750149 2787.73639164539 187 188 190
194.722712280991 432.727518886189 2797.7376293257 166 167 169
196.857023898426 433.0398144268 2808.32526657959 185 186 188
199.839623841024 433.311817112478 2819.49340557068 183 184 186
208.563310611281 433.327484092812 2834.91748768636 192 193 195
213.271649367011 433.515447552032 2847.2185199633 194 195 197
213.116973425275 433.915640170967 2855.81509875596 196 197 199
210.525348881457 434.422530130757 2862.56476791969 200 201 203
207.946161951513 434.927704709626 2869.30233988152 202 203 205
205.379476411176 435.43115586763 2876.02775249952 204 205 207
202.824975563488 435.932966051775 2882.74097023083 205 205 207
198.627110410326 436.508139411273 2888.24174917214 208 208 210
196.923829928251 436.96918561905 2895.53296455466 210 210 212
192.74091442903 437.542222015318 2901.01887626884 215 215 217
191.064399841798 437.999746534691 2908.28403322612 200 200 202
188.568404993916 438.493637350591 2914.9406619559 211 211 213
186.922757294463 438.947051179502 2922.17611303756 217 217 219
182.774050346102 439.515391747012 2927.62874919649 215 215 217
179.471842743714 440.043740404171 2933.6639569379 210 210 212
179.552128740221 440.413263936432 2942.03141008814 216 216 218
176.274730435821 440.93842601855 2948.0424528043 211 211 213
171.310840421179 441.542266824411 2952.88242156122 211 211 213
163.799651761754 442.26636253444 2955.98305611094 216 216 218
158.831596950776 442.870521988162 2960.82711347617 190 190 192
155.570783029056 443.393298501196 2966.82204024124 192 192 194
151.463195823145 443.955836099126 2972.23470156442 214 214 216
144.788879902233 444.641048585892 2975.92696535468 207 207 209
138.107802379865 445.326982504396 2979.62617472983 216 216 218
128.836572987749 446.138409788415 2981.62749169936 168 168 170
122.998615802278 446.78493823433 2985.91220354573 179 179 181
114.562893725503 447.557906750182 2988.50678074891 234 234 236
108.712610901041 448.205795685755 2992.80319321523 232 232 234
100.253250363542 448.981626267529 2995.42082074726 185 185 187
87.4258768539926 449.9728691046 2995.25888962179 215 213 218
81.5450222832106 450.624540087825 2999.58543914114 217 215 218
131.887809871698 418.836361112608 2556.11235098424 201 202 197
135.55221912634 419.191765072794 2569.42493521296 195 195 195
133.074722140456 419.766469539976 2577.46849822967 194 194 196
130.61328079303 420.33883864818 2585.4961250831 193 193 195
124.280109633953 421.05223238399 2590.26237122322 188 188 190
117.943963054176 421.765634367988 2595.031908623 184 184 186
107.697184274409 422.624876790534 2596.57798418143 171 171 173
100.561654071677 423.368986222752 2600.71987347071 166 166 168
94.2041760245789 424.084028976182 2605.51001298588 165 165 167
85.4818436822149 424.888706608075 2608.38451182617 156 156 158
75.9555754196031 425.724989906141 2610.63575029824 172 172 172
61.6632731262703 426.74536786468 2609.09005247504 154 154 152
49.7085947203741 427.678780584184 2609.48731663667 143 144 139
176.184100436125 424.571241505322 2747.91861497546 188 190 187
183.769750700312 424.707277181057 2763.0380844066 184 186 185
189.004005260984 424.931323072654 2776.22845086474 183 184 186
191.869303994947 425.245651881486 2787.50681590751 186 187 189
194.774208265815 425.554899329846 2798.74660308952 174 175 177
198.529499497251 425.826288885043 2810.56478598844 177 178 180
202.32807618113 426.092175690266 2822.34046125526 184 185 187
210.242662293621 426.186537384854 2837.13945192269 192 193 195
214.137987838915 426.440109521166 2848.8208742426 193 194 196
214.803255707896 426.822953821089 2858.02271010192 195 196 198
211.395095050537 427.371676834704 2864.16011947221 199 200 202
209.639837285055 427.850921948168 2871.5002592752 201 202 204
206.252725042313 428.396726114956 2877.61719866291 202 203 205
203.700207088301 428.90667634371 2884.32758209843 204 204 206
200.331871043379 429.449861150611 2890.4259257424 205 205 207
198.632461417058 429.921580930223 2897.71205760067 210 210 212
193.621451894653 430.532511790852 2902.59776881835 210 210 212
192.780470142202 430.96535658382 2910.45378628975 201 201 203
191.123986726545 431.431383026286 2917.69779541702 210 210 212
189.48393400929 431.895295595822 2924.92613888937 211 211 213
186.18054857175 432.429673173961 2930.96128732462 217 217 219
182.04420871771 432.999373629637 2936.40144178519 187 187 189
180.443379959988 433.458135004938 2943.59159663014 217 217 219
176.32211351413 434.025817280353 2949.01708125972 208 208 210
170.510830739578 434.667213928138 2953.27606349925 210 210 212
163.847017388472 435.34635540857 2956.95879537451 216 216 218
158.878874581393 435.950850284144 2961.80289054597 184 184 186
156.471136961344 436.441516696875 2968.37235510922 205 205 207
151.51030791255 437.045001103767 2973.20933695741 207 207 209
145.693246305326 437.68674296786 2977.47400664039 208 208 210
139.872871888042 438.328797564556 2981.74158192899 227 227 229
133.188651621518 439.010085841233 2985.44459871938 176 176 178
128.223104784131 439.613988093861 2990.28620364397 193 193 195
120.663820657084 440.335773428428 2993.4349391765 242 242 244
113.093695463476 441.058836998454 2996.59425112575 181 181 183
102.906619421773 441.902621635068 2998.08332563672 212 210 215
86.6028789597317 443.029391442172 2995.68547234537 219 217 222
76.3572586814618 443.880350119143 2997.23162182867 209 207 210
82.7042275308716 443.964356569648 3009.33774431738 171 171 171
135.797059519449 410.948454900714 2560.4811218186 202 202 200
136.383989138286 411.436320738707 2571.16247374061 195 195 195
131.586913822655 412.098369112835 2577.24509929999 188 188 190
130.672569698328 412.630802195995 2586.57649474507 188 188 190
124.339144256565 413.341810266292 2591.34334599198 186 186 188
118.002785911256 414.052821224814 2596.11344707058 183 183 185
107.755897156392 414.896185412733 2597.66197863205 169 169 171
101.403473519632 415.608543515005 2602.4478336753 163 163 165
95.0479281030825 416.320941354263 2607.23678281891 163 163 165
85.5399764895983 417.142132350231 2609.4717253813 137 137 139
74.4350202322828 418.020063892239 2610.45031229972 126 126 126
58.5566282495344 419.066852699581 2607.64190283746 166 166 164
159.927016124605 417.391170096295 2726.86409712488 149 151 146
176.23752494382 417.264018356893 2748.94556803968 191 193 190
185.428414464798 417.385398041441 2765.30733378557 187 189 188
191.470788108449 417.615080446097 2779.11130229166 183 184 186
192.728243136319 418.015143132201 2789.13978983783 157 158 160
197.251908580296 418.291856032008 2801.61075047275 177 178 180
201.012665796378 418.592542161255 2813.41917554727 172 173 175
205.629146995752 418.857465707074 2825.79971122639 191 192 194
209.478808389043 419.146855598914 2837.52152271765 187 188 190
214.188147860968 419.39998443078 2849.811592013 191 192 194
214.853176939211 419.802023702677 2859.01082798658 193 194 196
211.444793708732 420.356524235751 2865.14760446041 195 196 198
209.689328141661 420.8469111697 2872.48630385725 196 197 199
207.126166860464 421.366724154388 2879.20579856299 197 198 200
206.227632921437 421.82108173304 2887.1161244681 202 202 204
202.037048962034 422.401424009408 2892.60857127072 199 199 201
198.681286902726 422.948612666236 2898.69417483581 209 209 211
196.165687279017 423.462030004398 2905.36704754434 198 198 200
193.662756393326 423.973719271273 2912.02793325892 207 207 209
192.008230561483 424.450660483902 2919.26872312025 207 207 209
188.69424782669 424.992182449153 2925.31333889104 207 207 209
187.068212823896 425.465338587097 2932.52605852834 204 204 206
183.775402257962 426.004060488489 2938.55040171267 184 184 186
182.178045614189 426.473542294772 2945.73518638014 206 206 208
178.060830631034 427.043737675592 2951.15661425348 207 207 209
173.947997904223 427.613334672452 2956.57344108038 210 210 212
167.291925931184 428.286487878922 2960.24937071706 208 208 210
162.331432173055 428.890460736537 2965.08594742387 190 190 192
157.371704531463 429.494248559749 2969.92179071363 210 210 212
152.412785254309 430.097875506953 2974.75685506296 206 206 208
146.597615672925 430.73704958248 2979.02002545434 215 215 217
140.779342877791 431.376555898582 2983.28622827783 208 208 210
134.957714216935 432.016439343963 2987.55536994405 189 189 191
128.270436779071 432.693012222174 2991.26211948461 205 205 207
122.440688957285 433.333742310319 2995.53919846423 228 228 230
114.007750789394 434.085514390062 2998.13414402874 176 176 178
103.82273180119 434.913295025727 2999.62354123953 217 215 220
86.6506421299178 436.042522519228 2996.67069898682 212 210 215
79.0227663051288 436.764905682359 2999.88745873037 222 220 223
82.7518974893131 436.997018079091 3010.32017693009 168 168 168
137.397187002827 403.153329769206 2562.87844414095 200 200 198
137.987406500662 403.662582884971 2573.55303029218 195 195 197
134.741300174179 404.281583023646 2580.93603970563 191 191 193
132.283101045105 404.875627224228 2588.95724341912 189 189 191
125.953542764408 405.583746502043 2593.72101932218 185 185 187
118.061788260837 406.338953499295 2597.19496314627 183 183 185
110.159089359612 407.095127429986 2600.67963200667 172 172 174
102.245487500871 407.852381007579 2604.17496809372 166 166 168
95.1064182050807 408.586410663184 2608.32186154131 155 155 155
83.2364947673159 409.467844047215 2608.64230744777 158 158 158
69.758008776077 410.402079387822 2607.71845700719 117 117 115
52.2858237530284 411.465458878503 2603.65643686336 161 161 159
154.388928505619 410.191134763398 2723.5086211683 151 151 149
170.68516462443 410.138844700676 2745.59320056247 190 190 188
182.270353077699 410.231612275973 2763.83268672675 184 184 184
191.523470258306 410.393897948264 2780.12627575762 161 161 163
193.587208654804 410.78900778873 2790.77175334582 171 171 173
196.49529280913 411.152371042335 2802.00038456416 175 175 177
201.064235858193 411.45603167255 2814.42273884712 167 167 169
207.305435388778 411.698506901545 2828.02737953445 188 188 190
209.529615497726 412.073036701884 2838.51657785136 188 188 190
211.789385454205 412.443033905525 2848.97076699738 190 190 192
210.811745851624 412.921604981599 2856.95606725145 192 192 194
207.393300585542 413.483048039393 2863.10147153127 192 192 194
204.805826173574 414.014506044787 2869.8433884063 192 192 194
206.35163162122 414.399269449832 2879.58780095008 193 193 195
205.450806285984 414.867668669864 2887.49798905505 197 197 199
202.91422813865 415.392356579434 2894.19036580412 202 202 204
199.560220015386 415.945132554163 2900.27340188165 209 209 211
197.878446845815 416.43675532601 2907.5387409821 197 197 199
196.213043319121 416.926255475442 2914.78813850785 204 204 206
192.056786536518 417.50491082502 2920.24708508549 201 201 203
189.580523549743 418.021493815208 2926.88076589205 204 204 204
187.956235995945 418.505604252059 2934.09013124608 181 181 181
186.34827556787 418.987597426458 2941.28359645337 196 196 196
183.06974131691 419.530210063261 2947.2931879969 198 198 198
178.108731698599 420.134867125926 2952.13017583528 197 197 197
173.14853071398 420.739333794227 2956.96638882866 212 213 215
169.038392159652 421.311539589161 2962.38015472324 181 182 186
163.230554645816 421.947695947731 2966.6364902804 204 205 209
159.125816847088 422.519102953954 2972.04501120545 208 209 213
154.170720882767 423.122601724785 2976.87629789303 212 213 217
149.216390496474 423.725974497927 2981.70684297272 196 197 201
142.544806518451 424.395687591478 2985.39868470685 158 159 163
135.866375096902 425.066221391763 2989.09754259552 196 197 201
127.455047029589 425.804992152647 2991.67261275795 232 233 237
122.488261271144 426.40969924805 2996.51532899406 169 170 174
114.055460667018 427.15104598782 2999.11167881641 197 198 202
103.001945187724 427.997430851145 3000.04384686715 222 223 225
87.5691356446566 429.020285968901 2998.21341416196 232 234 233
81.6883876734464 429.664926223206 3002.54089696502 250 250 250
139.767099889651 395.34821153737 2565.92974447175 202 202 200
139.591115481955 395.898495602083 2575.9422087537 194 194 196
136.348568173315 396.525391158956 2583.32051707046 193 193 195
131.567215563662 397.191059474688 2589.38699472458 184 184 186
122.902934903247 397.958757449949 2592.20931296364 182 182 184
116.56222019011 398.665482154085 2596.98437348642 182 182 184
111.781045995944 399.330213960899 2603.05081238694 168 168 170
105.437956245756 400.036589419101 2607.82828297502 160 160 162
96.7355958595615 400.80765625052 2610.68757918723 155 155 155
84.0825342433664 401.689106683192 2610.36911888628 147 147 145
69.0275371039331 402.640509138381 2608.17407355151 150 150 148
165.934321190101 402.95133969547 2742.87137467567 185 185 183
178.309783785197 403.078866760575 2761.73754097303 180 180 180
189.96704981157 403.21954118331 2779.89837243059 173 173 175
193.639802953038 403.591423896583 2791.78332618612 182 182 184
196.547488968253 403.982139908609 2803.00831003673 162 162 164
195.442022571365 404.490961655042 2811.11573530932 190 190 192
201.669394106385 404.773231462179 2824.72856362138 182 182 184
204.694046697602 405.148995587886 2835.83960781521 186 186 188
208.574648178461 405.494321902445 2847.5220901213 186 186 188
208.407294774798 405.962098833724 2856.12126888921 187 187 189
207.443627664508 406.452543291959 2864.0906015292 187 187 189
206.500409392947 406.940337842417 2872.04035766724 187 187 189
205.577430633058 407.425433458769 2879.97041457227 189 189 191
203.848422458297 407.934480390304 2887.28008344795 194 194 196
200.479674604705 408.494877040737 2893.37629212105 196 196 198
198.779683552262 409.000075958551 2900.65805314205 199 199 201
198.759384370217 409.448649265005 2909.11370533941 197 197 199
196.261974972899 409.976566513738 2915.76670964578 202 202 204
192.941272283655 410.53053945693 2921.81649602356 199 199 201
189.6291801259 411.083338452573 2927.85790552522 190 190 190
188.004769804821 411.578579989981 2935.06574761717 189 189 189
185.555131392046 412.100150618516 2941.6722526574 196 196 196
182.274336464771 412.648781263568 2947.68286178494 195 195 195
177.311325309166 413.254044464771 2952.52174759244 193 193 193
174.04392191153 413.800855919167 2958.51966545066 190 191 195
169.93566862674 414.375890424897 2963.9311411625 194 195 199
164.129680352336 415.009513873221 2968.1860147606 192 193 197
160.026827823146 415.58374959024 2973.59224550291 203 204 208
155.073641630464 416.187390901383 2978.42161469163 222 223 227
150.978188163122 416.760575911437 2983.82065335018 160 161 165
143.451720914139 417.455360698915 2986.94112974873 194 195 199
136.775038402866 418.12067470893 2990.63868458437 209 210 214
128.365971306076 418.84873940277 2993.21342976368 229 230 234
122.536137667175 419.484910225474 2997.4912678184 171 172 176
114.970217191626 420.184373874914 3000.65023032041 229 230 234
103.918574210129 421.01199002212 3001.5829751192 219 220 222
91.0997643522578 421.906817128911 3001.42712820585 240 242 241
82.6090705398954 422.644772423368 3004.08113025194 191 193 192
93.3410021254617 422.671123804491 3018.92666358865 185 187 186
142.137087773524 387.55815038613 2568.97874489944 200 200 198
139.651555105343 388.178372896236 2577.02322207861 192 192 194
136.408697215005 388.81371066464 2584.4005910524 191 191 193
130.075888040158 389.517682723176 2589.16787025662 182 182 184
122.962622129566 390.239643612518 2593.29092431965 181 181 183
116.621695650897 390.943977291178 2598.06654852125 181 181 183
112.621631244635 391.593337467693 2604.77651509343 167 167 169
104.713486196206 392.33433535745 2608.26883507073 159 159 161
96.7945027737547 393.076316299096 2611.77177241903 151 151 151
83.3540634604235 393.952889698477 2610.81866347459 144 144 142
67.5080184388879 394.891786038367 2607.99407946124 168 169 164
27.8789471890293 396.423105450887 2586.18851208944 187 188 183
144.113276273105 395.654069124453 2717.43989519174 156 157 152
167.590224409142 395.56457259788 2745.15261788693 182 182 180
177.560848945262 395.814313572146 2762.13803281134 177 177 177
185.996627685745 396.097079921149 2777.80853468661 179 179 181
190.466035573403 396.478743937401 2790.31819998985 183 183 185
191.74836281478 396.941169005506 2800.3124340855 173 173 175
194.683734617507 397.355549928701 2811.50642787631 187 187 189
198.471307028813 397.742753552484 2823.27543781766 179 179 181
203.930934071306 398.079542585817 2836.22500484063 182 182 184
207.809430493901 398.4551658556 2847.90543746593 180 180 182
207.639907012507 398.93969814666 2856.50429471825 179 179 181
208.314593904162 399.398014503538 2865.68562261176 179 179 181
204.906376913072 399.969490139432 2871.81938725265 180 180 182
203.155218557182 400.492549976785 2879.14931832625 182 182 184
198.942080005323 401.084964239254 2884.66237793833 184 183 188
198.045488477499 401.580397646969 2892.56436616881 185 184 189
197.999206352654 402.048803718547 2901.04322638043 179 178 183
197.145194380832 402.538738321104 2908.90408304536 186 186 188
196.311190527287 403.02601619828 2916.74512617391 191 191 193
192.990414074964 403.585747901062 2922.79413465737 195 195 197
190.515760998375 404.11905198969 2929.42374542827 181 181 183
187.213823711841 404.676244847713 2935.45408373976 195 195 197
184.762130975539 405.206536482971 2942.06133979264 194 194 194
182.322875045351 405.735201292379 2948.65648635734 190 190 190
177.359775355137 406.340858952148 2953.4954017802 193 193 193
173.245028201793 406.9198539075 2958.91307848878 188 189 191
169.134748608355 407.498210240609 2964.32607539043 183 184 188
165.880221449064 408.049043001405 2970.31027476431 195 196 200
162.634493428248 408.598694484247 2976.28624889797 203 204 208
156.832013908558 409.229428391989 2980.5380653236 166 167 171
151.883416337484 409.832845047426 2985.36291114724 179 180 184
145.21753563162 410.491873421225 2989.05066864472 201 202 206
139.40578925709 411.123569172371 2993.31154503416 229 230 234
131.002556214968 411.840578846286 2995.88213083806 218 219 223
123.449208508965 412.530775104406 2999.02964026844 222 223 227
115.018425697186 413.251110442468 3001.62709186916 237 238 242
105.7041738717 414.002240630699 3003.68004263544 165 167 166
93.7598706765641 414.843444944012 3004.08063242158 180 182 181
81.7852140305462 415.688341407949 3004.51048009291 230 232 231
87.2685502916792 415.94212467324 3016.03220025182 203 205 204
142.198020445381 379.825876914261 2570.06106449784 192 192 190
138.940585583333 380.471661790234 2577.4513645421 191 191 193
134.148269972555 381.144992346473 2583.52759614261 192 192 194
129.360527648394 381.817451523135 2589.59941519142 185 185 187
123.799966919907 382.504178100626 2595.01963630675 182 182 184
118.240153203411 383.19048617684 2600.43917748244 178 178 180
112.681064701821 383.876437468473 2605.85805124161 160 160 162
105.55624734368 384.593751327783 2609.99326289182 153 153 155
98.4242077513215 385.311634889424 2614.13522428363 164 164 164
86.5621344228127 386.128320303115 2614.45778247928 146 146 144
71.5130157577093 387.014912053238 2612.26647872651 156 157 152
166.844136107195 388.241694201678 2745.55890351117 179 179 177
176.812248625663 388.543349578854 2762.53913998016 177 177 177
184.440752894513 388.891119083391 2777.58442274176 178 178 180
188.905844308572 389.30602547401 2790.09346115868 177 177 179
190.184185016655 389.790846989107 2800.08868159774 185 185 187
192.304695289575 390.252317512599 2810.66763795144 169 169 171
196.89846675562 390.650795347131 2823.05132330792 178 178 180
200.725118489942 391.062953149824 2834.77750084507 174 174 176
204.595496666413 391.469585501791 2846.46141187998 173 173 175
205.236142552719 391.951476074541 2855.67305873621 172 172 174
206.724928943821 392.409279370334 2865.46295894008 172 172 174
204.957003728715 392.94569953606 2872.80722726006 173 173 175
202.381459280058 393.500833268927 2879.53379824299 176 176 178
199.818309658867 394.054286499193 2886.24830935657 178 177 182
198.095583140477 394.584684322474 2893.54858480213 184 183 188
196.389393882629 395.112925354561 2900.8330951183 178 177 182
195.531113197672 395.617180355128 2908.6957362879 179 178 183
193.859324653308 396.140891277693 2915.94641789326 183 182 187
193.039754194067 396.64016474808 2923.77169334646 193 192 197
189.72736543086 397.20452954113 2929.81168796192 185 185 187
188.102624002402 397.722103036294 2937.01655819478 180 180 182
183.969609284424 398.30671620062 2942.45120665426 186 186 188
184.058681240417 398.774275166902 2950.79578346451 183 183 185
180.790069300211 399.332809905191 2956.79283088514 190 190 192
177.530213173566 399.890257280561 2962.78168220723 182 183 185
172.580291647126 400.4944894987 2967.60772219831 186 187 189
168.482314026007 401.074361351705 2973.0082790664 190 191 193
164.389223965177 401.653545043339 2978.40442206683 208 209 211
157.735335006532 402.306196738675 2982.08121405234 156 157 159
152.788646937843 402.909785452781 2986.90413828169 194 195 197
148.701555592978 403.488078526796 2992.29411825938 196 197 199
145.480138204783 404.040326275458 2998.24556784851 228 229 231
136.227525019102 404.770948667224 3000.24034157765 163 164 166
127.821113471971 405.477921559913 3002.81556711588 246 247 249
117.666643934468 406.238901729639 3004.28450135022 220 221 223
109.22702783617 406.949913161535 3006.89210260429 168 170 169
97.2906133009617 407.768982659626 3007.28813035053 230 232 229
86.1964484906608 408.56494338247 3008.26811645381 242 244 241
86.4426251286727 409.012562423137 3016.45929526268 190 192 189
141.489378980964 372.10399572883 2570.48879945485 189 189 187
138.229678286632 372.758410337912 2577.88007403328 193 193 195
135.755893421675 373.398999800968 2585.90987524343 189 189 191
131.747444429854 374.061728434543 2592.62652982288 186 186 188
127.747458505752 374.723154288653 2599.33497300122 183 183 185
121.417611298677 375.421327812051 2604.10016794862 177 177 179
114.303530623944 376.132511666874 2608.22562392548 161 161 163
104.832313911814 376.883881607158 2610.43440770931 155 155 157
96.9130046974485 377.610365334273 2613.93995905533 157 157 155
86.6214181676295 378.378947354127 2615.54426678186 146 146 144
69.2049280049143 379.275247781136 2611.45129718904 151 152 147
166.098296752766 380.912474757253 2745.965879131 172 172 170
174.45840172951 381.297155653263 2761.69646324679 174 174 172
180.471358672126 381.720868387962 2775.50096537383 172 172 174
185.732927753393 382.153611203492 2788.63336279501 171 171 173
187.002949811107 382.661430858007 2798.6331068199 167 167 169
190.736615531538 383.115401573246 2810.44577875522 151 151 153
194.513566435158 383.563899056869 2822.215938963 173 173 175
197.519720665787 384.023843926009 2833.33291042524 171 171 173
199.749316879775 384.495991973992 2843.80230253541 166 166 168
201.1962143378 384.981071407664 2853.6297676678 165 165 167
202.675210334807 385.462032303737 2863.42630503653 167 167 169
200.897404396275 386.010843199853 2870.7785537164 168 168 170
199.959997596951 386.539225822754 2878.71620223522 166 166 168
198.217012641539 387.083427551863 2886.03489223896 165 164 169
197.318106740873 387.606779618255 2893.93505231032 175 174 179
194.779775522391 388.165359730219 2900.62416063225 167 166 171
193.085647651402 388.70314992572 2907.89494460879 180 179 184
191.407889961798 389.238758462092 2915.14979520149 175 174 179
189.746690791313 389.77220752729 2922.38885995081 179 178 183
187.263995961651 390.323478944285 2929.0238007381 174 174 176
185.633264129378 390.852952733238 2936.23286067229 171 171 173
184.860319067606 391.360012652667 2944.0103477408 180 180 182
184.107780058154 391.864457542638 2951.7682956399 183 183 185
182.52981255276 392.387220580972 2958.9259516635 179 179 181
177.579036375175 392.99203229208 2963.752754687 183 185 184
172.629068562026 393.59668312718 2968.57877877006 179 181 180
171.084606189672 394.115045404639 2975.70381413179 210 212 211
166.14395071031 394.718404334445 2980.52078187278 188 190 189
161.204103326133 395.3216319066 2985.33696657791 192 194 193
157.122210060867 395.902440958807 2990.72175076723 207 209 208
152.185892946758 396.50507606226 2995.53451742861 227 229 228
147.250341410679 397.107585168024 3000.34654248209 149 151 150
136.27602854677 397.870523163317 3001.21205673358 212 214 213
129.599183553186 398.520778083733 3004.91233648542 198 200 199
117.715343503899 399.312328321422 3005.25988648263 100 102 101
111.012989294806 399.965681146125 3008.98503939366 8 10 7
101.691875932739 400.691523665523 3011.04854127361 31 33 30
92.3524785511707 401.419569684951 3013.13021162086 60 62 59
87.3660791911979 402.028194122724 3017.99182547174 55 57 52
135.393651207928 364.43727707068 2566.33913468862 187 187 185
137.519230610776 365.038719271911 2578.30961672824 195 195 197
135.043176131505 365.690680995292 2586.33999088385 183 183 185
132.583387156255 366.340297349311 2594.35455979808 185 185 187
127.807728793419 367.016940088901 2600.41409880788 183 183 185
121.477669282305 367.712781623537 2605.17984924325 178 178 180
112.019386166643 368.44968232081 2607.37826616439 164 164 166
102.542274172174 369.188556953559 2609.59475085174 160 160 160
94.6169558185219 369.908043827481 2613.10730349375 141 141 139
85.1065770850106 370.6505095351 2615.35662962743 145 145 143
61.3735479067681 371.596814385588 2606.19273579494 179 180 175
159.747224781447 373.665472973675 2742.00740311559 168 168 166
168.89415430086 374.085410613698 2758.36869505745 170 170 168
177.30702685523 374.509582424827 2774.0410434486 166 166 168
185.786757903847 374.925296176005 2789.64825046417 170 170 172
187.865126925157 375.441423143714 2800.2613133471 146 146 148
187.547700826398 375.994501574881 2808.9965711533 150 150 152
191.316700832306 376.474003490263 2820.77038212057 166 166 168
195.129050335642 376.94796509737 2832.50162740922 169 169 171
198.984980460549 377.416373705833 2844.19041722719 161 161 163
198.79332088403 377.953230417655 2852.80352242267 160 160 162
198.625790331032 378.486986313842 2861.3931254403 163 163 165
197.660340942689 379.032866724633 2869.35637234115 163 163 165
197.538946106989 379.560583643192 2877.90071662575 160 160 162
198.267910652952 380.06948003839 2887.02100814058 161 160 165
196.540920190419 380.622705615991 2894.32214381359 169 168 173
194.000513389832 381.190009414659 2901.01202386214 159 158 163
193.967957850929 381.706277815042 2909.47017933972 185 184 189
192.291947610321 382.252840650321 2916.72167564914 175 174 179
190.632264495437 382.797286223149 2923.95727181181 173 172 177
188.988929764853 383.339611853544 2931.17694711377 160 160 162
187.361943687824 383.87978802315 2938.38070565044 172 172 174
186.592886958352 384.400261361648 2946.15268689201 178 178 180
185.000446607624 384.936023524718 2953.32279340002 183 183 185
183.424332844112 385.469727462051 2960.47699157044 179 179 179
179.322808475816 386.056372549829 2965.88040717177 180 182 181
174.376705954147 386.660948885307 2970.70260397426 184 186 185
169.431327031861 387.265345546344 2975.52410878768 211 213 212
163.633589316982 387.888654328284 2979.77197611939 138 140 139
161.252990241085 388.43504522927 2986.30625565208 215 217 216
158.027937304563 388.999427124208 2992.25952197293 209 211 210
153.952311295925 389.582496021608 2997.63741083765 191 193 192
148.159844872738 390.204950329083 3001.88050783173 100 102 101
138.050474363365 390.928932602858 3003.31012633731 155 157 156
132.242150118674 391.553268103051 3007.56869234311 31 33 32
122.964054229138 392.260802897931 3009.59218311061 51 53 52
122.353184725925 392.761098347763 3017.2100643812 12 14 11
114.798304373116 393.428431009211 3020.36247498212 39 41 38
107.232582684492 394.097071424474 3023.52545790432 36 38 35
84.792252446642 395.135210590119 3017.3153876379 9 11 6
92.0685719748811 395.438369431479 3029.88316985427 88 90 85
133.916081063152 356.689663810825 2566.11732106372 191 191 189
136.037351287211 357.318892850346 2578.08797529902 196 196 198
136.651308619403 357.956110160615 2588.72041421975 199 199 201
133.419669967267 358.623203530673 2596.08194886011 181 181 183
128.645560264703 359.302612516262 2602.13920333543 180 180 182
122.317454373461 359.995835975102 2606.90373858983 181 181 183
112.860825221286 360.719302700363 2609.10216079399 167 167 169
104.168886092773 361.437061708211 2611.9593252583 159 159 159
93.1065849205335 362.180444684578 2612.91544126592 139 139 137
79.6564267033735 362.95156869911 2611.98756870968 130 131 126
153.396978065234 366.374274917874 2738.05497764139 166 167 162
161.724990169062 366.855287843892 2753.80319262244 164 164 162
171.729233098217 367.307034156157 2770.72536768485 158 159 161
181.807840981033 367.749418622313 2787.57474308374 166 167 169
185.493317221561 368.269583105791 2799.42548447493 126 127 129
185.98035074106 368.828805314608 2808.77824110017 155 156 158
189.744955472043 369.338830525994 2820.5515674686 166 167 169
195.181794146603 369.820122478494 2833.50274405144 155 156 158
197.404924260076 370.342354135713 2843.97115475944 151 152 154
198.02729284321 370.884190880828 2853.19209122981 154 155 157
197.857591673973 371.434761173509 2861.78136454099 157 158 160
196.889786575182 371.994750302339 2869.74452759279 159 160 162
196.766366943824 372.539309165308 2878.28873113938 152 153 155
195.841204907512 373.093820967393 2886.21069638824 160 160 162
195.764088072609 373.632365720667 2894.70980945625 163 163 165
194.881128647578 374.181363860046 2902.59034396319 157 157 159
194.850271284214 374.71398841866 2911.04439569431 161 161 163
194.009702538943 375.257524601642 2918.88364290437 172 172 174
192.353953786291 375.812665224717 2926.11408930543 158 158 160
192.389363204981 376.336801418362 2934.50325387701 159 159 159
189.091060174927 376.91663886268 2940.52697430012 177 177 177
188.325660653612 377.450538310616 2948.29333950681 165 165 165
183.363395959013 378.057771317476 2953.13119293107 169 169 169
180.937822058592 378.618513465116 2959.70767417938 192 192 190
177.677637542061 379.193339074233 2965.69428310212 179 181 178
172.727577424751 379.798797624897 2970.52027946457 131 133 130
167.778283423978 380.404071141158 2975.34554240998 27 29 26
161.123595061138 381.041933985409 2979.02531400141 16 18 15
160.447207625441 381.564346685889 2986.7049866275 94 96 93
160.64781688063 382.067437386424 2994.93355367601 44 46 43
157.436787068602 382.635813942193 3000.87196657582 27 29 26
148.208890253435 383.324270041689 3002.84876658523 23 25 22
135.511362588236 384.085145875616 3002.59194475931 24 26 23
132.291232731269 384.654538661081 3008.53958178194 15 17 14
143.811709220338 384.916584377409 3023.98415217055 12 14 11
148.458012090432 385.31560495082 3034.89834568996 10 12 9
127.033810024759 386.263987345239 3029.10942045674 35 37 32
95.9406743822857 387.4272782513 3017.30310979334 23 25 20
76.0986565431003 388.358102678024 3012.77980377162 3 5 0
99.1279806696315 388.356193444308 3035.25610324885 8 10 5
135.517387875143 348.916562284963 2568.51021721604 189 189 187
136.870617940812 349.57629195145 2579.82212938527 194 194 196
136.712505730727 350.239076278008 2589.80021882122 197 197 199
135.031359296736 350.906359736066 2598.45588230899 182 182 184
128.706206475412 351.597088035768 2603.21785390474 175 175 177
122.377931335792 352.28791510917 2607.98291141001 176 176 178
112.139983435018 353.003103823714 2609.54150885019 171 171 173
105.795706241171 353.695329037635 2614.3222499873 161 161 161
93.1668096970744 354.430333930912 2614.0011001573 156 156 154
74.9938932687413 355.208278287377 2609.25985668609 151 152 147
155.359101732606 359.568168106714 2749.86535899196 152 152 150
167.761097121518 360.050336999223 2768.65309976761 154 155 157
177.829664730182 360.545601371142 2785.50496752217 161 162 164
181.504814283519 361.0970663838 2797.36099941986 133 134 136
185.223775313315 361.642995225805 2809.17468195938 155 156 158
192.235496375573 362.14861661131 2823.39219980606 167 168 170
199.306461833506 362.646844714715 2837.55231765791 146 147 149
199.906417045205 363.210878280931 2846.79223025698 152 153 155
198.897879630056 363.790066430564 2854.79300349416 157 158 160
197.089747718812 364.376240621758 2862.17018187652 160 161 163
196.941731046308 364.940572063985 2870.73555042801 158 159 161
195.994226978356 365.511787592795 2878.67723284105 147 148 150
195.892744495702 366.070062716603 2887.19762521732 156 156 158
194.987378724792 366.635831659364 2895.09793083953 149 149 149
196.591945825586 367.166506173195 2904.76242659493 166 166 166
198.228191195725 367.693141206911 2914.39572455197 147 147 147
198.228964353718 368.238318991548 2922.81651134648 153 153 153
196.582511757378 368.803534285765 2930.03589965291 142 142 142
194.952407814593 369.366600119192 2937.23937119405 159 159 157
191.659749040193 369.95153444481 2943.25673347102 162 162 160
190.058430018568 370.510883028312 2950.43217056785 157 157 155
185.100030884702 371.118012017192 2955.26620080697 131 131 129
180.987610280472 371.712264997748 2960.67897424643 20 20 18
177.727372990186 372.292876204831 2966.66478046544 14 16 13
171.928099808473 372.911972341279 2970.91513300758 0 1 0
167.827968546586 373.50446966407 2976.31596243387 4 6 1
156.055158046677 374.219325962414 2976.56493161996 12 14 9
161.351590206181 374.659762787041 2988.24432515819 17 19 14
159.840070106781 375.207495945417 2995.33230735253 24 26 21
157.486059499913 375.767488485022 3001.83817382618 47 49 44
149.979615684497 376.413707384968 3004.94560683417 59 61 56
140.737085234786 377.090887722725 3006.93860481167 56 58 53
137.528551496556 377.664686031404 3012.87407558257 15 17 12
140.394237071622 378.130162588496 3022.71246975552 11 13 8
146.769718156337 378.529006281695 3034.74374636611 25 27 22
121.86028766537 379.490286693228 3026.74582304619 31 34 27
99.4799026116064 380.414223693238 3020.49310535602 33 36 29
86.6401654220046 381.16861420317 3020.37845821813 13 16 9
138.657879189603 341.15185777938 2572.20725796358 189 189 187
137.703868185118 341.838099336688 2581.55531038174 190 190 192
136.773902785369 342.521073688145 2590.87996805052 190 190 192
135.092481530533 343.202190497134 2599.53385987623 184 184 186
131.099260555743 343.885525488914 2606.23234719892 179 179 181
124.776640479364 344.57328089868 2610.99224313333 162 162 164
116.888242744586 345.265439828166 2614.47217211327 162 162 164
108.988963310869 345.958675724575 2617.96274760586 165 165 165
92.4421851357842 346.681884234464 2614.44897122209 143 143 141
144.701485584195 351.636821360163 2733.28056555488 175 176 171
153.007097649253 352.213062318085 2749.03694944403 123 123 121
161.379841849852 352.780827165726 2764.72826073758 157 158 160
172.238790598456 353.324446299648 2782.20503084121 117 118 120
174.2829846108 353.918694094506 2792.84014594711 149 150 152
179.60480485427 354.485366477241 2805.89291834201 138 139 141
187.414974311079 355.027609739205 2820.72939959203 160 161 163
195.288132931848 355.561912216195 2835.50450531564 129 130 132
196.694472023243 356.139955189973 2845.35884337703 153 154 156
197.314341306045 356.720672624125 2854.57651514071 162 163 165
197.142233165593 357.304657349842 2863.16323997128 155 156 158
198.638181764464 357.87118078397 2872.929959208 144 145 147
198.518221990664 358.448473441814 2881.4658890243 138 139 141
197.596317241155 359.030273513084 2889.38024870296 151 151 151
197.522617477402 359.601586939553 2897.87112537322 136 136 134
199.962499780996 360.145408180723 2908.12110702116 173 173 173
200.774529650301 360.701428969028 2917.15161063527 131 131 131
199.113518635812 361.279713144621 2924.38352409118 149 149 149
195.797718388144 361.873550156535 2930.42255038005 158 158 156
195.840687849568 362.429919698068 2938.79978148469 156 156 154
195.06812783526 362.992538679516 2946.56867459027 107 107 105
191.791700357165 363.581205737325 2952.56936725389 18 18 16
185.150279146499 364.207887322968 2956.23761695222 10 11 6
175.966237028374 364.865399276866 2958.17544213038 15 16 11
166.763449046346 365.525095833992 2960.13122150312 8 10 5
163.486535852025 366.113470311091 2966.13243973343 10 12 7
172.133440884237 366.550450891693 2980.15358796619 16 18 13
168.900492743692 367.133310655303 2986.11162547843 12 14 9
168.241197996645 367.681416579093 2993.77052736483 47 49 44
164.174330067982 368.272742682556 2999.13849891521 58 60 55
157.535592419226 368.898540500935 3002.80421441731 55 57 52
148.307806073007 369.56091845276 3004.78475906826 47 49 44
136.473205376293 370.261965350222 3005.09679001463 38 40 35
130.661032154936 370.879930949003 3009.36011957981 19 21 16
130.911636696845 371.409844687529 3017.53507613625 18 20 15
125.106819077793 372.026868253557 3021.79124071162 36 39 32
113.205639210128 372.736013669284 3022.1681888015 38 41 34
103.01919450436 373.422124527203 3023.67994050219 24 27 20
118.164454236032 373.717380199067 3041.18811424269 12 15 8
144.107165855899 333.413723775798 2577.85876948304 193 193 191
141.623305741455 334.111308925165 2585.89015162733 187 187 189
136.061936636053 334.800525648883 2591.31080743036 194 194 196
134.378452119689 335.495717716672 2599.96500563015 181 181 183
130.383053051941 336.185047267846 2606.66476983809 180 180 182
125.616771033156 336.872285289077 2612.71309417965 163 163 165
116.949010608127 337.555890131199 2615.55129680475 153 153 155
107.483157330385 338.240715746178 2617.76458984118 150 150 150
87.0068418086181 338.926602576226 2611.0731959873 126 126 124
141.555597078606 344.219355091442 2731.832802508 182 183 178
144.234606638069 344.857496843999 2743.24829604324 114 114 112
154.194494197233 345.469569056114 2760.19082054577 151 153 152
165.03540919263 346.069712951535 2777.67714409785 106 107 109
171.104152734228 346.676832724138 2791.39914182732 149 150 152
178.038658410508 347.273847122713 2805.68016568831 137 138 140
187.469030749042 347.853635442597 2821.73603101806 148 149 151
192.898861327551 348.442102186689 2834.67832635649 127 128 130
196.747781234468 349.031604201595 2846.35651771395 156 157 159
198.185513101403 349.627594831947 2856.17669178735 161 162 164
198.015060484711 350.227955835036 2864.75935225171 150 151 153
199.512678840362 350.816278884274 2874.52119142167 141 142 144
197.746417894514 351.419330407231 2881.85395901218 143 145 144
198.474402249392 352.005422627301 2890.96381436204 163 163 161
195.918910018768 352.608653197001 2897.66336450456 154 154 152
198.354467040963 353.177652231583 2907.91358211201 142 142 140
202.48940226752 353.730832111132 2919.31312442473 89 89 87
199.998452557879 354.325763906252 2925.94980944505 6 7 2
198.355579759214 354.912891837534 2933.16240428128 20 21 16
205.94179082614 355.427761454355 2946.80807817626 16 17 12
213.587161119806 355.935263268181 2960.39643288461 9 10 5
207.828932890358 356.545116187192 2964.60739332589 19 20 14
197.850931031244 357.190708540676 2965.91814681576 20 21 15
179.397856918009 357.912186246428 2961.46344981347 28 29 23
163.42529818878 358.618374850332 2958.79888988383 38 41 34
162.687776004228 359.190139586702 2966.53163816793 23 26 19
178.141116984938 359.606627156765 2985.13321181196 20 23 16
180.039676008948 360.14397774008 2994.50444467945 35 38 31
174.275691820929 360.753996085276 2998.72109642276 40 43 36
165.080976249481 361.399348031999 3000.67097989962 31 34 27
154.150272725278 362.064842938704 3001.50792932004 23 26 19
148.357719163662 362.678227032084 3005.75245341756 23 26 19
134.798036680426 363.377034349549 3004.94402845285 21 24 17
129.846565823292 363.983511052161 3009.77127521839 16 19 12
117.096928925847 364.679279474207 3009.57582147744 15 18 11
123.419680960535 365.155459382736 3021.64802855534 20 23 14
113.255742847798 365.823120930178 3023.14015767647 14 17 8
110.048166625537 366.408341676537 3029.07298938856 27 30 21
98.980606036271 367.090470418185 3030.04338142418 26 29 22
71.2391162145409 367.986977634605 3020.61624254003 4 7 0
149.740268618328 324.988365769284 2573.51027940124 203 203 201
145.70866831037 325.689010992633 2580.24431952445 204 204 202
143.228448466046 326.397223367489 2588.2705161274 179 179 181
137.670796649845 327.086295796383 2593.68750193402 173 173 175
135.990863318006 327.794897855159 2602.33619176427 195 195 197
130.444398629185 328.48199976504 2607.74235982987 184 184 186
126.457115763288 329.175744309956 2614.43307415325 163 163 165
117.010020662887 329.84539588537 2616.63032060069 153 153 155
105.977858628679 330.511091404917 2617.5679901709 143 143 143
83.9275685782908 331.140910614401 2609.61370658396 134 135 130
125.59955070188 336.765755713949 2720.43881776032 193 194 189
144.291402115398 337.448422349739 2744.28695526923 107 108 103
152.641557131731 338.111481596402 2759.98627564413 121 123 122
164.284680901349 338.766658079354 2778.0851073919 111 112 114
168.734121845731 339.412408513832 2790.57523046571 140 141 143
176.472684010196 340.050731742881 2805.46861823841 146 147 149
185.086402730835 340.680579338968 2820.9111246262 132 133 135
190.5100421643 341.305281582188 2833.85421227224 127 128 130
195.168920832491 341.924542314808 2846.1406135986 158 159 161
200.693219628543 342.536554845962 2858.98562054347 160 161 163
202.168378986709 343.14974880759 2868.76608591995 151 152 154
202.8534801421 343.760660918162 2877.91451870986 140 141 143
201.095000687804 344.373996210621 2885.23837706957 136 138 137
199.352638897547 344.985179973478 2892.54621050377 168 168 166
195.971104778429 345.599200745099 2898.64752834786 82 83 78
194.257677527133 346.20655994309 2905.92719462615 15 16 11
202.541011853834 346.776220727222 2920.28976386791 4 5 0
207.552553527956 347.350814589171 2932.23222951806 18 19 14
198.406924449642 347.978009436004 2934.13639083502 3 4 0
212.692939419509 348.504344917456 2952.46365383102 6 7 1
231.265997110402 348.999948041369 2973.62324669052 22 23 17
210.403403996087 349.677346280176 2967.31668680635 30 31 25
200.431474475964 350.306430146471 2968.62418816303 26 27 19
190.436929896278 350.938201131792 2969.95341161115 31 32 24
166.864950933634 351.650497867527 2962.0810881487 25 28 21
166.135249514264 352.235224503939 2969.80449237619 20 23 16
173.085089966215 352.769317646225 2982.66234115273 27 30 23
179.236856789437 353.302242604705 2994.89595217964 30 33 26
171.761020603256 353.921840959629 2997.97692586427 24 27 20
164.274385733042 354.542726949226 3001.06843248993 23 26 19
163.647320050795 355.114588431192 3008.69181937743 18 21 14
157.015220782338 355.729613128993 3012.35253513228 10 13 6
141.74960425314 356.413091927628 3010.4062369645 24 27 20
135.949036893568 357.025083307896 3014.65892472424 30 33 26
124.946225587292 357.68090171725 3015.5689084203 25 28 21
136.4968323126 358.145584157851 3030.95360941956 9 12 3
128.973167962863 358.770813973171 3034.08124485024 15 18 9
118.821618168217 359.421213326225 3035.56362353317 27 30 21
90.2886842678394 360.246221836703 3025.5160584786 23 26 17
87.9374176303145 360.831298761792 3032.01549268891 10 13 4
105.794585885255 361.215775175251 3051.06824234294 132 135 128
150.570788532555 317.260558503017 2575.24497454785 196 196 194
148.079835467691 317.981504954376 2583.27994730652 205 205 203
145.605126109765 318.700167753068 2591.29912734694 194 194 196
140.826473177197 319.395776224005 2597.35849903995 188 188 190
138.378743079978 320.110523585267 2605.3518048176 188 188 190
132.060461703206 320.790816233807 2610.10815751003 189 189 191
124.960052904 321.465072142074 2614.22549504675 161 161 163
113.946343172952 322.110115188487 2615.14755579166 159 159 159
102.123295848539 322.752463315785 2615.45712756313 147 147 147
81.6337954421584 323.338084693466 2608.79364568466 135 136 131
124.856857964264 329.270820483438 2720.86716146395 198 199 194
142.743476838661 330.031797391111 2744.08642324603 116 117 112
155.111767117813 330.75706687562 2762.8713656906 110 112 111
164.340731914093 331.4601505149 2779.10934653479 112 113 115
170.406674162203 332.143914354318 2792.8227980305 131 133 132
179.769209453259 332.830128121674 2808.93029691655 157 159 158
189.202681761278 333.507430339609 2824.96900926122 114 116 115
193.821421637926 334.164626325446 2837.28966218709 137 139 136
196.855271271058 334.812463075381 2848.3513613673 155 157 154
201.564831317062 335.458104836055 2860.58319838987 160 162 157
205.501999561182 336.096570980031 2872.16652096704 158 161 154
204.550545164902 336.724023089429 2880.10347653047 102 105 98
202.795559083131 337.348076132888 2887.42194399871 12 15 8
201.057088599444 337.97001934267 2894.7246609084 14 17 10
189.401109254066 338.587279569906 2894.87170184565 13 16 9
184.353021247937 339.207926597225 2899.7927965006 11 14 7
201.761121841724 339.821100458009 2920.67492275747 8 11 4
220.108464945385 340.420714005325 2942.0436186856 29 32 25
214.333909777464 341.028289281312 2946.2707908108 31 34 27
206.043974141747 341.639083616445 2948.74456919597 19 22 15
185.148083745807 342.269879566957 2942.47829964453 14 17 10
187.737401101626 342.868704154032 2952.57142276407 9 12 5
204.698660943801 343.434249499407 2972.48739864887 7 10 3
209.082794703377 344.016219411808 2983.63489013819 8 11 2
183.859559061683 344.668733239657 2974.57730622034 12 15 6
176.375457634504 345.281914002988 2977.66743592869 37 40 31
180.795176339708 345.859325860835 2988.78060256144 34 37 28
191.228861227828 346.411197085325 3003.84428983227 28 31 22
180.360523837143 347.032298561939 3004.62587008975 26 29 20
172.036455004212 347.646511396538 3007.13303799161 28 31 22
179.155501817726 348.197824258683 3019.82031728273 34 37 28
172.558140704735 348.803634216249 3023.44789947026 32 35 28
148.70141900278 349.491607088905 3015.86226265555 24 27 20
136.864123380984 350.129602236027 3016.18628872352 24 27 20
142.326870612673 350.680471395069 3027.68454492768 25 28 21
140.020805314491 351.268547875019 3034.13865020692 20 21 15
136.856619025022 351.860090691912 3040.02712283307 29 30 24
124.105926286579 352.508376596407 3039.8400732952 20 23 16
106.9497864718 353.188268877293 3036.9374663054 14 19 12
82.7314686243597 353.920485148811 3029.7043606535 17 22 16
150.633772124834 309.526920814545 2576.32545918257 196 196 194
149.681454349586 310.27922817007 2585.66172786094 187 187 187
148.753328268906 311.028266349303 2594.97479485381 202 202 204
144.755769342596 311.735558832913 2601.67404891966 217 216 221
141.541994217439 312.450921763642 2609.01071059367 171 170 175
136.008767563942 313.137018208124 2614.40388170185 183 182 187
129.696951364999 313.813886447699 2619.15432050327 167 167 169
117.132809324704 314.421627423878 2618.7880158871 141 141 143
