ply
format ascii 1.0
comment KinectMotionCapture
element vertex 762
property float x
property float y
property float z
property uchar red
property uchar green
property uchar blue
end_header
25.2802558243275 534.937083721161 2525.00009536743 153 154 149
32.1117416024208 534.299194812775 2522.0000743866 156 157 152
38.957703858614 534.084439277649 2520.99990844727 161 161 159
45.7981079816818 533.86926651001 2519.99998092651 160 160 158
52.7165122330189 534.500896930695 2523.00000190735 157 157 155
59.5802329480648 534.496486186981 2523.00000190735 174 174 172
66.4701014757156 534.703254699707 2523.9999294281 181 181 179
73.5104978084564 535.968840122223 2529.99997138977 175 175 173
80.9010565280914 539.352178573608 2546.0000038147 177 177 175
89.4133076071739 549.090206623077 2592.00000762939 183 183 181
98.1383100152016 558.615565299988 2637.00008392334 134 134 132
106.149360537529 563.05605173111 2657.99999237061 133 133 131
113.335877656937 562.835514545441 2657.00006484985 136 136 134
120.74352055788 563.673675060272 2661.00001335144 151 151 149
127.932071685791 563.452124595642 2660.00008583069 148 148 146
135.368868708611 564.289033412933 2664.00003433228 135 135 133
142.773494124413 564.913630485535 2667.00005531311 150 150 148
150.306478142738 565.961182117462 2671.99993133545 137 137 135
157.807290554047 566.796481609344 2676.00011825562 144 144 142
165.391057729721 567.842960357666 2680.99999427795 151 151 149
173.130333423615 569.312512874603 2687.99996376038 155 155 153
180.840045213699 570.569574832916 2694.00000572205 163 163 161
188.511997461319 571.614265441895 2698.99988174438 165 165 163
196.28319144249 572.870254516602 2704.99992370605 174 174 172
204.763919115067 576.031565666199 2720.00002861023 185 187 184
213.793605566025 580.462872982025 2740.9999370575 193 198 194
223.986133933067 587.64636516571 2775.00009536743 195 200 196
-32.1843288838863 572.65716791153 2737.99991607666 173 175 174
-16.2682645022869 538.987457752228 2576.99990272522 172 174 171
-9.13786422461271 532.086431980133 2543.99991035461 177 179 176
-2.20792158506811 530.20453453064 2535.00008583069 162 162 160
4.68230061233044 529.367744922638 2530.99989891052 158 158 156
11.5598831325769 528.948843479156 2529.00004386902 156 157 152
18.4192545711994 528.32019329071 2526.00002288818 160 161 156
25.2622403204441 527.690947055817 2523.00000190735 159 160 155
32.0760942995548 526.852071285248 2519.00005340576 156 157 152
38.9144383370876 526.640117168427 2517.99988746643 160 160 158
45.8017513155937 527.055025100708 2519.99998092651 159 159 157
52.6998043060303 527.469456195831 2522.0000743866 157 157 155
59.5613457262516 527.465045452118 2522.0000743866 172 172 170
66.4490312337875 527.669131755829 2523.00000190735 179 179 177
73.4872594475746 528.918445110321 2529.00004386902 170 170 168
80.9074640274048 532.467782497406 2546.0000038147 175 175 173
89.4893705844879 542.499661445618 2594.00010108948 180 180 178
98.1832668185234 551.694214344025 2638.00001144409 132 132 130
106.117777526379 555.659711360931 2657.00006484985 141 141 139
113.302119076252 555.441975593567 2655.99989891052 148 148 146
120.752990245819 556.478381156921 2661.00001335144 142 142 140
128.086373209953 556.886970996857 2663.00010681152 131 131 129
135.633543133736 558.131396770477 2668.99991035461 154 154 152
143.105834722519 558.956980705261 2673.00009727478 140 140 138
150.599464774132 559.781968593597 2677.00004577637 145 145 143
158.114403486252 560.606420040131 2680.99999427795 146 146 144
165.588945150375 561.221241950989 2684.00001525879 150 150 148
173.208102583885 562.253654003143 2688.99989128113 155 155 153
180.786848068237 563.076436519623 2693.00007820129 161 161 159
188.386797904968 563.898622989655 2697.00002670288 165 165 163
196.225643157959 565.34743309021 2703.9999961853 174 174 172
204.403087496758 567.631959915161 2714.99991416931 189 191 188
213.419854640961 572.006642818451 2736.00006103516 192 197 193
223.438024520874 578.680098056793 2767.99988746643 194 199 195
-32.2456583380699 566.28429889679 2743.00003051758 178 180 179
-16.2884946912527 532.637119293213 2579.99992370605 176 178 175
-9.14218183606863 525.412440299988 2545.00007629395 183 185 182
-2.21070996485651 523.967802524567 2538.00010681152 157 157 155
4.68267221003771 522.522449493408 2530.99989891052 156 156 154
11.5562295541167 521.902561187744 2528.00011634827 157 158 153
18.3988381177187 520.869076251984 2523.00000190735 161 162 157
25.244215503335 520.454406738281 2520.99990844727 162 163 158
32.0531651377678 519.626379013062 2516.99995994568 158 159 154
38.8866141438484 519.4171667099 2516.00003242493 159 159 157
45.7508414983749 519.620180130005 2516.99995994568 159 159 157
52.7039766311646 520.648598670959 2522.0000743866 157 157 155
59.5896691083908 520.850598812103 2523.00000190735 170 170 168
66.5333047509193 521.464943885803 2526.00002288818 178 178 176
73.493055999279 522.0787525177 2529.00004386902 174 174 172
80.9138268232346 525.582075119019 2546.0000038147 178 178 176
89.4618928432465 535.277724266052 2592.99993515015 183 183 181
98.3026400208473 545.179069042206 2641.00003242493 138 138 136
106.245912611485 549.093186855316 2660.00008583069 147 147 145
113.524310290813 549.29107427597 2661.00001335144 150 150 148
120.943956077099 550.107538700104 2664.99996185303 130 130 128
128.288760781288 550.510704517365 2667.00005531311 137 137 135
135.796546936035 551.532506942749 2671.99993133545 144 144 142
143.277585506439 552.347362041473 2676.00011825562 134 134 132
150.948688387871 553.780794143677 2683.00008773804 150 150 148
158.480510115623 554.594457149506 2687.00003623962 143 143 141
166.156992316246 555.820286273956 2693.00007820129 149 149 147
173.479110002518 555.807292461395 2693.00007820129 156 156 154
181.002110242844 556.412875652313 2696.00009918213 156 156 154
188.471034169197 556.811511516571 2697.99995422363 166 166 164
196.240589022636 558.03519487381 2703.9999961853 174 174 172
204.569205641747 560.702800750732 2717.00000762939 182 184 181
213.592007756233 565.020620822906 2737.99991607666 188 193 189
223.374158143997 570.988595485687 2766.99995994568 191 196 192
-32.2952270507813 559.679210186005 2746.99997901917 181 183 182
-16.2708386778831 525.046765804291 2576.99990272522 183 185 182
-9.1572729870677 519.342958927155 2549.00002479553 191 193 190
-2.21175537444651 517.305910587311 2539.00003433228 155 155 153
4.68674302101135 516.083419322968 2532.99999237061 152 152 150
11.5617113187909 515.267789363861 2529.00004386902 162 163 158
18.4075813740492 514.247894287109 2523.9999294281 162 163 158
25.2462066709995 513.634920120239 2520.99990844727 162 163 158
32.0684276521206 513.021409511566 2517.99988746643 159 160 155
38.9051325619221 512.814939022064 2516.99995994568 158 158 156
45.7544513046741 512.811601161957 2516.99995994568 158 158 156
52.6454225182533 513.215243816376 2519.00005340576 160 160 158
59.5471113920212 513.618290424347 2520.99990844727 168 168 166
66.5121898055077 514.4282579422 2525.00009536743 176 176 174
73.527880012989 515.441417694092 2529.99997138977 175 175 173
80.8883905410767 518.491387367249 2545.00007629395 177 177 175
89.4344002008438 528.059959411621 2592.00000762939 181 181 179
98.3475372195244 538.238883018494 2641.99995994568 139 139 137
106.254205107689 541.897892951965 2660.00008583069 144 144 142
113.703817129135 542.908012866974 2664.99996185303 141 141 139
121.08950316906 543.510019779205 2667.99998283386 132 132 130
128.443047404289 543.907821178436 2670.00007629395 148 148 146
136.010393500328 545.119881629944 2676.00011825562 135 135 133
143.449276685715 545.720100402832 2678.99990081787 138 138 136
151.185393333435 547.338426113129 2687.00003623962 143 143 141
158.728629350662 548.141300678253 2690.99998474121 145 145 143
166.354849934578 549.147248268127 2696.00009918213 150 150 148
173.621207475662 548.930585384369 2694.9999332428 156 156 154
181.01592361927 549.120783805847 2696.00009918213 155 155 153
188.485383987427 549.51411485672 2697.99995422363 166 166 164
196.473196148872 551.332533359528 2707.00001716614 173 173 171
204.810574650764 553.965032100677 2720.00002861023 180 182 179
213.764145970345 558.022499084473 2740.00000953674 187 192 188
222.987249493599 562.486529350281 2762.00008392334 191 196 192
-32.2742462158203 551.844894886017 2744.99988555908 172 174 173
-16.2531733512878 517.471313476563 2573.99988174438 181 183 180
-9.15080681443214 512.044250965118 2546.99993133545 185 187 184
-2.21192929893732 510.436475276947 2539.00003433228 159 159 157
4.68711089342833 509.230136871338 2532.99999237061 154 154 152
11.5626221522689 508.425354957581 2529.00004386902 172 173 168
18.3944404125214 507.016897201538 2522.0000743866 174 175 170
25.2381768077612 506.61313533783 2519.99998092651 156 157 152
32.0964194834232 506.610870361328 2519.99998092651 158 159 154
38.985475897789 507.010161876678 2522.0000743866 157 157 155
45.8489321172237 507.006824016571 2522.0000743866 157 157 155
52.6495464146137 506.399869918823 2519.00005340576 159 159 157
59.5281533896923 506.596565246582 2519.99998092651 164 164 162
66.4646998047829 507.194757461548 2523.00000190735 173 173 171
73.4755024313927 508.194446563721 2528.00011634827 182 182 180
80.8946862816811 511.605799198151 2545.00007629395 179 179 177
89.5103886723518 521.449387073517 2594.00010108948 182 182 180
98.6157730221748 532.498121261597 2648.9999294281 134 134 132
106.542095541954 536.108493804932 2667.00005531311 131 131 129
113.968633115292 536.904036998749 2671.0000038147 135 135 133
121.325835585594 537.296950817108 2673.00009727478 148 148 146
128.741636872292 537.890374660492 2676.00011825562 143 143 141
136.325821280479 539.086103439331 2681.99992179871 143 143 141
143.728047609329 539.477348327637 2684.00001525879 145 145 143
151.422068476677 540.873050689697 2690.99998474121 140 140 138
158.799782395363 541.06217622757 2691.99991226196 150 150 148
166.490957140923 542.255699634552 2697.99995422363 155 155 153
173.892140388489 542.443752288818 2698.99988174438 151 151 149
181.36540055275 542.83219575882 2700.99997520447 156 156 154
188.918843865395 543.421149253845 2703.9999961853 161 161 159
196.705803275108 544.612407684326 2710.00003814697 167 167 165
205.051884055138 547.209799289703 2723.00004959106 181 183 180
213.780164718628 550.610363483429 2740.00000953674 188 193 189
222.842454910278 554.613053798676 2759.99999046326 190 195 191
-32.4296243488789 546.994984149933 2757.99989700317 165 167 166
-16.2544436752796 510.505855083466 2573.99988174438 178 180 177
-9.15870908647776 505.548536777496 2549.00002479553 180 182 179
-2.211231039837 503.367364406586 2538.00010681152 163 163 161
4.68747736886144 502.375602722168 2532.99999237061 157 157 155
11.554379016161 501.18488073349 2526.99995040894 182 183 178
18.3958802372217 500.192165374756 2522.0000743866 183 184 179
25.2401456236839 499.793738126755 2519.99998092651 156 157 152
32.0989266037941 499.79156255722 2519.99998092651 159 160 155
38.9885194599628 500.185430049896 2522.0000743866 156 156 154
45.8706878125668 500.380396842957 2523.00000190735 157 157 155
52.6745468378067 499.781638383865 2519.99998092651 159 159 157
59.4855360686779 499.380618333817 2517.99988746643 164 164 162
66.3908272981644 499.772369861603 2519.99998092651 172 172 170
73.4521299600601 501.155197620392 2526.99995040894 181 181 179
80.9645354747772 505.115628242493 2546.99993133545 177 177 175
89.7933840751648 516.016483306885 2601.99999809265 181 181 179
98.9212468266487 526.916444301605 2657.00006484985 128 128 126
106.750078499317 529.883146286011 2671.99993133545 124 124 122
114.233456552029 530.866205692291 2677.00004577637 136 136 134
121.562115848064 531.055450439453 2677.99997329712 140 140 138
129.04018163681 531.83901309967 2681.99992179871 135 135 133
136.59043610096 532.820403575897 2687.00003623962 143 143 141
144.006818532944 533.206224441528 2688.99989128113 135 135 133
151.546195149422 533.988237380981 2693.00007820129 152 152 150
158.870875835419 533.976435661316 2693.00007820129 144 144 142
166.503608226776 534.955382347107 2697.99995422363 156 156 154
174.03419315815 535.537362098694 2700.99997520447 149 149 147
181.647703051567 536.317050457001 2704.99992370605 156 156 154
189.14270401001 536.699593067169 2707.00001716614 159 159 157
196.938335895538 537.874698638916 2713.00005912781 165 165 163
205.067247152328 539.842188358307 2723.00004959106 182 184 181
213.562041521072 542.602181434631 2736.99998855591 189 194 190
222.536042332649 546.352565288544 2756.00004196167 190 195 191
233.19847881794 553.868770599365 2793.99991035461 200 205 201
-32.7143669128418 544.22515630722 2782.00006484985 146 148 147
-16.243077814579 503.147840499878 2572.00002670288 178 180 177
-9.1558275744319 498.453825712204 2548.00009727478 169 171 168
-2.21314537338912 496.889263391495 2539.99996185303 161 161 159
4.69154305756092 495.911031961441 2535.00008583069 168 168 166
11.5598505362868 494.541019201279 2528.00011634827 177 178 173
18.4118952602148 493.757307529449 2523.9999294281 160 161 156
25.2521242946386 493.168771266937 2520.99990844727 155 156 151
32.1141518652439 493.166565895081 2520.99990844727 155 156 151
38.9915443956852 493.359446525574 2522.0000743866 157 157 155
45.856062322855 493.356168270111 2522.0000743866 156 156 154
52.6786297559738 492.96110868454 2519.99998092651 158 158 156
59.5137663185596 492.761164903641 2519.00005340576 161 161 159
66.4223060011864 493.147522211075 2520.99990844727 169 169 167
73.5159441828728 494.707047939301 2529.00004386902 183 183 181
81.1933130025864 499.591380357742 2553.99990081787 178 178 176
90.3524905443192 512.103915214539 2618.00003051758 185 185 183
99.3011966347694 521.681368350983 2667.00005531311 128 128 126
107.037946581841 524.020671844482 2678.99990081787 140 140 138
114.455588161945 524.599015712738 2681.99992179871 140 140 138
121.662214398384 524.198830127716 2680.0000667572 133 133 131
129.098162055016 524.776101112366 2683.00008773804 143 143 141
136.651694774628 525.743901729584 2687.99996376038 139 139 137
144.232019782066 526.711225509644 2693.00007820129 140 140 138
151.726514101028 527.28670835495 2696.00009918213 150 150 148
159.118875861168 527.470588684082 2697.00002670288 142 142 140
166.639626026154 528.044998645782 2700.00004768372 145 145 143
174.30505156517 529.009997844696 2704.99992370605 155 155 153
181.8628013134 529.583334922791 2707.99994468689 154 154 152
189.436376094818 530.156135559082 2710.99996566772 160 160 158
197.025641798973 530.728399753571 2713.99998664856 168 168 166
205.082520842552 532.473385334015 2723.00004959106 182 184 181
213.421836495399 534.804463386536 2734.99989509583 186 191 187
222.39100933075 538.503527641296 2753.99994850159 190 195 191
233.048751950264 545.91703414917 2792.00005531311 196 201 197
-16.2127502262592 495.220452547073 2566.99991226196 188 190 187
-9.15653444826603 491.556078195572 2548.00009727478 167 169 166
-2.21244501881301 489.820241928101 2539.00003433228 166 166 164
4.69190580770373 489.048480987549 2535.00008583069 186 186 184
11.5698892623186 488.083213567734 2529.99997138977 162 163 158
18.4570886194706 488.082051277161 2529.99997138977 161 162 157
25.2941437065601 487.115830183029 2525.00009536743 154 155 150
32.1293734014034 486.534863710403 2522.0000743866 159 160 155
38.9481671154499 485.953390598297 2519.00005340576 157 157 155
45.7868576049805 485.757142305374 2517.99988746643 156 156 154
52.6408739387989 485.753387212753 2517.99988746643 157 157 155
59.494711458683 485.749095678329 2517.99988746643 159 159 157
66.4274170994759 486.322999000549 2520.99990844727 166 166 164
73.5215842723846 487.860918045044 2529.00004386902 182 182 180
81.2631398439407 493.063479661942 2555.99999427795 180 180 178
90.7045528292656 506.945908069611 2628.00002098084 188 188 186
99.5322018861771 515.619218349457 2673.00009727478 131 131 129
107.245914638042 517.733216285706 2684.00001525879 139 139 137
114.592351019382 517.917633056641 2684.99994277954 138 138 136
121.853083372116 517.715811729431 2684.00001525879 137 137 135
129.252329468727 518.092036247253 2686.00010871887 143 143 141
136.814579367638 519.046366214752 2690.99998474121 144 144 142
144.457161426544 520.193099975586 2697.00002670288 147 147 145
151.906803250313 520.567655563354 2698.99988174438 148 148 146
159.307882189751 520.748853683472 2700.00004768372 139 139 137
166.837304830551 521.315217018127 2703.00006866455 148 148 146
174.382537603378 521.88104391098 2706.00008964539 153 153 151
181.87640607357 522.253453731537 2707.99994468689 153 153 151
189.38060104847 522.62544631958 2710.00003814697 162 162 160
197.258085012436 523.961007595062 2717.00000762939 169 169 167
205.248340964317 525.488913059235 2724.99990463257 181 183 180
213.43757212162 527.401804924011 2734.99989509583 185 190 186
221.922799944878 529.89262342453 2747.99990653992 189 194 190
232.064098119736 536.04644536972 2779.99997138977 194 199 195
-16.2203125655651 488.460242748261 2568.00007820129 166 168 165
-9.16083063930273 484.847187995911 2549.00002479553 155 157 154
-2.21435748971999 483.325898647308 2540.99988937378 192 192 190
4.69411676749587 482.37481713295 2536.00001335144 181 181 179
11.584497988224 481.8035364151 2532.99999237061 166 167 162
18.4585060924292 481.231778860092 2529.99997138977 161 162 157
25.3061018884182 480.469286441803 2526.00002288818 161 162 157
32.1318358182907 479.706227779388 2522.0000743866 155 156 151
38.9511473476887 479.132890701294 2519.00005340576 157 157 155
45.7721874117851 478.749245405197 2516.99995994568 157 157 155
52.6239946484566 478.745520114899 2516.99995994568 157 157 155
59.5465265214443 479.311853647232 2519.99998092651 158 158 156
66.4851889014244 479.87762093544 2523.00000190735 162 162 160
73.5853388905525 481.393873691559 2530.99989891052 179 179 177
81.2375396490097 485.952794551849 2555.0000667572 181 181 179
90.9530743956566 501.161873340607 2634.99999046326 189 189 187
99.7259616851807 509.332954883575 2677.99997329712 131 131 129
107.453852891922 511.417150497437 2688.99989128113 135 135 133
114.643715322018 510.838270187378 2686.00010871887 138 138 136
121.862292289734 510.44899225235 2684.00001525879 143 143 141
129.165828227997 510.439515113831 2684.00001525879 142 142 140
136.77404820919 511.570632457733 2690.00005722046 153 153 151
144.414439797401 512.701094150543 2696.00009918213 149 149 147
151.861920952797 513.070404529572 2697.99995422363 144 144 142
159.319788217545 513.439059257507 2700.00004768372 156 156 154
166.911482810974 514.187514781952 2703.9999961853 149 149 147
174.524426460266 514.935493469238 2707.99994468689 149 149 147
181.957080960274 515.112459659576 2709.00011062622 152 152 150
189.394608139992 515.288889408112 2710.00003814697 164 164 162
197.272643446922 516.605615615845 2717.00000762939 170 170 168
205.188110470772 517.92174577713 2723.99997711182 179 181 178
213.297143578529 519.61761713028 2733.00004005432 183 188 184
221.454471349716 521.312952041626 2742.00010299683 188 193 189
231.413155794144 526.999950408936 2772.0000743866 193 198 194
-16.2531305104494 482.44321346283 2572.99995422363 169 171 168
-9.1794990003109 478.881597518921 2553.99990081787 176 178 175
-2.21626949496567 476.819545030594 2542.99998283386 161 161 159
4.69632539898157 475.694417953491 2536.99994087219 144 144 142
11.5853799507022 474.943816661835 2532.99999237061 166 167 162
18.459914252162 474.380165338516 2529.99997138977 157 158 153
25.3080278635025 473.628461360931 2526.00002288818 160 161 156
32.1470238268375 473.063826560974 2523.00000190735 152 153 148
38.9850400388241 472.68608212471 2520.99990844727 158 158 156
45.8665937185287 472.870349884033 2522.0000743866 159 159 157
52.7325421571732 472.86668419838 2522.0000743866 159 159 157
59.6219375729561 473.049879074097 2523.00000190735 159 159 157
66.4902403950691 473.045140504837 2523.00000190735 162 162 160
73.4746158123016 473.789811134338 2526.99995040894 178 178 176
81.1482891440392 478.471249341965 2552.00004577637 181 181 179
90.8563882112503 493.463724851608 2631.99996948242 188 188 186
99.6590033173561 501.705944538116 2676.00011825562 128 128 126
107.46194422245 504.135370254517 2688.99989128113 130 130 128
114.652343094349 503.564655780792 2686.00010871887 136 136 134
122.00766056776 503.743231296539 2687.00003623962 141 141 139
129.271760582924 503.546416759491 2686.00010871887 150 150 148
136.885955929756 504.661202430725 2691.99991226196 146 146 144
144.425243139267 505.400657653809 2696.00009918213 141 141 139
151.929497718811 505.951941013336 2698.99988174438 151 151 149
159.39062833786 506.315350532532 2700.99997520447 152 152 150
167.047321796417 507.24059343338 2706.00008964539 147 147 145
174.53733086586 507.602870464325 2707.99994468689 148 148 146
181.970506906509 507.777273654938 2709.00011062622 153 153 151
189.618229866028 508.513331413269 2713.00005912781 163 163 161
197.577565908432 509.998619556427 2720.99995613098 168 168 166
205.353781580925 510.921061038971 2726.0000705719 174 176 173
213.156580924988 511.842966079712 2730.99994659424 181 186 182
221.309006214142 513.513922691345 2740.00000953674 187 192 188
231.012478470802 518.557727336884 2766.99995994568 191 196 192
-16.2669960409403 475.84342956543 2575.00004768372 167 169 166
-9.18019469827414 471.963703632355 2553.99990081787 172 174 171
-2.21905205398798 470.485806465149 2546.0000038147 128 128 126
4.70038363710046 469.192147254944 2539.00003433228 134 134 132
11.5954065695405 468.452364206314 2535.00008583069 154 155 150
18.4613112360239 467.527240514755 2529.99997138977 149 150 145
25.3199618309736 466.971218585968 2526.99995040894 149 150 145
32.1749411523342 466.599464416504 2525.00009536743 160 161 156
39.0498489141464 466.596752405167 2525.00009536743 155 155 153
45.9064356982708 466.408789157867 2523.9999294281 159 159 157
52.7574308216572 466.220289468765 2523.00000190735 159 159 157
59.6500709652901 466.40083193779 2523.9999294281 158 158 156
66.5479525923729 466.580927371979 2525.00009536743 161 161 159
73.4801441431046 466.945230960846 2526.99995040894 174 174 172
81.1861827969551 471.743762493134 2552.99997329712 180 180 178
90.8632054924965 486.334830522537 2631.99996948242 188 188 186
99.7409671545029 494.827419519424 2677.99997329712 130 130 128
107.390061020851 496.482700109482 2687.00003623962 131 131 129
114.618197083473 496.104806661606 2684.99994277954 138 138 136
121.925927698612 496.096044778824 2684.99994277954 146 146 144
129.377648234367 496.641010046005 2687.99996376038 153 153 151
136.946991086006 497.554987668991 2693.00007820129 141 141 139
144.489511847496 498.283594846725 2697.00002670288 141 141 139
151.997059583664 498.826950788498 2700.00004768372 153 153 151
159.579440951347 499.554425477982 2703.9999961853 146 146 144
167.121350765228 500.096619129181 2707.00001716614 147 147 145
174.614608287811 500.453650951386 2709.00011062622 150 150 148
182.252526283264 501.179575920105 2713.00005912781 155 155 153
190.051451325417 502.274334430695 2719.00010108948 160 160 158
197.882398962975 503.368616104126 2724.99990463257 165 165 163
205.594703555107 504.092872142792 2729.00009155273 175 177 174
213.484227657318 505.186021327972 2734.99989509583 181 186 182
221.971169114113 507.571518421173 2747.99990653992 187 192 188
231.697037816048 512.542307376862 2775.00009536743 188 193 189
-16.3503512740135 471.234381198883 2588.00005912781 159 161 158
-9.21323709189892 466.683208942413 2562.99996376038 164 166 163
-2.22357711754739 464.498698711395 2551.00011825562 135 135 133
4.71184542402625 463.406056165695 2545.00007629395 146 146 144
11.6008520126343 461.76666021347 2536.00001335144 147 147 145
18.4845887124538 461.219251155853 2532.99999237061 155 155 153
25.3419056534767 460.489332675934 2529.00004386902 155 155 153
32.2155877947807 460.305094718933 2528.00011634827 156 156 154
39.0682406723499 459.938228130341 2526.00002288818 155 155 153
45.9280647337437 459.753006696701 2525.00009536743 157 157 155
52.7613833546638 459.385126829147 2523.00000190735 158 158 156
59.6072599291801 459.198862314224 2522.0000743866 160 160 158
66.5002092719078 459.376275539398 2523.00000190735 161 161 159
73.4274759888649 459.735244512558 2525.00009536743 167 167 165
81.1604335904121 464.645385742188 2552.00004577637 178 178 176
91.0426005721092 480.114907026291 2637.00008392334 183 183 181
99.7483879327774 487.572640180588 2677.99997329712 135 135 133
107.358060777187 489.021480083466 2686.00010871887 140 140 138
114.712089300156 489.195317029953 2687.00003623962 147 147 145
122.071199119091 489.368677139282 2687.99996376038 151 150 146
129.627898335457 490.269690752029 2693.00007820129 144 143 138
137.109667062759 490.806072950363 2696.00009918213 152 151 147
144.821614027023 492.069989442825 2703.00006866455 154 155 150
152.402311563492 492.787331342697 2707.00001716614 146 147 142
160.004287958145 493.504077196121 2710.99996566772 148 149 144
167.318791151047 493.310034275055 2710.00003814697 149 150 145
174.756228923798 493.479669094086 2710.99996566772 154 154 152
182.265788316727 493.830800056458 2713.00005912781 156 156 154
190.344840288162 495.637476444244 2723.00004959106 155 157 154
198.114588856697 496.533572673798 2727.9999256134 162 164 161
205.910891294479 497.429132461548 2733.00004005432 183 185 182
213.73376250267 498.324126005173 2737.99991607666 177 179 176
222.390964627266 501.038551330566 2753.00002098084 183 185 182
231.63004219532 504.844188690186 2773.9999294281 183 185 182
-9.25706326961517 461.890816688538 2575.00004768372 164 166 163
-2.22897296771407 458.662450313568 2556.99992179871 135 135 133
4.71404800191522 456.689238548279 2546.0000038147 147 147 145
11.60629093647 455.074220895767 2536.99994087219 150 150 148
18.4859670698643 454.355597496033 2532.99999237061 159 159 157
25.3638345748186 453.995257616043 2530.99989891052 158 158 156
32.243475317955 453.813791275024 2529.99997138977 157 157 155
39.1020886600018 453.452438116074 2528.00011634827 156 156 154
45.91329023242 452.73169875145 2523.9999294281 157 157 155
52.7653023600578 452.548712491989 2523.00000190735 158 158 156
59.588048607111 452.185809612274 2520.99990844727 159 159 157
66.5315017104149 452.719211578369 2523.9999294281 160 160 158
73.5201612114906 453.431576490402 2528.00011634827 169 169 167
81.2300443649292 458.089262247086 2553.99990081787 177 177 175
90.8076390624046 471.714317798615 2630.00011444092 181 181 179
99.6812358498573 479.957789182663 2676.00011825562 137 137 135
107.405945658684 481.923043727875 2687.00003623962 143 143 141
114.891305565834 482.63230919838 2690.99998474121 147 147 145
122.216410934925 482.623636722565 2690.99998474121 146 145 141
129.781812429428 483.511209487915 2696.00009918213 146 145 140
137.221395969391 483.860075473785 2697.99995422363 153 152 147
144.99294757843 485.284566879272 2706.00008964539 150 151 146
152.469709515572 485.632419586182 2707.99994468689 145 146 141
160.074919462204 486.338347196579 2711.99989318848 149 150 145
167.454421520233 486.326545476913 2711.99989318848 151 152 147
174.962297081947 486.672848463058 2713.99998664856 152 152 150
182.547703385353 487.19796538353 2717.00000762939 154 154 152
190.358534455299 488.260418176651 2723.00004959106 156 158 155
198.128789663315 489.143013954163 2727.9999256134 163 165 162
205.850288271904 489.845901727676 2732.00011253357 177 179 176
214.061290025711 491.623938083649 2742.00010299683 174 176 173
222.568362951279 493.939191102982 2755.00011444092 183 185 182
231.479465961456 496.971011161804 2772.0000743866 183 185 182
-24.9562580138445 487.592458724976 2759.99999046326 179 181 178
-9.33684222400188 458.798617124558 2596.99988365173 143 145 142
-2.23698397167027 453.322440385818 2565.99998474121 138 138 136
4.725506529212 450.849056243896 2552.00004577637 155 155 153
11.6254491731524 448.905110359192 2540.99988937378 150 150 148
18.509229645133 448.020696640015 2536.00001335144 150 150 148
25.3757331520319 447.312444448471 2532.00006484985 150 150 148
32.2585999965668 447.133660316467 2530.99989891052 148 148 146
39.120439440012 446.777671575546 2529.00004386902 155 155 153
45.9530651569366 446.24462723732 2526.00002288818 157 157 155
52.7901016175747 445.887625217438 2523.9999294281 157 157 155
59.6160776913166 445.53017616272 2522.0000743866 158 158 156
66.5363967418671 445.878893136978 2523.9999294281 159 159 157
73.6128091812134 447.110295295715 2530.99989891052 162 162 160
81.1723992228508 450.81439614296 2552.00004577637 171 171 169
90.2272835373878 461.5837931633 2612.99991607666 180 180 178
99.5767861604691 472.175717353821 2673.00009727478 144 144 142
107.493735849857 474.994480609894 2688.99989128113 145 145 143
114.985093474388 475.692987442017 2693.00007820129 142 142 140
122.316166758537 475.684404373169 2693.00007820129 148 147 143
129.791244864464 476.205170154572 2696.00009918213 153 152 147
137.180507183075 476.372122764587 2697.00002670288 150 149 144
144.896253943443 477.598309516907 2703.9999961853 146 147 142
152.480736374855 478.294163942337 2707.99994468689 151 152 147
160.145506262779 479.166001081467 2713.00005912781 152 153 148
167.713478207588 479.684084653854 2716.00008010864 152 153 148
175.29721558094 480.201691389084 2719.00010108948 150 150 148
182.829514145851 480.542063713074 2720.99995613098 154 154 152
190.511927008629 481.235176324844 2724.99990463257 159 161 158
198.142901062965 481.751143932343 2727.9999256134 164 166 163
205.789521336555 482.266694307327 2730.99994659424 168 170 167
213.920265436172 483.841150999069 2740.00000953674 172 174 171
222.341686487198 485.944837331772 2752.00009346008 181 183 180
231.161668896675 488.754093647003 2767.99988746643 183 185 182
-32.5928777456284 481.848359107971 2769.99998092651 210 212 209
-24.9852146953344 480.632781982422 2763.00001144409 160 162 159
-9.38067398965359 453.846424818039 2608.99996757507 139 141 138
-2.24063522182405 447.06255197525 2569.9999332428 139 139 137
4.729556851089 444.279253482819 2553.99990081787 158 158 156
11.6537539288402 443.06093454361 2546.99993133545 147 147 145
18.5470804572105 442.016094923019 2540.99988937378 141 141 139
25.4176817834377 441.144794225693 2536.00001335144 148 148 146
32.2737097740173 440.446883440018 2532.00006484985 149 149 147
39.1542427241802 440.270304679871 2530.99989891052 153 153 151
45.9928140044212 439.745396375656 2528.00011634827 155 155 153
52.8567135334015 439.567804336548 2526.99995040894 157 157 155
59.6677139401436 439.041882753372 2523.9999294281 158 158 156
66.6203424334526 439.559131860733 2526.99995040894 160 160 158
73.6763477325439 440.597683191299 2532.99999237061 162 162 160
81.1465084552765 443.723082542419 2551.00011825562 171 171 169
89.8885056376457 452.761650085449 2602.9999256134 178 178 176
99.5094999670982 464.582592248917 2671.0000038147 140 140 138
107.541516423225 467.879861593246 2690.00005722046 141 141 139
114.950716495514 468.219727277756 2691.99991226196 142 142 140
122.370429337025 468.559056520462 2694.00000572205 155 154 150
129.896879196167 469.24564242363 2697.99995422363 153 152 147
137.393847107887 469.757795333862 2700.99997520447 145 144 139
144.960254430771 470.443367958069 2704.99992370605 147 148 143
152.379035949707 470.606714487076 2706.00008964539 153 154 149
160.097926855087 471.639037132263 2711.99989318848 150 151 146
167.725428938866 472.323000431061 2716.00008010864 150 151 146
175.503090023994 473.354190587997 2721.99988365173 152 152 150
182.976886630058 473.515450954437 2723.00004959106 157 157 155
190.665259957314 474.197864532471 2726.99999809265 160 162 159
198.229536414146 474.531948566437 2729.00009155273 163 165 162
205.879375338554 475.039422512054 2732.00011253357 169 171 168
213.857203722 476.241856813431 2739.00008201599 174 176 173
222.438022494316 478.660821914673 2753.00002098084 180 182 179
231.511875987053 481.948554515839 2772.0000743866 182 184 181
242.585554718971 489.060372114182 2812.99996376038 180 182 179
-32.6776169240475 475.537002086639 2776.99995040894 203 205 202
-24.9689426273108 472.799211740494 2760.99991798401 139 141 138
-2.2442857734859 440.779715776443 2573.99988174438 146 146 144
4.74101211875677 438.382267951965 2559.99994277954 164 164 162
11.672904714942 436.840444803238 2551.00011825562 144 144 142
18.5776278376579 435.811936855316 2545.00007629395 138 138 136
25.3994818776846 433.926671743393 2533.99991989136 154 154 152
32.2633013129234 433.410853147507 2530.99989891052 152 152 150
39.1261428594589 433.06577205658 2529.00004386902 153 153 151
46.0507273674011 433.405160903931 2530.99989891052 155 155 153
52.9232993721962 433.230370283127 2529.99997138977 156 156 154
59.766598045826 432.883858680725 2528.00011634827 157 157 155
66.6515380144119 432.879328727722 2528.00011634827 158 158 156
73.6525878310204 433.559209108353 2532.00006484985 167 167 165
80.9614807367325 435.779601335526 2545.00007629395 170 170 168
89.7223204374313 444.848656654358 2598.00004959106 175 175 173
99.5166525244713 457.341343164444 2671.0000038147 142 142 140
107.629202306271 460.929602384567 2691.99991226196 144 144 142
115.087062120438 461.435288190842 2694.9999332428 146 146 144
122.515469789505 461.769312620163 2697.00002670288 151 150 146
130.050614476204 462.445139884949 2700.99997520447 145 144 139
137.454509735107 462.606847286224 2701.99990272522 149 148 143
145.024180412292 463.281661272049 2706.00008964539 151 152 147
152.502477169037 463.613510131836 2707.99994468689 149 150 145
160.286381840706 464.800894260406 2714.99991416931 151 152 147
167.860805988312 465.30294418335 2717.99993515015 150 151 146
175.579980015755 466.14682674408 2723.00004959106 156 156 154
183.124154806137 466.476589441299 2724.99990463257 159 159 157
190.888404846191 467.319428920746 2730.00001907349 158 160 157
198.388665914536 467.477053403854 2730.99994659424 161 163 160
206.04445040226 467.976480722427 2733.99996757507 171 173 170
213.950142264366 468.98889541626 2740.00000953674 176 178 175
222.534224390984 471.370071172714 2753.99994850159 176 178 175
231.611385941505 474.606394767761 2773.00000190735 182 184 181
242.257311940193 480.751574039459 2809.00001525879 177 179 176
-32.7623449265957 469.186276197433 2783.99991989136 208 210 207
-25.0159595161676 466.154813766479 2766.00003242493 177 179 176
-9.50069911777973 445.25945186615 2641.99995994568 197 199 196
-2.2496790625155 434.810876846313 2579.99992370605 152 152 150
4.7450577840209 431.777268648148 2562.00003623962 167 167 165
11.6920499131083 430.596977472305 2555.0000667572 143 143 141
18.5862649232149 429.0791451931 2546.0000038147 139 139 137
25.4113338887692 427.223712205887 2535.00008583069 152 152 150
32.278373837471 426.716059446335 2532.00006484985 146 146 144
39.1908474266529 426.882028579712 2532.99999237061 154 154 152
46.1268201470375 427.216023206711 2535.00008583069 155 155 153
52.9898591339588 426.875442266464 2532.99999237061 155 155 153
59.8181709647179 426.365792751312 2529.99997138977 156 156 154
66.656306385994 426.024287939072 2528.00011634827 157 157 155
73.5996812582016 426.356315612793 2529.99997138977 164 164 162
80.7763859629631 427.867531776428 2539.00003433228 168 168 166
89.1761258244514 435.107678174973 2582.00001716614 191 191 189
99.3001908063889 449.087709188461 2664.99996185303 152 152 150
107.636861503124 453.630149364471 2691.99991226196 151 151 149
115.137964487076 454.296350479126 2696.00009918213 146 146 144
122.524164617062 454.456448554993 2697.00002670288 146 145 141
130.059838294983 455.121517181396 2700.99997520447 144 143 138
137.515112757683 455.449134111404 2703.00006866455 156 155 150
145.195201039314 456.450134515762 2709.00011062622 154 155 150
152.794823050499 457.113683223724 2713.00005912781 147 148 143
160.41573882103 457.776695489883 2717.00000762939 154 155 150
167.872563004494 457.933664321899 2717.99993515015 151 152 147
175.398796796799 458.258748054504 2720.00002861023 157 157 155
183.002516627312 458.751678466797 2723.00004959106 159 159 157
190.901681780815 459.917992353439 2730.00001907349 156 158 155
198.402419686317 460.0730240345 2730.99994659424 161 163 160
205.907955765724 460.22754907608 2732.00011253357 170 172 169
213.73063325882 461.055427789688 2736.99998855591 175 177 174
222.549512982368 463.904112577438 2753.99994850159 175 177 174
231.877833604813 467.594414949417 2776.00002288818 183 185 182
242.101311683655 472.799897193909 2806.99992179871 176 178 175
-32.7764488756657 461.801290512085 2785.00008583069 197 199 196
-25.026785209775 458.818584680557 2766.99995994568 177 179 176
-17.3245463520288 454.508811235428 2740.9999370575 177 179 176
-9.63084306567907 444.06321644783 2677.99997329712 140 142 139
-2.25507165305316 428.808271884918 2585.99996566772 158 158 156
4.75280545651913 425.491780042648 2565.99998474121 147 147 145
11.7020355537534 423.998802900314 2556.99992179871 142 142 140
18.6094921082258 422.67119884491 2549.00002479553 147 147 145
25.4331938922405 420.679807662964 2536.99994087219 149 149 147
32.3316678404808 420.511960983276 2536.00001335144 151 151 149
39.2245799303055 420.343637466431 2535.00008583069 153 153 151
46.1483001708984 420.506417751312 2536.00001335144 153 153 151
52.9936216771603 420.005410909653 2532.99999237061 155 155 153
59.8460659384727 419.66986656189 2530.99989891052 156 156 154
66.713772714138 419.499576091766 2529.99997138977 158 158 156
73.6048966646194 419.49462890625 2529.99997138977 162 162 160
80.6866586208344 420.484006404877 2536.00001335144 167 167 165
88.9061018824577 426.778584718704 2573.99988174438 183 183 181
99.1208776831627 441.031038761139 2660.00008583069 164 164 162
107.604466378689 446.163564920425 2690.99998474121 144 144 142
115.231484174728 447.316348552704 2697.99995422363 144 144 142
122.57818877697 447.307974100113 2697.99995422363 147 146 142
130.068957805634 447.796583175659 2700.99997520447 149 148 143
137.524753808975 448.118835687637 2703.00006866455 151 150 145
145.205348730087 449.103713035584 2709.00011062622 149 150 145
152.805477380753 449.756443500519 2713.00005912781 149 150 145
160.485938191414 450.574487447739 2717.99993515015 150 151 146
167.945995926857 450.728923082352 2719.00010108948 152 153 148
175.41092634201 450.882852077484 2720.00002861023 156 156 154
183.082357048988 451.533555984497 2723.99997711182 157 157 155
190.984755754471 452.681005001068 2730.99994659424 159 161 158
198.561370372772 452.999234199524 2733.00004005432 166 168 165
205.997422337532 452.985376119614 2733.00004005432 173 175 172
213.823303580284 453.799813985825 2737.99991607666 172 174 171
222.241416573524 455.773919820786 2750 177 179 176
231.726482510567 459.736168384552 2773.9999294281 178 180 177
242.117673158646 465.189218521118 2806.99992179871 173 175 172
-32.3903597891331 448.86389374733 2752.00009346008 206 208 205
-25.0195059925318 451.149374246597 2766.00003242493 151 153 150
-17.3700153827667 448.214918375015 2747.99990653992 151 153 150
-9.64950583875179 437.614023685455 2683.00008773804 152 154 151
-2.26307986304164 423.261076211929 2595.00002861023 160 160 158
4.76054986938834 419.183284044266 2569.9999332428 145 145 143
11.7348991334438 418.204098939896 2563.99989128113 143 143 141
18.6546128243208 416.735053062439 2555.0000667572 149 149 147
25.4851151257753 414.61318731308 2542.00005531311 148 148 146
32.3594473302364 413.958758115768 2538.00010681152 153 153 151
39.2582938075066 413.793087005615 2536.99994087219 154 154 152
46.151552349329 413.627028465271 2536.00001335144 153 153 151
53.0391968786716 413.460403680801 2535.00008583069 155 155 153
59.8739199340343 412.967175245285 2532.00006484985 156 156 154
66.744826734066 412.799656391144 2530.99989891052 158 158 156
73.6391544342041 412.79473900795 2530.99989891052 163 163 161
80.7559490203857 413.931041955948 2538.00010681152 167 167 165
88.8432487845421 419.470250606537 2572.00002670288 177 177 175
98.7178832292557 432.021617889404 2648.9999294281 173 173 171
107.452020049095 438.211798667908 2687.00003623962 132 132 130
115.154087543488 439.671874046326 2696.00009918213 145 145 143
122.632145881653 440.152794122696 2698.99988174438 151 150 146
130.270630121231 441.122591495514 2704.99992370605 151 150 145
137.788683176041 441.602528095245 2707.99994468689 150 149 144
145.42980492115 442.408174276352 2713.00005912781 147 148 143
152.928665280342 442.724019289017 2714.99991416931 146 147 142
160.496979951859 443.202495574951 2717.99993515015 147 148 143
168.019309639931 443.5173869133 2720.00002861023 153 154 149
175.616413354874 443.994790315628 2723.00004959106 151 151 149
183.229327201843 444.471746683121 2726.0000705719 153 153 151
190.857917070389 444.948196411133 2729.00009155273 161 163 160
198.574870824814 445.587188005447 2733.00004005432 163 165 162
206.162139773369 445.899546146393 2734.99989509583 170 172 169
213.993966579437 446.700572967529 2740.00000953674 175 177 174
222.33721613884 448.479205369949 2750.99992752075 180 182 179
231.992661952972 452.702552080154 2776.99995040894 175 177 174
242.133900523186 457.577228546143 2806.99992179871 176 178 175
-32.7339619398117 446.048408746719 2780.99989891052 211 213 210
-25.0122081488371 443.48418712616 2765.00010490417 136 138 135
-17.3838716000319 441.07973575592 2750 152 154 151
-2.26759840734303 417.022138834 2599.99990463257 161 161 159
4.77014482021332 413.012206554413 2575.00004768372 150 150 148
11.7494510486722 411.728501319885 2566.99991226196 142 142 140
18.6778195202351 410.283923149109 2558.00008773804 145 145 143
25.5270004272461 408.357679843903 2546.0000038147 151 151 149
32.3872044682503 407.393306493759 2539.99996185303 155 155 153
39.2300821840763 406.588912010193 2535.00008583069 153 153 151
46.1001694202423 406.265169382095 2532.99999237061 153 153 151
53.0010424554348 406.261742115021 2532.99999237061 155 155 153
59.901736676693 406.257808208466 2532.99999237061 156 156 154
66.8022111058235 406.253427267075 2532.99999237061 158 158 156
73.6733675003052 406.08823299408 2532.00006484985 164 164 162
80.761544406414 407.045155763626 2538.00010681152 168 168 166
88.7803062796593 412.171393632889 2569.9999332428 174 174 172
98.3892977237701 423.391401767731 2640.00010490417 180 180 178
107.339471578598 430.440783500671 2684.00001525879 132 132 130
115.204744040966 432.518005371094 2697.00002670288 148 148 146
122.776910662651 433.311611413956 2701.99990272522 149 148 144
130.424052476883 434.26513671875 2707.99994468689 148 147 142
137.950792908669 434.737056493759 2710.99996566772 147 146 141
145.386129617691 434.887766838074 2711.99989318848 146 147 142
152.826458215714 435.03800034523 2713.00005912781 146 147 142
160.448864102364 435.668796300888 2717.00000762939 147 148 143
168.154254555702 436.459362506866 2721.99988365173 149 150 145
175.692841410637 436.768501996994 2723.99997711182 151 151 149
183.241710066795 437.077105045319 2726.0000705719 153 153 151
190.800830721855 437.385141849518 2727.9999256134 160 162 159
198.660895228386 438.334107398987 2733.99996757507 163 165 162
206.703692674637 439.603179693222 2742.00010299683 168 170 167
214.633136987686 440.551042556763 2747.99990653992 176 178 175
223.079487681389 442.460238933563 2759.99999046326 180 182 179
232.25873708725 445.651352405548 2779.99997138977 174 176 173
242.06368625164 449.803590774536 2805.99999427795 178 180 177
-32.7597633004189 438.816845417023 2782.99999237061 201 203 200
-25.0682141631842 436.926782131195 2770.99990844727 187 189 186
-17.4166820943356 434.405386447906 2755.00011444092 189 191 188
-2.27647740393877 411.543190479279 2609.99989509583 143 143 141
4.77603217586875 406.497359275818 2578.00006866455 148 148 146
11.7548396810889 404.920011758804 2568.00007820129 142 142 140
18.6864119023085 403.499841690063 2559.00001525879 144 144 142
25.548817589879 401.763886213303 2548.00009727478 154 154 152
32.4149429798126 400.815814733505 2542.00005531311 148 148 146
39.2637364566326 400.024980306625 2536.99994087219 152 152 150
46.1397469043732 399.706691503525 2535.00008583069 152 152 150
53.067471832037 399.861007928848 2536.00001335144 153 153 151
59.9768050014973 399.857103824615 2536.00001335144 155 155 153
66.859558224678 399.695098400116 2535.00008583069 156 156 154
73.7366229295731 399.532616138458 2533.99991989136 163 163 161
80.8307230472565 400.473326444626 2539.99996185303 168 168 166
88.6482000350952 404.56685423851 2565.99998474121 172 172 170
98.0978533625603 414.966285228729 2631.99996948242 184 184 182
107.186824083328 422.52704501152 2680.0000667572 151 151 149
115.255311131477 425.357282161713 2697.99995422363 146 146 144
122.921600937843 426.452815532684 2704.99992370605 146 145 141
130.577430129051 427.390187978745 2710.99996566772 146 145 140
138.163700699806 428.01171541214 2714.99991416931 148 147 142
145.556837320328 428.002119064331 2714.99991416931 149 150 145
153.118461370468 428.465008735657 2717.99993515015 150 151 146
160.577803850174 428.612142801285 2719.00010108948 149 150 145
168.350920081139 429.546892642975 2724.99990463257 143 144 139
175.769120454788 429.535388946533 2724.99990463257 153 153 151
183.388411998749 429.996311664581 2727.9999256134 155 155 153
190.743654966354 429.82628941536 2726.99999809265 157 159 156
198.892116546631 431.389510631561 2736.99998855591 162 164 161
206.943541765213 432.636976242065 2744.99988555908 166 168 165
215.272217988968 434.35674905777 2756.00004196167 173 175 172
223.902508616447 436.54876947403 2769.99998092651 177 179 176
232.691779732704 438.897758722305 2785.00008583069 176 178 175
241.993263363838 442.034035921097 2805.0000667572 179 181 178
-32.8444056212902 432.347983121872 2789.99996185303 200 202 199
-25.0518284738064 429.09574508667 2769.00005340576 186 188 185
-17.4178723245859 426.92768573761 2755.00011444092 167 169 166
-2.28710006922483 406.318664550781 2621.99997901917 152 152 150
4.78932727128267 400.584846735001 2585.00003814697 150 150 148
11.7647973820567 398.259818553925 2569.9999332428 142 142 140
18.6949912458658 396.709114313126 2559.99994277954 146 146 144
25.5706161260605 395.157992839813 2549.99995231628 153 153 151
32.4809178709984 394.69113945961 2546.99993133545 148 148 146
39.3438041210175 393.913865089417 2542.00005531311 151 151 149
46.2521016597748 393.756002187729 2540.99988937378 151 151 149
53.1757138669491 393.752634525299 2540.99988937378 152 152 150
60.0518435239792 393.438875675201 2539.00003433228 154 154 152
66.9432356953621 393.279701471329 2538.00010681152 155 155 153
73.8580375909805 393.274903297424 2538.00010681152 161 161 159
80.8998644351959 393.889486789703 2542.00005531311 167 167 165
88.5505601763725 397.137731313705 2562.99996376038 170 170 168
97.657211124897 405.963569879532 2619.99988555908 179 179 177
107.154056429863 415.098547935486 2678.99990081787 162 162 160
115.391246974468 418.499857187271 2700.99997520447 138 138 136
122.975341975689 419.266581535339 2706.00008964539 147 146 142
130.538031458855 419.877856969833 2710.00003814697 147 146 141
137.969404459 420.023858547211 2710.99996566772 149 148 143
145.405739545822 420.169323682785 2711.99989318848 149 150 145
153.072342276573 420.934021472931 2717.00000762939 147 148 143
160.647585988045 421.388447284698 2720.00002861023 144 145 140
168.423891067505 422.307014465332 2726.0000705719 144 145 140
175.780773162842 422.140747308731 2724.99990463257 151 151 149
183.467775583267 422.748535871506 2729.00009155273 154 154 152
190.966084599495 422.891169786453 2730.00001907349 156 158 155
199.050560593605 424.272537231445 2739.00008201599 159 161 158
207.032531499863 425.34351348877 2746.00005149841 166 168 165
215.442538261414 427.188456058502 2757.99989700317 170 172 169
224.159613251686 429.497480392456 2773.00000190735 175 177 174
232.874006032944 431.651055812836 2786.99994087219 178 180 177
242.008984088898 434.423565864563 2805.0000667572 178 180 177
-32.6818004250526 422.642469406128 2776.00002288818 189 194 188
-25.0082835555077 420.81743478775 2763.99993896484 128 133 127
-17.3937547951937 418.839603662491 2750.99992752075 160 165 161
