ply
format ascii 1.0
comment KinectMotionCapture
element vertex 758
property float x
property float y
property float z
property uchar red
property uchar green
property uchar blue
end_header
208.308015385485 539.002661322328 2869.09570450046 135 137 134
191.12345511194 536.967011778702 2873.91962977211 138 138 136
170.048578542937 534.379535477291 2882.09635872644 165 165 163
156.935873285843 532.909966696238 2883.69944828484 158 158 156
146.219295210161 531.776383816004 2883.33554456612 146 146 144
136.311596808618 530.755557774718 2882.32384396898 182 182 180
125.643655169803 529.625835730933 2881.99551187422 180 180 178
118.118068649949 528.939949810609 2879.006652713 137 137 135
110.600287859613 528.254676727897 2876.02374967285 131 131 129
100.765920871456 527.239686797234 2875.06523814329 128 128 126
88.6349477014661 525.896513584592 2876.14531535509 148 148 146
76.5381644572418 524.555990649603 2877.2501909979 161 161 159
66.0119390349134 523.437316057158 2877.02464797037 167 167 165
57.8092327661941 522.648919959402 2874.77974212471 161 161 159
52.6741070399486 522.298477064369 2869.82036820519 154 154 152
47.5335898400191 521.947582463887 2864.85708360336 151 151 149
41.628310325438 521.48730627761 2860.57388906871 148 148 146
34.2077556068157 520.809451154012 2857.66121037926 150 150 148
28.305031106175 520.349322208544 2853.37986877455 157 157 155
19.3899165161699 519.455427319433 2851.85302519026 160 160 158
12.7431956548478 518.887415253007 2848.26712940296 161 161 159
5.35169084433962 518.211584904957 2845.37551986775 162 162 160
0.206572305425201 517.859944145857 2840.40889587765 162 162 162
-5.68794517368132 517.400076789907 2836.133505043 164 164 164
-11.5833732914794 516.940060982299 2831.85745331498 169 169 169
-16.000554618695 516.694614039192 2826.18373333099 172 172 172
-20.427644469025 516.448285137864 2820.50312045686 174 174 174
-24.129213461848 516.308118596385 2814.11365976278 177 177 177
-28.5779675259157 516.059919742085 2808.41703808908 181 181 181
-30.1131783924207 516.237553810588 2799.89422199126 173 173 173
-29.4899755922824 516.732444873341 2789.23258310485 169 169 169
-29.6336331156617 517.117759093854 2779.24921792818 172 172 172
-31.9865254203271 517.181510856457 2771.36840137555 157 157 157
-37.2504727274987 516.819381934168 2766.31528827378 154 154 154
-41.0804116258126 516.668288662762 2759.83300862664 175 171 172
-42.0537350745192 516.938589982344 2750.48265498094 188 184 185
-40.9127037899779 517.522683582889 2738.96152173609 190 188 189
-39.1036353783834 518.208337886276 2726.69014065706 186 184 185
-37.3440124222988 518.889986556336 2714.38289522278 186 186 186
-33.5072909071204 519.882508112636 2699.87725865228 188 188 186
-29.0268678004837 520.974674088235 2684.60401766915 187 187 185
-26.0223925704328 521.852148359553 2670.72981637459 158 160 157
-77.3701429923925 515.503408143214 2691.52542290829 212 217 213
-68.8447087791868 517.208077116722 2671.77679052032 218 220 217
-79.1343270302436 516.103850582468 2671.72284226295 132 134 131
-89.3982990880942 515.001452342241 2671.687200262 138 140 137
-101.70381272352 513.590598713252 2673.8757376571 133 135 132
-113.283794395613 512.285799214553 2675.35572921191 132 134 131
-120.72185650656 511.60185084339 2672.43032817664 180 182 181
-127.469843806344 511.021139344001 2668.77095786183 152 154 153
-132.853801561326 510.645942583394 2663.63078043412 162 164 163
-139.599164244842 510.064995628579 2659.97331156703 151 153 152
-142.962143416476 509.995896793424 2652.59433072592 170 172 171
-144.996714201085 510.129492510629 2643.70929490367 171 173 172
-138.331940652476 511.586760772769 2625.08094449352 178 180 177
-123.053739077007 514.361004467231 2596.6463740552 186 188 183
336.534819042372 541.431376448626 2962.06235288779 200 202 201
330.453152459384 540.953868559785 2957.65120432099 147 149 148
322.698867278051 540.25220371286 2954.49647669602 141 143 142
315.787019186887 539.663400437909 2950.71827921015 148 150 149
313.039063941715 539.634397516241 2943.78563990932 152 154 153
309.443506383038 539.492453531264 2937.47302016315 165 165 165
305.834648280177 539.349656093184 2931.15075424574 160 160 160
303.863036571469 539.428662470172 2923.54611892466 133 133 133
305.16179484372 539.950713867041 2913.37404771247 157 157 157
306.420584453952 540.469761754228 2903.17328162787 186 186 186
308.458528196929 541.096718038731 2892.30255647315 170 170 170
311.268841679748 541.830958429295 2880.75695093496 147 149 148
221.209095245046 532.780778265057 2868.53528108438 204 210 208
207.153713886737 531.21471782089 2870.68955249921 137 139 136
187.59364427473 528.89072551745 2877.49565868424 142 144 141
169.688206166013 526.789770762936 2883.03171007431 161 161 159
155.788304042619 525.23599221572 2885.29875391485 132 132 130
145.075088373384 524.118598877079 2884.93766415657 188 188 186
136.738571705028 523.327457931615 2882.59574239336 194 194 192
126.851278007754 522.321518154 2881.59890900366 141 141 139
120.881830409755 521.855864405898 2877.26917041751 142 142 140
112.580216394755 521.067510734316 2874.95226997365 142 142 140
102.740736981928 520.065339895305 2873.99011726957 144 144 142
89.0585769873571 518.528693066424 2876.41509380167 138 138 136
77.7310163718314 517.316523250843 2876.84320884871 169 169 167
67.9700290215828 516.3204422971 2875.93798756236 170 170 168
60.5288207290378 515.646126651555 2873.01035458456 154 154 152
53.8591344674697 515.078867923507 2869.40781450433 150 150 148
50.2402901698327 514.937367461766 2863.07831595065 151 151 149
42.8093924472703 514.263752663792 2860.158160875 144 144 142
36.1434199933202 513.696675307948 2856.55831393185 152 152 150
28.7259622999501 513.024014878641 2853.64790665425 162 162 160
21.3161692005648 512.35189610958 2850.74335282504 164 164 162
14.66503096812 511.785830901292 2847.15397017534 162 162 160
5.7714473947077 510.903956200858 2845.64279576911 162 162 160
1.3728835969351 510.65427750143 2839.98284507187 162 162 162
-4.52387196405946 510.193780757274 2835.70582861591 164 164 164
-9.67949845494842 509.837932724848 2830.73127139949 174 174 174
-14.100921474574 509.58622294207 2825.05473927665 179 179 179
-17.7944097740848 509.438137789387 2818.67109634028 182 182 182
-21.5021450230724 509.288823795141 2812.27711926186 186 186 186
-25.9572636864409 509.034179763659 2806.5758511082 176 176 176
-27.498420663344 509.194434989585 2798.04893099782 163 163 163
-29.795536287305 509.248670066372 2790.20820547045 158 158 158
-29.2092745650889 509.715450793123 2779.51935034688 156 156 156
-34.4590835114873 509.351370915719 2774.47677103961 175 175 175
-38.9919332672442 509.089996656212 2768.71911986828 189 189 189
-42.8147539349355 508.930806829291 2762.24166489076 192 190 191
-43.0628336377037 509.284999269235 2752.18273868684 199 195 196
-39.769206360847 510.149917368359 2738.51808628233 183 181 182
-37.9606641582328 510.804970081479 2726.24616874009 169 167 168
-36.2014996965729 511.456012288529 2713.93814142862 162 162 162
-35.2009511743816 512.000735241197 2702.31496981121 179 179 177
-32.1251782777243 512.847930026175 2688.49230034517 188 188 186
-29.1078026034222 513.690334241062 2674.62727322121 143 145 142
-71.8905588634788 509.1190245321 2675.70329376952 217 219 216
-79.3961161866123 508.435712523548 2672.72926171483 131 133 130
-88.2763721381854 507.551153648761 2671.22773519022 138 140 137
-100.585660648571 506.164309945585 2673.41365771291 146 148 145
-112.16905567214 504.880835894119 2674.89098839696 163 165 162
-120.294640219282 504.101435731395 2672.70203529932 138 140 139
-126.360333916824 503.623250278509 2668.30246238606 154 156 155
-131.066427700166 503.344745000682 2662.41943062697 158 160 159
-137.138307412752 502.865610332975 2658.01536853143 159 161 160
-140.507475278589 502.784718563501 2650.63184164028 160 162 161
-139.85331388747 503.298841183387 2638.75741160257 177 179 178
-132.529699716541 504.801950460569 2619.37156990745 172 174 171
-119.272100987687 507.189696557241 2593.17566802191 177 179 174
339.489029382348 534.199085770615 2960.46188566649 194 196 195
330.885095987288 533.391807390877 2957.92602607186 156 158 157
323.130721973855 532.695228507806 2954.77125981201 153 155 154
319.555842002959 532.545918808418 2948.47388685873 152 154 153
318.464084503304 532.723153305532 2940.2725375464 143 145 144
318.175618086667 533.007439025226 2931.41901668958 125 125 125
316.20094286068 533.071933387273 2923.81208705322 116 116 116
314.203824769509 533.134829088679 2916.18917448443 119 119 119
313.831345962928 533.413060243123 2907.27442610864 116 116 116
314.248827257575 533.797258084374 2897.69813125879 114 114 114
317.087516254067 534.503069373458 2886.17324621404 138 136 139
325.595179678491 535.960704794161 2870.115590016 173 171 174
223.238862670268 525.401536126445 2867.49925223369 204 209 205
202.818869258737 523.01224062506 2874.91639268337 161 165 164
186.440221841608 521.159266327627 2879.0904300406 143 147 146
170.908161539825 519.416611738983 2882.64369862668 151 155 154
158.581060814416 518.100804529275 2883.58173740219 189 191 188
147.860415148956 516.998775812689 2883.21533930592 159 161 158
138.733075485769 516.109464946486 2881.53467245595 142 144 141
129.62225589236 515.221472876642 2879.86628251411 148 148 146
122.866867756566 514.649844902638 2876.20129870817 143 143 141
113.783005979413 513.764011422222 2874.5521675193 141 141 139
104.715807505928 512.879438239515 2872.91512229853 147 146 144
91.0276820307505 511.369237664874 2875.33590828193 156 155 153
80.465408458092 510.279650519222 2875.08438051456 172 173 168
69.9285590243663 509.192063268546 2874.85129337795 164 165 160
63.2489651511547 508.626336499831 2871.24128434125 151 152 147
56.5725566874589 508.060818399374 2867.63388000986 149 150 145
52.947595929707 507.910144646994 2861.29990103919 149 150 145
45.5097303416157 507.240953982773 2858.37471721823 153 154 149
36.5643726122982 506.365753795098 2856.8263389062 160 161 156
29.9018836051084 505.801173736029 2853.22873536023 162 163 158
21.7363779626898 505.030891553167 2851.01088879302 167 168 163
16.5871231707055 504.67264718842 2846.04093841922 162 163 158
9.18596878366618 504.006082436385 2843.14267510914 161 162 157
4.779061091019 503.749802792336 2837.47634783233 161 161 161
-1.12657745975486 503.288153284282 2833.19288606853 170 170 170
-7.03312499869724 502.826325586372 2828.90876445725 178 178 178
-12.2008906830333 502.466218592438 2823.92568018498 192 192 192
-15.8983762142402 502.309116894299 2817.53909389946 197 197 197
-19.6100621999202 502.150819993118 2811.14220734751 182 182 182
-23.3359478148127 501.991313019796 2804.73502105205 170 170 170
-27.0763863455841 501.830517968737 2798.31757298995 160 160 160
-31.5596945265533 501.567496402801 2792.59582721953 164 164 164
-33.1458244440801 501.707115781138 2784.03590626306 191 191 191
-38.3823819730598 501.340853378401 2779.00292213615 194 194 194
-40.0124115326945 501.476752100653 2770.4111585464 190 190 190
-41.6699064645603 501.610395949544 2761.7994733008 198 198 196
-39.7651661085896 502.242682824448 2749.59717653943 196 195 193
-37.194069176441 502.970992021133 2736.64309114666 162 162 160
-38.2447234180021 503.195637996334 2727.2367419826 159 159 157
-38.6159658409779 503.517314528109 2717.08836779489 167 167 165
-39.0233186113658 503.835995616838 2706.91350679618 190 192 189
-36.6393293640424 504.548967772922 2693.82370536447 181 183 180
-35.0140830062973 505.158343669796 2681.41868139047 172 174 171
-73.5465202793901 501.25335971167 2678.16841522078 214 216 213
-78.9647721579783 500.870511046077 2673.0036329696 125 127 124
-87.1543866263016 500.094571662904 2670.76828074516 158 160 157
-98.7780350294179 498.829687939184 2672.216525059 149 151 148
-110.367406881606 497.567292637652 2673.68992425749 149 151 148
-118.498024239372 496.795356008792 2671.49736057229 144 144 144
-123.88550435708 496.413914451956 2666.35459807753 147 147 147
-127.917554271959 496.22624416629 2659.72532409442 155 155 155
-133.998444765494 495.746080805759 2655.31472468094 156 156 156
-138.052091390142 495.556287546903 2648.66978402873 160 160 160
-137.403231677184 496.042199797667 2636.7913678003 179 179 179
-131.42658093326 497.296672317194 2618.89819191254 169 169 167
-120.844428246597 499.219175717555 2595.70088654201 174 175 170
335.716179768107 526.093436737493 2963.86128737721 197 199 198
331.316771273574 525.829351092561 2958.20065136724 159 161 160
326.908582585336 525.564782770902 2952.5333534856 146 148 147
324.160207372773 525.512849010019 2945.60029359223 142 144 143
320.561855067544 525.353293169183 2939.28555866711 134 136 135
318.610123538523 525.405318069289 2931.69549272307 132 132 132
315.808601344684 525.349755505708 2924.72359259113 119 119 119
315.465966693703 525.610564845366 2915.83068511274 113 113 113
314.2689728819 525.763412044633 2907.55292422541 114 114 114
316.330460000361 526.336504753631 2896.69899333639 115 115 115
317.528399967257 526.800841607083 2886.45383892456 116 114 117
321.954334465704 527.683048425275 2873.61010776039 140 138 141
218.094299312318 517.077984894716 2872.37353339559 207 209 206
204.046831202246 515.566275201765 2874.53381659022 158 162 161
189.249694587591 513.95468120837 2877.38517978268 186 190 189
176.081176448617 512.553134889039 2878.94815393908 209 213 212
161.37446538497 510.948717014193 2881.8651048917 194 196 195
149.073777251041 509.656403355311 2882.82270419494 133 135 134
139.943691705529 508.777355081583 2881.14009877833 151 153 152
132.393881575721 508.104527770648 2878.13404002675 143 143 143
123.292782938087 507.227768015915 2876.47245943008 143 143 141
113.430943150085 506.250212016989 2875.49392741483 146 146 144
104.365144638533 505.376232708801 2873.85824519343 160 160 158
93.7701543877765 504.300055875266 2873.58277385675 167 166 164
81.6585111732109 503.022593948574 2874.6774910834 156 156 154
71.1185191708856 501.950673841543 2874.44220518892 150 150 148
63.6701138704407 501.285782247139 2871.50940268118 144 144 142
57.7580238191429 500.823610095593 2867.22126143968 145 145 143
53.3691011620037 500.563166943791 2861.56824528696 146 146 144
45.1709454727971 499.798215542343 2859.32675700551 154 154 152
38.5004800040116 499.235319309722 2855.72337968121 154 154 152
31.8334361686392 498.672640523751 2852.12248387341 157 157 155
25.1695793933067 498.11014066784 2848.52419381678 157 157 155
17.007207831639 497.347779102346 2846.30836485406 156 156 154
11.1036103739863 496.88595141866 2842.02638181973 163 163 161
5.94563802196824 496.523665539056 2837.05038590657 179 179 179
-0.706604505289921 495.961812425266 2833.46022406509 189 189 189
-7.35575626356155 495.400130440888 2829.87259813183 208 208 208
-12.5208952490699 495.037044522316 2824.89110844373 194 194 194
-15.4778668555358 494.970497328125 2817.80675855282 173 173 173
-18.4535621201625 494.902343693087 2810.7088273456 168 168 168
-23.6483891874784 494.536624091915 2805.70609727032 174 174 174
-27.385970366705 494.367387306616 2799.29038332726 185 185 185
-32.5961459537716 494.000245072727 2794.27651957655 191 191 191
-36.3577899930088 493.828879695965 2787.84335117101 204 204 204
-41.5830546284268 493.460340427013 2782.81824749385 205 205 205
-43.9238180946522 493.482447548655 2774.94601245673 202 202 202
-42.6860438321568 493.990826683774 2763.49462675251 172 172 170
-40.7750913394336 494.593002683325 2751.29638630711 171 171 169
-37.4819306849796 495.385727388032 2737.63102996429 191 191 189
-38.5293829549056 495.591021851307 2728.22690395857 187 187 185
-40.3201826360207 495.696690181984 2719.51844155386 182 182 180
-42.8478969715687 495.703248927523 2711.51060308625 187 189 186
-41.1561084541447 496.28742664805 2699.15368931015 191 193 190
-40.218694323956 496.77111479985 2687.48444107132 187 189 186
-75.0644448606337 493.782258370422 2669.6193879673 220 222 219
-84.6489916544313 492.822486665372 2668.84225611925 129 131 128
-94.9018619252575 491.76892762782 2668.81520389785 141 143 140
-106.503553226025 490.527121344378 2670.27948227556 138 140 137
-116.015934282561 489.572404263309 2669.55469051322 145 145 145
-121.410029614541 489.187290250045 2664.40711390675 157 157 157
-127.490212920067 488.707019884138 2659.99702660695 155 155 155
-133.571274538906 488.22645432575 2655.58630110387 163 163 163
-138.300939482323 487.9339115266 2649.68611100499 180 180 180
-138.322347941902 488.298337004034 2638.55622434879 169 169 169
-132.338687372517 489.503625735497 2620.66788090753 168 168 166
-123.087585378729 491.170492032772 2598.9747413668 173 174 169
333.7903337919 517.969493463371 2974.77559535526 193 195 194
333.623636419645 518.223306400035 2966.00989864972 199 201 200
330.909135227415 518.162287537164 2959.10134873876 162 164 163
329.013826314468 518.204141512017 2951.55213323548 140 142 141
327.931015424699 518.348270848954 2943.35710182743 135 137 136
325.989455069137 518.386860469243 2935.77404665473 132 134 133
323.195461767032 518.32034282404 2928.80784336445 126 126 126
317.899501284347 517.942576812271 2923.73173850064 149 149 149
314.250556236195 517.770931659749 2917.38026658173 137 137 137
309.764532985916 517.495397852945 2911.65648922266 125 125 125
311.840750266202 518.041843251446 2900.81310156842 134 134 134
313.05341380863 518.482265540383 2890.57849945873 151 149 152
319.94583394446 519.637089651049 2875.81875286622 143 141 144
231.021351002402 510.7847163751 2871.8318704093 200 205 201
220.123339786357 509.700421013168 2871.33669158616 196 198 195
206.865134381787 508.315865014071 2872.83473558903 137 141 140
190.473702963305 506.532024180901 2876.99985572548 155 159 158
176.510984622052 505.053945393587 2879.22174618334 135 139 138
162.591171372087 503.579207973574 2881.4747563822 147 149 148
152.646317599503 502.608290017173 2880.43637385794 150 152 151
141.15425451624 501.439236636525 2880.74545594871 150 152 151
133.602142133221 500.771201067595 2877.73745803873 145 145 145
122.15857270077 499.605967084226 2878.0820080349 152 152 150
116.188433999463 499.138823497484 2873.75176090689 159 159 157
107.115647470275 498.274767699078 2872.11076870988 169 169 167
98.0595715650217 497.411990967804 2870.48189687951 169 168 166
85.1647135649909 496.056123362951 2872.24348448253 149 149 147
73.8462871821524 494.900703348829 2872.6785085787 146 146 144
65.6241534177235 494.141680703529 2870.41966810913 147 147 145
60.4723025816742 493.777057481343 2865.44780349741 149 149 147
53.7902060950275 493.215559373731 2861.83629615884 150 150 148
47.1118131354333 492.654335998783 2858.22718050063 155 155 153
38.9209855167616 491.897640397072 2855.99104631116 156 156 154
32.2537689213616 491.337202944635 2852.39003661872 154 154 152
24.0828834537172 490.581943648113 2850.16836619527 152 152 150
17.4268921932996 490.022281149414 2846.57549791302 157 157 155
12.2723205470026 489.657104342694 2841.60195260089 166 166 164
7.85914378631869 489.388393365513 2835.93131225274 189 189 189
0.457680125260929 488.731665865916 2833.03258009392 205 205 205
-6.19367183413844 488.17206554731 2829.44307525494 209 209 209
-12.1013652429265 487.709099504397 2825.15811721221 158 158 158
-15.0577993395375 487.631125041981 2818.0740990923 151 151 151
-18.7686691572966 487.455508809283 2811.67771647206 173 173 173
-24.6948372439981 486.990807136163 2807.37935694973 189 189 189
-29.159309902085 486.717447732749 2801.67150756565 200 200 200
-34.3625256929567 486.347677603433 2796.6623813319 209 209 209
-37.3901480419485 486.263592571723 2789.52672637738 206 206 206
-40.4364226560738 486.177921818752 2782.3775419658 184 184 184
-43.5013736080951 486.090663394358 2775.21481063645 164 164 164
-44.4235534002368 486.286540225937 2765.90144962116 171 171 169
-43.2227307226147 486.764040444845 2754.42312051669 178 178 176
-41.3508864761083 487.332369791203 2742.19635822902 197 197 195
-41.6703064256172 487.613481467737 2732.08534578928 195 195 193
-44.8725984084171 487.514768297195 2724.82299499517 194 194 192
-45.9650801730851 487.696524756331 2715.38581244608 194 196 193
-44.2606700096533 488.251091329706 2703.03789838424 196 198 195
-42.6057509714732 488.801603762133 2690.65408661448 185 187 184
-70.4689793160611 486.758729665734 2665.50464920289 228 230 227
-80.7593010317944 485.71849609046 2665.45022064889 118 120 117
-90.3347723148882 484.772528562563 2664.67973775311 141 143 140
-100.576360617618 483.735715601272 2664.66094889333 138 140 137
-109.422008138983 482.88504211515 2663.18468239453 148 148 148
-116.885113952756 482.219343372444 2660.24151355961 158 158 158
-125.701678415366 481.370533051949 2658.78633942806 157 157 157
-132.465821749769 480.797628242972 2655.11500232438 162 162 162
-135.844805354104 480.681942480789 2647.72447803351 182 182 182
-137.219978166385 480.838358674362 2638.08253283466 168 168 168
-133.25147985721 481.720669666675 2622.43682920696 168 168 166
-127.34118181643 482.870144065426 2604.49502099247 175 176 171
337.418810080227 511.080671495233 2963.78448118154 197 199 198
335.535462355254 511.109170880014 2956.24386895506 149 151 150
333.630237202899 511.136156437985 2948.68709516973 135 137 136
330.868139828239 511.060468122979 2941.74396746671 133 135 134
325.590624562806 510.680611750603 2936.68122334643 125 127 126
321.138947741844 510.401422991528 2930.9823259339 128 128 128
315.021784421433 509.920412161026 2926.54542728152 130 130 130
310.556368794983 509.640424060517 2920.83656626687 142 142 142
307.729174822812 509.560403160225 2913.84622670568 171 171 171
311.456812340237 510.279880077978 2901.73079200476 170 170 170
315.950875072158 511.095241346716 2888.93610986507 142 140 143
327.742652996333 512.804047787578 2870.32000959128 154 154 156
229.057500047126 502.888333431756 2874.07334609242 202 204 201
222.152392673196 502.311397683055 2870.30009520768 177 179 176
211.274547477537 501.244638206891 2869.81991846282 148 150 149
191.697751745238 499.103410981221 2876.61453079043 150 152 151
176.149538141443 497.456521136279 2880.15628009344 147 149 148
162.230406794546 496.008708738903 2882.40992099893 153 155 154
153.073556141277 495.148427822602 2880.70830252191 157 159 158
140.796066054125 493.900744741568 2881.68265016997 153 155 154
131.681534115786 493.043822010937 2880.01143196537 160 160 160
122.583427606695 492.188180537818 2878.35242187181 159 159 159
116.613316139022 491.720546270829 2874.02219200065 158 158 158
108.315678305663 490.963372394851 2871.70833190753 154 154 154
98.4832510180782 490.014511709493 2870.75156146598 151 151 151
87.1295084919477 488.874990251878 2871.16106466552 148 150 149
77.3435025695934 487.929725919318 2870.23796427854 148 150 149
69.8790912804586 487.273514878464 2867.29360265672 152 154 153
62.4223429347857 486.617875236051 2864.35509343743 151 153 152
54.2110053693081 485.86735947566 2862.10412245192 149 151 150
46.0119482140828 485.117778821638 2859.86205853439 151 153 152
39.3411380505033 484.559350386987 2856.25845396375 157 159 158
33.4295440288233 484.096083286884 2851.97066675858 161 163 162
26.0095961957374 483.443111241372 2849.05884852813 167 169 168
18.5976393173295 482.790716450115 2846.15253155814 188 190 189
12.6917845164187 482.327735059453 2841.86890628375 193 195 194
8.27888806432453 482.053102280782 2836.19843914219 177 177 177
3.11154562631621 481.683534885481 2831.21531929439 167 167 167
-2.06132574243578 481.313470199692 2826.22848336485 167 167 167
-8.72045332870997 480.755420617847 2822.63334966279 206 206 206
-13.8998642364228 480.384676796933 2817.64176964194 216 216 216
-18.3484718422717 480.106827003138 2811.94510395107 220 220 220
-23.540968429999 479.734843864762 2806.94403156413 222 222 222
-29.4704761688624 479.269319012282 2802.64324688712 208 208 208
-33.9420824815742 478.989337219574 2796.92989814383 212 212 212
-37.6965008436354 478.801152239495 2790.50217706829 234 234 234
-38.564720312485 478.98189868096 2781.2275619275 228 228 228
-42.3563032719678 478.790543236103 2774.77258890611 217 217 217
-44.7209660740464 478.782306060884 2766.88287503055 219 219 217
-46.390191764375 478.864157600785 2758.26242356954 219 219 217
-44.5057935864166 479.402880672733 2746.0449064101 214 214 212
-43.3849812395881 479.84587931322 2734.50840135202 213 213 211
-45.8682401947319 479.827755321435 2726.53237003844 207 207 205
-46.2458977969713 480.081595808378 2716.37900174744 196 198 195
-48.0745849116284 480.150155795699 2707.64288597252 194 196 193
-46.4048295332309 480.671236495903 2695.26968030488 175 177 174
-65.177476933822 479.791736942184 2660.65914317891 216 218 215
-78.9444071220473 478.316619216926 2664.25831075181 181 183 180
-88.5249770376122 477.383566091302 2663.48390268552 128 130 127
-99.4596169152089 476.272843718124 2664.19736821212 130 132 129
-108.308395105684 475.432486690602 2662.71917895639 160 160 160
-115.773980759889 474.771729598849 2659.77394298563 149 149 149
-122.55092463423 474.200382081765 2656.09362886238 138 138 138
-129.32422729667 473.629125017677 2652.41566031249 126 126 126
-132.71156531863 473.50145593747 2645.01901902812 158 158 158
-133.420247739993 473.726214034969 2634.62524199625 164 164 164
-130.13280036087 474.477945378175 2619.72049970956 170 170 168
-126.908153043975 475.224484664298 2604.77020601874 178 179 174
340.37350416166 503.817009694837 2962.18420573383 196 198 197
338.484530478115 503.830983645754 2954.63944155573 140 142 141
334.899519277248 503.646281048285 2948.33425050861 130 132 131
331.301161862457 503.460676490093 2942.01937993758 140 142 141
327.689408437692 503.27419580905 2935.6947938753 139 141 140
323.233917905062 502.988783459094 2929.99310029808 140 140 140
317.112541710923 502.506998196176 2925.55314372097 135 135 135
313.469175111488 502.318494189762 2919.20563034517 147 147 147
309.812131433703 502.129041905384 2912.8484918372 166 166 166
314.359232158661 502.912435347234 2900.0920961472 158 158 158
322.946935354377 504.177488489817 2884.09148702029 161 161 161
345.350332540564 507.085924262053 2857.11769276112 170 170 170
224.692520122252 494.720814569113 2878.27851762761 199 201 198
218.598365692197 494.242623616375 2873.85831289411 190 190 188
206.935092667386 493.097249308923 2874.04340118362 133 135 134
188.16216377438 491.098010336586 2880.18643630769 145 147 146
174.996146063751 489.769046211943 2881.75159072109 168 170 169
162.657816118074 488.537927261379 2882.68191815791 163 165 164
153.50038943221 487.688024975765 2880.97993467237 168 170 169
142.006217525211 486.556095833511 2881.28767607339 157 158 160
133.671131149832 485.803665262343 2878.94698723576 165 166 168
124.5682537931 484.958082106641 2877.28427512327 167 167 169
118.593740995901 484.489583460446 2872.95085025616 167 167 169
109.515466828371 483.645978501498 2871.30598354054 165 165 167
99.680096140585 482.710067815102 2870.34714495966 165 165 167
88.3230608482437 481.588919677043 2870.75435422719 156 157 159
79.303437834886 480.749886884233 2869.15202814383 154 155 157
71.8341350921099 480.098248676121 2866.20443824221 151 152 154
65.1375794666831 479.540124324547 2862.58217177709 148 149 151
56.1566280393446 478.704030194084 2861.00789443663 145 146 148
47.9527140101923 477.961792903176 2858.76234686311 148 149 151
40.5190505105404 477.312832767864 2855.84060617437 145 146 148
34.6052225332807 476.848861934062 2851.55119596257 147 148 150
27.182970796459 476.200711368753 2848.63743752786 144 145 147
21.2715069015572 475.736842436264 2844.34974160597 140 141 143
15.359083397176 475.27283602089 2840.0613493463 134 135 137
10.1927862125724 474.900212174898 2835.0792662205 127 127 127
5.02100538954009 474.527054477315 2830.09320518411 124 124 124
-0.15607429459541 474.153427282603 2825.10300603511 128 128 128
-6.07921857137117 473.688268581982 2820.80683622219 147 147 147
-12.0034195739409 473.222979466924 2816.50989970562 146 146 146
-18.6650148481089 472.666786558887 2812.91328100538 149 149 149
-23.8549810280611 472.291816695224 2807.91373335967 145 145 145
-30.5143027340922 471.735613804161 2804.31876276692 151 151 151
-34.9811761022927 471.450085859084 2798.60881694376 146 146 146
-36.5484698359775 471.523496627905 2790.06221537929 150 150 150
-37.4180276301237 471.684444485412 2780.78682425122 164 164 164
-39.765517833549 471.663498941812 2772.90949478851 174 174 174
-43.5775845664386 471.461731613942 2766.43961990439 187 187 185
-46.6851786645801 471.34802182787 2759.24554718998 187 187 185
-46.9461544802328 471.589075205593 2749.17669924696 193 193 191
-47.243453619694 471.827141181137 2739.08150461955 197 197 195
-49.0008741769139 471.884716414236 2730.39699585308 201 201 199
-50.7858033003215 471.939943659059 2721.69253364689 191 193 190
-52.5982210434615 471.992899211261 2712.96813284705 196 198 195
-52.322039971574 472.308201778084 2702.05372637586 181 183 180
-48.0808646335116 474.270879486062 2643.38193762382 218 220 217
-77.1289670019939 470.903066446365 2663.0664431965 211 213 210
-86.7150822745388 469.982882378193 2662.28837484392 124 126 123
-97.6553133845075 468.890556226531 2662.99788034734 130 132 129
-104.452639683333 468.320384978597 2659.30250205062 156 156 156
-110.563249591311 467.836753561337 2654.87034083297 146 146 146
-115.993743997115 467.439216844873 2649.69660931468 141 141 141
-122.787184818111 466.86874798987 2646.00404617631 127 127 127
-126.870613097388 466.642189391119 2639.3373299434 159 159 159
-128.944772219357 466.671730451451 2630.42306863319 164 164 164
-127.013151213751 467.21252231266 2617.00475815893 169 169 167
-121.785283702002 468.176016976017 2599.80233609534 178 179 174
345.853628002517 496.82525882312 2958.71064113191 200 202 201
344.791879611952 496.920232957128 2950.53092387525 165 167 166
337.843344611672 496.342307840143 2946.72589188901 134 136 135
335.074078643324 496.243291331468 2939.77744935754 148 150 149
328.955586774103 495.760948125484 2935.33958086303 162 164 163
325.328892228463 495.564833169079 2929.00411486386 168 168 168
320.860287644972 495.272593156586 2923.29288004785 179 179 179
316.382387226022 494.979759795665 2917.57519795392 175 175 175
315.191864590595 495.065680465034 2909.30178916438 166 166 166
318.906176298138 495.717572618886 2897.17605749231 172 172 172
329.944720731766 497.215675319999 2879.24818603667 163 163 163
223.525315877519 486.957182473326 2879.86342976952 202 204 199
214.244387349851 486.107794650246 2878.07162529203 149 150 145
201.797460862031 484.889396300512 2878.92358768725 218 218 216
186.211344464741 483.304138458447 2882.43817262462 229 229 227
175.424381707095 482.276405695363 2882.0240761766 229 229 227
163.084821016021 481.066590262489 2882.95361932633 243 243 243
151.566175164451 479.951358758408 2883.24399809648 239 239 239
141.646963010669 479.021998362558 2882.22411974912 246 248 247
132.531230036351 478.185843862075 2880.55213608309 244 245 247
124.992649213874 477.53376119691 2877.55432277176 240 241 243
115.905854176648 476.699906184194 2875.90332848125 245 246 248
106.059691542613 475.776324612954 2874.93672903762 236 237 239
96.2347125627234 474.854374115801 2873.98519986166 232 233 237
86.4305394297147 473.934074674794 2873.04905612806 235 236 238
78.1860844390305 473.196439297482 2870.77414285594 231 232 234
70.7211235256717 472.550131076165 2867.82943295953 231 232 234
63.2637309152448 471.904356714445 2864.89050666856 231 232 234
55.8142794634473 471.259185444851 2861.95704567071 231 232 234
46.851439447237 470.43494938694 2860.39625221919 242 243 245
41.6970992904244 470.060281708457 2855.42253216857 237 238 240
36.537133911815 469.685108938836 2850.44502619326 222 223 225
32.125941638443 469.398849263631 2844.77544107768 210 211 213
26.2012666079645 468.933387323442 2840.47816005277 187 188 190
18.7764401795953 468.289892722766 2837.56285322961 179 180 182
12.1068424832957 467.735759514504 2833.96014935855 155 157 156
6.93080970308779 467.359046130904 2828.97098797741 157 159 158
3.23528824708674 467.158714598976 2822.5856065243 152 154 153
-2.69668922341881 466.692377296584 2818.28302737089 152 154 153
-9.36819706079994 466.13780556247 2814.67893657657 154 156 155
-16.0366100028864 465.583330612275 2811.07738430516 151 153 152
-21.2330428342244 465.204625647665 2806.07312992683 153 155 154
-27.1671421491102 464.73774305337 2801.76900984113 163 165 164
-31.6427795881471 464.44552616172 2796.05297135218 170 172 171
-34.6731515292744 464.326895560554 2788.91514817951 195 197 196
-36.99666187107 464.293797690368 2781.0548461993 197 199 198
-40.7896666043428 464.084926679804 2774.59875378395 197 199 198
-43.8760210641562 463.961566702891 2767.42032373355 186 186 184
-46.2622036770086 463.923152704548 2759.51456235932 175 175 173
-46.5219897457907 464.141898534338 2749.44646389706 172 172 170
-48.2466784625453 464.185262719713 2740.78561115852 170 170 168
-49.2867667316244 464.312336720989 2731.38642727211 167 167 165
-52.488503735916 464.179226200437 2724.1243045644 164 166 163
-54.2934851610917 464.215831869766 2715.40521169477 179 181 178
-56.1259759777164 464.250104419916 2706.66616486249 187 189 186
-73.2365670590531 463.731182829716 2659.67632235562 214 216 213
-84.9046205294424 462.570584194611 2661.09290471309 133 135 132
-95.8505109637646 461.496574068486 2661.79840042579 145 147 144
-104.023864666488 460.76051662138 2659.57503798722 133 133 133
-108.767820440439 460.444008904131 2653.66436677326 155 155 155
-114.883937374525 459.959393662002 2649.2282084116 147 147 147
-118.963891936129 459.724707531134 2642.56396918322 146 146 146
-125.088412880515 459.239023135648 2638.12171315967 161 161 161
-126.491546870015 459.334495377138 2628.45889513658 163 163 163
-125.237165063343 459.75871722918 2615.78408569313 170 170 168
-117.330566745369 461.005845581966 2595.58452842465 170 171 166
350.493385406335 489.707048956822 2955.86256753195 195 197 196
348.582417199023 489.691121282598 2948.30141311954 198 200 199
341.625045271931 489.114790771251 2944.49027761048 150 152 151
338.847974881038 489.003810205956 2937.53582240922 126 128 127
334.386797978255 488.705924112171 2931.83023795597 125 127 126
329.916843357552 488.407510734365 2926.11799319986 159 159 159
325.437592076129 488.108518877231 2920.3993006429 162 162 162
320.949372145203 487.80895439658 2914.67380914304 153 153 153
320.573140955078 487.969286224278 2905.75603787803 148 148 148
324.276292878622 488.586982070152 2893.62204302934 165 165 165
333.66527682608 489.842911445336 2876.96751105368 165 165 165
226.358048914427 479.655038116652 2878.17454723612 159 161 156
210.686035968757 478.095243074342 2881.62728738356 126 127 122
197.453408424723 476.809160390592 2883.14407763313 133 133 131
184.259256960982 475.526145313004 2884.68907002948 132 132 130
175.06080590937 474.693819573189 2882.95714165735 139 139 137
162.722141506099 473.505415650024 2883.88773747578 153 153 151
150.417895825137 472.319804604791 2884.84300383 162 164 163
139.717302110161 471.314826128636 2884.49163339916 152 154 153
129.824861801208 470.400743740643 2883.49153439661 171 172 174
121.514535147901 469.665677721173 2881.16858788776 184 185 187
113.216301651738 468.931527060907 2878.85470708011 191 192 194
106.482328828431 468.374967195209 2875.20561849118 212 213 215
98.204221812785 467.642417132414 2872.90633590611 221 222 226
89.1666887900375 466.822843764424 2871.29112504055 221 222 224
79.3764211630834 465.916804105451 2870.36483945664 219 220 222
70.3740952764114 465.099943906963 2868.77545921513 204 205 207
63.6838415146053 464.546780990854 2865.15778623609 194 195 197
56.2341152506951 463.906561131029 2862.22415110094 184 185 187
51.0741803909656 463.528224411573 2857.24665122339 174 175 177
45.1503901357162 463.062505557062 2852.9500102896 150 151 153
38.4692947523075 462.509890404341 2849.33897918903 144 145 147
31.037398390525 461.870916220457 2846.41857011706 140 141 143
24.3653111721045 461.318941213839 2842.81407247 129 130 132
17.6964118389846 460.767130268184 2839.21218109706 121 122 124
11.7784628723872 460.301600840075 2834.91977559756 118 120 119
5.11428389920399 459.75004245021 2831.32101291649 120 122 121
1.42583950781772 459.541576578378 2824.94072057651 117 119 118
-4.499656752746 459.075226631935 2820.64283972646 127 129 128
-10.4261126227896 458.608739202607 2816.34426253864 134 136 135
-17.090082508636 458.056899032072 2812.74565000217 147 149 148
-23.0164803300139 457.590237073888 2808.44711401104 141 143 142
-26.7476597929994 457.377980593677 2802.03582290547 161 163 162
-29.7631518090045 457.249174235597 2794.90873496587 167 169 168
-32.7973458861921 457.11880799413 2787.76808160187 174 176 175
-36.5756715132644 456.902508109532 2781.32259275517 171 173 172
-41.0915095056164 456.60082574553 2775.57706960569 171 173 172
-44.8962783430404 456.38224466483 2769.11269443378 189 189 187
-46.558531080126 456.413834040933 2760.49704322762 203 203 201
-47.5316046087673 456.526800755987 2751.14636830053 214 214 212
-49.2510235562409 456.553639543882 2742.48925202581 207 207 205
-53.1347847250403 456.328305318078 2735.96728494408 217 217 215
-54.1925587535439 456.434201244683 2726.55517300211 207 209 206
-55.9900806132536 456.454473850398 2717.84140500049 189 191 188
-57.1094228667557 456.555202832704 2708.3846347667 198 200 197
-70.7276547156899 456.367840317672 2657.75238531008 212 214 211
-81.7135263176094 455.309694355997 2658.42897817627 131 133 130
-91.9814900015077 454.335073847694 2658.39138425683 141 143 140
-100.852250798705 453.52472427113 2656.89711685699 153 153 153
-107.655483425873 452.958585202778 2653.19747736059 169 169 169
-113.773914786444 452.473409067448 2648.75963838074 150 150 150
-117.855753128156 452.229967219995 2642.09398921052 146 146 146
-123.982635819293 451.743703161885 2637.65001817024 162 162 162
-124.712479602988 451.899769558629 2627.24084735523 165 165 165
-125.47843043305 452.052781035932 2616.80519182096 169 169 167
-116.225816663207 453.402246362131 2595.11154050046 170 171 166
361.027883010277 483.196673629484 2948.64465586936 192 194 193
356.572306356564 482.892863566058 2942.9431011501 134 136 135
349.59539853783 482.317270080032 2939.11751291243 121 123 122
345.963853017455 482.103122779139 2932.77843900078 133 135 134
341.48590345165 481.798012660329 2927.06036461803 123 125 124
338.660627869143 481.672099625435 2920.07118328574 107 107 107
334.988852775414 481.455201102876 2913.70293216233 104 104 104
328.8238248138 480.968714555578 2909.23130767448 104 104 104
325.131571366161 480.750455777047 2902.84820446533 107 107 107
325.536748195276 480.977307255007 2893.26219285548 106 106 106
330.006611014265 481.646620914622 2880.44922792252 148 150 149
230.792046488371 472.511097863057 2875.17688913785 184 185 180
213.510932108074 470.807952425652 2879.93279895281 140 139 135
197.882581470446 469.283945819056 2883.41707763762 162 163 158
182.305756826524 467.764019199285 2886.93902375784 107 108 102
172.321684931618 466.855776757899 2885.87252864359 127 128 123
159.990789317896 465.689380120789 2886.80857321758 124 125 120
148.481152580692 464.612148237748 2887.10538088554 149 149 147
138.571229747859 463.7098230816 2886.09266798103 146 146 144
126.334226988299 462.550868517309 2887.09681518434 154 156 155
118.034268553203 461.824270133958 2884.78172218541 155 157 156
109.746586402052 461.098681202469 2882.47553363978 149 151 150
106.128415995557 460.887529237049 2876.14617080558 146 147 149
99.4002376042724 460.333653883706 2872.50100184464 142 143 145
91.9034353278052 459.694753732387 2869.53354146494 133 137 136
82.105747591966 458.801286473093 2868.60194056742 132 136 135
73.0962962305983 457.994304199348 2867.00744495088 136 140 139
64.1035485136459 457.1886348768 2865.42477033599 136 140 139
57.4165436252261 456.637930740877 2861.8094649888 137 141 140
53.0153098019657 456.340509534621 2856.1473369079 143 147 146
45.5699356480381 455.705526301132 2853.2168832347 155 159 158
38.8886683298635 455.155137612848 2849.60573877243 159 163 162
30.7023132502033 454.437234545799 2847.37304331377 160 164 163
24.0320831886396 453.887615933184 2843.77019837198 157 161 160
15.8655706679074 453.171200847068 2841.55189474466 156 160 159
9.20656226285388 452.622331595862 2837.95689393979 160 162 161
1.80555324597353 451.990524226543 2835.05861758761 160 162 161
-1.12822198582752 451.857195617782 2827.99074498271 166 168 167
-8.52709819267772 451.225392156792 2825.09430924686 210 212 211
-13.7016032872737 450.842066417601 2820.10622182474 216 218 217
-21.0914252115593 450.210851672513 2817.21605823649 223 225 224
-23.3323913552259 450.156237144588 2809.41577979799 224 226 225
-27.7931493867427 449.853326273286 2803.71017906495 212 214 213
-30.8036745044737 449.713451476842 2796.58663567208 201 203 202
-35.2884986970476 449.408471490471 2790.86357838482 172 174 173
-36.1550100617036 449.510609381423 2781.59009779443 152 154 153
-40.6705669202043 449.202990346833 2775.84474837447 142 144 143
-44.4750206636739 448.975682323332 2769.38055741721 167 167 165
-46.136340029892 448.990454749138 2760.76549765034 154 154 152
-45.67461879657 449.245645354682 2749.98528872286 159 159 157
-46.6830234200244 449.336004526111 2740.60888701948 195 195 193
-51.9979643436215 448.940346017543 2735.51893219996 201 201 199
-53.0567984822547 449.026475053875 2726.10565716131 207 209 206
-53.4396790411025 449.190127340757 2715.94804581659 171 173 170
-53.1529992614363 449.430853853314 2705.0408723403 164 166 163
-65.447832782294 449.303365700527 2652.89821259147 209 211 208
-77.1406797001477 448.183863682335 2654.29702981222 125 127 124
-88.1110640119747 447.145552690401 2654.98495021354 131 133 130
-98.3655584073759 446.187915199522 2654.95720649112 159 159 159
-107.226974782966 445.38870311321 2653.46976947551 173 173 173
-114.027169037359 444.824986258616 2649.77263930638 154 154 154
-118.106437697997 444.5731494746 2643.1088104308 150 150 150
-122.19987448773 444.31997074672 2636.43470397887 161 161 161
-123.607914228905 444.375834111317 2626.76842352195 165 165 165
-122.356876256428 444.738656794178 2614.09058458581 167 167 165
-113.109682818876 446.024145465555 2592.39267989639 169 170 165
372.407801251712 476.708715040841 2940.80468458506 202 204 203
365.404539787208 476.133147751328 2936.96028663687 117 119 118
359.243379692576 475.645809539995 2932.49146173449 123 125 124
350.575369107501 474.89599651944 2929.9094422907 120 122 121
347.753662175057 474.758846606244 2922.92249655498 118 120 119
340.758121605609 474.184457425627 2919.08370161574 118 118 118
337.911651367415 474.045600127572 2912.07879578296 114 114 114
330.086594294403 473.384439103533 2908.87326374023 114 114 114
325.568208231737 473.070721042011 2903.12583247702 114 114 114
325.152441074915 473.188792496306 2894.17918668889 112 112 112
330.446814147158 473.908730699798 2880.72914662853 106 108 105
236.027378586489 465.424159665694 2871.52568211195 215 216 211
217.134763336563 463.588471469349 2877.58248798156 101 100 96
199.107333375261 461.842664147535 2883.03219824304 56 55 50
181.938817475649 460.186268687994 2887.86967542045 102 102 94
168.789476857448 458.955037303685 2889.44741444966 131 132 126
157.257721627989 457.894668582393 2889.72827336579 116 117 111
145.755868071408 456.836662486261 2890.0308206099 144 145 140
138.209485837589 456.198794157849 2887.02742388741 133 134 129
127.539200886448 455.22805473926 2886.69819835388 151 153 150
120.017513629149 454.592161685022 2883.71241907502 153 155 152
111.724980380901 453.873812032958 2881.40275053395 163 165 162
107.326476511241 453.570772025454 2875.74257299433 162 166 165
99.8217389549838 452.936207278167 2872.76908764362 156 160 159
93.0966238344988 452.384741219644 2869.12644599363 164 168 167
83.2960408439853 451.504227859637 2868.19281187827 158 163 159
74.2839370381345 450.70747551759 2866.59615078772 168 173 169
66.81912487953 450.076006171612 2863.65191836566 170 175 171
60.1253545950255 449.526949548364 2860.03171698344 167 172 168
54.956873452249 449.141393472861 2855.04798515546 180 185 181
45.9891224045208 448.348040031458 2853.48349354191 176 181 177
37.0378902238833 447.55593518679 2851.93098313203 195 200 196
28.85760978055 446.846216249236 2849.70273276111 202 207 203
20.6894188158882 446.137387078557 2847.48325081812 209 214 210
12.5334592906907 445.429503983022 2845.2726404987 215 220 216
5.13737803174896 444.80310971995 2842.37825827888 217 219 218
-0.759659551555547 444.338109342702 2838.10101456715 208 210 209
-5.17080296473416 444.033542146361 2832.43137214016 170 172 171
-12.5568102550169 443.407754883746 2829.54429582979 156 158 157
-17.7178036355334 443.022257347777 2824.56569785996 151 153 152
-24.3582277545635 442.476726175738 2820.9844805857 197 199 198
-27.3218382536764 442.329290303345 2813.89461382571 219 221 220
-31.7693072291991 442.021432226825 2808.19891603141 198 200 199
-33.3055358153616 442.029625068568 2799.67450391368 200 202 201
-38.5094506953254 441.640302307956 2794.66506633442 210 212 211
-37.9121663922906 441.881472247331 2783.9830589518 198 200 199
-41.6973243880303 441.647113926823 2777.5325257057 189 191 190
-45.4967301585087 441.41154163385 2771.07165779462 183 183 181
-47.8721980716901 441.331348920003 2763.17374659443 173 173 171
-47.4025144082355 441.562017489037 2752.39918559353 144 144 142
-46.258873121777 441.86730397594 2740.87853218179 147 147 145
-50.1484871033093 441.624125092765 2734.3522318845 137 137 135
-51.2108518392089 441.690307818569 2724.93659088557 137 139 136
-50.8887201844161 441.90876911814 2714.05500445245 166 168 165
-49.1954753925556 442.278494900873 2701.69806011943 152 154 151
-62.9370449628692 441.894904246997 2650.97540658221 211 213 210
-76.018989203652 440.644154150009 2653.83694044679 111 113 110
-85.6160847383272 439.776197387432 2653.05088233244 114 116 113
-96.5643160804532 438.758306167488 2653.75496532444 124 124 124
-104.746999144685 438.044822897888 2651.52495417527 143 143 143
-112.235741716713 437.407531573556 2648.56334459635 152 152 152
-114.280650911358 437.372320027836 2639.66995919797 154 154 154
-119.062031101974 437.034667781088 2633.73175664747 156 156 156
-121.828147564867 436.920572849054 2625.55048425533 161 161 161
-122.598677202835 437.028520440512 2615.11157566504 167 167 165
-110.663165109404 438.548971158617 2590.42294519908 170 171 166
377.053490260748 469.467077028008 2937.96028574442 194 196 195
369.199595041825 468.807826180993 2934.73356351268 147 149 148
363.029794335568 468.319324969188 2930.25846895571 132 134 133
353.516974740683 467.491727792433 2928.29896654573 123 125 124
347.35543938498 467.004179949323 2923.82986854676 130 132 131
338.699650383629 466.263332812677 2921.25675420381 119 119 119
334.202216390829 465.945053937836 2915.52448844177 139 139 139
328.041768575953 465.457952660553 2911.0561810863 152 152 152
325.179647774541 465.30665082132 2904.04016126921 166 166 166
326.412371430398 465.572891668579 2893.81892442349 167 167 167
337.449129227466 466.839163116888 2875.88858352587 172 174 171
237.763049734582 457.801543845174 2880.15581136858 193 195 190
244.46690711486 458.632301783327 2865.25802462841 65 66 61
226.348348820942 456.919772294095 2870.64154809856 66 65 61
203.516960490085 454.722270582429 2880.0172872245 63 63 55
183.953274114231 452.85807697916 2886.82280603427 52 52 42
167.630619099759 451.325086035005 2891.03905425789 7 7 0
157.681777131747 450.445974530901 2889.99795114641 12 13 5
146.966316917023 449.48752701081 2889.63603936111 74 75 69
140.202843479898 448.935228343409 2885.96529225443 111 112 106
129.527251061997 447.979950815664 2885.6322975425 143 145 140
120.43906748465 447.187669562764 2883.98050724892 153 155 152
112.146108401418 446.476992365477 2881.67056887348 158 160 157
105.418319429322 445.927520216317 2878.02599899094 128 132 131
97.1456740797167 445.218463363668 2875.73050020486 132 136 135
88.1127734976497 444.430536584712 2874.11910226765 129 134 130
79.8665230022833 443.723508880368 2871.84304242976 125 130 126
73.9357362303039 443.255759506502 2867.5413192867 131 136 132
68.7695929131968 442.867201104413 2862.55897251404 130 135 131
62.8346199562144 442.399067795015 2858.25421277143 124 129 125
