ply
format ascii 1.0
comment KinectMotionCapture
element vertex 792
property float x
property float y
property float z
property uchar red
property uchar green
property uchar blue
end_header
114.452341972818 -242.667336446129 2961.68334229484 15 18 11
123.516624083989 -238.29382236894 2976.12512030431 15 18 11
134.32624186355 -233.49429045784 2991.6049454219 14 17 10
136.798005198375 -230.874923176978 3001.51650393631 14 17 10
161.22715463814 -222.623110904661 3025.6335877034 12 14 9
162.130203409724 -220.452558073845 3034.33508107125 12 14 9
117.322122130132 -229.966025600136 3013.63678679202 12 14 9
95.2547186018737 -233.62235092438 3007.75023459155 12 14 9
85.8741804221905 -234.031521529056 3010.0408384799 13 15 10
66.240891053531 -237.024925488293 3005.88992340104 15 17 12
67.9119209879309 -234.627273566542 3015.21248213462 16 18 13
68.7576932292116 -232.448851461904 3023.96968886853 19 21 16
44.7312926777399 -236.502873443921 3017.25307258631 18 20 15
6.85197142094029 -243.978397106609 3002.12640735097 13 15 10
-36.3485668723893 -252.720613019966 2983.96853642412 10 12 7
-46.0059059964184 -253.09332579352 2986.52861929055 15 17 12
-61.7464551600655 -254.960126098656 2985.43086638736 9 14 10
-66.2449076869938 -254.045125495069 2991.17956887406 7 11 10
146.227381190886 -264.210981914025 2889.38717059431 11 13 8
154.859907005859 -259.737071895134 2904.2428505121 17 19 14
158.651438227852 -256.608333357501 2915.60239379093 13 18 11
167.405797486714 -252.149841348892 2930.3393700731 15 21 11
172.117907156544 -248.811265577086 2942.17099865272 15 18 11
152.98827838502 -251.91759287193 2937.53696901712 16 19 12
146.178870509118 -251.688604214634 2941.43081079846 16 19 12
165.019348543491 -244.591158465823 2962.76634900659 15 18 11
158.25613447862 -244.367875334744 2966.61516292499 15 18 11
134.024463044659 -248.78493166432 2958.73913066385 16 19 12
105.53741643933 -254.294122347809 2948.16528140384 14 17 10
119.546952495154 -248.542820527903 2965.99484430562 14 17 10
120.249269065779 -246.327384563262 2974.88903400881 14 17 10
116.783395120785 -245.215427776656 2981.00050782121 14 17 10
124.26128580887 -241.247722756945 2994.24341788902 13 16 9
131.798188394549 -237.287529131323 3007.42917629292 13 16 9
146.154332907598 -231.580866316056 3024.92114949825 12 14 9
142.813336988003 -230.484934195005 3030.91064818197 11 13 8
85.9987919049852 -243.170996072197 3002.76577619118 12 14 9
62.9832523686025 -247.086520630794 2996.44179943673 14 16 11
61.2073004831633 -245.535398002031 3003.6444036201 16 18 13
44.0622914927751 -247.910167351516 3001.18222121207 16 18 13
41.4272172826213 -246.576364118024 3007.85281911605 19 21 16
19.915413417964 -250.028838300113 3002.80132844428 17 19 14
-32.6475416356553 -261.291945724791 2978.7263842479 11 13 8
-50.9244353316296 -263.848305192323 2975.99810970728 8 10 5
-61.4789576361385 -264.446630264996 2978.0652069743 13 15 10
-47.7989830839007 -258.980747232746 2994.84730477541 14 19 15
-70.4997743462759 -262.607376955908 2989.58532696123 14 19 15
155.757547434549 -266.749868683164 2905.80487791721 17 19 14
150.553884114963 -266.071809897819 2910.87197572548 10 13 6
165.847389426387 -259.762764065826 2930.17826033192 18 21 12
159.871895820214 -259.31583024343 2934.6287100334 16 19 12
125.062970829103 -266.733776003778 2919.27840456405 18 21 14
119.839316100169 -266.052282966824 2924.36484655645 19 22 15
143.582659560689 -257.522938509515 2949.12226450526 15 18 11
152.530560964015 -253.042731941165 2963.66384117445 14 17 10
133.275038328195 -256.177355965077 2959.15900825134 16 19 12
113.954439956815 -259.303422345552 2954.71753167968 14 17 10
131.324077016574 -252.599521808222 2974.73764605159 14 17 10
132.053430358646 -250.368417842852 2983.60267211739 14 17 10
113.508611281038 -253.263018494 2979.7735340229 14 17 10
106.678996445512 -253.035181017933 2983.68794959993 13 16 9
110.802350750534 -249.917787169077 2994.71966439212 13 16 9
113.27914914431 -247.249815667288 3004.61903933593 12 14 9
114.097574578178 -245.029793232319 3013.39725334321 11 13 8
89.477109916821 -249.456568949086 3005.90873502548 11 13 8
81.7849076209911 -249.447943301537 3009.29486495479 13 15 10
74.0819474081316 -249.437843509956 3012.6914597769 15 17 12
68.9322593340806 -248.764230408884 3017.70561643865 16 18 13
23.5219007568857 -258.450796666247 2997.63097633609 18 20 15
-13.4837467838356 -265.911906028146 2983.05151907577 19 21 16
-40.3058513942742 -270.715371840747 2974.97077992792 9 11 6
-52.5625266253966 -271.771766596729 2975.96202407723 6 8 3
-42.3763354394513 -267.119374080799 2990.66542099685 11 13 8
-46.8466951918116 -266.202047619586 2996.38588318237 9 14 10
-66.0721237831079 -269.006748293654 2993.21931321888 11 15 14
168.894569965934 -270.329809226209 2915.96097228496 16 18 13
181.71555742968 -264.635488238757 2933.56229393308 12 15 8
151.991702517394 -270.80456292376 2921.47964985309 20 23 14
149.270670919768 -269.444974798258 2928.23179371773 15 18 9
123.498561435878 -274.45465118896 2919.13920956281 16 19 12
129.830003547508 -270.592016261226 2932.11918001066 17 20 13
135.38897975408 -266.963269708213 2944.48387980329 16 19 12
151.782718312291 -260.394431320744 2964.07612862271 15 18 11
140.840320554542 -261.310214957236 2965.15840286803 13 16 9
135.70524546983 -260.639358072471 2970.15845598291 15 18 11
158.136457711138 -252.513512528189 2993.44432011497 14 17 10
157.253000264994 -250.72268605731 3001.14180747918 14 17 10
124.50063071943 -257.499532524262 2987.90562365049 13 16 9
119.378454475198 -256.829741539441 2992.89302556564 13 16 9
128.588969832535 -252.336822854584 3007.17194385108 13 16 9
124.346316044466 -251.446741165517 3012.67065525537 11 13 8
115.873600573427 -251.679038651235 3015.45054532193 12 14 9
103.141742224448 -253.030108133858 3015.53995896796 12 14 9
75.9124296852209 -258.182590873021 3006.49825854464 12 14 9
85.2505406378587 -253.705934546842 3020.65287608724 11 13 8
62.1782391178343 -257.72615077282 3014.40107604636 12 14 9
55.3004938393533 -257.496507891667 3018.36268118467 17 19 14
-28.8515343163089 -277.324122584614 2974.49228512537 21 23 18
-47.9634289570892 -280.186478104588 2971.22149563172 14 16 11
-49.8886963386442 -278.593491520364 2978.5658469937 11 13 8
-55.2549380110214 -277.891074692252 2983.79078740156 13 15 10
-62.3528516813652 -277.632362326287 2987.96706439251 11 16 12
-88.557972336186 -282.248161042194 2980.66316110081 11 16 12
155.92161053502 -281.218680526303 2907.78044490474 16 18 13
162.168122008194 -277.307805084044 2920.8376228051 14 17 10
165.190580427433 -274.326344687708 2931.5657250733 22 23 17
140.31391456622 -279.182472223744 2922.97816702803 14 15 9
136.760392497499 -278.043279055603 2929.17265119767 16 19 12
115.052031354186 -281.962049565345 2922.96835388513 16 19 12
146.229569476237 -271.175504359894 2952.7627528961 16 19 12
148.546696320135 -268.438695471493 2962.81050991364 16 19 12
155.056515183047 -264.560866687427 2975.61110396524 15 18 11
148.287717995625 -264.351710374897 2979.46754994447 16 19 12
145.688437180954 -262.998478124089 2986.09973287734 15 18 11
131.380502560848 -264.843590141138 2984.99341419468 15 18 11
116.191451911535 -266.911209689115 2983.3776961105 14 17 10
137.123973606794 -259.175588419713 3005.37563845147 13 16 9
159.019974384149 -251.228082074792 3027.80208677518 11 13 8
146.397393834715 -252.617442345713 3027.78898315462 11 13 8
119.343386897215 -257.862669795589 3018.58690930503 12 14 9
92.1895440273035 -263.094692167179 3009.48202230737 12 14 9
74.2942518630625 -265.821312495239 3006.39997628546 12 14 9
36.7298498244271 -273.745662447359 2991.02692794069 11 13 8
78.4996388366266 -260.626596288787 3025.54533567817 14 16 11
50.2447677255864 -266.0522069397 3016.14548894556 18 20 15
7.29195786727654 -275.298743406884 2997.81649622023 21 23 18
-29.8072486876988 -282.9459280657 2983.35744629175 16 18 13
-49.8016546600692 -286.073367615765 2979.58493574045 12 14 9
-56.8963752108309 -285.820188081164 2983.75885966651 14 16 11
-58.8009515971595 -284.218871208342 2991.08143335134 11 16 12
-64.1619243734612 -283.516764795341 2996.30118754673 11 15 14
156.819741720895 -288.217769961091 2909.33995903989 20 22 19
159.7966713881 -285.203414797544 2920.10841019967 15 16 11
143.138952567192 -287.793654428291 2917.19452570534 16 17 11
140.396699975704 -286.414555459365 2923.96485863646 20 21 15
126.959485579491 -288.063463246338 2923.38181231806 16 19 12
139.902789951474 -282.265297797148 2940.84632330203 16 19 12
125.624067498723 -284.144389410955 2939.71568083292 15 18 11
145.310971280261 -276.50359362474 2961.54730818113 15 18 11
153.475521675828 -272.12313487814 2975.46459734785 16 19 12
150.869682142568 -270.760879129759 2982.10195951622 15 18 11
123.218591357352 -276.338793608228 2972.12506043376 14 17 10
100.486965608911 -280.516799217901 2965.55828551757 14 17 10
124.665661449312 -271.760158972921 2989.84946005733 13 16 9
144.775429819668 -264.173792394872 3011.26922123095 12 15 8
153.200104203485 -259.826568676388 3024.93311555464 12 14 9
142.254082994131 -260.77810237869 3026.02427178508 12 14 9
92.272769237352 -270.244628302535 3010.45613588178 13 15 10
100.750759594038 -265.904066940761 3024.06807134967 12 14 9
1.00276587989079 -290.656407690918 2969.4892679126 12 14 9
76.0192498106464 -268.456504602632 3024.91492772401 14 16 11
35.7679013248151 -277.152900265276 3008.07276130338 15 17 12
4.8020428185378 -283.31781863258 2997.22316869246 20 22 17
-18.5353609059167 -287.415505391586 2991.24606917045 15 17 12
-35.0546474459743 -289.680663589042 2989.56358179868 10 12 7
-50.7592975510471 -291.711883513927 2988.45448174763 13 15 10
-46.5871488361063 -288.510507124477 2999.42533038664 11 16 12
-79.70088536731 -295.075358472894 2987.93390369045 10 15 11
177.298592547613 -289.534038318121 2924.62413700316 18 20 17
154.972425771851 -293.823041317069 2917.67114069898 16 17 12
139.943038156115 -295.977187825988 2915.90966350924 14 15 9
133.084607330903 -295.767552548855 2919.85504622507 21 22 16
140.220605698631 -291.553199218616 2933.40134375051 16 19 12
133.381177348812 -291.345664661311 2937.32816721284 15 18 11
133.154744982263 -289.257052795527 2945.74645356879 14 17 10
131.29341435305 -287.640872976814 2953.0238868406 14 17 10
133.605244587427 -284.854157396512 2963.06952728242 15 18 11
143.452382997627 -279.963789144305 2978.07477375258 13 16 9
114.114290910341 -286.079922003937 2967.01848386579 13 16 9
113.965321029204 -284.000662733482 2975.36123113811 13 16 9
124.748440924704 -278.889163951767 2990.82092263706 12 15 8
116.262451929369 -279.151483843073 2993.6184308079 12 15 8
127.992752216905 -273.820351376633 3009.52234357268 12 15 8
122.058378632201 -273.386516246972 3013.93423430803 12 14 9
103.418343837116 -276.439209024 3010.22301277571 13 15 10
83.0197837789712 -279.948113081166 3005.49164201791 13 15 10
54.8957086212298 -285.535705181684 2995.98551591567 13 15 10
39.4578164044974 -287.634002539527 2994.62177319538 12 14 9
53.8840390935991 -281.625320023056 3011.99951935601 15 17 12
30.7136998656108 -285.801254640163 3005.8677494766 14 16 11
-9.70540703247558 -294.58543014979 2989.2054813043 20 22 17
-21.02998071399 -295.505428240894 2990.66788478607 17 19 14
-36.6924154183104 -297.57410809825 2989.52240077968 11 13 8
-49.807867197031 -298.946255327186 2989.9958436537 14 16 11
-56.0279313116103 -298.474458395524 2994.68581857074 10 15 11
-77.8769747800396 -302.136539384658 2990.00019160538 10 14 13
173.863623649578 -295.544163617035 2931.75756226895 19 20 14
150.682332356165 -300.123285779622 2924.27934957783 16 17 11
138.919446326271 -301.352837835107 2924.80550848203 15 16 10
142.774469467538 -298.052320548714 2936.07695236439 16 19 12
129.337059453801 -299.754275618822 2935.50194066236 15 18 11
118.344063989288 -300.737922362952 2936.64448931615 12 15 8
123.082830086595 -297.206681640251 2948.42083403164 12 15 8
146.989467568784 -288.226113408338 2972.94940792618 13 16 9
119.370504113752 -293.953023422748 2962.96262740505 11 14 7
119.209054822004 -291.855827074948 2971.3151158244 12 15 8
123.257234768774 -288.579529297461 2982.39799393436 12 15 8
123.992474071092 -286.253431461113 2991.24313510198 13 16 9
123.073749933926 -284.40271192007 2998.96712848408 14 17 10
109.530819628489 -286.089552893644 2998.49432829274 14 17 10
122.985932493267 -280.238089321965 3015.44272843822 12 14 9
113.663381210427 -280.746974247458 3017.69048821387 13 15 10
87.3472503025856 -285.951586741157 3009.16659900395 13 15 10
46.4738523501409 -295.132610133089 2991.59685534827 13 15 10
48.0690798371604 -292.572378003678 3000.97065774897 12 14 9
42.8595964890621 -291.889457693409 3006.04281640033 15 17 12
11.9568574439368 -298.223259199184 2995.15550608552 13 15 10
4.11559612868118 -298.233759249212 2998.69248059437 20 22 17
-34.7085807350758 -306.644707928825 2983.22507919354 18 20 15
-60.7485935218954 -311.538896949017 2975.79836731357 12 14 9
-60.9549923033499 -309.434782620555 2984.19413092416 15 17 12
-72.3969627484116 -310.35784853868 2985.77356455107 10 15 11
-89.9416506659412 -312.904056287478 2983.73394558857 10 15 11
154.620397181092 -310.628228162152 2910.58513082008 3 5 2
165.768513231502 -305.114917675149 2927.0405731487 16 19 12
152.40457276838 -306.853778091205 2926.39772184886 20 21 15
141.467665069195 -307.86395530209 2927.48849571394 12 13 5
146.975287682803 -304.052594928012 2939.87720014053 15 18 11
132.722537464915 -306.023073219377 2938.73461161129 14 17 10
112.636151801206 -309.670576354175 2933.71373194818 14 17 10
132.289607542691 -301.782553377118 2955.54203362377 13 16 9
128.783794470452 -300.626334321397 2961.68628779389 13 16 9
138.618393565657 -295.636968787948 2976.68935423427 13 16 9
111.776236039145 -301.18909360125 2967.32227008415 14 17 10
123.340536935515 -295.728590602034 2983.37190179003 14 17 10
132.465998721626 -290.994705780085 2997.69966483919 12 15 8
121.47486441858 -291.996159863481 2998.84299724909 11 14 7
117.200487131943 -291.087205741171 3004.37008337703 11 14 7
102.79284771656 -293.035916972697 3003.37808494864 12 14 9
90.8835324381423 -294.265613959495 3004.04967168203 11 13 8
50.9369949445295 -303.331883218099 2986.95982843813 14 16 11
60.1694298906259 -298.611484062699 3001.1833587337 14 16 11
8.76467888334176 -308.617228785226 2985.69150404766 12 14 9
18.0379730838856 -303.90201007249 2999.87522616671 13 15 10
-19.1357514177524 -309.842674181047 2993.73974441709 16 18 13
-44.2780432964729 -314.569920666843 2986.81381768866 12 14 9
-61.7310163969114 -317.165519027811 2984.69042446791 10 12 7
-80.3048076780555 -317.869575749611 2990.48533567174 13 17 18
135.941045258534 -323.488321256369 2898.44344035232 9 11 6
153.585619048619 -315.960377255884 2919.48599238244 11 14 7
129.537993301002 -320.895265985108 2911.50373543658 18 19 11
139.908175242749 -315.577106587886 2927.34327392122 15 18 11
144.587952208774 -311.973622607587 2939.16751819417 15 18 11
130.329899612764 -313.972710472286 2938.03442348723 15 18 11
119.339497086538 -314.993863942582 2939.17994079271 15 18 11
116.616002450507 -313.583075214701 2945.92696306422 15 18 11
126.373649301042 -308.535257855094 2960.99746722475 15 18 11
124.537287873687 -306.888862483141 2968.24597770643 13 16 9
131.903364507705 -302.58181896281 2981.54976670065 14 17 10
115.890480370985 -305.053020554668 2979.39486738007 14 17 10
85.5650535818149 -311.6241244693 2967.96935065325 13 16 9
137.536130810529 -294.532065860381 3010.19203218022 11 14 7
115.598302238848 -298.687032198547 3004.25050905648 11 14 7
92.739001932884 -303.072627606922 2997.84086070289 12 14 9
45.2438778958637 -314.423354621756 2975.83131995847 11 13 8
51.8710508895888 -310.370175209573 2988.4894628771 14 16 11
37.2881152819167 -312.324945185364 2987.67243163877 14 16 11
52.5021321093955 -305.881866680229 3005.62059235455 13 15 10
31.921972096848 -309.511200910399 3001.08735256299 12 14 9
21.5496534349011 -310.26013367223 3002.99577867017 12 14 9
-32.6202831101949 -323.196200705295 2977.92969707246 15 17 12
-20.7690137762464 -317.718213005279 2993.69178064651 16 18 13
-21.7729445665391 -315.828286315045 3001.49425285323 12 14 9
-69.420037151982 -326.807061681972 2980.9975541505 11 13 8
-51.4345921868231 -319.672436300724 3000.34283906719 9 13 12
-65.4603567140737 -321.348590820053 3000.34792094244 12 16 17
139.288129668566 -329.794395513475 2901.72008403024 11 13 8
129.956568232344 -330.344146816925 2903.98249321222 11 14 7
152.570991771147 -321.266601188387 2928.36267427839 16 17 9
143.278008970369 -321.820875166775 2930.58778059645 12 15 8
130.672298313265 -323.35770727504 2930.57938335458 13 16 9
132.890165651292 -320.461375864339 2940.70212916965 13 16 9
127.69737863309 -319.781474408558 2945.75815430399 14 17 10
124.99326101179 -318.364961278804 2952.48508884933 14 17 10
110.664379563918 -320.383572500079 2951.42521378291 14 17 10
118.788858024419 -315.78133857412 2965.34917885687 13 16 9
127.811434501921 -310.942328186361 2979.76390886768 14 17 10
143.596553658162 -304.155916166029 2998.51112130268 14 17 10
130.954328292224 -305.686641309976 2998.53808109981 12 15 8
131.732750156378 -303.3087711135 3007.33302725495 11 14 7
113.99625305241 -306.296798973255 3004.13193130979 11 14 7
78.4622314376073 -314.3905486998 2989.60154103773 12 14 9
58.030649228737 -318.087675586559 2984.93078101578 11 13 8
47.7136255594495 -318.860031463404 2986.78776030401 13 15 10
55.9321152023724 -310.016718407295 3016.99580442141 11 13 8
9.42652737437299 -316.669862760249 3013.14742074354 16 18 13
-44.9643455204738 -329.729833530842 2988.31904512545 12 14 9
-78.8363803204195 -336.978067086796 2976.26437625195 11 13 8
-94.648504595984 -339.155042469533 2975.28354223398 11 15 14
-103.562539406501 -339.402496716424 2978.50390909123 10 14 13
129.22336919857 -337.890520319815 2904.40901208179 14 17 10
130.526019032221 -335.207444025825 2914.0548542615 15 16 8
118.716475962934 -336.515806492879 2914.63933028194 13 14 6
123.345611120957 -332.840613886186 2926.50360195719 12 15 8
127.196505989277 -329.420121769447 2937.76107520609 13 16 9
141.018752803332 -323.023530311542 2955.6812455669 13 16 9
135.857830238177 -322.347410001067 2960.70618767994 14 17 10
108.25543576253 -328.366004705445 2950.74606478714 14 17 10
104.709945212696 -327.187505807066 2956.92642632804 13 16 9
119.544619763622 -320.566061236553 2975.22525494757 14 17 10
130.287639763599 -315.19275695535 2990.68607149706 14 17 10
125.165317658642 -314.520942642367 2995.67331920706 12 15 8
94.8176318461673 -321.249724114698 2984.29321069359 11 14 7
76.9967144244328 -324.266690572493 2981.18056032608 11 14 7
76.0131171850209 -322.352525917799 2988.95925865563 12 14 9
70.8163825210924 -321.670505155821 2994.018890628 11 13 8
74.1064216271741 -318.531777527772 3004.45803729043 13 15 10
85.9412728420441 -312.943925048168 3020.22018633299 13 15 10
51.8205111579171 -320.605204297898 3007.05664558778 12 14 9
59.4349575043616 -316.248625465146 3020.10647848844 11 13 8
62.82656952567 -313.122922145792 3030.44702457365 12 14 9
44.800410519581 -316.11249789774 3027.53379595708 18 20 15
7.79258162463492 -324.465825454061 3013.08837427324 17 19 14
-31.0819039800228 -333.288255537538 2997.73174696762 13 15 10
-65.7859458727481 -340.872730279164 2985.13606041925 12 14 9
-104.084815005281 -349.413723506481 2970.58315052092 12 16 15
-130.378701463163 -354.531567063756 2963.44159499216 11 15 14
132.930969388673 -346.381586727663 2899.14812971404 9 11 6
126.855097725094 -345.946100459717 2903.70028609593 18 21 14
115.039351840906 -347.275145616234 2904.29397849572 16 17 9
120.444158907782 -343.30987517562 2916.7616945975 14 15 7
122.606732155478 -340.357628940268 2926.931084075 14 17 10
137.185073962282 -333.638754932054 2945.4697170284 14 17 10
151.029948450857 -327.183098784257 2963.35868803855 14 17 10
141.746341627598 -327.764265161935 2965.5784585572 14 17 10
108.340361901075 -335.611625799937 2951.73263150959 14 17 10
113.959090232125 -331.673189149585 2963.99222449817 13 16 9
124.638969829566 -326.240445231865 2979.50695524845 14 17 10
133.719467365435 -321.317010704251 2993.85169094107 14 17 10
135.316134504319 -318.648945622224 3003.2077882409 12 15 8
101.629394622286 -326.458789103775 2989.63521515876 11 14 7
80.4532416690651 -330.51451837842 2984.33957900933 11 14 7
78.6326900139649 -328.836520294876 2991.56738144448 12 14 9
73.4417780461318 -328.154997700953 2996.62130502257 11 13 8
55.5230051828226 -331.198960132742 2993.60981654828 12 14 9
55.4074045785091 -329.025121767582 3001.90511104455 12 14 9
39.9720299746531 -331.315621071898 3000.56727566121 11 13 8
29.6171115792294 -332.114482678839 3002.46580250801 10 12 7
47.460597362619 -322.584098575158 3030.09975664615 17 19 14
14.760527742042 -329.803334797492 3018.29393254918 17 19 14
-3.40660235870249 -332.814395694953 3015.52420365065 11 13 8
-27.6794573529373 -337.542291014621 3009.15191845838 12 14 9
-73.685734202924 -348.411036138752 2989.84375953022 12 17 13
-132.023749705176 -362.697709134162 2963.44794796902 12 16 15
127.306163418909 -355.472080675584 2896.15817531942 13 15 10
121.216962639963 -355.037243329501 2900.72366362027 17 20 13
122.500018290544 -352.308148399039 2910.38216157906 15 16 8
135.315340790396 -346.018383153407 2927.90110221876 13 16 9
122.691556421497 -347.624672360534 2927.92091816876 13 16 9
138.094756318487 -340.586890326571 2947.01056753775 13 16 9
146.977365077321 -335.59247056731 2961.54098028307 12 15 8
113.637635372041 -343.539879598336 2947.6441530938 12 15 8
118.398875583798 -339.816344248037 2959.36975961944 12 15 8
124.873770127733 -335.592578293574 2972.15424251534 13 16 9
135.57826795997 -330.111811922959 2987.63742929698 14 17 10
128.781652659157 -329.944685667178 2991.52804894007 14 17 10
131.205317460895 -327.001104945194 3001.43911356186 12 15 8
126.097488589699 -326.330557530763 3006.41215652353 11 14 7
99.9218507482924 -331.955356686469 2997.81119686891 11 14 7
88.009510056041 -333.291022550339 2998.50145003671 12 14 9
80.3001068019591 -333.366057575632 3001.91702578275 11 13 8
82.7623704207037 -330.426884135139 3011.79075044493 12 14 9
63.1476515351417 -334.013156065128 3007.70935807099 12 14 9
54.5493126928873 -334.333667223156 3010.62703194447 10 12 7
33.814705449005 -333.784730885846 3022.63353931024 17 19 14
7.10570552749967 -339.339064437627 3014.55146345821 17 19 14
-19.8156144094437 -342.690085330916 3014.85704530378 12 14 9
-38.9591101933626 -345.975597719287 3011.68017861277 7 12 8
134.731684942657 -360.470179036671 2902.27643681741 4 6 1
138.470414775967 -356.94656277588 2913.63004990072 15 18 11
134.05798094356 -356.003824136496 2919.28957272458 15 16 8
133.756972817454 -353.775093369456 2927.76086655779 12 15 8
129.363434629047 -352.834383013278 2933.4019255072 14 17 10
134.05252601722 -349.069466724871 2945.19306079663 13 16 9
131.343876374757 -347.619359719009 2951.91953054577 11 14 7
135.281070332655 -344.120392755126 2963.08004681684 12 15 8
125.132672200359 -344.979461957652 2964.78239464576 11 14 7
138.286706786426 -338.673827669796 2981.96230589726 12 15 8
129.817560149173 -339.022684683059 2984.75587950638 13 16 9
118.822853657829 -340.135345908302 2985.91919551907 14 17 10
117.868050241944 -338.184253657869 2993.66418111568 13 16 9
120.296125394282 -335.21669789884 3003.56732269412 12 15 8
94.9504387348417 -340.65233030161 2995.53115980112 11 14 7
84.7161438346218 -341.4992440531 2997.31700782002 11 13 8
95.6240003747513 -335.993089797442 3012.5948419222 11 13 8
104.060424629141 -331.257917206765 3026.18972977683 10 12 7
100.65298046033 -330.079779257328 3032.23306256877 10 12 7
78.5017215050341 -334.473847680622 3026.53881815481 11 13 8
57.9825627900199 -338.351789234203 3021.98174722686 9 11 6
18.5569991411842 -347.780660456339 3005.84507098326 10 12 7
3.86451459139003 -349.867613823771 3005.15602226946 14 16 11
-13.4499668235222 -352.705607850851 3002.93093073129 15 17 12
-28.2317449639287 -354.780757176428 3002.32914508272 13 15 10
-49.103385937872 -358.612333215787 2998.11490360379 8 10 5
-76.9710628237004 -364.44660052137 2989.80787587457 9 14 10
131.554255277772 -368.808565600027 2900.99610622534 6 8 3
133.649988776632 -365.775142066921 2911.21953275035 14 17 10
145.615015643453 -359.623093675755 2928.18627469655 15 16 8
141.234276210668 -358.681507077466 2933.81415694224 12 15 8
139.328103717684 -356.961078351441 2941.12071090469 14 17 10
128.360341905744 -358.096861454113 2942.26068785579 13 16 9
124.811055611303 -356.89593119186 2948.44184112341 11 14 7
138.681973281908 -350.257482069007 2966.27793414692 12 15 8
139.345563098489 -347.770153135372 2975.17039442729 11 14 7
127.541765706958 -349.163404898294 2975.76137366364 11 14 7
110.698280665577 -352.101729352073 2973.0834045572 13 16 9
108.028176543047 -350.647577328664 2979.77100018341 13 16 9
111.242014910935 -347.391065074608 2990.26840678904 13 16 9
112.813974359614 -344.654413351745 2999.63923995691 12 15 8
97.5638047619589 -347.065782090968 2998.13501987228 11 14 7
103.383231796162 -343.047505283505 3010.18351574141 11 13 8
105.867586584043 -340.062614926115 3020.02854660572 11 13 8
104.144909781749 -338.364404730718 3027.15617052387 10 12 7
100.737415262467 -337.180746848528 3033.19873747092 11 13 8
98.1908654515555 -335.742111840468 3039.76593524731 11 13 8
35.0027760459506 -352.457627888923 3008.62659764591 10 12 7
62.3108698133517 -342.064557366402 3033.81943589794 10 12 7
2.23568948392616 -357.717470906216 3005.09985649279 13 15 10
-16.8023864392413 -361.102249692096 3001.83297785186 14 16 11
-43.6598741180556 -366.770927159649 2993.91525251871 13 15 10
-59.3818442428984 -369.119794089164 2992.87063743388 8 10 5
-71.686252352495 -370.446102942976 2993.94883638092 9 14 8
-143.031549564816 -389.033156493784 2959.85005107505 8 13 7
123.925371097844 -376.214082484477 2905.41516735787 16 19 12
152.254763372604 -364.74370768547 2933.6856817881 14 15 7
164.316874361297 -358.547612545593 2950.54950767589 12 15 8
145.175703173469 -362.334387206971 2946.02717181193 14 17 10
138.348114482413 -362.179690628139 2949.95038559022 13 16 9
132.340463555114 -361.762049735831 2954.43709746922 11 14 7
114.72243773254 -365.007092853649 2951.1566823752 12 15 8
129.457326316123 -358.049405234371 2969.50456551766 11 14 7
152.615871472181 -348.492264123958 2993.27387961353 11 14 7
109.948683293032 -359.563685617622 2973.51373038877 12 15 8
113.971284236323 -356.015914008654 2984.58188511357 13 16 9
115.521022166792 -353.254819351017 2993.97117192244 13 16 9
109.535769702146 -352.839117608426 2998.4359284024 12 15 8
95.1210895729018 -355.021607691077 2997.48547391906 12 15 8
93.3331332722656 -353.304140807114 3004.67507521391 11 13 8
73.7845876883281 -357.035592095072 3000.54942921894 11 13 8
69.4429424846277 -356.094245923835 3006.13852585224 11 13 8
105.924369606491 -342.727622207516 3037.36997247595 11 13 8
45.4319902964411 -358.868019777404 3007.71981843493 11 13 8
41.0692113745608 -357.923714521057 3013.3294638113 12 14 9
-0.960974772380663 -368.336666635633 2995.67359714271 13 15 10
-17.413337803899 -370.992202693826 2993.98235141498 15 17 12
3.06676636839853 -362.564511270035 3014.91001621792 16 18 13
-31.5031341497329 -370.622138473827 3002.25105702889 15 17 12
-55.8370215278501 -375.577566340573 2995.97300710712 11 13 8
-67.2674732337968 -376.669319970687 2997.56593442597 12 17 11
115.01880299417 -386.450784834546 2900.18514742198 15 18 11
149.061600358334 -373.007726575639 2932.40998313493 13 14 6
149.616832584491 -370.469203787945 2941.40247767514 12 15 8
146.083626866584 -369.259656864693 2947.5663891538 14 17 10
140.083143592548 -368.845632134987 2952.04651791442 13 16 9
151.449425774488 -362.87417414699 2968.21726620679 11 14 7
126.414836295725 -368.544477467885 2959.90686347372 12 15 8
138.683383103626 -362.317855738555 2976.56118372477 11 14 7
148.534890411901 -356.893531774241 2991.4828355515 11 14 7
143.429099133061 -356.222887417744 2996.45384082585 11 14 7
107.362049989978 -365.295707551999 2981.18055162993 11 14 7
111.412185744233 -361.721686854917 2992.21748427665 12 15 8
112.142922051612 -359.204552034974 3001.03886180207 13 16 9
95.2065732133787 -362.204969017956 2998.46228506738 13 16 9
67.2376000272852 -368.608471741585 2988.92306949023 12 14 9
64.5593895681884 -367.136255794794 2995.6160449885 12 14 9
74.6195304369381 -361.738439796721 3010.33443847135 11 13 8
87.3013116982295 -355.565033243969 3026.58627598131 12 14 9
49.7799180419212 -364.819349828552 3011.36675032257 12 14 9
26.6341411344584 -369.61650519352 3005.30274369301 12 14 9
35.9414215524501 -364.492848166975 3019.39234999132 12 14 9
13.5660630649101 -369.017881114933 3013.93999622523 14 16 11
-48.8368148225846 -380.973924683504 3001.15522799885 11 13 8
-73.2386661259383 -385.979235762523 2994.95237781851 5 10 4
94.297968019363 -403.086599796534 2877.87587030345 30 32 29
113.470071419677 -394.328400142987 2900.05355023675 16 19 12
145.868857781335 -381.292231166982 2931.13689475903 16 17 11
159.556932124602 -374.444685089912 2949.12364947099 12 15 8
146.991473323987 -376.178505630044 2949.10439634481 14 17 10
127.79060151001 -380.04810735897 2944.65392373155 13 16 9
146.571272850047 -371.613198082434 2965.85117434595 11 14 7
158.832548145023 -365.329390364988 2982.50392541077 13 16 9
152.063389140834 -365.192307314492 2986.37138307606 11 14 7
150.284952234713 -363.454883730668 2993.5489197219 10 13 6
122.642154132135 -369.974235955937 2983.70259212883 11 14 7
116.652014346073 -369.563090899053 2988.17321310935 11 14 7
116.529738804584 -367.290948619739 2996.46094448332 12 15 8
106.343521192754 -368.208051876144 2998.20942502231 13 16 9
95.2921757891954 -369.3874018373 2999.43884087815 13 16 9
74.080156942903 -373.743272088249 2994.22318079595 12 14 9
77.3425726075345 -370.411565762592 3004.66123577686 12 14 9
95.0666762129826 -362.588513121755 3024.16394943678 11 13 8
82.2846898790428 -364.292013069177 3024.35556782368 12 14 9
56.6844065153322 -369.950900977163 3016.60488244583 12 14 9
45.5134076081869 -371.114046305272 3017.95072096184 12 14 9
93.3879760480289 -354.09334945005 3055.74971191942 13 15 10
44.5433077041759 -366.849073879031 3033.87103730811 14 16 11
50.5408619484715 -362.748671622961 3045.73051211898 15 17 12
-66.8884328602011 -393.937996819914 2991.23971303819 11 13 8
-89.5987788846666 -398.47257389576 2986.12141746622 6 11 5
-111.518065769589 -402.735153954559 2981.59429675207 12 17 11
123.364734248657 -398.418141949535 2907.83639116913 13 15 10
171.352621571267 -380.112062546907 2949.58394161695 21 22 17
166.211207648547 -379.43766450046 2954.58976590953 13 16 9
141.313773284418 -385.255048789943 2946.16490462304 15 18 11
116.324134009297 -391.060101559402 2937.82978158292 16 19 12
136.73093516518 -382.003630041373 2960.15421325918 14 17 10
156.429505187709 -373.232427830324 2981.8071822817 12 15 8
154.640449997724 -371.482949763184 2988.99314355103 12 15 8
131.212971440751 -376.735254873185 2981.85923243957 11 14 7
145.267409046062 -369.872596611442 2999.47994944219 11 14 7
120.921147973673 -375.382641657643 2991.87924964094 11 14 7
140.936735052606 -366.652406953798 3013.22347101975 11 14 7
109.791389975429 -374.298137457818 3001.35372745443 11 14 7
95.3779400867587 -376.56894102743 3000.41510401882 11 14 7
84.3004865577992 -377.763338949573 3001.67266971119 13 16 9
95.2035824966608 -372.000659837558 3016.91731689906 13 16 9
94.3037297451221 -369.988402443415 3024.59835765013 13 16 9
78.1187455539611 -372.783465412029 3022.66222279777 13 16 9
52.5098616611279 -378.50541072337 3014.92973557114 16 19 12
43.8918624722473 -378.886716933129 3017.87591794155 17 20 13
46.3879146354751 -375.805812707684 3027.69480448946 15 18 11
27.4692627550426 -379.377465505581 3024.33729374804 15 18 11
-7.84988461553837 -387.988734681382 3011.08692864135 16 19 12
-1.933267346518 -383.842600315589 3023.02001587929 14 17 10
-62.4796233908547 -400.120169503543 2994.8603069143 16 19 12
-85.1796589876943 -404.709590067061 2989.73987877881 11 16 10
118.54662823438 -407.373308491372 2905.44261762168 13 15 12
148.496549780972 -394.912093801303 2934.7916333034 15 16 11
135.088796802948 -396.964789671418 2934.23901106357 14 17 10
143.045067553941 -391.909610227889 2948.26306372996 15 18 11
124.6610973964 -395.596020120363 2944.39156718212 17 20 13
124.410384116378 -393.275535174974 2952.79935626218 15 18 11
139.934324825767 -385.781872484153 2971.70172925759 13 16 9
138.937558695995 -383.744201639572 2979.47558817101 12 15 8
141.292000890265 -380.621444915073 2989.42890973039 12 15 8
147.856171162691 -376.144753242086 3002.08735819742 12 15 8
151.128133526235 -372.760883641553 3012.50822345594 12 15 8
120.893356463464 -380.228082175927 3001.12479476222 11 14 7
103.152185398772 -383.616521866644 2997.98785866489 11 14 7
87.8810287921379 -386.18534522381 2996.52775071419 11 14 7
78.4754356991249 -386.855390179122 2998.88179161696 13 16 9
88.5179214821292 -381.309872382035 3013.59588659954 13 16 9
98.6308581619877 -375.773514437544 3028.24171446431 13 16 9
85.0068128689232 -377.795788392388 3027.89937734491 13 16 9
58.5618437644739 -383.853565677466 3019.62952375237 16 19 12
24.2172283895035 -390.016216924851 3014.96890805737 13 16 9
-27.3548294131745 -403.83119705299 2991.70372538949 14 17 10
-1.74231309503803 -393.467083443308 3015.75075829752 15 18 11
-2.70730680667164 -391.432415546826 3023.49351056446 13 16 9
-21.7919844217205 -395.025169898206 3020.30364679022 15 18 11
-87.6864297652737 -413.059684745512 2989.2122137695 11 16 10
116.180807418885 -415.529945815694 2904.74639430394 19 21 16
124.823008766154 -410.138049484208 2919.45678829903 13 14 8
147.492077331295 -400.060558986185 2943.63491463124 16 19 12
156.30027049516 -394.69011928012 2958.18364757851 17 20 13
155.274323264758 -392.635560677005 2965.98398775289 18 21 14
150.133326435965 -391.960330679477 2970.98927490303 16 19 12
120.953636103921 -399.263160313588 2959.95108299668 15 18 11
126.559234092 -395.007290309069 2972.17679809883 15 18 11
152.2033602974 -384.167496600067 2997.5390459283 13 16 9
153.783746867753 -381.30250016008 3006.88254154664 14 17 10
128.621712811694 -387.212589767185 2998.73379562919 14 17 10
114.269646709454 -389.550454377864 2997.74412877882 13 16 9
98.1945753905786 -392.42987084253 2995.71131622935 12 15 8
83.754874971425 -394.755980129192 2994.80693411939 11 14 7
89.5393431657632 -390.522718525129 3006.85836997424 13 16 9
89.4503362276509 -388.205767187082 3015.10644237394 13 16 9
99.5644077246038 -382.621273281933 3029.7436910326 12 15 8
85.9426894468358 -384.670523988013 3029.40303030467 12 15 8
50.9788890886074 -393.516234046914 3015.83445062186 15 18 11
48.3359652695321 -392.015591421016 3022.48818451419 14 17 10
34.576867065919 -394.046756609822 3022.28127105191 12 15 8
-12.6804674229204 -406.65335111595 3001.63812775544 14 17 10
2.64526066005732 -399.449164434587 3019.36320392905 14 17 10
16.3403827540449 -392.798931554854 3035.95487576506 13 16 9
-36.3873473383243 -406.990739746218 3012.47641631227 15 18 11
-71.147948551749 -415.479080649168 3000.07014718738 10 15 9
138.016635295417 -412.960742447332 2929.44475319853 19 20 14
164.000375859852 -401.680559367078 2955.82157891003 17 20 13
173.670158140631 -395.990770845737 2970.88478867186 18 21 14
170.209536352747 -394.762940737954 2976.97358314634 18 21 14
146.910192804399 -400.209367220091 2969.74112313116 16 19 12
127.670631381012 -404.255496065756 2965.35482266075 15 18 11
116.674504594614 -405.517405246541 2966.54160783007 16 19 12
153.953412778416 -390.692905879072 2999.59982706322 14 17 10
133.000009390174 -395.28676714037 2994.16253297553 15 18 11
125.360267918274 -395.442467139667 2997.52085579001 15 18 11
97.5835129633032 -402.23315515254 2987.84799048451 13 16 9
101.642709996423 -398.511852237385 2998.85415689985 12 15 8
91.4232722968209 -399.488394937653 3000.64441060093 11 14 7
95.5361655062457 -395.773815347802 3011.59858746597 12 15 8
97.1530462375085 -392.891440650893 3020.90293750226 13 16 9
79.29176544418 -396.344022189054 3017.89475227806 11 14 7
56.2717377887885 -401.438947166812 3011.74954715901 11 14 7
41.6925425059644 -403.775834914963 3010.98527856269 14 17 10
21.0931395677552 -408.028520455207 3006.56327833217 13 16 9
21.8242819690571 -405.416231659503 3015.37018888426 13 16 9
20.0093645967114 -403.629615662531 3022.57634271318 16 19 12
20.7900846923579 -401.023871767089 3031.33498921529 14 17 10
12.9804726496903 -401.156564723494 3034.85859558679 12 15 8
-25.9338964978086 -411.123682062562 3019.71075750527 15 18 11
-84.9083005151865 -427.349262870227 2992.81654955731 16 21 15
108.998258346079 -432.734314483196 2901.66837250095 14 16 11
137.282867580507 -420.486392131751 2929.86843596356 12 13 7
165.727194361826 -408.259089503421 2957.91328296911 18 21 14
168.815766083087 -404.771401759433 2968.50091357017 18 21 14
159.568596197723 -405.503509181507 2970.7064728493 17 20 13
147.822057384398 -407.075208323609 2971.26730575776 16 19 12
141.847324756525 -406.679391507435 2975.72489270973 15 18 11
115.929717464557 -413.008538316016 2966.97146933862 16 19 12
120.727920271783 -408.965700993414 2978.61351661047 15 18 11
137.258692453367 -401.012832163476 2997.86512992119 17 20 13
130.46532006711 -400.898318586541 3001.75996759115 17 20 13
127.019240696387 -399.665789279681 3007.83396453284 15 18 11
110.974185247187 -402.618690874552 3005.78220685121 13 16 9
94.0368301469539 -405.843727646441 3003.23949021428 11 14 7
96.4663881603207 -402.657243704314 3013.10913964194 12 15 8
86.2369751595757 -403.648273536043 3014.91144015622 12 15 8
62.4135536207571 -409.083236793546 3008.19770307328 10 13 6
47.0070417419994 -411.73023112272 3006.88355854424 10 13 6
30.7026999927018 -414.648617525954 3005.08417466131 11 14 7
14.3486955147512 -417.560448309 3003.33313768429 11 14 7
7.36053588983809 -417.419609640797 3007.41751112473 11 14 7
17.5232101351628 -411.744370140349 3021.99342221841 15 18 11
7.97996422563507 -412.435968158493 3024.48700209413 13 16 9
4.45037254792524 -411.191967297157 3030.64223250046 10 13 6
-20.6631585229706 -416.846792597479 3023.82484160839 12 15 8
86.5805804824125 -445.367398408031 2896.03949957666 11 12 6
134.609818625168 -426.19360335702 2937.61740221293 18 21 14
149.970246066706 -418.410134527784 2956.63931307979 18 21 14
158.82827102241 -412.908815420482 2971.11921840276 17 20 13
151.214681726499 -413.084559463824 2974.45453422084 15 18 11
128.670947971506 -418.355710481802 2967.86274619156 15 18 11
116.846518410147 -419.938334246493 2968.5022025767 16 19 12
120.813673260685 -416.146000412551 2979.5896077432 15 18 11
123.989281216431 -412.641746526902 2990.08836160828 17 20 13
142.262726134024 -404.063756690552 3010.3509011544 18 21 14
124.588883998004 -407.621639674419 3007.17215008032 15 18 11
114.421655384424 -408.637138045287 3008.91631701829 13 16 9
110.128490381898 -407.679790263797 3014.45490706414 9 12 5
86.4204141957221 -413.189134956731 3007.63728604259 10 13 6
82.9381833717981 -411.946092333297 3013.74562804813 10 13 6
62.5005124426998 -416.316583264451 3009.18043712706 8 11 4
51.3451206226114 -417.59379585301 3010.52763666618 8 11 4
38.4590915747962 -419.4278735554 3010.84153249916 10 13 6
27.2469366613022 -420.697635409974 3012.24399741393 12 15 8
21.9997524196365 -420.00660107992 3017.35239436134 14 17 10
-6.40913576836244 -426.858285236658 3008.31592406232 17 20 13
-19.4452614376068 -428.672510411666 3008.77627170633 13 16 9
-11.8345938602062 -423.789925023439 3021.75211344132 9 12 5
-40.4386479301095 -430.615957018738 3012.90599221184 12 15 8
-50.9692911239954 -431.583400391932 3015.00393269264 3 8 2
-91.8855351401593 -442.280713368697 2999.11808990977 21 26 22
-296.184652965383 -502.473770517905 2896.30979977618 130 134 135
87.9248825477212 -454.916870771376 2889.03077332565 19 21 16
89.1255019623882 -451.917154012262 2898.73113389725 19 20 12
88.7157926272843 -449.495084238673 2907.28213205915 14 15 7
150.878355235756 -425.29260316176 2958.17168242671 14 16 11
162.212730023917 -418.886650306482 2974.30989708115 16 18 13
151.29960509961 -420.215810170729 2975.42419979607 14 16 11
135.387086764557 -423.256477610676 2973.25380255441 12 14 9
111.117401070833 -429.146529914802 2965.63322717692 15 17 12
127.560967127943 -421.042616404335 2984.94911312056 17 19 14
124.074907581155 -419.79419669695 2991.06046237384 16 18 13
126.452963366946 -416.552852605077 3000.97280812666 15 17 12
119.643270070046 -416.446496162918 3004.8853961651 10 12 7
106.103063674448 -418.613817751722 3004.48124375811 10 12 7
92.5247166989873 -420.776036270273 3004.11421127918 10 12 7
98.3270402724221 -416.405151564044 3016.12757584425 12 15 8
72.869778419995 -422.533004222141 3008.3041807767 12 15 8
61.7392199488309 -423.832335411045 3009.62998955272 8 11 4
42.9312580454893 -427.675682141982 3006.2023804304 8 11 4
50.4749266824636 -422.743916051557 3019.23782205935 13 16 9
58.0773136634298 -417.819788216694 3032.21608443554 15 18 11
30.646460522012 -424.477605842797 3023.59700464839 17 20 13
-36.3442075136948 -444.096134165415 2990.99443483058 14 17 10
-50.3075693993225 -446.207397715019 2991.00219672686 11 14 7
-53.9689817788189 -444.935266800605 2997.28383158717 9 12 5
-65.3944548482905 -446.195709222423 2998.89674717615 10 13 6
-64.728754724392 -443.518383407917 3007.75903043414 14 19 13
-96.1323790116091 -451.233363837174 2997.57324421087 12 17 13
-263.847046707583 -500.249104613412 2916.2989729349 124 128 129
-281.856180318848 -503.408197107587 2914.81080166777 125 129 130
-39.5036367653701 -518.710537548635 2764.26761922106 110 111 116
-28.1768325623544 -511.854127827682 2781.76368356816 211 212 216
109.25891045317 -454.79851708427 2904.67062061403 18 21 14
108.871697182615 -452.363479651569 2913.19736323693 26 27 19
113.434492511502 -448.194007687207 2925.054119228 10 12 7
110.637804384355 -446.634294606841 2931.85181276393 12 14 9
161.472573815249 -426.287201371443 2974.72177203559 15 17 12
149.731063940931 -427.923692574424 2975.28718737158 14 16 11
137.959025969799 -429.555968374862 2975.88195668234 14 16 11
124.495307007336 -431.760765706047 2975.40739002191 13 15 10
90.177222318832 -441.161280224102 2961.2796049904 11 13 8
119.153053477798 -428.672466835508 2988.75800911571 12 14 9
85.5489721657401 -437.768993054713 2975.29352599838 11 13 8
111.344347796969 -426.451837673365 3000.43502706543 9 11 6
104.508215614122 -426.34726543953 3004.37379517168 9 11 6
89.2418335021699 -429.109236953983 3002.93783113246 10 12 7
81.5278846926479 -429.286540573169 3006.37303593577 9 12 5
84.8035110048917 -425.740998083179 3016.76636765661 9 12 5
71.1558445240641 -427.920600966768 3016.47073987281 14 17 10
60.8702763053017 -428.952198352793 3018.33479921551 16 19 12
49.7102094134156 -430.266266779083 3019.69208844677 16 19 12
76.9502204713857 -418.741168751554 3044.78522066485 15 18 11
19.6078266354878 -435.448671317622 3017.75887746629 15 18 11
-32.8232688543499 -450.41703621599 2994.10029236829 14 17 10
-71.7106050774534 -460.805709433287 2978.98791596792 13 16 9
-58.1870711877155 -453.83736291235 2995.70329821203 13 16 9
-74.8036136973149 -456.819115144811 2994.22329974115 14 17 10
-74.1594720244514 -454.120201520529 3003.10380019085 13 18 12
18.0553710464118 -505.76948212207 2805.80598532693 109 110 114
29.5192949263159 -498.874691942934 2823.16021519292 212 213 215
44.3185099125016 -490.817148852697 2842.6989102681 140 142 141
112.614397009367 -460.980210833571 2907.92019960987 25 28 21
109.7776913173 -459.407492111719 2914.7557089512 16 17 9
108.595407804907 -457.251670949155 2922.69632680261 13 15 10
114.839436512574 -452.470338511308 2935.62731696202 13 15 10
121.963124060791 -447.404237112967 2949.05961347873 13 15 10
144.855273943112 -436.807416012455 2972.93979777098 12 14 9
134.729543141829 -437.877148936741 2974.65077261119 12 14 9
107.13693085122 -445.054299029483 2964.85216984448 11 13 8
136.891055626774 -432.157771177513 2992.91402835932 10 12 7
115.900790121208 -437.001036125595 2987.55053849704 11 13 8
110.73074007489 -436.320610318873 2992.58390798334 10 12 7
108.915035578954 -434.480292429195 2999.78290632133 8 10 5
102.073211507475 -434.380250867914 3003.72799618855 8 10 5
80.9055095317235 -439.199790846571 2998.53719682404 8 10 5
75.7050548735778 -438.515001335981 3003.60011358582 11 14 7
76.428322486124 -435.807605550966 3012.40078714807 11 14 7
77.1792278644288 -433.103870851951 3021.17455710727 17 20 13
68.6075860162671 -433.5763195486 3024.08817677282 18 21 14
54.9092252361545 -435.775949644528 3023.84584919084 16 19 12
11.1374993756388 -445.625940194483 3013.50412684198 13 16 9
-34.4490689077785 -458.439951825001 2994.0663628009 14 17 10
-48.4079882715682 -460.605260150689 2994.07770100163 14 17 10
-37.4179727718227 -454.445415382346 3009.17733487008 12 15 8
-53.9877655984302 -457.468206575753 3007.6569788134 13 16 9
-80.1275242805 -463.634751769962 3000.51736976879 14 19 13
38.1552259995108 -511.689426238707 2802.30851340402 98 101 106
73.7797625246723 -495.829093370088 2836.8564524112 155 158 163
79.6566282239524 -490.963557245627 2850.13959559749 202 203 207
79.9093823421777 -488.178506453466 2859.39601863892 209 210 212
79.3767836421542 -485.692766991563 2868.0596374047 2 4 3
86.2043922740274 -480.548592682218 2881.77440552005 30 32 27
90.6397210668146 -476.298139895576 2893.74610657759 19 22 15
96.7601043053263 -471.463361995096 2906.79197929965 27 28 20
108.682365203744 -464.570993789663 2923.69176953944 21 23 18
105.0511350823 -463.288161497138 2929.94185131231 17 19 14
109.676879104236 -459.061949451009 2941.72805000332 12 14 9
100.294339795818 -459.842741647901 2944.07522870913 7 9 4
124.041905702581 -448.864099085313 2968.4664485161 8 10 5
130.481788942955 -444.070129956152 2981.20108453181 10 12 7
142.804762992849 -437.229398418235 2997.71059256546 7 9 4
95.1236969875651 -451.506540624703 2974.90097067184 10 12 7
96.5972137257429 -448.476433206985 2984.32618628295 12 14 9
98.102027155893 -445.450435103143 2993.72059332908 14 16 11
98.7981681857266 -442.72092646336 3002.54493571869 16 18 13
78.465623840823 -447.298205959353 2997.90591580503 17 19 14
82.5454784160224 -443.401952119079 3008.86571130539 18 21 14
68.0538279790244 -445.927018640825 3008.04232212357 16 19 12
61.152608006581 -445.824206788584 3012.04598355069 15 18 11
58.4943271177591 -444.26484118013 3018.70628800913 15 18 11
77.1462495288526 -435.435474557687 3038.55584043006 12 15 8
42.9677758744385 -444.638088133176 3025.6774170647 13 16 9
-8.62732600444449 -457.189668077394 3010.75085694201 20 23 16
-31.1247720083325 -462.288041679697 3005.50413954077 17 20 13
-35.6052550398989 -461.294768037461 3011.223767174 10 13 6
-55.624902850917 -465.510227140207 3007.63746879834 12 15 8
-87.8261499458586 -473.764377410288 2996.90617572147 12 17 11
95.4316107087094 -498.108547083246 2844.03296276098 198 201 206
103.741346401909 -492.308954542744 2859.01324274366 204 207 212
101.596499821691 -490.406680880701 2866.52992700085 202 203 207
101.901571198348 -487.609591361084 2875.73261891261 192 193 195
98.9817053656079 -486.010467398991 2882.64680481999 0 1 0
96.889171297073 -484.114257840819 2890.11243825167 13 15 10
89.0933141349852 -484.306946019039 2893.63125309101 20 23 16
92.7527365639107 -480.327569993914 2904.99659634712 22 23 15
108.769419740834 -471.889326405941 2924.68696946183 18 20 15
130.647531434309 -461.382706470602 2948.17019319894 15 17 12
129.559223904091 -459.211947588675 2956.01494588044 9 11 6
106.168704554746 -465.058882065083 2948.93188184813 9 11 6
103.410821001921 -463.479294010768 2955.68810435566 10 12 7
107.310254920379 -459.53041112283 2966.819619527 11 13 8
95.4341393314491 -461.212898805459 2967.52516074504 11 13 8
79.3552768670365 -464.370406072286 2965.53721455824 14 16 11
79.9552391476621 -461.609607704342 2974.45243925944 15 17 12
90.6432886530877 -455.308264002726 2989.83101634358 16 18 13
87.1205463705809 -454.032988606056 2995.97482283655 18 20 15
84.4482046394832 -452.463889613441 3002.6476513293 19 21 16
75.8790132943181 -452.958229825421 3005.56207316555 16 19 12
60.5260089435014 -455.805151504242 3004.22434404524 15 18 11
