ply
format ascii 1.0
comment KinectMotionCapture
element vertex 795
property float x
property float y
property float z
property uchar red
property uchar green
property uchar blue
end_header
86.290769920919 370.513402909654 2919.35851929371 33 36 29
67.1774285699862 369.145047534859 2926.49301434127 35 36 30
61.3648168836889 368.681173594485 2922.27697846964 35 36 30
85.8102238535654 370.271884582375 2891.83636515167 34 33 28
89.1943380702003 370.431129850168 2879.46877091808 29 30 24
61.6654520935995 368.492741171929 2894.08605709107 31 32 26
36.5661636417998 366.72053791205 2906.76034223428 30 31 25
21.5479220186197 365.632771161621 2910.68940608192 26 27 21
34.8826975513004 366.466024681829 2889.48201849097 39 40 34
29.8017298994386 366.05123393543 2884.56157898081 51 52 46
27.7574785020414 365.841819717509 2876.90282469201 39 40 34
37.0648140035552 366.399781994316 2858.95023756825 24 25 19
44.7709294197129 366.848406741975 2842.30670575217 26 27 21
22.2404828525375 365.253349810669 2853.13839763878 27 28 22
32.1292874140804 365.848393729216 2834.37248104243 29 30 24
29.9325085135802 365.62666789037 2826.60309395074 28 30 25
20.2393706662893 364.899008565734 2825.74841782554 29 31 26
-3.59001361428302 363.218654269945 2838.10841773046 31 33 28
-14.6853271776002 362.397495556361 2838.70687417035 32 34 29
-5.01082165466493 362.975238606665 2819.78551999524 32 34 29
0.877704415103597 363.296964739708 2804.29380936458 32 34 29
-2.14121605187989 363.018625652558 2797.16347865494 30 32 27
-6.64695908484902 362.640056793213 2791.4248841117 30 32 27
-13.3585393934186 362.113106780956 2787.79217831432 31 33 28
-14.2289988831703 361.978354257535 2778.51463574714 31 33 28
-11.49377012355 362.085107246502 2765.67638471412 33 35 30
23.8263839184141 364.37657912746 2720.89023093166 33 35 30
13.3387234617373 363.594224562229 2720.69405352097 31 33 28
37.4794592440875 365.131919423809 2686.32690465541 36 38 33
20.4683518709508 363.911973291604 2692.51573796402 38 40 35
-2.20985982057109 362.313590888825 2704.47562602057 97 99 94
132.89220699573 371.180694630992 2546.78777680858 135 137 134
128.413901267309 370.794272386618 2539.8339957448 162 164 161
116.844498153709 369.934281457581 2540.0885778593 142 144 141
107.421029992529 369.217735090306 2538.19441070471 114 116 113
96.6078031573732 368.408684894592 2537.76208805969 127 129 126
90.7271227659772 367.928518527465 2532.26158857752 144 146 145
86.9374591368444 367.587404589649 2524.57221173417 144 146 145
86.6123148845097 367.476471930835 2513.21973273709 134 136 135
84.1630147529324 367.223637909167 2504.03209341765 127 129 128
76.8403612410715 366.646497098686 2499.95615338797 137 139 138
156.465350016139 369.41846345985 3031.98027253556 25 31 27
254.052917444188 375.61247884656 2938.48330593068 33 39 35
174.446582847497 370.33589271055 2991.9094956567 36 41 35
188.196496317002 371.145024402304 2972.23825934003 32 35 28
192.081629180156 371.310579754017 2960.23389617739 25 26 18
186.991369145566 370.891556143751 2955.3066989804 24 24 16
140.642412926744 367.790482674561 2983.44789254846 25 25 17
140.494140611759 367.69411663659 2974.69407331162 23 23 15
140.314426792314 367.595248293974 2965.91744878254 26 27 21
142.510301108109 367.650076893521 2955.15831293094 27 28 22
128.658896628276 366.663723393218 2957.46338786802 27 28 23
128.415622874131 366.559847878611 2948.64066202353 36 37 31
124.16215094599 366.195823558392 2943.08501785886 30 31 25
121.486228767955 365.933770473449 2936.20341642064 17 18 12
111.669428942905 365.209602719706 2935.25911277418 17 20 13
100.295444100112 364.385128437077 2935.65553766243 25 30 23
93.6732169877894 363.868027931725 2932.08736131658 29 34 27
88.6239658005752 363.452528130816 2927.18991015701 27 32 25
77.3087209756529 362.632767636861 2927.62894081406 29 32 25
69.1448174466811 362.016604926714 2925.4130362986 34 35 29
50.8763296443968 360.749721161409 2931.92546105815 35 36 30
62.1661148942199 361.386667411083 2912.94002639848 34 33 28
78.0014859393434 362.314516719274 2889.84044864154 29 30 24
73.6502266984051 361.942730254078 2884.21417152717 31 32 26
32.3559586218112 359.197527619912 2911.08097796404 29 30 24
42.6684448725845 359.768402394845 2892.62178036753 24 25 19
39.8815896251237 359.497467045794 2885.65971618944 36 37 31
33.2617775938964 358.980512803507 2882.09358580528 48 49 43
25.1244039356444 358.366376930728 2879.89662914859 34 35 29
42.786627473391 359.403942847301 2854.41682159917 31 32 26
55.7741278084749 360.140253264432 2832.95719577032 31 32 26
28.6849257694035 358.313040301316 2847.89407581688 31 32 26
19.010889431331 357.600128904709 2847.0530270075 34 35 29
39.3444688186513 358.802819169715 2818.57013771655 32 33 27
23.6444673635958 357.704766366531 2823.23996384091 26 28 23
-5.41433535253155 355.756212856306 2840.45353359712 28 30 25
-2.3858037344795 355.853265533728 2827.8281494086 28 30 25
13.9248226632569 356.794613992897 2802.60279503966 28 30 25
-0.183560644873459 355.799492890581 2805.9568672365 26 28 23
-8.35273666178216 355.182477375428 2803.73713626238 26 28 23
-12.8384049727592 354.799470795203 2798.01307183559 25 27 22
-18.7981459541056 354.322744243985 2793.69031369708 26 28 23
-21.1097151926141 354.077204250891 2785.83788649326 32 34 29
-1.6142840392277 355.212462753797 2756.74676962838 35 37 32
60.7781007533896 358.954840696567 2674.77739517086 30 32 27
60.2663474764813 358.816694314914 2664.52453809576 25 27 22
5.08522598286287 355.226371935341 2708.49305461391 37 39 34
11.117875945243 355.502537324195 2691.87055506541 163 165 160
129.790785084537 362.76460854474 2550.67263284235 162 164 161
125.323965862695 362.370334494667 2543.72713882138 178 180 177
115.887921914414 361.663311241369 2541.82360896977 154 156 153
106.468396420591 360.957544019356 2539.93206006037 124 126 123
98.4721582843027 360.341325738206 2536.60266285554 141 143 140
93.2884656770825 359.901524962158 2530.37229804603 160 162 161
89.4927452712246 359.548419673455 2522.67846977742 153 155 154
87.0719185768194 359.280984818043 2513.51139750414 157 159 158
83.2342467721454 358.924346574596 2505.78713987613 162 164 163
73.8388694206318 358.220042734942 2503.91310388276 154 156 155
234.356322221126 367.091907743165 2972.33162759793 7 13 9
264.601429501269 368.856985835773 2939.92015743331 26 32 28
155.25411506561 361.982014027109 3016.24323240699 32 37 31
196.116478810658 364.403282479431 2975.47510768312 21 26 20
160.060446407462 362.068590040581 2995.02538364736 15 18 11
160.770344727594 362.006193122356 2985.65851157225 17 18 10
152.52090438891 361.390621229427 2983.38060259059 27 28 20
129.720771860147 359.878627945637 2992.78247194983 34 35 27
118.308162862193 359.069530322447 2993.15097524954 38 37 32
131.87047802641 359.797571608735 2973.34303970191 34 35 30
135.696979581429 359.925177435721 2961.29627570795 33 34 29
141.070942447212 360.146859594903 2947.90111374534 25 26 21
126.429975712175 359.139047705263 2950.86904056878 31 32 26
124.571226378034 358.915954320044 2943.34469139677 31 32 26
121.10222451153 358.593777070757 2937.12290165567 33 36 29
117.619257966614 358.270513334642 2930.8909831179 35 38 31
104.650170450235 357.366770289963 2932.60105026041 36 39 32
90.9324801520985 356.41800689083 2935.00324786268 34 39 32
82.752457822354 355.808200522357 2932.77569068066 26 29 22
79.2812865187504 355.485899800309 2926.5523276429 25 28 21
78.9182469357632 355.352785690332 2917.6426328939 30 31 23
67.6263856798771 354.553492384797 2918.09871846952 30 31 23
57.9165179729975 353.851041348787 2917.23204219702 27 27 19
60.611676632965 353.903095663824 2905.59950306325 26 27 21
54.7676882252444 353.43555219458 2901.36070294976 25 26 21
43.5354401735908 352.641016434044 2901.86032198426 27 28 23
36.1701248810484 352.081485627833 2898.98828686964 27 28 23
31.8731771955014 351.707937923382 2893.40137243982 26 27 22
31.3818211548829 351.564493070703 2884.398311548 29 30 25
35.4234371965809 351.694457958478 2871.27216947909 33 34 29
42.4412604400017 352.003026652707 2855.36400719578 32 33 28
43.3318993337801 351.940351797328 2844.89341425972 36 37 32
23.0639540616719 350.601237792331 2853.66113365605 34 35 30
20.1748497517236 350.310473636619 2846.62484651364 37 38 33
31.5138405635484 350.875425076748 2826.43968071887 33 35 30
14.3406985060515 349.724368540754 2832.51169504321 33 35 30
-2.02202105345317 348.623233003586 2837.93612368509 33 35 30
1.74289852229137 348.730857071582 2824.60928528235 31 33 28
10.636663421598 349.144662503624 2806.35616182018 28 30 25
8.3590422318176 348.887740378383 2798.52799215161 22 24 19
-1.30809604801718 348.188310291859 2797.69230665437 25 27 22
-25.6429131994191 346.612797376083 2810.92176963323 22 24 19
-28.6340304170376 346.313542107462 2803.8111936708 22 24 19
-1.92065921231599 347.661454980789 2757.72146101322 22 24 19
-16.6770980081272 346.658733445619 2761.84074208835 21 23 18
60.7047048089493 351.004012140563 2664.80273990563 29 31 26
42.1825397596569 349.77421734672 2672.36649310723 32 34 29
49.5388781117496 350.0793258318 2654.23363686543 25 27 24
125.975082400723 354.333398793664 2555.2746515254 206 208 205
124.362774430349 354.099211545255 2545.45852902928 131 133 130
115.638452203353 353.444705908771 2542.83617082521 159 161 158
108.337671646739 352.87429578826 2538.77612105985 172 172 170
102.447545237386 352.386908965893 2533.26844290763 123 123 121
97.2529232485395 351.940221425019 2527.03041475033 134 134 132
92.7477054383914 351.533733197219 2520.05702290601 141 143 142
88.2280950042955 351.12602673053 2513.07319137082 146 150 149
82.3045276378687 350.635657392951 2507.54155052514 152 154 153
72.2204655005365 349.901627456443 2506.40315829393 148 150 147
232.296825527395 359.562201276526 2974.50591940972 7 14 7
120.456578261845 352.636633442403 3035.43497706508 26 29 22
149.044604460492 354.183506068962 3004.29151594234 14 17 10
149.78622500858 354.101218220866 2994.9478337128 14 17 10
144.00116273102 353.637649351799 2990.75177054074 18 21 14
149.544449874766 353.83390153095 2977.47922655293 23 26 19
126.779928597462 352.381729011555 2986.9072142723 31 32 26
123.42263805367 352.059640052969 2980.76640690029 41 44 37
128.8805553393 352.249118213101 2967.4319421687 42 45 38
147.883815483869 353.222954675685 2942.92395787246 40 43 36
131.627333195079 352.150669415759 2947.19050968224 33 34 28
120.999423014217 351.40543805519 2946.89314476677 29 30 24
115.160185465907 350.937689488366 2942.6577876138 25 26 20
107.736917020746 350.378437503096 2939.74374243434 28 29 23
98.7423387556672 349.728703493327 2938.16082513617 38 39 33
90.5517837440919 349.12568360053 2935.92566696316 39 42 35
88.6544831008518 348.885285441206 2928.37328347236 36 37 31
79.6880654649246 348.237822398077 2926.81049744111 33 34 28
82.4490111882845 348.264433556526 2915.22581435598 29 30 24
67.2546265808389 347.259600447287 2919.02760847049 27 28 22
55.2173640746347 346.436897093003 2920.1782548248 25 26 20
47.859002778444 345.882868861181 2917.31158315918 25 26 20
60.5791601279502 346.47726649483 2896.89247250768 26 29 22
53.1792961501965 345.91989848688 2893.99569774587 30 33 26
45.7872329855959 345.363140027862 2891.10458104747 24 27 20
26.922606203704 344.152702544739 2898.42017447921 29 32 25
34.8424392906628 344.468680940646 2881.93060480671 24 27 20
28.2235438388341 343.956124910137 2878.36516114833 26 29 22
50.4415181081477 345.081314659375 2848.77725515449 24 27 20
30.127635402283 343.790100756663 2857.51221062522 28 31 24
22.7206035179419 343.232047516664 2854.61023622411 30 33 26
20.5866161663653 342.972534838175 2846.88617666849 29 32 25
17.6794219991634 342.668744774041 2839.83670982371 34 37 30
13.2582054819195 342.279033148786 2834.15933391529 33 36 29
5.84463117020206 341.720352815507 2831.25261359261 31 34 27
-2.3045992998374 341.120396888317 2829.04742798125 29 32 25
-2.28861625492005 340.979888985768 2819.17712626672 27 30 23
-5.26494327158078 340.670423710067 2812.07751479793 21 24 17
-11.2071027509344 340.19409834375 2807.7675038975 32 35 28
-17.8850583214554 339.676496405778 2804.15922074016 30 33 26
-20.1652308983951 339.404984266216 2796.32912761529 31 34 27
-12.9763987998064 339.661970359417 2779.30963539536 32 35 28
-13.1474586487794 339.506265088639 2769.30366531769 30 33 26
-35.1281874952194 338.134169217813 2780.53528313037 28 31 24
-27.3466702318672 338.420808429705 2762.71026012758 22 25 18
14.9753091655298 340.625053177679 2710.64818742595 35 40 34
55.5626074258675 342.725642433489 2659.79815557103 24 29 23
131.420375355181 346.446697009084 2550.53597306157 203 205 204
126.241792256909 345.995528583098 2544.30954914177 118 118 118
118.928892695489 345.426411530596 2540.24042612382 129 129 129
112.325173791864 344.896343113455 2535.45056445921 131 129 130
107.831410162916 344.482149820778 2528.48543696762 135 134 132
101.920167895246 343.989732019076 2522.96272047318 122 121 119
96.0034399259935 343.49681753853 2517.43602476082 128 132 131
91.4754061728287 343.079676220131 2510.44603919249 139 145 143
85.5433222916755 342.585380425482 2504.90791017823 152 157 153
215.391979738277 351.22724421732 2988.14655380452 0 4 0
213.625970651402 350.982784316141 2980.68962026834 34 37 30
215.939105845479 350.962981860802 2970.01511130887 26 29 22
174.029832844009 348.503785376043 2993.96716849296 29 32 25
155.88623845384 347.212299983291 2990.68883007555 24 27 20
167.939782486155 347.727749663658 2972.25673952969 21 24 17
175.849656539081 348.013416258276 2956.99512791185 19 22 15
156.240727644927 346.789233637367 2963.77109123639 18 21 14
120.605919433606 344.689875600866 2983.6276191448 23 26 19
123.66631219152 344.70970466266 2972.25997725288 31 34 27
129.880194748483 344.900428636266 2958.23849756068 45 48 41
136.02768049837 345.085848407789 2944.16885853921 40 43 36
128.57270704878 344.52893358081 2941.23213604062 38 41 34
118.74366900653 343.843153037179 2940.27915508812 34 37 30
107.352108564045 343.073066860322 2940.66311453556 33 36 29
97.5697198583068 342.391040138865 2939.74367521947 29 32 25
92.5329110655744 341.966586029487 2934.85519846185 27 30 23
92.9875976933001 341.839026535999 2925.30328240016 30 33 26
82.4436400298052 341.116429220215 2925.06659662505 30 33 26
83.6378914592459 341.027687610925 2914.81596686225 34 37 30
69.9969209685221 340.138729574024 2917.27408321615 36 39 32
56.3988979377807 339.253220888438 2919.76335057197 37 40 33
49.8124703648068 338.745495280993 2916.22117356189 33 36 29
60.9876431919263 339.190643024807 2897.15168241382 33 36 29
55.8972945107943 338.761888927259 2892.22437166822 29 32 25
40.8212068198273 337.798818699999 2896.1121332793 23 26 19
34.217592325541 337.289682090312 2892.55748995617 36 39 32
30.6706002403905 336.94365942176 2886.27904265944 34 37 30
34.7206004563629 337.001856677257 2873.15861494018 34 37 30
34.158828901691 336.813200941258 2864.10457381446 29 32 25
40.3759076338281 336.983648826363 2848.85027176627 29 32 25
27.6582880671001 336.148132286026 2850.74297897276 27 30 23
23.2548811626425 335.753840514657 2845.07849043339 28 31 24
12.8405020562323 335.041489486284 2844.93608529614 38 41 34
7.68689654931976 334.607495126746 2839.9628917846 37 40 33
-2.69233178395245 333.897909555264 2839.84598220053 33 36 29
-1.14965843849868 333.816363215672 2828.61263625959 32 35 28
-12.2547272100753 333.069019310648 2829.20439482739 30 33 26
-13.7213432382577 332.828085248004 2820.72918446166 25 28 21
-7.10918342086564 333.009488802343 2804.52630398704 26 29 22
-0.572998481867204 333.184759948167 2788.26831663982 24 27 20
0.0270077465440721 333.047949639751 2777.58636789452 24 27 20
-13.2899784336986 332.184565827254 2780.27947692774 25 28 21
-22.1951951363781 331.5519371417 2778.76113189804 26 29 22
-10.0321018734451 332.014281042813 2756.70248809446 26 29 22
22.2837621437693 333.518661070678 2714.67491457675 36 39 30
-12.0145450793783 331.567097833167 2737.97141691905 30 33 26
-10.1764699777269 331.488323739835 2725.71719142813 25 27 24
-11.9734535926557 331.220499262693 2717.00235434313 6 8 5
144.195572724713 339.089456217134 2549.87883840826 156 157 159
139.005326991298 338.631358247739 2543.64363041883 193 194 196
129.54196226175 337.953549843661 2541.72073760582 139 140 142
121.511859926995 337.349633267822 2538.36655935437 87 88 90
114.901501752134 336.818504237284 2533.57187936813 73 73 73
111.105394598606 336.430977584086 2525.87759638689 142 142 140
105.185473461125 335.934600659212 2520.34856834077 158 157 155
99.9595928833479 335.47330968296 2514.08751171897 133 137 136
94.723773142805 335.011161247841 2507.81924564277 150 156 154
88.7827978280762 334.512906936338 2502.27494546491 148 153 147
200.051473149087 342.922530134253 2991.8054456398 36 39 32
206.505803495796 343.090744360263 2977.95815766549 26 29 22
221.076277361924 343.677479969008 2957.64559998275 29 32 25
185.756213002974 341.68071354234 2976.49577544425 33 36 29
152.220879156973 339.780635275135 2994.16986215179 28 31 24
170.782563407401 340.571327921422 2970.57587903585 25 28 21
173.831602199692 340.559496102061 2959.19955156631 19 22 15
158.263158814133 339.589133557808 2962.73035708997 17 20 13
149.187797056461 338.953590865664 2961.08865551881 20 23 16
113.63192421489 336.961347235276 2981.00324239393 24 27 20
123.079629159635 337.27681640757 2964.38622042902 32 35 28
116.472140063996 336.769524157287 2960.82877766673 41 44 37
121.813652998183 336.871904463435 2947.40978224582 40 43 36
119.15125682059 336.564817442068 2940.53775798821 36 39 32
111.718635753562 336.01461697778 2937.61697874131 34 37 30
101.134663234155 335.304661555685 2937.35164385389 32 35 28
100.814958255486 335.115739891429 2928.4730806081 32 35 28
99.678259549894 334.884539429824 2920.2370836529 23 26 19
90.6821912045679 334.255461462258 2918.65289631366 25 28 21
89.5129932371468 334.021646867945 2910.3933267089 31 34 27
75.0762289278684 333.118944124156 2913.50981662722 33 36 29
60.6869811935224 332.220054256561 2916.6604771607 34 37 30
57.9615594272718 331.907917469458 2909.74273873078 37 40 33
64.4847078730728 332.058565390703 2894.71021285915 37 40 33
57.0754912734519 331.510248903736 2891.80670402988 36 39 32
48.1384530570472 330.885885823143 2890.2653327727 29 32 25
39.9835501749464 330.300996291289 2888.05611142305 34 37 30
40.2390401590331 330.134889093076 2878.35930373457 30 33 26
25.9940497967772 329.247535478298 2881.6148924261 35 38 31
28.4962269435067 329.191849845485 2869.84191115089 34 37 30
27.9213453112472 328.982353110177 2860.77826068638 32 35 28
26.5599962788938 328.733013210548 2852.37931803521 30 33 26
19.9036468662102 328.221720812216 2848.78672960185 32 35 28
7.248631796132 327.415304993554 2850.72467306788 33 36 29
5.85315415251975 327.163173314292 2842.30127019418 32 35 28
-0.0450396637980965 326.689379076188 2838.02314376182 29 32 25
-2.22568763150544 326.397469079941 2830.26509483098 28 31 24
-11.1029634266406 325.777697244735 2828.76706988392 27 30 23
-14.7887001053073 325.411525420344 2822.38794161094 24 27 20
-5.22127948797135 325.689726900794 2803.38744206535 21 24 17
7.19223962923055 326.103141145043 2781.51008946952 23 26 19
2.64272040211955 325.690835785564 2775.73988422391 25 28 21
-6.29945081721384 325.065720815529 2774.19478813489 27 30 23
-10.1272134974189 324.687983557279 2767.7126436012 28 31 24
-4.53027575484422 324.763799717543 2752.00830878687 28 31 24
-13.4825953996616 324.137768418566 2750.45614572327 20 23 14
26.655381421878 325.867573305074 2700.51354970164 20 23 16
-32.7762469417214 322.820707275747 2748.81434452223 33 35 30
141.794151347603 330.749639377996 2553.0361949805 97 99 98
140.890006086872 330.489718638339 2542.49856224815 195 196 198
132.843113786591 329.889437964592 2539.13223100893 77 78 80
125.512088801082 329.323276483324 2535.05027793182 73 74 76
115.359610944012 328.623803412483 2533.86246472264 79 80 82
110.86017167692 328.191622988037 2526.89313173146 108 110 109
106.346267567591 327.758218474216 2519.9133066672 121 123 122
103.916729181671 327.422155781149 2510.73986596631 141 145 144
98.6701434461632 326.953134660934 2504.4637605791 139 145 143
92.0231649539969 326.418269774672 2499.64251482049 156 161 157
222.810561866763 336.909434377142 2983.57103779268 21 28 21
211.155278475874 336.155121949461 2983.76389874384 38 41 34
196.247645838217 335.243899927748 2986.53870853324 27 30 23
216.579580301334 336.041892190568 2961.75768681406 25 28 21
201.672816311099 335.130795705222 2964.5334214174 24 27 20
183.557608321927 334.066317412244 2969.92265610203 24 27 20
175.249565296464 333.476669029254 2967.60239608976 26 29 22
174.240969833507 333.238636406186 2959.45922930277 26 29 22
161.900606486781 332.455527581518 2960.39064642041 24 27 20
159.258109747971 332.138447400516 2953.53299707332 23 26 19
146.960349863025 331.358794508957 2954.49502137757 25 28 21
127.488612545528 330.237638061446 2961.37095965172 30 33 26
120.071230012736 329.693547833703 2958.46155257006 32 37 30
114.25491041213 329.225900901661 2954.24280964127 42 47 40
106.054711508741 328.645022701167 2952.00077255731 45 50 43
108.164706498404 328.553254151495 2941.17863840599 44 49 42
106.280365546475 328.271054620251 2933.63543793981 35 40 33
107.52415384452 328.135783625704 2923.4201883527 32 37 30
104.014006632044 327.775165341536 2917.16867123783 35 40 33
108.323716652723 327.781846858017 2904.2362517611 35 40 33
97.7332289372965 327.087237660872 2903.96597712368 35 40 33
84.8308474920012 326.285175710062 2905.72491595549 31 36 29
69.636644291255 325.377280434975 2909.52733258483 28 33 26
61.4656213704885 324.798769548442 2907.30645778423 27 30 23
61.0307814050635 324.580823877165 2898.34428371712 27 30 23
53.6324589653754 324.038286041093 2895.44840708987 29 32 25
47.0096394863355 323.531950334393 2891.88015032759 27 30 23
40.39042662435 323.025892711531 2888.31421501051 45 48 41
35.3016986188361 322.590593535435 2883.38804597513 44 47 40
27.1621131114252 322.014566795769 2881.18967893205 27 30 23
17.5158868852598 321.369677957336 2880.36942929098 25 28 21
29.8445915307521 321.73344941407 2859.66567253029 22 25 18
29.2345485509138 321.501336482626 2850.57641829905 22 25 18
15.7978923838598 320.682359825245 2853.18300093594 21 24 17
1.65372336933434 319.832624674515 2856.51157324199 27 30 23
-1.96778544184606 319.462911022731 2850.17898718079 27 30 23
0.364648377832122 319.362746452857 2838.28302452772 26 29 22
-8.50988244016104 318.753640957106 2836.78704350029 24 27 20
-11.4348998093998 318.413721996129 2829.724473236 23 26 19
-14.3784091518409 318.07228715274 2822.64819559043 25 28 21
-10.7057636587826 318.027504119699 2809.25398824094 28 31 24
-21.0568731955152 317.35187648592 2809.1573400992 32 35 28
6.72466427464391 318.382689583659 2772.48618314878 32 35 28
7.26894494798103 318.190865580433 2761.76385358118 30 33 26
1.21672196532874 317.703932346118 2757.37400156739 24 27 20
-20.8135377393588 316.507470685275 2768.57030854876 23 26 19
23.1382360075463 318.236944910458 2715.21693601091 24 25 17
-30.6611810111868 315.63647738474 2757.72172566449 43 44 38
139.39106997553 322.431453479426 2556.19245775193 19 21 18
138.496956386784 322.149810796783 2545.66198716677 87 89 88
129.036958704629 321.493152734103 2543.7413478519 94 98 99
123.136265475945 320.991911024145 2538.22623388612 73 77 78
114.404465334269 320.367575125977 2535.59860759779 77 81 82
110.614035843467 319.95748092001 2527.90832616631 74 80 80
107.506804300351 319.576109061139 2519.47812388541 105 111 111
106.475558083079 319.283177874794 2508.84818575278 104 108 107
102.617822006976 318.867523642717 2501.10878970158 129 134 130
228.996500297742 329.830037804826 2979.37365267801 31 38 31
205.803600798532 328.570992020885 2988.49178363025 45 48 41
197.475640014657 327.987310073888 2986.15711503102 32 35 28
189.979027961819 327.441611592139 2983.1899701563 29 32 25
218.411024337334 328.513937646167 2951.93129049 28 31 24
216.533689916794 328.217903728655 2944.39309913406 23 26 19
191.89762998855 326.900702943745 2954.9351254616 23 26 19
160.073182270599 325.265497930944 2971.38073841233 23 26 19
140.50256415557 324.182330039794 2978.18518830565 22 25 18
147.585134946869 324.289066287901 2963.55797720966 20 23 16
141.744871471998 323.818889664838 2959.32186404204 21 24 17
127.092081157657 322.957885058328 2962.28196330834 23 26 19
110.889196140845 322.03002608584 2966.58810047202 25 30 23
96.3357751332605 321.17703500508 2969.6199807825 35 40 33
83.4186791162734 320.397854033395 2971.36836860393 38 43 36
88.7630432064936 320.422631169336 2957.95075249449 39 44 37
96.4154318621393 320.546334885696 2942.50166384325 36 41 34
94.5373733666606 320.250368422057 2934.96324240862 35 40 33
86.350762071171 319.67824191167 2932.73109960063 38 43 36
79.7436572720418 319.175353294164 2929.17395772835 38 43 36
93.4546152240605 319.555089670789 2908.23697564756 39 44 37
77.4475899219138 318.643030307687 2912.68517572639 37 42 35
63.0504091582687 317.802643309699 2915.83067624322 33 38 31
53.349332293978 317.16652265259 2914.97041413955 32 35 28
57.5750536009072 317.130217798512 2901.97689171738 32 35 28
57.1205067955303 316.890911652559 2893.00032354641 28 31 24
50.4890409790391 316.386038318999 2889.42551179977 22 25 18
42.3288634343271 315.816019631326 2887.21254205839 33 36 29
42.5823202000784 315.604729911416 2877.51432606519 30 33 26
25.2835110535146 314.646559277169 2883.49592416289 21 24 17
12.6056588219581 313.886602892712 2885.41784228641 21 24 17
13.5957622748286 313.705620982359 2875.01845960634 20 23 16
20.5850277420367 313.775873172263 2859.08838806153 24 27 20
7.1732715030417 312.985768531676 2861.71316743011 22 25 18
-3.19328388261897 312.324941184634 2861.60569170625 21 24 17
0.684919095484737 312.260554416066 2848.36010359067 22 25 18
0.773863423130461 312.035922418021 2838.54256143896 26 29 22
-4.38121886908105 311.591846984809 2833.56795183459 27 30 23
-8.8002711522317 311.178046386119 2827.89231728728 29 32 25
-30.9791534637553 310.029620776801 2838.98112788126 35 38 31
-40.5268425703129 309.405652813952 2838.23241586943 32 35 28
-9.61813415982604 310.445558778749 2798.88781693414 32 35 28
0.545757567002259 310.626383607527 2779.08388768698 29 32 25
14.9961791305433 310.978479722655 2754.97770866815 25 28 21
20.2798507026158 310.708159991596 2729.16335081019 20 23 16
23.1814144654328 310.332865616129 2705.32731928898 19 20 14
133.528329758658 314.262512332614 2574.13348114199 34 35 30
139.132240997404 314.22080422727 2557.19856965107 106 106 104
138.24177508836 313.916915802682 2546.67033619068 159 161 158
128.783155358528 313.270812491613 2544.75104372178 88 90 89
122.176134071791 312.738378043101 2539.95877610476 102 106 107
114.154987238315 312.149992226944 2536.61116855366 143 147 148
111.071632659413 311.756327328876 2528.19850740403 75 80 83
108.667221529098 311.388310570473 2519.04282565632 119 127 129
106.935114062159 311.045418147448 2509.13960181237 135 139 138
103.078013850117 310.61830727505 2501.40060868245 150 152 149
207.949817320355 321.566006068663 2996.18761777762 17 24 17
205.388042228043 321.232271572006 2989.38840091737 31 34 27
192.136351627893 320.450078268051 2990.89421872681 30 33 26
197.754135746615 320.457857497074 2977.67501901037 31 34 27
167.382687007793 318.963207101098 2992.70428613103 31 34 27
169.715663949154 318.833373261906 2982.04360354697 30 33 26
158.197512413421 318.127396041679 2982.33611913383 28 31 24
135.370025147133 316.954813899907 2991.71958316738 31 34 27
127.173558095597 316.389476427895 2989.48033009933 32 35 28
139.12917172967 316.653926808735 2970.9759763569 34 37 30
133.313061348678 316.185124353441 2966.75737924292 34 37 30
125.092707446051 315.617880628599 2964.50050595416 33 36 29
105.698223378179 314.594934911832 2971.43323869136 32 37 30
95.9395129937 313.967275867222 2970.53123967868 32 37 30
83.8178302553012 313.244513556753 2971.62148870316 27 32 25
83.6173337582418 313.005901940129 2962.82879606329 28 33 26
80.2238563236193 312.637069709751 2956.66181375498 18 23 16
72.0884794812275 312.07670634049 2954.46657700105 27 32 25
64.7508623146957 311.548875982675 2951.61507589512 36 41 34
71.5275034749006 311.586623696579 2936.76574044016 34 39 32
75.1069222843368 311.493798703574 2924.53874436535 41 46 39
66.943716399325 310.931197674451 2922.32332241034 43 48 41
47.9130268397405 309.937598281393 2929.51992619527 40 45 38
42.1293652024248 309.471448807141 2925.32486530594 37 40 33
46.3901163218745 309.40174900162 2912.35656759043 39 42 35
45.969594528104 309.145409122282 2903.40457859728 36 39 32
40.9076120802601 308.705636579763 2898.49748085194 26 29 22
38.138413578567 308.355324379996 2891.54781436626 26 29 22
40.698074583589 308.212057754515 2879.81635522872 19 22 15
24.1652656815554 307.324408556705 2885.11856382671 20 23 16
0.857058023284285 306.176669472845 2896.62403695944 20 23 16
7.94228755579152 306.207460868373 2880.76333193684 22 25 18
5.13491099279229 305.854031548941 2873.78597357094 31 34 27
7.5796920620137 305.701451743094 2861.97089386615 30 33 26
3.96897647741534 305.315029111424 2855.64604741096 24 27 20
1.09246314496447 304.955995208643 2848.61854193712 26 29 22
0.436364878377837 304.68057847576 2839.49568190335 27 30 23
4.21324912589016 304.571758471133 2826.17642061462 27 30 23
-20.2620990801721 303.393424653863 2839.30602142331 28 31 24
-22.4360447276222 303.059178363942 2831.55261670578 33 36 29
-29.0584257462749 302.55704988611 2827.98440462622 32 35 28
-14.3526922609087 302.852346986903 2804.06301896994 29 32 25
6.82697202251381 303.383397588802 2773.71970495379 25 28 21
15.172426431096 303.165786940857 2745.18472480379 19 22 15
-15.8472925989355 301.491382962327 2754.80269547443 34 35 27
17.8318475983921 302.457732079282 2711.29029698538 21 22 16
138.288153169518 306.286503179176 2570.13276992415 30 31 26
139.588367924707 306.041341785298 2557.48779520509 110 111 106
135.132457625913 305.586448955898 2550.54990224918 188 188 186
127.817816157358 305.028239661315 2546.47957173552 129 131 130
121.924034660615 304.5209711231 2540.96943770465 83 85 84
116.024694006108 304.013222359202 2535.45527128925 116 120 121
112.233415193375 303.579999079611 2527.76396253584 116 121 124
111.232194111396 303.244509437245 2517.15557469758 89 94 97
108.794468443655 302.856763108458 2507.97564259656 177 179 178
95.8611728371537 302.099771512661 2509.71239938339 159 159 157
222.388444975368 314.820160865605 2985.62322298295 22 29 22
195.092654516356 313.516845876056 2997.94262858618 27 30 23
179.404946019845 312.665939114331 3001.38758135275 25 28 21
185.059832256074 312.637840139927 2988.19509602293 25 28 21
162.885701773671 311.540286849875 2996.81753573917 25 28 21
143.242021143005 310.543158880683 3003.56945686485 23 26 19
136.669058184832 310.047272342951 3000.03710060861 23 26 19
129.289478369874 309.520904195594 2997.1551872897 25 28 21
129.189502113656 309.270624320204 2988.43559929262 26 29 22
133.086896886797 309.169940805011 2976.43877649786 30 33 26
140.145195193574 309.185961273708 2961.79351026653 32 35 28
115.879512984546 308.023474827858 2972.6048149656 32 35 28
106.098801685705 307.407166924607 2971.68721899336 25 30 23
89.1665025167136 306.525108685527 2976.6998568906 31 36 29
87.3958919057949 306.20923398893 2969.23893140439 34 39 32
85.6022235757239 305.891511053283 2961.76157600082 34 39 32
83.7859699742958 305.571957435372 2954.26754430226 50 55 48
74.8528512599091 304.989472193004 2952.72952097226 45 50 43
65.9364345394149 304.408329640031 2951.20331759804 31 36 29
71.1455765984468 304.344353790472 2937.68752107806 29 34 27
55.1885015698668 303.506406359446 2942.17201209071 33 38 31
45.5227143644077 302.899395520469 2941.33777413783 35 40 33
47.5367202858696 302.715963001265 2930.44559116638 33 38 31
33.2298638456852 301.941993826577 2933.65661165526 37 40 33
44.4744880197221 302.088293908282 2914.63624802543 40 43 36
35.5844077273755 301.509269963747 2913.12914722118 37 40 33
37.4693821941459 301.315410595632 2902.14337378051 36 39 32
38.543257972766 301.090692447203 2891.8044979145 39 42 35
28.8793978262509 300.483815317561 2890.97165760503 39 42 35
12.3795979663122 299.636648720335 2896.29800021444 29 32 25
13.4130318123136 299.40864872336 2885.92979050519 28 31 24
3.8009300665669 298.805929128517 2885.13449202375 29 32 25
10.8264136401703 298.784687398642 2869.22991784544 31 34 27
1.96084712233313 298.207601824784 2867.74089189473 30 33 26
7.3789683991512 298.125822960642 2853.14116758757 30 33 26
1.49953100022415 297.651302207472 2848.87663440251 30 33 26
17.267526981839 297.920368682221 2824.48984153005 30 33 26
2.39055379424702 297.134909014811 2828.52284512645 30 33 26
-6.49788428916276 296.555922890809 2827.01693498608 30 33 26
-26.4683298133959 295.60158971991 2836.00256176641 33 36 29
0.856425174676989 296.249658961757 2800.23337140262 22 25 18
2.97498964689913 296.039929739925 2788.18181532883 16 19 12
-11.8217204094122 295.260890133523 2792.27303590086 17 20 13
12.9124034379955 295.803647496981 2758.33071267559 18 21 14
1.74481891735701 295.144452539748 2758.87759873454 23 26 19
-5.0329753656233 294.631903301576 2755.19667147978 27 30 23
-3.83816774046597 294.38214579129 2743.71029823163 19 22 13
-18.5787593374629 293.607564657215 2747.84222285549 19 20 12
136.588471472494 298.067520761364 2572.56440798731 24 23 18
135.749969616013 297.722786856332 2562.0739319642 60 57 52
133.44815474633 297.329132116243 2552.9924945739 191 186 182
129.696151023094 296.887630102769 2545.32990971465 162 157 154
123.798310083328 296.376730835202 2539.81652003952 161 157 154
117.894721597953 295.865352039795 2534.29925589404 149 145 144
114.099485977357 295.420297351655 2526.60531331477 140 138 139
112.39269494326 295.039955845214 2516.72025220628 150 148 149
108.553403622363 294.591286322759 2508.9940599228 160 159 155
234.354995208446 307.893734400066 2976.9712561933 28 35 28
229.256460600753 307.444297372103 2972.03790653172 30 33 26
197.053212511727 306.039565034481 2988.20979192197 27 30 23
155.160775102507 304.300973365512 3012.17799806864 26 29 22
157.49029828972 303.853038712528 2992.86735518272 23 26 19
146.005237571019 303.186942077448 2993.18406101206 22 25 18
136.980883543748 302.607421884308 2991.57961979823 23 26 19
139.286517907708 302.419532127647 2980.89882193162 24 27 20
143.159568037367 302.283457228209 2968.88417192093 28 31 24
146.175441250807 302.115550205478 2957.48330594084 29 32 25
132.310653996967 301.3694486262 2959.77989634279 30 33 26
110.495729807206 300.355154687301 2968.66315409144 29 32 25
99.1302621632038 299.698753892989 2969.06660460422 33 36 29
88.5896214749557 299.071587008235 2968.83310122622 35 38 31
92.3439904065009 298.925942416041 2956.73236820985 30 33 26
90.5108604381115 298.590760678718 2949.22631779023 51 54 47
82.3480188134282 298.043472463377 2947.01153193474 35 38 31
77.342160991237 297.601603965912 2942.14540398889 22 25 18
63.7072702244232 296.874097627552 2944.60874544907 23 26 19
49.3335895889304 296.124308673256 2947.77144613025 29 32 25
41.2438816892213 295.582932969786 2945.60970642079 32 35 28
40.9404692299651 295.296517711464 2936.74246014574 37 40 33
43.7062660013403 295.108415095888 2925.15991164423 37 40 33
39.4654861757138 294.690946710428 2919.61349202784 39 42 35
42.9233232518369 294.521344142228 2907.2976753893 37 40 33
42.4842837102597 294.223962114619 2898.332054599 37 40 33
35.1155042563405 293.703411784164 2895.45800016069 42 45 38
33.8685372513705 293.378157426369 2887.14159096051 42 45 38
28.7840532809973 292.929908975661 2882.21813844913 31 34 27
19.8947044321516 292.361324864005 2880.71191524072 30 33 26
22.386743832568 292.151079387746 2868.93080202077 31 34 27
18.0301260769791 291.724223104109 2863.30036146529 31 34 27
6.13145362369583 291.062128098128 2864.55228821956 31 34 27
-18.5011510791486 290.007225841622 2877.5685156429 33 36 29
-7.07999482106758 290.069431692979 2857.4403668281 31 34 27
1.25230463739134 290.031717270027 2840.01297467771 32 35 28
4.28877036523589 289.828009728754 2827.39152420788 29 32 25
-9.80055117031498 289.101138568592 2830.7607734293 27 30 23
-6.08119222035164 288.915179790523 2817.39942010163 44 47 40
3.48265795549985 288.902105016103 2798.39456241813 39 42 35
6.33198621687736 288.683253212389 2785.63766977349 29 32 25
-20.9439046208826 287.564384049502 2801.67783965594 30 33 26
-12.2620052424789 287.517432761329 2783.26850205559 31 34 27
-17.52132142262 287.054963164934 2778.21853238836 32 35 28
-32.2351067357127 286.314988929474 2782.37006475026 34 37 30
-13.5636518711373 286.551318905793 2753.91211326808 26 31 24
6.40158635888621 286.817339494054 2723.92213008863 31 34 25
131.909485602413 289.436926637942 2566.65842787945 27 20 14
131.048951322664 289.067858304666 2556.15185682384 42 35 29
129.440624373449 288.675770560212 2546.3381149348 160 150 148
127.091052855816 288.26118827281 2537.22195172907 146 136 134
121.885940595846 287.765535571411 2530.97577645515 102 94 92
120.194660452182 287.366699688173 2521.10186584449 128 119 120
117.768803895492 286.945909456939 2511.93037054148 116 107 108
113.213996490594 286.465345984047 2504.92094941294 141 136 133
240.686386050404 300.998108396971 2981.52608882806 5 11 7
263.66598849485 301.448852014077 2954.95725488512 20 27 20
226.372593878085 299.960774837396 2974.84986547653 34 37 30
204.850821042262 298.98413578911 2982.71078899806 30 33 26
207.806508891038 298.498961188742 2962.61854650442 29 32 25
195.372578574167 297.814944044534 2963.48263684748 29 32 25
149.65599269849 296.088048054368 2990.85417302338 29 32 25
147.916232519316 295.746114109636 2983.4154796783 32 35 28
144.537353011093 295.352053883885 2977.25865745657 31 34 27
146.786900831891 295.131682790153 2966.53703673351 29 32 25
142.56104467273 294.709350055898 2961.00141096254 29 32 25
134.317517675927 294.163157608067 2958.72784563214 28 31 24
108.497680626646 293.080256119706 2970.88328116913 28 29 23
98.7323700710667 292.491442053225 2969.97698878605 35 34 29
92.9635369014594 292.0247575456 2965.79267465937 21 22 16
92.7444082090085 291.725381850651 2956.9861673614 36 35 30
98.8191344864142 291.613303422401 2942.86257103556 18 17 12
95.3651947100602 291.213187682257 2936.65130535123 30 31 25
79.31580707546 290.43788162615 2941.06948875367 26 27 21
71.1639537676234 289.899124260883 2938.862711774 28 27 22
64.588341164121 289.407409575261 2935.32845586458 26 25 20
48.6590772881641 288.641822747799 2939.83376877303 26 27 21
41.3389426936881 288.130117787291 2936.995022835 33 34 28
47.2078890953256 288.001383740227 2922.72187344465 38 41 34
50.6904935237338 287.800303995851 2910.42385175023 39 42 35
35.6160103777086 287.063632252703 2914.31392328314 33 36 29
39.8126652342552 286.880083671675 2901.29858415228 32 35 28
30.1527459062712 286.299795334523 2900.46873530374 35 38 31
34.2726565360012 286.110034282732 2887.39773117767 36 39 32
24.6152364779664 285.529934321953 2886.5694005804 29 32 25
37.0182811221835 285.56768042428 2865.91788308859 28 31 24
26.5810484023978 284.96473125071 2865.75946502125 29 32 25
19.1916283044735 284.447395565375 2862.87016954539 31 34 27
-3.25810237270585 283.51641150677 2873.76403224026 30 33 26
-7.58333550504098 283.086019638021 2868.15603068249 31 34 27
-19.4086545102787 282.451239585689 2869.46156574934 25 28 21
-12.529704343804 282.323721609086 2853.4505225439 26 29 22
-19.1293879567758 281.830025164347 2849.89880700801 23 26 19
-10.877757144846 281.733073234909 2832.41263638455 18 21 14
-5.6717238479369 281.550679797617 2817.65894981894 29 32 25
0.943195581783574 281.401784522244 2801.4563968175 31 34 27
-14.5917031303657 280.668052321425 2806.24775479933 22 25 18
-27.1360103849765 280.015301790371 2808.2667310684 23 26 19
-28.6709082537375 279.649667762766 2799.74139010932 26 29 22
-24.39986505042 279.431841784744 2785.54476642758 25 28 21
-39.0933907880293 278.725924488068 2789.71115789322 23 28 21
-16.7708869567256 278.962536490717 2757.72445352977 16 23 15
9.71417323479606 279.294474359975 2721.34494922026 30 36 26
135.942165880742 281.378320526485 2563.36550782318 44 34 25
139.354458980005 281.090970087345 2548.54600570928 79 64 57
136.299938447585 280.642567898746 2540.1536752431 45 26 20
133.22202400259 280.192275299726 2531.74467093217 29 10 6
126.585177254054 279.655233738463 2526.93075886545 37 18 14
123.471992326257 279.202062276646 2518.4958771698 54 35 31
116.119049893136 278.647307060506 2514.39779896513 85 65 64
107.368343665881 278.05994164696 2511.75665451468 143 133 131
258.485468649274 294.128295572849 2968.4566906236 9 15 11
247.562917984597 293.5019145035 2967.94633653363 31 38 31
231.723970825571 292.735630229876 2971.28178731872 34 37 30
200.327910769431 291.527286686395 2986.80507313604 29 32 25
207.575557642897 291.425469485192 2972.29647285057 27 30 23
209.032670862687 291.15600674618 2962.23518734418 28 31 24
199.040303144079 290.561920686189 2961.1642696743 29 32 25
164.6863770067 289.286200652123 2979.48314048693 29 32 25
122.379146928118 287.796827365972 3004.38695354491 30 33 26
126.346356952869 287.601516637094 2992.44026201048 30 33 26
138.322242777802 287.62435525678 2973.94908572361 29 32 25
132.512806588806 287.15380583411 2969.73531802511 29 32 25
110.666187262531 286.245363013964 2978.5964299267 30 33 26
108.097703899976 285.865101498375 2971.79181995265 31 30 25
107.903069987346 285.547965146127 2963.00327395911 37 36 31
104.495980863873 285.142839736535 2956.82594593793 22 21 16
99.4887086536203 284.694214592534 2951.95875844824 37 36 31
94.4761885810008 284.245164313157 2947.08776451773 25 24 19
87.8811984844403 283.754038663252 2943.53946443363 32 31 26
79.7166458880634 283.221893304539 2941.3235149598 27 26 21
81.7600382500898 282.956871132433 2930.45222157858 27 26 21
78.2841490857189 282.54617366918 2924.22499071594 25 24 19
63.0954601085012 281.832574301244 2928.03238887068 26 25 20
51.8471935546603 281.222867262104 2928.52103746798 32 33 27
56.9144504360946 281.030548756915 2914.90144079691 38 39 33
54.1858875475905 280.637332173335 2907.98101461528 39 42 35
36.0164198448483 279.854508276418 2914.56767301685 33 36 29
16.3782546101512 279.038834224348 2922.55984257685 31 34 27
18.2866949910379 278.7628807203 2911.59066425513 33 36 29
22.4438018723672 278.539902206474 2898.54645623265 33 36 29
27.3052365321593 278.330911556244 2884.77757019295 27 30 23
35.904602397336 278.209432471778 2867.54365037277 27 30 23
24.7129551178182 277.604309774865 2868.07336671094 27 30 23
14.3067653967859 277.01975655002 2867.93754555499 29 32 25
-3.6094128992481 276.257436193825 2874.70762823039 29 32 25
-8.68365544632099 275.803384072048 2869.79186502561 28 31 24
-5.52245023827602 275.542788115977 2857.26055271601 23 26 19
-15.1135246663592 274.981205336825 2856.48070575198 23 26 19
-7.5542144387124 274.818521721587 2839.72736084737 22 25 18
-3.04544133914897 274.580973427295 2825.70297274341 18 21 14
-2.30131117236243 274.25376975274 2815.12483261388 20 23 16
-3.07388866695657 273.889806433806 2805.91679131901 26 29 22
-19.3336647282352 273.175556589308 2811.418100029 21 24 17
-45.0714553536034 272.253295317026 2826.10389970241 23 26 19
-19.4831498124504 272.474582437391 2791.54412607672 25 28 21
-12.3188977717783 272.279895986753 2774.50423296074 25 28 21
-24.140896777284 271.666770143399 2775.81228444908 24 29 22
-13.4555655692312 271.5420189836 2755.14977337811 18 28 19
7.96838820843782 271.641262526224 2723.74603173564 22 27 20
144.272642845439 273.382000887453 2555.77765906841 59 46 37
146.23519268717 273.024305379784 2542.37692407482 71 54 46
144.58492663581 272.589251958236 2532.53256200598 78 58 51
139.35508468643 272.07952284136 2526.26838835263 57 32 27
132.700646578107 271.540514988819 2521.44171397413 48 23 18
128.160308179087 271.043581532495 2514.44240434252 72 47 43
119.388231826462 270.46220970576 2511.78579859082 87 62 58
107.825575817592 269.827018561951 2512.04641048076 108 97 93
256.413085800298 286.632966031731 2970.62181511236 14 20 16
252.930651985277 286.212967940043 2964.38979278328 38 43 37
232.133672139551 285.35212011926 2971.54138961035 38 41 34
220.453090162269 284.725992273087 2971.71656035651 30 33 26
198.149363833857 283.834693169476 2980.24609799639 27 30 23
187.374658214077 283.236152230697 2979.84306095039 26 29 22
176.625517894551 282.639681899603 2979.45856722417 27 30 23
164.276368962057 282.005189987177 2980.38407378012 27 30 23
156.015054691642 281.47285201191 2978.09797872815 28 31 24
146.95754410216 280.921822327178 2976.46994040184 27 30 23
132.272612589452 280.235517142536 2979.40733023751 27 30 23
124.872399517606 279.727135520203 2976.51055053564 27 30 23
115.876318115948 279.181071926386 2974.92677421575 28 31 24
104.497656759882 278.579402550897 2975.32093755051 27 28 22
101.92230430736 278.187064247773 2968.51158133227 32 31 26
100.124034657858 277.811864578668 2961.03030472603 38 37 32
93.5438502242816 277.324100215208 2957.49275460858 32 31 26
89.3399915625337 276.891441132521 2951.97302298794 104 101 96
79.6050026175292 276.331314633602 2951.08856221863 45 42 37
73.0372442334724 275.844567277109 2947.56031963802 31 28 23
71.1799005131994 275.464573081237 2940.03619469196 28 25 20
70.0818783746873 275.10028948751 2931.82756111334 24 23 18
60.3759254794603 274.542529324808 2930.96445565915 25 24 19
56.136097889516 274.106940865189 2925.41834007996 27 28 22
58.0917271306216 273.806813673187 2914.48324752558 28 31 24
50.720786719292 273.300800195574 2911.60770019514 31 34 27
31.0174772447915 272.528613482629 2919.55257110039 31 34 27
28.3117954715211 272.125705849084 2912.64868284042 31 34 27
7.1823824198356 271.329616230715 2922.0299874905 34 37 30
14.43312905054 271.137808683645 2906.28814183716 33 36 29
20.8457401050355 270.923901521184 2891.17363850822 28 31 24
28.7075206896534 270.735780889435 2874.63972645393 27 30 23
26.6341002599777 270.338274602369 2866.95887418773 27 30 23
20.0022072474715 269.846326401579 2863.38381822593 27 30 23
5.83643084385788 269.202136070537 2866.69806247656 25 28 21
4.49363703016248 268.818019974109 2858.31188823138 20 23 16
4.71408698559639 268.101978817973 2838.70601176679 21 24 17
5.51478331954502 267.754083693011 2828.16847837573 20 23 16
5.53199341810684 267.388532584839 2818.29822076739 22 25 18
0.329433102046917 266.920779779459 2813.28936787677 23 26 19
-5.61694627156739 266.438578317015 2808.97626812134 24 27 20
-22.6058841724208 265.748935484211 2815.18385864429 23 26 19
-21.9162599286982 265.392048815709 2804.56576118068 25 28 21
-2.97502620042067 265.368524153476 2776.30235641621 25 28 21
-14.0939220056446 264.78796449614 2776.88493626734 24 27 20
-0.455172603014642 264.655535520459 2753.42294119121 25 30 23
12.3384840401197 264.500446120442 2730.58324218823 23 30 22
2.60679408582831 263.940660245995 2729.70146913005 25 30 23
153.322493932391 265.337698797318 2547.47572582026 44 31 22
155.26034411905 264.944473109535 2534.05690555224 68 50 40
151.449096780091 264.45199953506 2526.35111555061 62 40 29
141.941851772555 263.864572196614 2524.39657630853 60 31 23
133.86584180291 263.301483629234 2521.00961991177 56 25 20
127.913245502757 262.772985880702 2515.4567422446 66 35 30
120.549032589839 262.221754541782 2511.35051167773 80 49 46
226.174484227309 278.522559130284 2994.3597212261 16 21 17
230.209176651382 278.26593961277 2982.46163858199 35 40 34
229.246752906584 277.895712497786 2974.35127306768 31 34 27
199.493971002747 276.891988675095 2988.59647499071 29 32 25
183.80109646994 276.202126668357 2992.03849851076 27 30 23
145.27193996517 275.021372103028 3013.5069088451 24 27 20
145.234032256528 274.677494635283 3004.83184157251 24 27 20
154.921708459394 274.539003499103 2988.38648049539 25 28 21
140.1993237661 273.879217307476 2991.29685404509 26 29 22
131.185099549531 273.342086458297 2989.70026533463 26 29 22
123.800739136827 272.839894048817 2986.81471443624 26 29 22
128.489085301874 272.587601031138 2974.155464624 28 31 24
119.48347970188 272.051158117551 2972.56512721714 30 33 26
105.695287625004 271.418517619543 2974.91781780024 30 33 26
89.5567999871987 270.741113645834 2979.27190660221 36 37 31
95.7498859390937 270.513602180026 2965.23323256221 32 31 26
