ply
format ascii 1.0
comment KinectMotionCapture
element vertex 804
property float x
property float y
property float z
property uchar red
property uchar green
property uchar blue
end_header
224.251881241798 210.559517145157 2769.99998092651 22 25 18
233.304783701897 211.919516324997 2788.00010681152 22 25 18
239.085093140602 210.314825177193 2766.99995994568 24 27 20
246.443569660187 210.154160857201 2765.00010490417 19 22 15
263.06739449501 217.669442296028 2864.00008201599 25 28 21
274.460285902023 220.547884702682 2901.99995040894 6 9 2
279.442816972733 218.258187174797 2871.99997901917 10 13 6
-63.717432320118 205.759719014168 2805.99999427795 18 19 11
-56.0597740113735 205.761909484863 2805.99999427795 26 26 18
-40.5840761959553 204.95879650116 2795.00007629395 21 22 16
-32.8261442482471 204.153478145599 2783.99991989136 22 25 18
-24.937829002738 201.807916164398 2752.00009346008 15 18 11
-17.3190739005804 200.562044978142 2734.99989509583 19 22 15
-9.72098577767611 197.849243879318 2697.99995422363 18 21 12
-2.34667304903269 196.969509124756 2686.00010871887 22 25 16
5.02523919567466 198.582753539085 2707.99994468689 20 23 14
12.4438600614667 199.02241230011 2713.99998664856 19 22 13
19.6976978331804 197.481885552406 2693.00007820129 17 20 11
26.7866030335426 195.574432611465 2667.00005531311 16 19 8
34.3593508005142 197.259932756424 2690.00005722046 21 23 12
41.7009554803371 197.258546948433 2690.00005722046 21 21 11
49.115315079689 197.550192475319 2694.00000572205 25 19 7
56.1111457645893 196.301698684692 2677.00004577637 18 10 0
62.8955140709877 194.686338305473 2654.99997138977 126 109 93
69.9822455644608 194.243967533112 2648.9999294281 124 103 86
77.0650953054428 193.874672055244 2644.00005340576 127 100 81
84.2478424310684 193.798422813416 2642.99988746643 126 98 77
91.4940237998962 193.868592381477 2644.00005340576 131 98 79
98.7452864646912 193.938478827477 2644.99998092651 127 94 75
106.001608073711 194.008111953735 2645.99990844727 135 102 83
113.091804087162 193.784222006798 2642.99988746643 133 100 83
120.301745831966 193.780034780502 2642.99988746643 134 98 82
127.511203289032 193.775594234467 2642.99988746643 120 91 77
135.076984763145 194.284126162529 2650.00009536743 122 99 85
142.895177006721 195.085614919662 2661.00001335144 71 57 46
152.352780103683 197.939530014992 2700.00004768372 20 12 1
159.656330943108 197.860658168793 2698.99988174438 26 22 11
167.510747909546 198.441311717033 2707.00001716614 18 19 11
175.408124923706 199.021682143211 2714.99991416931 16 19 12
183.146461844444 199.381873011589 2720.00002861023 16 19 12
190.280824899673 199.082106351852 2716.00008010864 17 20 13
195.500209927559 196.876347064972 2686.00010871887 19 22 13
209.390044212341 203.246042132378 2773.00000190735 18 21 14
215.303838253021 201.699450612068 2752.00009346008 23 26 19
228.55070233345 206.89532160759 2822.99995422363 22 25 18
232.559859752655 203.662663698196 2779.00004386902 22 25 18
241.253733634949 204.607143998146 2792.00005531311 24 27 20
250.552326440811 205.99102973938 2811.00010871887 19 22 15
264.087021350861 210.672006011009 2875 14 17 10
274.753600358963 212.861016392708 2904.99997138977 15 18 11
283.636540174484 213.584199547768 2914.99996185303 14 17 10
-55.1627017557621 194.933533668518 2760.99991798401 26 26 18
-48.1103546917439 196.912199258804 2789.00003433228 22 22 14
-40.5274368822575 197.054952383041 2790.99988937378 26 27 21
-32.7211953699589 195.92659175396 2775.00009536743 23 26 19
-17.2816962003708 192.680522799492 2729.00009155273 18 21 14
-9.72853973507881 190.633445978165 2700.00004768372 16 19 10
-2.36423057503998 191.057309508324 2706.00008964539 19 22 13
5.04397600889206 191.904500126839 2717.99993515015 17 20 11
12.4534759670496 191.763013601303 2716.00008010864 18 21 12
19.7203438729048 190.350323915482 2696.00009918213 18 21 12
27.2094085812569 191.267386078835 2709.00011062622 17 20 11
34.7054563462734 191.83112680912 2717.00000762939 22 25 14
41.9814921915531 191.194340586662 2707.99994468689 19 20 12
48.9712134003639 189.63947892189 2686.00010871887 21 18 9
56.0712218284607 188.861027359962 2674.99995231628 20 13 3
63.0872696638107 188.011720776558 2663.00010681152 114 101 85
70.1960846781731 187.585771083832 2657.00006484985 107 90 74
77.3884579539299 187.441989779472 2654.99997138977 102 76 59
84.601491689682 187.368601560593 2654.00004386902 103 76 57
91.8087214231491 187.294915318489 2653.00011634827 116 85 67
98.972775042057 187.150403857231 2651.00002288818 112 81 63
106.32586479187 187.358647584915 2654.00004386902 110 77 62
113.523714244366 187.284246087074 2653.00011634827 110 77 62
120.761178433895 187.280178070068 2653.00011634827 112 79 62
128.04639339447 187.346443533897 2654.00004386902 94 66 52
135.591462254524 187.765449285507 2660.00008583069 92 70 56
143.866807222366 189.10177052021 2678.99990081787 71 59 47
152.922391891479 191.284865140915 2710.00003814697 15 9 0
161.732375621796 192.973449826241 2733.99996757507 24 22 10
169.373065233231 193.179547786713 2736.99998855591 18 21 12
176.318749785423 192.609012126923 2729.00009155273 15 20 13
183.220133185387 192.038238048553 2720.99995613098 13 18 11
191.548496484756 192.94935464859 2733.99996757507 13 18 11
200.529307126999 194.424748420715 2755.00011444092 16 19 10
208.642110228539 194.982394576073 2763.00001144409 15 18 11
217.110693454742 195.822015404701 2775.00009536743 19 22 15
228.801414370537 199.413314461708 2825.99997520447 21 24 17
235.83160340786 198.841020464897 2818.00007820129 21 24 17
243.85429918766 199.115261435509 2822.00002670288 22 25 18
264.187783002853 202.90832221508 2875.99992752075 10 13 6
273.438692092896 203.957691788673 2891.00003242493 17 20 13
-56.4033500850201 191.612437367439 2822.99995422363 25 26 18
-48.3535118401051 190.256685018539 2802.99997329712 26 27 19
-40.2529239654541 188.153997063637 2772.0000743866 25 28 21
-32.4982702732086 187.069207429886 2756.00004196167 21 24 17
-24.6586427092552 184.694468975067 2720.99995613098 16 19 12
-17.2062963247299 184.423670172691 2717.00000762939 18 21 14
-9.67842899262905 182.319909334183 2686.00010871887 16 19 10
-2.36868066713214 184.017062187195 2710.99996566772 18 21 12
5.0422940403223 184.4242811203 2717.00000762939 17 20 11
12.5135155394673 185.238540172577 2729.00009155273 18 21 12
19.962415099144 185.237988829613 2729.00009155273 20 23 14
27.4413675069809 185.440838336945 2732.00011253357 18 21 12
34.9876806139946 185.914903879166 2739.00008201599 22 25 16
41.9829376041889 183.80942940712 2707.99994468689 22 25 18
49.0458272397518 182.586133480072 2690.00005722046 21 21 13
56.2618039548397 182.177096605301 2684.00001525879 18 14 5
63.2078871130943 181.089088320732 2667.99998283386 87 75 61
70.3570172190666 180.747479200363 2663.00010681152 103 87 72
77.6243060827255 180.744975805283 2663.00010681152 96 73 55
84.9869176745415 180.945858359337 2665.99988937378 87 60 43
92.2271385788918 180.875018239021 2664.99996185303 109 80 64
99.2748439311981 180.464595556259 2658.99991989136 107 78 62
106.690049171448 180.732607841492 2663.00010681152 102 70 57
113.998278975487 180.796787142754 2664.00003433228 101 69 56
121.311515569687 180.860742926598 2664.99996185303 105 73 58
128.436729311943 180.652976036072 2661.99994087219 88 62 47
135.901898145676 180.920034646988 2665.99988937378 93 74 59
144.140183925629 182.1368932724 2684.00001525879 84 74 62
153.773993253708 184.914171695709 2724.99990463257 17 11 0
162.980139255524 186.944678425789 2755.00011444092 20 20 8
170.740216970444 187.210589647293 2759.0000629425 16 19 10
177.358448505402 186.254918575287 2744.99988555908 13 18 11
186.39113008976 187.809512019157 2767.99988746643 12 17 10
196.109041571617 189.906567335129 2799.00002479553 12 17 10
202.355697751045 188.610970973969 2779.99997138977 15 18 9
209.102123975754 187.857985496521 2769.00005340576 16 19 12
217.50907599926 188.597291707993 2779.99997138977 18 21 14
225.003570318222 188.522279262543 2779.00004386902 19 22 15
243.430212140083 191.084906458855 2816.99991226196 18 21 14
269.002050161362 192.891672253609 2844.00010108948 21 24 17
-56.1254844069481 183.001160621643 2809.00001525879 22 30 19
-48.2171066105366 182.090803980827 2795.00007629395 22 30 19
-40.196169167757 180.333167314529 2767.99988746643 19 24 17
-32.1337878704071 177.53292620182 2724.99990463257 19 22 15
-24.6050823479891 176.882341504097 2714.99991416931 19 22 15
-17.0928724110127 175.840631127357 2698.99988174438 22 25 18
-9.68235265463591 175.059273838997 2687.00003623962 18 21 12
-2.33380892314017 174.017041921616 2671.0000038147 17 20 11
4.9979193136096 175.450325012207 2693.00007820129 17 20 11
12.4634886160493 177.078783512115 2717.99993515015 18 21 12
20.1240088790655 179.228216409683 2750.99992752075 19 22 13
27.5829043239355 178.901717066765 2746.00005149841 16 19 10
34.7333513200283 177.141666412354 2719.00010108948 18 21 12
41.9843271374702 176.423758268356 2707.99994468689 17 22 16
49.3209436535835 176.226809620857 2704.99992370605 20 21 15
56.5571337938309 175.769075751305 2697.99995422363 20 20 12
63.3995160460472 174.33388531208 2676.00011825562 40 30 20
70.4914405941963 173.810556530952 2667.99998283386 109 95 82
77.8892189264297 174.068734049797 2671.99993133545 98 77 60
85.244745016098 174.196392297745 2674.00002479553 55 29 14
92.5416424870491 174.193531274796 2674.00002479553 107 79 67
99.5394513010979 173.669278621674 2665.99988937378 105 77 65
106.933943927288 173.861384391785 2668.99991035461 77 49 38
114.301569759846 173.988103866577 2671.0000038147 104 74 63
121.72519415617 174.179747700691 2674.00002479553 104 77 60
128.971666097641 174.110591411591 2673.00009727478 68 47 30
136.569023132324 174.49714243412 2678.99990081787 89 72 56
144.62822675705 175.40454864502 2693.00007820129 100 92 79
153.948307037354 177.679419517517 2727.9999256134 13 9 0
163.103729486465 179.563164710999 2756.99996948242 17 19 6
169.817432761192 178.711205720901 2743.99995803833 13 19 9
178.139537572861 179.552361369133 2756.99996948242 12 17 10
184.915661811829 178.830236196518 2746.00005149841 11 16 9
196.25549018383 182.406008243561 2801.00011825562 12 17 10
204.545944929123 182.98576772213 2809.99994277954 15 18 9
210.01498401165 181.090831756592 2780.99989891052 16 19 12
217.359527945518 180.888801813126 2778.00011634827 15 18 11
229.949787259102 184.918865561485 2839.99991416931 15 18 11
234.424069523811 182.372346520424 2801.00011825562 14 17 10
239.549115300179 180.476829409599 2772.0000743866 12 15 8
258.153885602951 188.542231917381 2895.99990844727 13 16 9
261.081278324127 185.018688440323 2842.00000762939 18 21 14
269.19960975647 185.270920395851 2845.99995613098 18 21 14
-64.0212520956993 175.961762666702 2819.00000572205 20 26 16
-55.7076707482338 174.028605222702 2788.00010681152 20 28 17
-47.8736087679863 173.218756914139 2775.00009536743 15 23 12
-40.4007621109486 173.657059669495 2782.00006484985 23 28 21
-32.6654762029648 172.909140586853 2769.99998092651 22 25 18
-25.1315180212259 173.097312450409 2773.00000190735 22 25 18
-17.2517485916615 170.039266347885 2723.99997711182 23 26 19
-9.7403172403574 168.728813529015 2703.00006866455 17 20 11
-2.33999988995492 167.16842353344 2677.99997329712 13 16 7
4.95539233088493 166.669011116028 2670.00007629395 13 16 7
12.4042704701424 168.853536248207 2704.99992370605 19 22 13
19.890557974577 169.726952910423 2719.00010108948 18 21 12
27.2522941231728 169.351682066917 2713.00005912781 16 19 10
34.5939323306084 169.038593769073 2707.99994468689 19 22 13
41.8926365673542 168.662875890732 2701.99990272522 15 20 14
49.7418865561485 170.284390449524 2727.9999256134 13 14 8
56.7685663700104 169.034332036972 2707.99994468689 23 23 15
63.4962990880013 167.284712195396 2680.0000667572 42 34 23
70.5465227365494 166.65843129158 2670.00007629395 111 99 87
77.9499858617783 166.905805468559 2674.00002479553 96 77 63
85.3749662637711 167.152941226959 2677.99997329712 46 24 10
92.7522256970406 167.275011539459 2680.0000667572 115 89 76
99.8786389827728 166.959926486015 2674.99995231628 109 82 71
107.297904789448 167.143970727921 2677.99997329712 71 43 32
114.818707108498 167.452618479729 2683.00008773804 100 72 61
122.229762375355 167.573779821396 2684.99994277954 101 78 62
129.458218812943 167.445093393326 2683.00008773804 67 48 33
137.032121419907 167.753040790558 2687.99996376038 88 72 57
145.062416791916 168.560028076172 2700.99997520447 91 83 70
154.065981507301 170.365214347839 2730.00001907349 7 3 0
161.156475543976 169.985964894295 2723.99997711182 23 23 13
168.523043394089 169.918552041054 2723.00004959106 16 19 10
176.206573843956 170.16290128231 2726.99999809265 15 18 11
182.093024253845 168.722301721573 2703.9999961853 11 16 9
192.197576165199 171.150103211403 2743.00003051758 12 17 10
202.586814761162 173.639893531799 2782.99999237061 15 18 11
217.044830322266 179.311245679855 2874.00007247925 15 18 11
221.43492102623 176.559492945671 2829.99992370605 14 17 10
228.823214769363 176.303207874298 2825.99997520447 14 17 10
240.122467279434 178.978756070137 2868.99995803833 13 16 9
250.272452831268 180.655777454376 2895.99990844727 12 15 8
258.964002132416 181.20963871479 2904.99997138977 14 17 10
-63.8188049197197 167.734891176224 2809.99994277954 21 24 17
-55.549506098032 165.945887565613 2779.99997138977 25 28 21
-48.0475910007954 166.245922446251 2785.00008583069 20 23 16
-40.8812388777733 168.038040399551 2815.00005722046 25 28 21
-33.1264026463032 167.680993676186 2809.00001525879 24 27 20
-25.0688418745995 165.114998817444 2766.00003242493 22 25 18
-17.4992792308331 164.936557412148 2763.00001144409 19 22 15
-9.84151661396027 163.026735186577 2730.99994659424 17 20 13
-2.37152841873467 162.012085318565 2713.99998664856 13 16 9
5.05019957199693 162.429913878441 2720.99995613098 15 18 11
12.4596785753965 162.190869450569 2717.00000762939 17 20 13
19.7960622608662 161.533758044243 2706.00008964539 17 20 13
26.9115809351206 159.921303391457 2678.99990081787 17 20 13
34.1478623449802 159.562230110168 2673.00009727478 18 21 14
41.9559367001057 161.531001329422 2706.00008964539 21 20 15
49.4698919355869 161.947473883629 2713.00005912781 20 17 10
56.8122304975986 161.766827106476 2710.00003814697 17 14 7
63.7588500976563 160.630851984024 2690.99998474121 29 22 14
70.9714293479919 160.330399870872 2686.00010871887 81 72 63
78.3604830503464 160.447552800179 2687.99996376038 68 54 45
85.6644809246063 160.385429859161 2687.00003623962 39 22 12
92.9627045989037 160.323098301888 2686.00010871887 94 75 61
100.068360567093 159.962087869644 2680.0000667572 100 78 65
107.581630349159 160.257443785667 2684.99994277954 75 53 39
115.164548158646 160.612270236015 2690.99998474121 87 65 52
122.825272381306 161.026552319527 2697.99995422363 85 68 58
130.23416697979 161.082491278648 2698.99988174438 52 38 29
137.85195350647 161.376968026161 2703.9999961853 60 47 38
146.033510565758 162.267997860909 2719.00010108948 36 27 18
154.860690236092 163.755536079407 2743.99995803833 18 11 3
159.0905636549 160.468712449074 2688.99989128113 21 16 10
167.537823319435 161.53809428215 2707.00001716614 20 17 10
175.953358411789 162.487864494324 2723.00004959106 17 16 11
181.424990296364 160.752192139626 2694.00000572205 12 15 8
205.868631601334 168.736577033997 2828.00006866455 8 10 5
211.61362528801 167.179256677628 2802.00004577637 9 12 5
230.773255228996 170.030280947685 2849.99990463257 10 13 6
238.622948527336 170.083254575729 2851.0000705719 12 15 8
247.427806258202 170.792177319527 2862.99991607666 14 17 10
258.525818586349 172.992154955864 2900.00009536743 15 18 11
266.517072916031 173.044368624687 2901.00002288818 18 21 14
-64.1613453626633 160.923585295677 2825.00004768372 19 22 15
-48.7736091017723 161.040723323822 2826.99990272522 20 23 16
-40.8098176121712 160.073593258858 2809.99994277954 22 25 18
-33.0448187887669 159.618929028511 2802.00004577637 19 22 15
-25.1692738384008 158.195599913597 2776.99995040894 17 20 13
-17.5187904387712 157.569572329521 2766.00003242493 15 18 11
-2.39868648350239 156.373828649521 2744.99988555908 13 16 9
5.09303668513894 156.316831707954 2743.99995803833 14 17 10
12.5380055978894 155.746921896935 2733.99996757507 15 18 11
19.8185909539461 154.322296380997 2709.00011062622 15 18 11
26.8520936369896 152.270838618279 2673.00009727478 15 18 11
34.1105312108994 152.099058032036 2670.00007629395 16 19 12
41.4764955639839 152.38282084465 2674.99995231628 19 18 13
49.3619292974472 154.204413294792 2707.00001716614 17 14 7
56.688092648983 154.031991958618 2703.9999961853 16 13 6
64.0213489532471 153.916358947754 2701.99990272522 22 15 7
71.3434219360352 153.800487518311 2700.00004768372 55 46 37
78.887514770031 154.140144586563 2706.00008964539 45 32 23
86.1451998353004 153.909936547279 2701.99990272522 53 39 28
93.4153273701668 153.736501932144 2698.99988174438 81 64 54
100.631356239319 153.505921363831 2694.9999332428 90 72 60
108.065567910671 153.61687541008 2697.00002670288 69 50 36
115.638643503189 153.898507356644 2701.99990272522 80 62 50
123.375132679939 154.350787401199 2710.00003814697 86 72 61
130.768716335297 154.347196221352 2710.00003814697 54 41 33
138.212785124779 154.400363564491 2710.99996566772 56 46 37
146.306246519089 155.136749148369 2723.99997711182 46 36 27
155.147328972816 156.556308269501 2749.00007247925 22 15 7
161.698386073112 155.640676617622 2733.00004005432 25 21 12
168.966129422188 155.465215444565 2730.00001907349 19 16 9
178.349271416664 157.168760895729 2759.99999046326 16 15 10
184.999480843544 156.423434615135 2746.99997901917 11 14 7
191.998496651649 156.019613146782 2740.00000953674 9 12 5
206.092849373817 161.195680499077 2831.00008964539 7 9 4
214.338451623917 161.588445305824 2838.00005912781 9 12 5
216.987431049347 157.881632447243 2773.00000190735 10 13 6
228.35049033165 160.551443696022 2819.9999332428 12 15 8
237.541496753693 161.569833755493 2838.00005912781 13 16 9
243.718430399895 160.538539290428 2819.9999332428 15 18 11
252.916574478149 161.499544978142 2836.99989318848 16 19 12
266.891956329346 165.363386273384 2904.99997138977 17 20 13
-55.9923015534878 151.970446109772 2802.00004577637 24 27 20
-48.6369431018829 152.893900871277 2819.00000572205 21 24 17
-40.375255048275 150.779858231544 2779.99997138977 21 24 17
-32.7391065657139 150.563895702362 2776.00002288818 20 23 16
-25.0793378800154 150.076538324356 2766.99995994568 20 23 16
-17.4116063863039 149.100840091705 2749.00007247925 18 21 14
-2.39787995815277 148.830190300941 2743.99995803833 11 14 7
5.0801862962544 148.4504789114 2736.99998855591 12 15 8
12.4879088252783 147.690907120705 2723.00004959106 13 16 9
19.8118258267641 146.876886487007 2707.99994468689 13 16 9
27.0135775208473 145.845711231232 2688.99989128113 14 17 10
34.0476036071777 144.543185830116 2664.99996185303 16 19 12
41.6482165455818 145.681157708168 2686.00010871887 13 14 6
49.1627156734467 146.222293376923 2696.00009918213 12 12 4
56.8783618509769 147.142857313156 2713.00005912781 17 17 9
64.4259378314018 147.466614842415 2719.00010108948 13 10 1
72.0588639378548 147.898659110069 2726.99999809265 11 8 0
79.7351524233818 148.330464959145 2734.99989509583 16 12 3
86.7214873433113 147.514700889587 2720.00002861023 30 23 13
94.0063372254372 147.295340895653 2716.00008010864 36 27 18
101.268947124481 147.075742483139 2711.99989318848 31 21 12
108.749747276306 147.181376814842 2713.99998664856 35 25 15
116.027027368546 147.015646100044 2710.99996566772 51 41 31
123.606152832508 147.229343652725 2714.99991416931 63 53 43
131.158366799355 147.388607263565 2717.99993515015 39 30 21
138.879373669624 147.710338234901 2723.99997711182 42 33 24
146.363988518715 147.760733962059 2724.99990463257 30 21 12
155.208021402359 149.112299084663 2750 20 16 7
162.471979856491 148.891165852547 2746.00005149841 21 18 9
170.518100261688 149.374723434448 2755.00011444092 16 16 8
178.224876523018 149.532705545425 2757.99989700317 14 15 9
185.677975416183 149.473667144775 2756.99996948242 11 14 7
197.39942252636 152.721524238586 2816.99991226196 9 12 5
209.520041942596 156.023159623146 2878.00002098084 8 10 5
216.383442282677 155.312806367874 2865.00000953674 9 12 5
219.732090830803 152.217149734497 2808.00008773804 10 13 6
230.057150125504 154.000103473663 2841.00008010864 13 16 9
238.301172852516 154.31921184063 2846.99988365173 15 18 11
245.280638337135 153.825104236603 2838.00005912781 16 19 12
255.68699836731 155.444607138634 2868.00003051758 17 20 13
261.662095785141 154.353961348534 2848.00004959106 18 21 14
-64.301110804081 145.817324519157 2831.00008964539 16 19 12
-56.2335886061192 144.943237304688 2813.99989128113 24 27 20
-48.2413955032825 144.017443060875 2796.0000038147 20 23 16
-40.6668074429035 144.224643707275 2799.99995231628 20 23 16
-32.8343249857426 143.401443958282 2783.99991989136 19 22 15
-24.8987264931202 141.49634540081 2746.99997901917 19 22 15
-17.2220524400473 140.054643154144 2719.00010108948 18 21 14
-9.83513426035643 140.570089221001 2729.00009155273 16 19 12
-2.39881756715477 141.394391655922 2744.99988555908 12 15 8
5.05433510988951 140.261143445969 2723.00004959106 13 16 9
12.4194473028183 139.488250017166 2707.99994468689 13 16 9
19.7172407060862 138.818219304085 2694.9999332428 12 15 8
26.9339289516211 138.096496462822 2680.99999427795 14 17 10
34.406241029501 138.713806867599 2693.00007820129 15 18 11
41.8198890984058 138.918861746788 2697.00002670288 15 16 8
49.3281409144402 139.329746365547 2704.99992370605 12 12 4
56.5863475203514 139.019310474396 2698.99988174438 15 15 7
64.3091723322868 139.790371060371 2713.99998664856 15 15 7
71.9022154808044 140.149161219597 2720.99995613098 11 11 1
79.4457197189331 140.353217720985 2724.99990463257 19 16 7
86.8194326758385 140.248075127602 2723.00004959106 14 11 2
94.528004527092 140.657752752304 2730.99994659424 14 9 3
102.242514491081 141.015768051147 2737.99991607666 14 7 0
109.754391014576 141.064539551735 2739.00008201599 24 17 9
116.714872419834 140.443623065948 2726.99999809265 22 15 7
123.518362641335 139.719530940056 2713.00005912781 20 16 5
130.968764424324 139.767780900002 2713.99998664856 16 14 2
138.62806558609 140.021815896034 2719.00010108948 21 19 7
147.603198885918 141.51157438755 2747.99990653992 21 18 9
154.252558946609 140.735298395157 2733.00004005432 17 17 7
163.363724946976 142.17309653759 2760.99991798401 14 14 4
169.47029531002 140.984550118446 2737.99991607666 13 13 5
178.811118006706 142.473384737968 2766.99995994568 12 13 7
187.635898590088 143.447056412697 2786.00001335144 12 13 7
197.334423661232 144.986838102341 2815.99998474121 12 13 7
208.506211638451 147.453084588051 2864.00008201599 12 15 8
216.011360287666 147.241815924644 2859.99989509583 12 15 8
222.163587808609 146.155223250389 2838.99998664856 13 16 9
230.063006281853 146.252557635307 2841.00008010864 16 19 12
240.399837493896 147.842526435852 2871.99997901917 17 20 13
251.077622175217 149.535149335861 2904.99997138977 17 20 13
258.189767599106 149.065598845482 2895.99990844727 16 19 12
262.954980134964 147.309139370918 2861.99998855591 14 17 10
-40.4935404658318 135.998725891113 2788.00010681152 21 24 17
-33.1536009907722 137.121587991714 2811.00010871887 13 16 9
-24.9174851924181 134.097903966904 2749.00007247925 11 14 7
-17.1908158808947 132.391110062599 2713.99998664856 15 18 11
-9.75248962640762 132.001206278801 2706.00008964539 17 20 13
-2.38926522433758 133.367195725441 2733.99996757507 18 21 14
5.09529933333397 133.903741836548 2744.99988555908 18 21 14
12.3922443017364 131.805971264839 2701.99990272522 15 18 11
19.717738032341 131.464093923569 2694.9999332428 12 15 8
27.0551666617393 131.365969777107 2693.00007820129 13 16 9
34.5732048153877 131.999358534813 2706.00008964539 14 17 10
42.1000607311726 132.437437772751 2714.99991416931 16 17 9
49.110546708107 131.363153457642 2693.00007820129 13 14 6
56.5458424389362 131.55697286129 2697.00002670288 15 16 8
63.718393445015 131.165266036987 2688.99989128113 16 17 9
71.454793214798 131.895288825035 2703.9999961853 12 13 5
78.9520815014839 132.088541984558 2707.99994468689 21 21 13
85.9926119446754 131.549999117851 2697.00002670288 13 13 5
94.1150113940239 132.620871067047 2719.00010108948 15 12 7
101.946339011192 133.155003190041 2730.00001907349 13 10 3
109.516702592373 133.298739790916 2733.00004005432 15 12 5
115.990184247494 132.174208760262 2710.00003814697 10 7 0
122.92955070734 131.683588027954 2700.00004768372 13 13 3
130.53771853447 131.924360990524 2704.99992370605 15 15 5
140.569001436234 134.457111358643 2756.99996948242 13 13 3
147.284582257271 133.722096681595 2742.00010299683 15 15 5
163.249433040619 134.543657302856 2759.0000629425 9 10 2
173.621594905853 136.78278028965 2805.0000667572 11 12 4
177.910789847374 134.242877364159 2753.00002098084 11 12 6
199.301436543465 138.671085238457 2844.00010108948 11 12 6
205.162301659584 137.398540973663 2818.00007820129 12 13 7
214.581534266472 138.514950871468 2841.00008010864 13 16 9
223.968893289566 139.53360915184 2861.99998855591 14 17 10
230.716437101364 138.894453644753 2848.99997711182 17 20 13
241.661265492439 140.741422772408 2887.00008392334 17 20 13
250.997245311737 141.56436920166 2904.00004386902 17 20 13
260.603219270706 142.484575510025 2923.00009727478 16 19 12
-48.6923865973949 129.955068230629 2822.00002670288 20 23 16
-40.2330681681633 127.561450004578 2769.99998092651 23 26 19
-32.9892709851265 128.805696964264 2796.99993133545 6 9 2
-25.4800748080015 129.451096057892 2811.00010871887 9 12 5
-17.3052456229925 125.813513994217 2732.00011253357 18 21 14
-9.81038808822632 125.353306531906 2721.99988365173 18 21 14
-2.381457015872 125.491589307785 2724.99990463257 21 24 17
5.05272764712572 125.353395938873 2721.99988365173 19 22 15
12.4934436753392 125.445321202278 2723.99997711182 11 14 7
19.7913777083158 124.569945037365 2704.99992370605 12 15 8
27.3873526602983 125.536486506462 2726.0000705719 15 18 11
34.7784608602524 125.351548194885 2721.99988365173 13 16 9
42.1941056847572 125.304609537125 2720.99995613098 14 15 7
49.4035147130489 124.750949442387 2709.00011062622 14 17 8
56.4842969179153 124.058954417706 2694.00000572205 14 17 8
63.6962130665779 123.781248927116 2687.99996376038 12 15 6
71.0865408182144 123.871810734272 2690.00005722046 11 14 7
78.6332562565804 124.192401766777 2697.00002670288 13 16 9
86.0265493392944 124.236546456814 2697.99995422363 12 15 8
93.944177031517 124.971218407154 2713.99998664856 11 13 8
102.098122239113 125.889882445335 2733.99996757507 10 12 7
109.118565917015 125.380948185921 2723.00004959106 11 13 8
115.479305386543 124.227248132229 2697.99995422363 12 15 8
122.067376971245 123.441763222218 2680.99999427795 8 11 2
130.492523312569 124.49786067009 2703.9999961853 13 16 7
139.297634363174 125.783935189247 2732.00011253357 14 17 8
149.060681462288 127.760380506516 2775.00009536743 14 17 8
156.179085373878 127.388566732407 2766.99995994568 12 15 6
162.602365016937 126.510217785835 2747.99990653992 11 14 5
170.159325003624 126.55246257782 2749.00007247925 12 15 8
180.112197995186 128.297820687294 2786.99994087219 10 13 6
188.453122973442 128.80003452301 2798.00009727478 8 11 4
198.955669999123 130.682960152626 2838.99998664856 8 11 4
210.263445973396 132.933855056763 2888.00001144409 9 12 5
215.266287326813 131.179958581924 2849.99990463257 9 12 5
221.861079335213 130.48467040062 2835.00003814697 10 13 6
232.665330171585 132.228553295135 2872.99990653992 14 17 10
242.085337638855 133.09770822525 2891.99995994568 19 22 15
252.645224332809 134.518891572952 2923.00009727478 15 18 11
259.717553853989 134.053021669388 2913.00010681152 19 22 15
-48.7279929220676 122.340090572834 2823.99988174438 23 26 19
-40.335651487112 120.304964482784 2776.99995040894 15 18 11
-32.8720659017563 120.738975703716 2786.99994087219 14 17 10
-25.2993572503328 120.912902057171 2790.99988937378 15 18 11
-17.5590123981237 120.090253651142 2772.0000743866 15 18 11
-9.8178181797266 118.011057376862 2723.99997711182 17 20 13
-2.37277150154114 117.621280252934 2714.99991416931 19 22 15
5.07326144725084 118.401072919369 2733.00004005432 18 21 14
12.5304171815515 118.357554078102 2732.00011253357 16 19 12
19.7771936655045 117.100849747658 2703.00006866455 14 17 10
27.4382084608078 118.313349783421 2730.99994659424 16 19 12
34.8048023879528 118.009425699711 2723.99997711182 12 15 8
42.3966571688652 118.441797792912 2733.99996757507 14 15 7
49.6964193880558 118.050880730152 2724.99990463257 14 17 8
56.9887794554234 117.746472358704 2717.99993515015 14 17 8
64.07680362463 117.138646543026 2703.9999961853 14 17 8
71.4316815137863 117.093853652477 2703.00006866455 14 17 10
78.5475522279739 116.702347993851 2694.00000572205 13 16 9
86.0922560095787 116.96045845747 2700.00004768372 13 16 9
93.9462929964066 117.564961314201 2713.99998664856 12 14 9
101.614929735661 117.866054177284 2720.99995613098 9 14 8
108.960717916489 117.777138948441 2719.00010108948 9 14 8
115.267872810364 116.648495197296 2693.00007820129 10 15 9
123.117335140705 117.122374475002 2703.9999961853 11 14 7
130.929782986641 117.509447038174 2713.00005912781 14 17 8
137.924030423164 117.160052061081 2704.99992370605 16 19 10
147.7210521698 119.105994701385 2750 16 19 10
154.489189386368 118.539705872536 2736.99998855591 14 17 8
160.889968276024 117.756761610508 2719.00010108948 14 17 8
171.648666262627 120.091825723648 2773.00000190735 12 15 8
180.891707539558 121.214039623737 2799.00002479553 10 13 6
189.804330468178 122.032888233662 2818.00007820129 9 12 5
199.100196361542 123.024754226208 2841.00008010864 9 12 5
208.156630396843 123.799875378609 2858.99996757507 11 14 7
216.857194900513 124.314986169338 2871.00005149841 12 15 8
222.413703799248 123.054660856724 2842.00000762939 12 15 8
231.941521167755 124.002434313297 2864.00008201599 14 17 10
242.341727018356 125.33962726593 2894.99998092651 17 20 13
-57.2980381548405 116.376891732216 2867.00010299683 31 34 27
-48.8670691847801 114.957258105278 2832.00001716614 10 13 6
-40.4236614704132 112.969152629375 2782.99999237061 19 22 15
-32.5307101011276 111.955083906651 2757.99989700317 12 15 8
-25.1729879528284 112.72694170475 2776.99995040894 7 10 3
-17.4960419535637 112.118490040302 2762.00008392334 13 16 9
-9.86127927899361 111.063346266747 2736.00006103516 12 15 8
-2.41302419453859 112.078294157982 2760.99991798401 7 10 3
5.09193213656545 111.347585916519 2743.00003051758 16 19 12
12.6178283244371 111.672148108482 2750.99992752075 16 19 12
19.9239514768124 110.535211861134 2723.00004959106 16 19 12
27.0469486713409 109.276339411736 2691.99991226196 17 20 13
34.9460914731026 111.021190881729 2734.99989509583 15 18 11
42.5526313483715 111.385732889175 2743.99995803833 14 15 7
49.8616136610508 110.978864133358 2733.99996757507 15 16 10
57.199664413929 110.734209418297 2727.9999256134 16 17 11
64.3862336874008 110.286459326744 2717.00000762939 17 20 13
71.5917646884918 109.960339963436 2709.00011062622 17 20 13
78.6658376455307 109.51229929924 2697.99995422363 14 17 10
86.5404829382896 110.160045325756 2713.99998664856 14 17 10
94.0867364406586 110.320568084717 2717.99993515015 14 17 10
101.542383432388 110.359154641628 2719.00010108948 13 16 9
108.682490885258 110.072903335094 2711.99989318848 11 16 9
116.640001535416 110.598221421242 2724.99990463257 13 16 9
124.349288642406 110.839299857616 2730.99994659424 12 15 8
131.173834204674 110.309094190598 2717.99993515015 13 14 8
137.977913022041 109.819367527962 2706.00008964539 14 17 10
147.186949849129 111.196309328079 2740.00000953674 15 18 11
164.443731307983 112.772703170776 2779.00004386902 14 17 10
174.437791109085 114.351905882359 2818.00007820129 11 14 7
183.609858155251 115.281626582146 2841.00008010864 10 13 6
191.559538245201 115.399599075317 2844.00010108948 10 13 6
199.174389243126 115.314543247223 2842.00000762939 12 15 8
207.360029220581 115.553937852383 2848.00004959106 14 17 10
214.671105146408 115.306295454502 2842.00000762939 14 17 10
224.061742424965 116.153962910175 2862.99991607666 14 17 10
231.865242123604 116.149447858334 2862.99991607666 13 16 9
243.100047111511 117.80808120966 2904.00004386902 13 16 9
-48.5747009515762 106.583721935749 2815.00005722046 27 30 23
-40.5987650156021 105.827309191227 2795.00007629395 16 19 12
-32.6611027121544 104.843571782112 2769.00005340576 14 17 10
-24.8108897358179 103.632502257824 2736.99998855591 12 15 8
-17.6294166594744 105.37464171648 2782.99999237061 13 16 9
-10.1029658690095 106.132172048092 2802.99997329712 13 16 9
-2.40782857872546 104.314833879471 2755.00011444092 14 17 10
5.08460868149996 103.708989918232 2739.00008201599 16 19 12
12.5309322029352 103.443771600723 2732.00011253357 13 16 9
20.0706887990236 103.859953582287 2743.00003051758 14 17 10
27.5699514895678 103.897362947464 2743.99995803833 16 19 12
34.9723473191261 103.631719946861 2736.99998855591 18 21 14
42.2743335366249 103.214479982853 2726.0000705719 15 16 10
49.2789894342422 102.304898202419 2701.99990272522 15 16 10
57.0330545306206 102.985396981239 2720.00002861023 16 17 11
64.600795507431 103.211417794228 2726.0000705719 16 17 11
71.8574523925781 102.945066988468 2719.00010108948 17 18 12
79.4546455144882 103.170774877071 2724.99990463257 16 17 11
87.2437134385109 103.585660457611 2736.00006103516 16 17 11
93.8462689518929 102.637425065041 2710.99996566772 16 17 9
100.648067891598 102.029822766781 2694.9999332428 15 16 8
108.003348112106 102.027848362923 2694.9999332428 14 17 8
116.941936314106 103.426449000835 2732.00011253357 15 16 10
124.807067215443 103.764869272709 2740.9999370575 13 14 8
131.514236330986 103.156730532646 2724.99990463257 14 13 8
138.49051296711 102.813482284546 2716.00008010864 14 15 9
145.685702562332 102.65938192606 2711.99989318848 16 17 11
155.793711543083 104.473508894444 2759.99999046326 14 15 9
166.044667363167 106.211677193642 2805.99999427795 12 13 7
177.845805883408 108.744449913502 2872.99990653992 9 12 5
184.647500514984 108.135476708412 2857.00011253357 9 12 5
191.697925329208 107.715614140034 2845.99995613098 10 13 6
199.458569288254 107.711970806122 2845.99995613098 12 15 8
206.9271504879 107.55680501461 2842.00000762939 11 16 9
216.337040066719 108.38545113802 2864.00008201599 12 15 8
225.396499037743 108.986869454384 2880.00011444092 13 16 9
233.651429414749 109.171845018864 2884.99999046326 14 17 10
-40.8319346606731 98.7600609660149 2811.00010871887 19 22 15
-32.8150503337383 97.7418422698975 2782.00006484985 10 13 6
-25.0107832252979 96.9342812895775 2759.0000629425 15 18 11
-17.7881140261889 98.6562296748161 2808.00008773804 15 18 11
-10.1247793063521 98.6916050314903 2809.00001525879 8 11 4
-2.41573923267424 97.1106886863709 2763.99993896484 11 14 7
5.06799528375268 95.9160998463631 2730.00001907349 14 17 10
12.5174056738615 95.8808213472366 2729.00009155273 14 17 10
20.2393569052219 97.1804857254028 2766.00003242493 13 16 9
27.9221292585135 97.6367965340614 2779.00004386902 15 18 11
34.576877951622 95.0714722275734 2706.00008964539 16 19 12
41.7788587510586 94.6491882205009 2694.00000572205 17 18 12
49.3346154689789 95.0348451733589 2704.99992370605 15 16 10
56.7405521869659 95.0690284371376 2706.00008964539 15 16 10
64.1280189156532 95.0679555535316 2706.00008964539 15 16 10
72.466641664505 96.3314920663834 2742.00010299683 17 17 9
80.7390809059143 97.2786918282509 2769.00005340576 17 17 9
87.6598730683327 96.5745821595192 2749.00007247925 16 16 8
94.0903201699257 95.4839065670967 2717.99993515015 17 17 9
100.500546395779 94.5336818695068 2690.99998474121 17 17 7
108.125552535057 94.7777405381203 2697.99995422363 16 16 6
116.687245666981 95.7593470811844 2726.0000705719 15 15 7
125.628963112831 96.9164296984673 2759.0000629425 20 17 12
132.771492004395 96.633143723011 2750.99992752075 19 15 12
138.697013258934 95.5418422818184 2720.00002861023 19 18 14
146.601602435112 95.8554744720459 2729.00009155273 19 18 13
158.167362213135 98.4168648719788 2802.00004577637 13 14 8
168.414711952209 99.9594479799271 2845.99995613098 9 10 4
175.620496273041 99.6403247117996 2836.99989318848 9 10 4
185.297131538391 100.690834224224 2867.00010299683 9 12 5
192.711755633354 100.476831197739 2861.00006103516 10 13 6
199.251890182495 99.841296672821 2842.99993515015 10 15 8
208.605527877808 100.610353052616 2865.00000953674 10 15 8
217.09631383419 100.922740995884 2874.00007247925 12 15 8
224.070012569427 100.532665848732 2862.99991607666 15 18 11
235.842287540436 102.249301970005 2911.99994087219 16 19 12
256.641298532486 104.242257773876 2969.00010108948 17 20 13
-33.1812798976898 91.152012348175 2812.99996376038 4 7 0
-25.5098044872284 91.1848917603493 2813.99989128113 10 13 6
-17.7947524935007 91.0232290625572 2809.00001525879 20 23 16
-9.95193794369698 89.4680544734001 2760.99991798401 12 15 8
-2.42801709100604 90.0190472602844 2778.00011634827 12 15 8
5.09964162483811 89.0144780278206 2746.99997901917 13 16 9
12.5130331143737 88.3986502885818 2727.9999256134 15 18 11
20.2250685542822 89.5649343729019 2763.99993896484 14 17 10
27.5709368288517 88.9164656400681 2743.99995803833 15 18 11
34.9608138203621 88.6567160487175 2736.00006103516 13 16 9
41.8260991573334 87.3923450708389 2697.00002670288 16 17 11
49.517847597599 87.9748463630676 2714.99991416931 15 16 10
56.9721795618534 88.0387797951698 2717.00000762939 15 16 10
65.0059729814529 88.8802409172058 2743.00003051758 16 17 11
71.8600153923035 88.1014838814735 2719.00010108948 17 18 10
79.953171312809 88.8454616069794 2742.00010299683 18 19 11
88.8731256127357 90.3021469712257 2786.99994087219 15 16 8
94.8189124464989 88.7454003095627 2739.00008201599 17 17 9
101.09980404377 87.706983089447 2707.00001716614 17 17 7
108.007162809372 87.3164832592011 2694.9999332428 15 17 6
116.303980350494 88.0274325609207 2717.00000762939 15 15 7
124.993592500687 88.9326184988022 2744.99988555908 17 16 11
133.256360888481 89.4488841295242 2760.99991798401 17 16 12
140.637055039406 89.3494710326195 2757.99989700317 20 19 15
151.492640376091 91.3556590676308 2819.9999332428 21 20 15
160.992488265038 92.389777302742 2851.99999809265 12 13 7
168.299198150635 92.1279788017273 2844.00010108948 7 8 2
176.304399967194 92.2547727823257 2848.00004959106 10 11 5
184.460029006004 92.4462229013443 2854.00009155273 9 12 5
192.445546388626 92.540368437767 2857.00011253357 10 13 6
200.446665287018 92.6343873143196 2859.99989509583 10 15 8
206.133365631104 91.691866517067 2831.00008964539 10 15 8
212.567538022995 91.1379382014275 2813.99989128113 14 17 10
227.517411112785 94.1464081406593 2907.00006484985 17 20 13
228.152021765709 91.2280976772308 2816.99991226196 17 20 13
240.182876586914 92.9083824157715 2868.99995803833 19 22 15
-25.6008617579937 83.7995037436485 2823.99988174438 11 13 8
-17.7950356155634 83.354726433754 2809.00001525879 8 10 5
-9.95570048689842 81.9602534174919 2762.00008392334 5 7 2
-2.39309389144182 81.2481492757797 2737.99991607666 8 10 5
5.04959700629115 80.7139948010445 2720.00002861023 9 11 6
19.9839118868113 81.0400396585464 2730.99994659424 16 18 13
27.2699352353811 80.5352255702019 2713.99998664856 15 17 12
34.641906619072 80.4457291960716 2710.99996566772 12 14 9
42.540155351162 81.3947096467018 2743.00003051758 13 16 9
50.2846613526344 81.809438765049 2756.99996948242 13 16 9
57.4553646147251 81.3041776418686 2740.00000953674 14 17 10
64.7225975990295 81.036202609539 2730.99994659424 16 19 12
71.8347132205963 80.6494355201721 2717.99993515015 16 19 10
79.3129280209541 80.7076394557953 2720.00002861023 19 22 13
86.865521967411 80.8250829577446 2723.99997711182 19 22 13
95.2358096837997 81.6248282790184 2750.99992752075 19 22 13
102.333880960941 81.296980381012 2740.00000953674 18 21 12
109.090939164162 80.7613283395767 2721.99988365173 18 21 12
117.033503949642 81.1156779527664 2733.99996757507 16 17 9
124.312520027161 80.9951946139336 2730.00001907349 19 20 14
131.279587745667 80.6966051459312 2720.00002861023 20 21 15
142.882958054543 83.1273123621941 2802.00004577637 19 20 14
151.495009660721 83.6591273546219 2819.9999332428 17 18 12
160.261109471321 84.2204615473747 2838.99998664856 9 12 5
167.532458901405 83.9807093143463 2831.00008964539 7 10 3
175.749972462654 84.2154920101166 2838.99998664856 9 12 5
184.979915618896 84.895096719265 2861.99998855591 8 11 4
194.132506847382 85.4855477809906 2881.99996948242 10 13 6
201.290786266327 85.1860418915749 2871.99997901917 13 16 9
206.791818141937 84.2339172959328 2839.99991416931 12 15 8
215.516865253448 84.6164152026176 2852.9999256134 14 17 10
234.715864062309 85.9444513916969 2898.00000190735 16 19 12
245.795622467995 87.0679095387459 2936.00010871887 17 20 13
-25.4743117839098 75.7125169038773 2809.99994277954 11 13 8
-17.7382752299309 75.4433795809746 2799.99995231628 9 11 6
-10.085609741509 75.3896832466125 2798.00009727478 4 6 1
-2.41760187782347 74.5275467634201 2766.00003242493 7 9 4
5.05895214155316 73.4228119254112 2724.99990463257 9 11 6
12.4354315921664 73.0454847216606 2710.99996566772 13 15 10
19.8232159018517 72.9913786053658 2709.00011062622 14 16 11
27.2803753614426 73.1527134776115 2714.99991416931 15 17 12
34.6551835536957 73.0714499950409 2711.99989318848 15 17 12
42.3701740801334 73.6098065972328 2732.00011253357 12 15 8
50.0665158033371 73.9594325423241 2744.99988555908 12 15 8
57.2464987635612 73.5545456409454 2730.00001907349 12 15 8
64.4154399633408 73.2304006814957 2717.99993515015 14 17 10
71.7828869819641 73.1755867600441 2716.00008010864 16 19 10
78.5559192299843 72.5818276405334 2694.00000572205 20 23 14
86.2927511334419 72.9040056467056 2706.00008964539 20 23 14
94.6140438318253 73.630191385746 2733.00004005432 20 23 14
102.970272302628 74.2754191160202 2756.99996948242 20 23 14
110.976174473763 74.5972543954849 2769.00005340576 20 23 14
118.062540888786 74.2993503808975 2757.99989700317 20 23 12
124.314300715923 73.5434144735336 2730.00001907349 17 20 13
131.812378764153 73.5686123371124 2730.99994659424 16 19 12
140.896216034889 74.4287893176079 2763.00001144409 15 18 11
151.873201131821 76.1507898569107 2826.99990272522 14 17 10
159.529522061348 76.1217623949051 2825.99997520447 11 14 7
167.061403393745 76.0387629270554 2822.99995422363 10 13 6
176.92868411541 76.9791826605797 2858.00004005432 11 14 7
187.244713306427 78.027181327343 2897.0000743866 11 14 7
194.472044706345 77.7552947402 2887.00008392334 12 15 8
201.644033193588 77.4833261966705 2877.00009346008 14 17 10
208.032578229904 76.9419744610786 2857.00011253357 14 17 10
217.559471726418 77.5585472583771 2880.00011444092 13 16 9
233.018279075623 77.4718150496483 2877.00009346008 17 20 13
246.552497148514 79.2997255921364 2944.9999332428 20 23 16
-33.2063063979149 68.161353468895 2815.00005722046 0 1 0
-17.6434796303511 67.4355700612068 2785.00008583069 11 13 8
-2.47182487510145 68.4770196676254 2828.00006866455 8 10 5
5.11471461504698 66.7093843221664 2755.00011444092 9 11 6
12.3576130717993 65.2322247624397 2694.00000572205 11 13 8
19.8893342167139 65.8131614327431 2717.99993515015 13 15 10
27.3711625486612 65.9581422805786 2723.99997711182 14 16 11
34.8600968718529 66.0546198487282 2727.9999256134 17 19 14
41.6417978703976 65.0129616260529 2684.99994277954 13 16 9
49.5017431676388 65.7145902514458 2713.99998664856 12 15 8
56.9326989352703 65.7381415367126 2714.99991416931 11 14 7
64.5584762096405 65.9553110599518 2723.99997711182 13 16 9
72.0216855406761 65.9786835312843 2724.99990463257 15 18 9
79.1109800338745 65.6872168183327 2713.00005912781 17 20 11
86.6446569561958 65.7830387353897 2717.00000762939 18 21 12
94.3382903933525 65.9756138920784 2724.99990463257 18 21 12
103.419788181782 67.0396909117699 2769.00005340576 19 22 13
111.178003251553 67.159429192543 2773.9999294281 20 23 14
119.690775871277 67.6906481385231 2796.0000038147 20 23 12
126.957044005394 67.4954652786255 2788.00010681152 17 20 13
132.538080215454 66.4771050214767 2746.00005149841 15 18 11
144.314646720886 68.5089156031609 2829.99992370605 14 17 10
154.024079442024 69.4028064608574 2867.00010299683 13 16 9
161.507353186607 69.255642592907 2861.00006103516 11 14 7
169.371530413628 69.2778527736664 2861.99998855591 11 14 7
178.911969065666 69.953516125679 2890.00010490417 11 14 7
186.536088585854 69.8544830083847 2885.99991798401 11 14 7
194.743946194649 69.9732154607773 2891.00003242493 12 15 8
201.506406068802 69.5835873484612 2875 13 16 9
206.942960619926 68.7824636697769 2842.00000762939 13 16 9
217.486664652824 69.6753859519959 2878.99994850159 13 16 9
-25.4930723458529 60.4114606976509 2812.00003623962 9 11 6
-17.7703890949488 60.2613128721714 2805.0000667572 9 11 6
19.8822449892759 58.3706833422184 2717.00000762939 10 12 7
34.8349437117577 58.5634373128414 2726.0000705719 17 19 14
42.1230718493462 58.348186314106 2716.00008010864 18 21 14
49.6300049126148 58.4550946950912 2720.99995613098 15 18 11
57.2898536920547 58.6908273398876 2732.00011253357 14 17 10
65.0806277990341 58.9909069240093 2746.00005149841 13 16 9
72.5511237978935 58.9686706662178 2744.99988555908 13 16 7
79.8992216587067 58.8604360818863 2740.00000953674 15 18 9
87.5704735517502 58.9884109795094 2746.00005149841 16 19 10
94.5471078157425 58.6651936173439 2730.99994659424 17 20 11
101.590856909752 58.4278330206871 2720.00002861023 19 22 13
110.778488218784 59.3718290328979 2763.99993896484 19 22 13
119.26406621933 59.8431453108788 2786.00001335144 18 21 10
127.504944801331 60.142520815134 2799.99995231628 16 19 12
133.891046047211 59.5826506614685 2773.9999294281 14 17 10
144.775286316872 60.9772652387619 2838.99998664856 13 16 9
154.616802930832 61.8132948875427 2878.00002098084 11 14 7
162.807613611221 61.9404502213001 2884.0000629425 11 14 7
169.136747717857 61.3802745938301 2858.00004005432 10 13 6
176.004305481911 61.056274920702 2842.99993515015 11 14 7
185.245513916016 61.5482851862907 2865.9999370575 12 15 8
192.455798387527 61.3529942929745 2857.00011253357 13 16 9
199.616268277168 61.1576363444328 2848.00004959106 11 14 7
207.382202148438 61.1554756760597 2848.00004959106 12 15 8
213.409766554832 60.6593675911427 2825.00004768372 15 18 11
225.494429469109 61.8594847619534 2881.00004196167 15 18 11
-17.656534910202 52.2649735212326 2786.99994087219 7 9 4
-2.51733092591167 54.0092214941978 2880.00011444092 10 12 7
5.3041959181428 53.5778813064098 2857.00011253357 11 13 8
27.2310879081488 50.8206970989704 2710.00003814697 12 14 9
34.5413871109486 50.6891272962093 2703.00006866455 15 17 12
42.4336902797222 51.3076074421406 2736.00006103516 18 21 14
49.7764311730862 51.1758998036385 2729.00009155273 17 20 13
57.6049946248531 51.5129305422306 2746.99997901917 16 19 12
64.7968873381615 51.2685552239418 2733.99996757507 15 18 11
72.8426054120064 51.6804493963718 2756.00004196167 14 17 8
80.4832577705383 51.7547279596329 2759.99999046326 14 17 8
87.6670479774475 51.5476651489735 2749.00007247925 16 19 10
94.9635282158852 51.4342822134495 2743.00003051758 17 20 11
103.048548102379 51.7333596944809 2759.0000629425 18 21 12
110.779613256454 51.8260933458805 2763.99993896484 18 21 12
118.023835122585 51.6937635838985 2756.99996948242 17 20 9
126.094564795494 51.9175976514816 2769.00005340576 15 18 11
142.532929778099 52.4025410413742 2795.00007629395 13 16 9
152.308240532875 53.1510934233665 2835.00003814697 12 15 8
161.680206656456 53.6933019757271 2864.00008201599 9 12 5
169.256791472435 53.6167584359646 2859.99989509583 9 12 5
176.253706216812 53.3714294433594 2846.99988365173 12 15 8
181.950926780701 52.7698844671249 2815.00005722046 14 17 10
190.504193305969 53.0118383467197 2828.00006866455 14 17 10
199.407994747162 53.3286929130554 2845.00002861023 12 15 8
210.151314735413 54.095309227705 2885.99991798401 12 15 8
218.397811055183 54.1870519518852 2891.00003242493 17 20 13
226.748988032341 54.2974509298801 2897.0000743866 15 18 11
234.079033136368 54.1641302406788 2890.00010490417 16 19 12
241.286277770996 54.012019187212 2881.99996948242 23 26 19
-25.6295520812273 45.2958457171917 2826.99990272522 4 6 1
-17.967127263546 45.4402305185795 2835.99996566772 16 18 13
