ply
format ascii 1.0
comment KinectMotionCapture
element vertex 759
property float x
property float y
property float z
property uchar red
property uchar green
property uchar blue
end_header
-10.7110287022354 1001.43923591229 2786.77395609926 173 135 122
-16.6892398284397 1000.98247603896 2782.43790969373 29 11 0
19.5068970381511 1016.98580964795 2737.12089673191 38 30 19
-11.0638332187123 1010.77009407705 2735.92542769076 16 17 9
-25.7073964758332 1010.79193420231 2719.13433470106 40 37 32
42.6008869463725 917.529444372459 3269.6414608331 138 140 137
29.6296212997067 914.47599925771 3271.33876586067 139 141 138
19.2830855697794 912.301660700847 3271.23813657982 139 141 138
12.4004738051484 911.296042694925 3268.7140585114 139 139 137
6.38495601683431 910.583613251287 3265.58470932276 121 121 119
-3.04422334497012 908.708397487635 3264.91556973724 124 124 122
-11.5976425357238 907.12707234469 3263.64744489707 150 150 148
-17.5815875713865 906.42000860544 3260.54101064897 134 134 132
-21.0158146229738 906.585904518782 3255.58193872933 135 135 133
-24.4581652318019 906.751869617551 3250.61727269713 135 135 133
-27.0645205732565 907.208444192542 3245.02477836335 139 139 137
-32.2078862201827 906.794880893084 3241.29414806139 159 159 157
-34.8325811454036 907.251642584086 3235.68835991973 152 152 150
-39.1439312658886 907.129033897795 3231.32731254225 158 158 156
-41.7892286146127 907.585799389555 3225.70658928337 157 158 160
-46.1124635172938 907.463840986373 3221.33692966745 172 173 175
-48.7784562795266 907.920543001847 3215.70120354013 178 179 181
-51.4569649477208 908.377067502769 3210.05640346633 186 187 189
-55.8003616338856 908.25579542069 3205.67183714263 191 192 194
-60.1477928086029 908.134983528019 3201.28464294005 195 196 198
-62.8555965034048 908.591285582425 3195.61860514954 203 204 206
-63.9371559719151 909.623687493303 3188.66431130539 207 208 210
-64.2228504346607 910.943029674961 3181.05307929133 219 220 222
-66.1648618090087 911.685339731014 3174.70859275445 225 226 228
-71.3758869922516 911.27615298406 3170.92893677879 234 235 237
-78.2080807545391 910.292651672416 3168.44122534464 225 229 230
-105.245245052073 902.126917632591 3182.14839169549 207 211 210
189.094042301611 1032.55509436378 2804.55662248357 51 46 40
140.35732678411 1016.42436559306 2837.07665270592 158 145 137
124.254208329939 1012.25939150881 2841.43842167673 173 156 148
104.362603896267 1006.67778417308 2849.22272736107 71 44 33
86.8503119929871 1001.95479405343 2855.03079217659 94 64 53
75.5210172833647 999.508654485528 2855.45139984174 127 91 79
64.9847601976408 997.348987163678 2855.2130173369 198 160 149
55.9949430645688 995.758666301434 2853.62878722709 204 165 148
50.0546950905831 995.303667502879 2849.32027004096 204 167 148
45.6260074965553 995.415407788059 2843.64001814233 183 148 129
38.9271466781649 994.677491845722 2840.01516991378 179 146 129
32.9837362345056 994.222834290006 2835.70436191436 97 65 50
30.7863168110609 995.182105062701 2827.94078695161 73 41 26
26.3255629263477 995.29214377795 2822.23728089574 64 32 19
23.3452270708563 995.966349313777 2815.13974582072 191 155 141
15.8907910799519 994.945772671338 2812.20106439889 181 141 129
14.3687949915785 996.182764290619 2803.6931938306 203 157 144
8.39015055563719 995.72596931437 2799.35683313179 121 73 61
4.61942580838315 996.114683492204 2792.91991884058 104 55 41
-4.30215655171606 994.531313900733 2791.38489430643 183 137 124
-9.54824284524314 994.356340991692 2786.34597149374 175 139 125
-19.1760543469637 992.493401763338 2785.53260693703 28 12 0
-43.8363714204351 996.02278387403 2738.0307533895 27 22 16
32.5553061260315 910.25655720255 3262.32236630579 139 141 138
22.2033296848014 908.099989392653 3262.21758847252 149 149 147
16.1639439426837 907.388982390601 3259.07123857677 124 124 122
5.00097327836668 904.949685361777 3259.6124527507 119 119 117
-2.71951998020992 903.66643835521 3257.71460688962 144 144 142
-9.57530592304345 902.673199374044 3255.20974365709 132 132 130
-14.7248763014765 902.257281363865 3251.47460348577 125 125 123
-19.8735814306059 901.842329605758 3247.74009544639 127 127 125
-23.3339197814066 902.003013892649 3242.76236296781 134 134 132
-26.8020220379379 902.164074503073 3237.77870969741 152 152 150
-30.2783408417167 902.325137021879 3232.78939456324 142 142 140
-36.2744223485634 901.625872433947 3229.67420183242 145 145 143
-40.5953322523342 901.501234678477 3225.30621408639 147 148 150
-44.0871077822052 901.663603655769 3220.30540618206 158 159 161
-47.5870179751436 901.826150048044 3215.29870218552 163 164 166
-51.0953887440078 901.988738323473 3210.2861596261 172 173 175
-54.6117957865278 902.151382138519 3205.2674972047 180 181 183
-57.312451708772 902.60001859572 3199.6066021593 186 187 189
-60.025851060423 903.048220131172 3193.93646692699 193 194 196
-61.9323996120706 903.781573795948 3187.61764278122 196 197 199
-63.0386933008176 904.799545245583 3180.64534547983 202 203 205
-64.1663661760989 905.816610797716 3173.6572508843 207 208 210
-66.9419769592847 906.262520728911 3167.94200565019 217 218 220
-70.5413205562659 906.423344750957 3162.8632115329 225 229 228
-76.575545818951 905.730021767881 3159.72069215186 217 221 220
-98.7354076363125 899.348669648769 3169.56174867436 250 254 253
160.907547519757 1016.25315004708 2819.85977086477 147 137 127
139.345570655855 1010.14725049491 2828.90060554188 138 124 113
111.717725615226 1001.79584502561 2843.41367098313 89 66 52
88.047544552186 994.861117495452 2854.62742963249 106 78 64
72.1263111367598 990.746854262911 2859.12160228699 204 168 152
64.6505530310426 989.728792102259 2856.16747674545 192 155 139
56.4228867037988 988.430745699659 2853.90189534142 198 157 139
48.966500333075 987.414720457726 2850.96152862436 193 152 134
46.0546419271406 988.082883130503 2843.9136037056 184 147 128
41.6172251065445 988.188957514319 2838.22699510544 177 140 122
37.922158487584 988.574789886591 2831.84520688616 166 130 114
31.9653338781958 988.119583328189 2827.52467189092 97 64 47
26.0081656480309 987.664468420302 2823.20388826187 126 90 76
23.0309546848182 988.328461581218 2816.10827228323 189 152 136
17.8070359491298 988.152297300821 2811.08541317178 189 150 135
16.2816395893488 989.373002117726 2802.57499517831 144 101 85
9.56004320246118 988.637018559521 2798.93396971589 122 76 61
6.52402344431113 989.2966657589 2791.79569997361 204 155 141
-1.66857587384661 988.002894026679 2789.55556104488 173 127 112
-6.18930772974791 988.103603429606 2783.80882289992 179 142 126
-18.0156781946734 985.418197813393 2785.10291444143 20 1 0
-38.5370830583169 979.394803883574 2794.89849987568 35 23 7
-7.73360368881892 994.89440948564 2744.43464629834 19 19 9
4.94976221968146 1001.65662722625 2721.55003271249 19 19 11
16.0808534501591 1007.854602721 2700.00765182257 15 14 9
-46.6907675840176 985.457760565179 2751.96468085646 36 33 28
37.166363384602 906.560212061916 3252.05971657123 144 146 143
28.5187518645218 904.992525088041 3250.72337878138 133 135 132
14.7596131879317 901.713785576995 3253.08372778121 127 129 126
4.45669973725193 899.58127669678 3253.01493309709 144 146 143
-2.41636893488351 898.59280159314 3250.49785985226 131 133 130
-7.58297099561078 898.17616100872 3246.75036939099 122 124 121
-15.2872537229827 896.905817536113 3244.86434024887 124 126 123
-19.6015047210141 896.776222795272 3240.50115457761 130 132 129
-23.0774313422519 896.931870039679 3235.51180183848 148 150 147
-28.2407550847301 896.518900433064 3231.7667064943 137 139 136
-34.2407801022731 895.822721774252 3228.64867065925 137 139 136
-39.4005306119585 895.411594978538 3224.90617496198 138 139 141
-41.2275973162195 896.136690580822 3218.64492707488 148 149 151
-45.5642659421529 896.010178754959 3214.26550600231 153 154 156
-49.0759814434187 896.167586718539 3209.25021805867 163 164 166
-52.5958283067065 896.32511262071 3204.22903611455 171 172 174
-52.8274119774248 897.615033738961 3196.65717562196 177 178 180
-55.5508429764378 898.054894878386 3190.97972598864 187 188 190
-59.1068215310679 898.211644487953 3185.93234747831 191 192 194
-61.8535794423043 898.650930251274 3180.23798475411 195 196 198
-64.6131836760928 899.089892244984 3174.53430781658 199 200 202
-65.7592211552664 900.092874472765 3167.53312346998 210 211 213
-67.7379954711157 900.812670092996 3161.16187265219 211 215 214
-70.5429621331111 901.249869026211 3155.42530259212 209 213 212
-75.780818388151 900.841376366342 3151.6261997156 252 255 255
-127.974934850819 885.393163098993 3177.93764444214 238 242 241
149.742490189849 1004.49362427272 2830.23314556189 144 136 123
136.697675271078 1001.51416842979 2831.87780239976 160 146 133
115.229206428912 995.470569404926 2840.98673860184 114 91 75
89.245291097678 987.761757528211 2854.22470537745 151 124 107
69.4951689779 982.290298262078 2862.11183805518 183 148 129
65.0791296617172 982.392080695202 2856.44099920163 172 135 117
57.6118891223727 981.38079206319 2853.49278805796 190 147 130
50.9112847456592 980.64824166256 2849.86699754132 186 143 124
47.9959104504197 981.305594239241 2842.81617464709 185 144 126
42.8005210841347 981.128634477545 2837.81399305509 174 135 118
40.6074244165722 982.061430468652 2830.05341765034 174 137 119
30.8962918832814 980.219283206323 2829.17975721509 129 93 77
24.1962593789795 979.487664932586 2825.55409150535 128 91 75
19.7356477692896 979.587389852048 2819.8509308233 182 145 129
18.2380725464677 980.793918942138 2811.3606091629 186 147 130
18.1951673362399 982.551894577206 2801.4575287659 175 132 115
12.9465613863506 982.371688709045 2796.41645841756 182 136 120
6.9566112846986 981.914694773572 2792.07190099262 223 174 159
-1.236501626527 980.629305312527 2789.83143220718 226 180 164
-6.48885842373392 980.44880594228 2784.78793577994 165 126 109
-15.3950968089047 978.888724851706 2783.26415238152 56 35 18
-22.1013631934237 978.157019770856 2779.63396715928 31 18 1
-49.1157684736512 969.711466294646 2795.8265824023 21 19 4
-55.0294395564122 969.260353091315 2791.5373510531 20 18 6
-13.3558206592173 986.970074153945 2740.31884291175 26 23 16
-35.9487859260861 980.182595907183 2752.31424412733 26 23 18
-16.8765829897826 989.342952020641 2722.95726327427 19 18 14
-31.5369948832891 985.582211728584 2727.13189191445 22 21 17
40.0207833370354 902.237484492431 3242.99083794988 142 144 141
25.3769813696185 898.701532736998 3245.94390392603 138 140 137
13.3416938275785 896.018619247567 3247.08655964294 153 155 152
3.89462220942471 894.186941104452 3246.40467010558 137 139 136
-2.13511052872173 893.487519375548 3243.26508208308 125 127 124
-8.15954532809871 892.789363252182 3240.12934106 123 125 122
-13.3347530433103 892.374415266384 3236.37562074949 125 127 124
-19.3512288632676 891.678467606684 3233.24595502377 143 145 142
-26.2021550338423 890.702231101892 3230.74470086476 132 134 131
-32.2063050383592 890.009014541345 3227.62398421925 125 127 124
-35.6989953964266 890.160854239691 3222.62245980357 130 132 131
-36.7003431332575 891.156071108099 3215.72583032893 138 140 139
-41.0472442096752 891.026579562284 3211.33897644176 141 143 142
-46.2267035543116 890.616783578084 3207.58220013025 148 150 149
-49.7525341464802 890.768936097014 3202.55694771314 154 156 155
-49.1645129153713 892.32315561596 3194.34494944537 159 161 160
-51.895939042768 892.754672467039 3188.66195618443 171 173 172
-54.6399271232936 893.185878227225 3182.96956044282 177 179 178
-59.8501503378213 892.777055167757 3179.19048767354 182 184 183
-61.7975171610061 893.487674999006 3172.84166386325 185 187 186
-63.7623477735343 894.197607352715 3166.48047117418 194 196 195
-65.7444026504621 894.906801530885 3160.10678850925 204 206 205
-66.1256904644403 896.173531979795 3152.42599234603 200 202 201
-67.3400998860796 897.159743480475 3145.37515877216 194 196 195
-68.5760744742656 898.144914529569 3138.30839240173 197 199 198
-118.328475484143 883.678856154866 3162.68975368935 247 249 248
137.655405107315 990.791030741073 2851.04449373668 185 182 173
130.833715292664 990.050403640227 2847.33088489191 182 170 158
127.874869467006 990.692057158214 2840.24876351574 121 105 90
112.586088918171 986.914346484339 2843.96778834929 137 111 94
91.9783515166013 981.208955730961 2852.46736360395 203 174 156
70.6886214819073 975.234322902308 2861.70622070943 191 154 135
65.5080017676424 975.055273737306 2856.71473537014 177 136 118
58.0405953665162 974.049587587267 2853.7664323674 182 136 120
52.8571535023086 973.870847490983 2848.77290275688 183 137 121
48.4254177906189 973.966926940319 2843.09036188748 184 141 124
45.4927155464491 974.612430950609 2836.02721205497 181 138 122
40.2861888678188 974.432238933613 2831.01694041556 181 139 123
32.0759337208436 973.153346943902 2828.76407776856 158 119 102
26.868661751994 972.973512756793 2823.75326766484 151 112 95
22.4020191635681 973.067660517049 2818.04541227116 181 139 123
20.8988322761754 974.257663913439 2809.55093888946 197 156 138
19.3688151264482 975.445732734621 2801.037005879 190 148 126
13.3792818293008 974.989071284037 2796.69275228865 177 135 113
9.59913114509936 975.353303561226 2790.24888092894 132 84 64
2.13324872810094 974.349005849394 2787.30198420455 113 66 48
-1.66332618266152 974.712027068693 2780.84620043824 151 110 90
-9.12353072860306 973.708249071554 2777.90342235621 70 45 23
-10.0253701095938 975.161857545802 2768.61117719778 63 47 24
4.27895644101817 982.341714364078 2744.43338026326 33 24 7
11.2255343989385 986.785741749601 2727.2594810364 36 28 15
-55.4686555361181 963.432582883996 2782.54358985262 25 18 10
-34.7962426755053 973.055079004703 2751.8786084187 24 19 13
-28.2416319592234 979.208361364726 2724.54804502214 16 16 14
44.6670164620011 897.16966927485 3240.1578443915 140 142 139
41.1306772939537 897.305426731612 3235.12459656223 137 139 136
20.523906522079 891.842127201539 3242.39106215796 157 159 156
10.208415195855 889.74366899265 3242.3133219768 140 142 139
2.46627395472832 888.487106314103 3240.39991819256 131 133 130
-4.41522680467865 887.511917811735 3237.87650516995 123 125 122
-10.4427880109736 886.817809969236 3234.73851825311 123 125 122
-16.4653705892635 886.124713247657 3231.60444004852 142 144 141
-21.6428735939682 885.711909326605 3227.84906669378 131 133 130
-27.6572753758138 885.021197553036 3224.72063652632 121 123 120
-31.1600911807113 885.167258240606 3219.71174268632 125 127 126
-34.6713227170543 885.313424188048 3214.69704311317 133 135 134
-38.190645274673 885.459760727569 3209.67618457309 135 137 136
-43.376104373988 885.050016390666 3205.91505917298 139 141 140
-46.0808902252863 885.474599982924 3200.25104842136 145 147 146
-46.3248824271956 886.731911393527 3192.6700275451 150 152 151
-49.8840801931919 886.877825555782 3187.62026047606 166 168 167
-54.2718364544528 886.746398392115 3183.20377998922 174 176 175
-58.6635300175415 886.615239342864 3178.78415214929 179 181 180
-60.6121474849197 887.315372792518 3172.43466308177 181 183 182
-64.2051442198408 887.461177589222 3167.36039386489 191 193 192
-64.5613407849854 888.713342286868 3159.69800758205 189 191 190
-64.9434870606165 889.964171079785 3152.01650855663 202 204 203
-64.5447621868267 891.489862457914 3143.66743529602 175 177 176
-65.7862595600864 892.461263229036 3136.59659559165 211 213 212
-68.654696414542 892.879639035143 3130.8139192917 208 210 209
125.670500898195 978.941389569877 2862.05841858863 218 208 199
121.98047004306 979.301750464824 2855.67985740694 216 202 191
116.73310960479 979.114008647028 2850.6399462625 177 159 145
106.09353492291 977.012237697085 2850.32725436086 122 95 78
90.8750653006911 973.273092449128 2854.09773890412 213 182 164
76.4743715067224 969.811251424228 2857.22712009183 192 154 135
70.5156791249477 969.355714323986 2852.90522943427 182 139 122
62.2739891230042 968.082042456427 2850.62960543099 187 140 124
55.5625445100447 967.354757130355 2846.99568878738 187 140 124
48.0984649659195 966.355444720362 2844.05012425555 184 138 122
43.6602147218723 966.446037683265 2838.36283307248 183 140 124
37.7085053722879 965.99190269992 2834.04601166598 183 140 124
31.0065124175458 965.265980501724 2830.41895363563 167 125 109
27.2991660714008 965.627338759776 2824.02813961384 171 129 113
23.5784591044581 965.987962763056 2817.62734199673 178 137 119
20.5874565939776 966.618995201338 2810.52156127859 190 149 129
18.3193790282181 967.519907575317 2802.70646912377 194 152 130
16.0290853658687 968.419308558411 2794.8749699139 137 95 73
13.7160748198863 969.316819835147 2787.02728765556 111 66 45
8.44256064823368 969.129767232586 2781.96842060266 145 98 78
1.69961428671916 968.401065046052 2778.31166049256 147 106 84
-5.0394870347843 967.67279383827 2774.65768991701 129 103 80
-10.3189613485588 967.485079166282 2769.59449887637 83 63 39
-11.9745055338079 968.647505249535 2760.98943875347 50 37 18
-16.551102352409 968.728204960947 2755.20180707478 41 29 13
-19.6945106593123 969.347438882755 2747.98577885752 36 28 17
-15.9983601402995 974.353518468945 2723.51798132403 28 23 19
44.0581709130981 891.65067285473 3233.51275235474 143 145 142
28.5624114618361 887.899877668747 3237.08216457405 145 147 144
20.7801045202496 886.648126535573 3235.13966818779 145 147 144
10.4651668379958 884.567576578763 3235.06242006379 144 146 143
1.87094316673964 883.043526046438 3233.76500529209 128 130 127
-5.86060929645016 881.798336088467 3231.85933514402 122 124 121
-11.8935946907404 881.107851405681 3228.71743446957 135 137 134
-14.5611165285868 881.523266060309 3223.08039075408 134 136 133
-20.5929314626649 880.834439895426 3219.93964144896 122 124 121
-24.948086744998 880.698474158428 3215.54647664169 122 124 123
-30.9742581886532 880.011658518401 3212.40982860692 124 126 125
-34.5014433533659 880.152399362401 3207.38324195186 129 131 130
-39.6952580371022 879.742456080497 3203.61605840259 131 133 132
-42.4077131039269 880.158830916238 3197.946446494 135 137 136
-45.1330593377843 880.57481860565 3192.26748754234 139 141 140
-48.6938015411025 880.715539785344 3187.21686905127 150 152 151
-52.2627277557026 880.856364280074 3182.16002384206 160 162 161
-57.47642211934 880.448215919859 3178.3784381802 172 174 173
-61.0578906482726 880.589338711187 3173.31250229059 175 177 176
-63.0205963819446 881.278413380833 3166.95274432327 181 183 182
-65.0005811276355 881.966864927402 3160.58045727514 183 185 184
-62.9510958880792 884.023314782702 3150.96037609356 190 192 191
-63.3624366031984 885.25642433993 3143.25762364449 180 182 181
-62.1901258159157 887.034880344444 3134.23558299518 196 198 197
-65.0666552924952 887.444833861932 3128.4469975202 204 206 205
-68.7565794357046 887.581233118404 3123.30241591561 217 219 218
-71.6571818429161 887.990202719463 3117.49666895276 207 209 208
-68.2012490582624 890.58068010147 3106.42848883097 253 255 254
126.665153867166 970.079359995259 2871.38042118431 193 185 182
129.209255372649 972.603088747006 2859.65119149087 126 113 105
122.414285434359 971.870650021091 2855.95669945341 129 112 104
115.623209884295 971.138716373877 2852.26532757644 129 109 98
104.217411692693 968.783104407536 2852.63093477499 95 65 54
92.8421311626715 966.430084199757 2853.01867800547 145 111 99
80.7319081356876 963.809447024923 2854.10732683195 164 122 108
72.4726227819796 962.542594384138 2851.8189821234 183 137 122
63.4649318918643 961.006805503075 2850.2220711609 178 132 117
57.5101062872561 960.55217909306 2845.90298822545 180 134 119
50.7982941367327 959.828030414551 2842.26882103375 189 143 130
45.5992665749445 959.643427429176 2837.26396332175 193 149 136
36.6341535635 958.111555423272 2835.69764333488 193 149 136
32.936774566998 958.465764862006 2829.31372417035 176 133 117
29.9735828741006 959.088127526864 2822.2283546703 181 139 123
26.2467737568439 959.440191772864 2815.82309011735 183 142 124
20.2758147297093 958.985214276743 2811.49230994129 187 146 124
18.0109756619755 959.872996032199 2803.67920445661 182 140 116
16.4626960331273 961.027622447775 2795.15186319292 155 113 89
14.8874145688054 962.180012028107 2786.60523086945 133 88 65
10.3466429417427 962.258296780016 2780.84355740441 159 113 90
4.33151135966625 961.800159021024 2776.48073959323 153 113 88
-2.41438259155435 961.074026006165 2772.82185572581 143 116 89
-10.6126372933157 959.813312405125 2770.57778453477 118 97 70
-13.7170345829278 960.425012511477 2763.38999807622 68 52 29
-18.2867832147302 960.500830315211 2757.60730606646 62 47 28
-8.43593405819609 965.916789564633 2737.60325704439 41 28 12
-13.7876020164442 965.720945778961 2732.4873956376 43 33 24
-27.7498105635043 962.323911777009 2735.93526687589 34 27 21
19.5358454423742 878.418738877933 3244.0768767452 144 149 145
30.5046183472903 883.21333357062 3228.58549153664 144 149 145
21.0144329865809 881.422064079329 3227.87225812797 143 148 144
9.85330842875776 879.085436992591 3228.4153306274 132 137 133
0.412872364296213 877.299761446688 3227.73848435675 123 128 124
-3.10762337579673 877.43238135548 3222.71670587422 127 132 128
-5.79610589547475 877.838570240406 3217.06442058281 133 138 134
-13.525431767242 876.604673010797 3215.16042173827 124 129 125
-20.4051713014941 875.645768375788 3212.63866242338 122 124 123
-28.109107414962 874.415361851321 3210.75308683759 122 124 123
-30.8106579880081 874.823479268944 3205.09133800381 125 127 126
-35.1834300292329 874.686096736385 3200.68568973273 127 129 128
-38.7329525385167 874.821503121264 3195.64288323981 128 130 129
-43.1158629188053 874.684673377924 3191.22988827037 131 133 132
-47.502659154349 874.548056172932 3186.81378296106 140 142 141
-51.8936310139777 874.41182797998 3182.39494710018 150 152 151
-57.1068221851967 874.004198334485 3178.61372884064 166 168 167
-61.5037338199618 873.868683829809 3174.19059072497 170 172 171
-64.2770228461194 874.276247088417 3168.47683434863 175 177 176
-65.4397815457768 875.225767745634 3161.46296316203 180 182 181
-64.1959271935135 876.987376670829 3152.49270063601 186 188 187
-62.9868747264828 878.74681307879 3143.49690399943 182 184 183
-61.0079056621375 880.774678814637 3133.82585383037 195 197 196
-62.2797563317603 881.717871045896 3126.73286749188 194 196 195
-63.5737277025918 882.65975956256 3119.62413325845 202 204 203
-64.8893539289297 883.6004808742 3112.49940056899 202 203 205
-64.6343579663362 885.079936938614 3104.04590096235 229 230 232
-64.410111859986 886.557499359893 3095.57010053702 246 247 249
133.526057847528 966.511222722022 2856.57419960461 172 162 160
124.39694610164 964.975922719169 2854.88897607175 53 38 31
116.057303436151 963.710446423565 2852.54238560445 67 48 41
103.110757885811 960.838115870253 2854.25852813836 73 44 36
95.5778170980874 959.843919074486 2851.26307053307 126 93 84
86.5222321038295 958.315292484291 2849.63118191375 159 119 109
77.4837399740953 956.788120708939 2848.01198612266 167 125 113
67.7014861018428 954.995295622594 2847.08701813753 182 138 127
60.2176721870546 954.00561634575 2844.12719653297 182 138 125
51.985482364004 952.74986057359 2841.85855016068 186 142 131
44.5208060586708 951.762079761055 2838.91231695671 181 137 126
37.0643156954959 950.775032203319 2835.972316108 175 131 118
34.1177124088197 951.3878055959 2828.89892332608 183 139 126
29.6570447224287 951.466665022644 2823.19532182798 185 142 126
25.932979027512 951.811125076659 2816.7920075237 182 139 122
19.9642795390673 951.356390372185 2812.46286656524 185 143 121
17.70225466709 952.231027852656 2804.65202904979 188 146 122
15.4179273106094 953.103967712412 2796.82472091157 177 135 110
12.3739757006316 953.709691218558 2789.68072254351 161 115 92
10.0468819126109 954.579405495675 2781.82239576816 163 117 94
4.76657093753552 954.386724051945 2776.75857305622 161 119 94
0.942281391925093 954.723662294478 2770.28256624423 158 127 98
-7.26533577660415 953.470434875713 2768.03174592021 166 137 107
-11.1038697959067 953.806099669387 2761.54540653498 128 102 75
-14.9561734357313 954.140648970236 2755.04907960778 106 82 56
-18.8222532981701 954.474201731046 2748.54276095514 76 55 38
-19.824217970424 955.863181290901 2739.1776054781 78 60 46
-34.4856669862275 952.233624500728 2743.35244123351 51 38 29
15.5432981127879 871.841963345824 3239.91424468695 144 149 145
29.0203176125008 877.397473687857 3222.53929630972 144 149 145
21.2268404744993 876.163995408877 3220.58879496531 144 149 145
10.068287562242 873.848128526535 3221.13383686002 140 145 141
6.52424157826159 873.973832480834 3216.09524574945 126 131 127
1.29147137111829 873.558224126852 3212.2997938152 132 137 133
-6.45528697972608 872.331697012859 3210.38319512564 127 132 128
-14.1882157305062 871.106947432671 3208.47663081187 125 127 124
-21.0735358046215 870.154391148251 3205.95056372316 119 121 118
-24.6233746355757 870.283389677699 3200.90778994188 121 123 120
-30.6696263947726 869.602763389585 3197.7563221311 123 125 122
-35.8838093764728 869.192962362848 3193.9743738885 123 125 122
-41.922574911061 868.514256906351 3190.82834273109 124 126 123
-44.6653080964472 868.914139080247 3185.13669802961 126 128 125
-47.4208777012466 869.313519055351 3179.43574539001 131 133 130
-52.6446839955763 868.905447673207 3175.6468297637 145 147 144
-57.8682311261658 868.497934980553 3171.85810484059 153 155 152
-60.6495119796611 868.897094474421 3166.13880692835 164 166 163
-63.4435407662974 869.295808323311 3160.40997103302 169 169 169
-63.8216915279855 870.499046257632 3152.73112738385 173 173 173
-62.6109725300372 872.237169643528 3143.73643089644 184 184 184
-60.630284678739 874.241038118949 3134.06650516186 187 187 187
-58.6887318100406 876.242383047923 3124.36790238394 172 172 174
-60.7910651770549 876.902820615691 3117.90678031284 172 172 174
-61.3136183857641 878.097228044511 3110.12321151986 183 183 185
-63.4554390566069 878.755482345152 3103.63345320084 213 214 216
-61.6432823657864 880.748615005628 3093.84100677536 245 246 248
-64.6233206765992 881.137039513838 3087.97727648877 241 242 244
-68.4065517224368 881.258053430819 3082.76497678942 241 242 244
-73.7739837820297 880.845456273936 3078.87192085681 200 200 202
117.860662957937 955.148057830591 2861.21711795037 76 63 57
116.491705667442 956.281843016839 2852.81966571175 57 40 33
108.164635088899 955.025988309873 2850.48223775381 75 50 43
99.0825885544817 953.506210901813 2848.83121142217 102 73 65
86.9547219710425 950.928115850121 2849.90728554229 149 112 104
77.1522691713216 949.147286373627 2848.96803016072 166 128 119
68.8941614225489 947.897556119305 2846.68062585139 172 129 120
60.6488471795865 946.649101256892 2844.40250228756 177 135 123
52.4162948021396 945.401620504094 2842.13363500645 190 148 136
44.9514493339778 944.419501649927 2839.18730785167 187 143 132
39.7525480214149 944.230009899301 2834.18251689787 180 136 125
38.3008508690725 945.359302755161 2825.7250620131 182 138 125
34.5777155717282 945.695713022889 2819.32238140012 181 137 124
30.0948523182791 945.767646751439 2813.60294925877 182 139 122
22.6277176020102 944.785820393166 2810.65496406073 184 141 122
19.6183641261358 945.383353872029 2803.53600513434 187 145 121
15.8515858746395 945.716646780457 2797.10167102247 176 134 109
14.2827492866395 946.83734619288 2788.55925573342 167 123 98
10.481970390436 947.168063901347 2782.1002607847 160 114 91
6.66746671819052 947.497729493706 2775.63131112375 164 122 97
2.10845897928991 947.563972620269 2769.85665139587 158 125 94
-3.18798774241413 947.367404658681 2764.78081737384 164 133 102
-8.48962637617778 947.170366708876 2759.70151172039 150 121 91
-12.3481350594614 947.496467404584 2753.20064383092 141 114 87
-17.6641144579699 947.298148205271 2748.11093576128 126 101 81
-22.9850254718775 947.099369746297 2743.01765033215 103 82 65
-24.723756753612 948.206544769069 2734.35200625018 49 33 20
29.2161164044527 872.098041530004 3215.24387811171 147 152 148
22.2620701176899 871.14206843325 3212.66797261793 146 151 147
18.6881557200493 871.260453720095 3207.60769218639 134 139 135
9.22260455316426 869.502844095284 3206.91248712441 136 141 137
1.45625047560571 868.283452105908 3204.98171921518 129 134 130
-7.13243732875246 866.798205569893 3203.68851406143 128 130 127
-13.2014153140143 866.117600620666 3200.52086610948 121 123 120
-17.6017360831848 865.972838007428 3196.09491531902 122 124 121
-24.4947692001771 865.026896240532 3193.56358486178 124 126 123
-30.5511568068537 864.349391927537 3190.40478517227 123 125 122
-37.4280790479373 863.405950197568 3187.88514649599 124 126 123
-40.1808788220257 863.797250169538 3182.18616083897 125 127 124
-43.7672236284494 863.921667866459 3177.11660541715 126 128 125
-47.3623046797704 864.045866139013 3172.04101027056 134 136 133
-54.2311853290656 863.105574749521 3169.52692259585 142 144 141
-57.8345652863115 863.230295594447 3164.44531404217 157 159 156
-61.4462703903715 863.355048577041 3159.35737609766 163 163 163
-61.827436259257 864.542030911582 3151.67626439512 167 167 167
-59.8119732832343 866.523972262062 3142.03114234836 186 186 186
-58.6413584324004 868.238006531662 3133.00754596974 184 184 184
-56.7024680196422 870.214999270675 3123.30688977204 169 169 171
-57.2061518582374 871.394446035918 3115.53692400945 168 168 170
-57.7362927964553 872.572297533747 3107.74806532739 183 183 185
-61.4792032414075 872.690065793211 3102.56497845221 182 182 184
-61.2586199976453 874.129931853461 3094.08633180012 235 235 237
-61.0690141335724 875.567646863376 3085.5852180889 223 222 227
-60.1198437467896 877.267554907565 3076.40072586329 219 218 223
-58.4182735132475 879.229096284125 3066.52824741584 240 239 244
-57.5419038334459 880.924062560195 3057.29095537307 246 250 251
-48.866080974338 885.252833001668 3041.37003887985 248 250 249
-43.3943066796116 888.522107210735 3028.06121916404 252 252 252
-38.7636555966293 891.52354748157 3015.37692023312 233 232 230
-26.4211568604262 897.152032639328 2995.94486654518 192 188 187
89.3412539947507 941.040382511202 2867.64390430638 55 40 37
86.4585041930326 941.63544686696 2860.61671057865 50 31 27
80.494184016604 941.180230522186 2856.29074183733 138 113 109
76.8206655172299 941.511459756353 2849.92400325711 154 126 123
70.8490522590055 941.056070797325 2845.59274673083 162 128 119
62.5989942187535 939.815536024739 2843.31122440393 176 138 129
52.8473262307512 938.052920224748 2842.40887627204 180 140 132
45.3822186097552 937.076396051905 2839.46238741524 175 135 127
41.6890586665275 937.406870523485 2833.08140651019 175 135 125
40.9845501631283 938.780934639021 2823.93180780832 177 135 123
38.0036836405644 939.369723272987 2816.83345538796 176 132 119
32.7662818514862 939.175081264677 2811.80072853002 179 136 120
26.0362305819548 938.458894536921 2808.15337974056 181 138 119
21.5352518226681 938.524272124801 2802.42048759726 182 140 116
18.5040916612298 939.109524107464 2795.28565833092 175 133 108
15.4548254808562 939.693369044484 2788.1376964981 169 125 100
10.9171914708237 939.756075867338 2782.37821865332 161 117 92
5.63711954125834 939.558216077039 2777.31454300122 169 127 102
1.81371797712693 939.879155169687 2770.8390988671 179 143 109
-2.75198157369205 939.939528626926 2765.0592638939 175 141 106
-7.32716128945832 939.999144443456 2759.27284718624 179 145 110
-11.1873941812091 940.317099787813 2752.77068812344 181 144 115
-17.2274717480017 939.857060613484 2748.38977680452 158 126 101
-21.828479440269 939.914454229867 2742.58433111259 166 138 117
-29.3092746980586 938.936609798053 2739.62675774274 150 127 109
-29.6279223230109 940.543429198428 2729.52272567151 15 1 0
31.9251799504903 867.563217458198 3206.06855321871 147 152 148
26.642511171822 867.143925226329 3202.2369100855 145 150 146
17.157015737475 865.39885917763 3201.52731053409 144 149 145
10.2094032203048 864.451662292838 3198.95640794746 133 138 134
4.10753652738372 863.771011360997 3195.76462355952 132 134 131
-2.82354500832649 862.826587521627 3193.20571868016 127 129 126
-10.5773462445096 861.618906595315 3191.28410991238 123 125 122
-19.1471334095756 860.148633580287 3190.00468207925 125 127 124
-25.2163100996015 859.473259631118 3186.836622101 123 125 122
-30.4555149900847 859.062925146098 3183.03653224066 123 125 122
-33.2249805910254 859.44516804807 3177.32541929425 124 126 123
-38.4700804121652 859.035610628043 3173.52106000886 125 127 124
-42.0775497500525 859.153846574566 3168.43645412859 127 129 126
-48.1429435592413 858.481766271692 3165.27115312437 133 135 132
-50.9464804970323 858.863579024198 3159.53533895996 141 143 140
-55.3873209700133 858.71877038746 3155.08030881538 154 154 152
-56.5924553971575 859.625785683027 3148.03550326154 159 159 157
-57.8195693899783 860.531568441364 3140.97505248546 186 186 186
-56.6516289103736 862.223987412853 3131.9491134353 180 180 180
-56.3221373114688 863.651706185317 3123.54935524566 167 167 169
-55.2222846766737 865.339754772905 3114.47433020389 168 168 170
-55.7553970802962 866.501343848049 3106.68294059375 174 174 176
-58.7052452202212 866.875605316167 3100.84102406774 186 185 190
-59.2844890103015 868.034472879394 3093.01617904607 217 216 221
-59.0977048618582 869.453319228535 3084.51292423949 204 203 208
-56.5712224904078 871.654208188021 3074.00432344177 213 212 217
-54.0885407138747 873.852205992808 3063.46395601378 235 236 240
-49.2925095214058 876.830350835977 3050.89913218066 244 250 250
-45.3374208738651 879.543414234062 3038.95867956656 231 237 237
-44.5607422693159 881.209931780269 3029.6489752374 251 255 254
-43.8196136667668 882.873997944932 3020.3137820134 250 252 249
-40.7823762504318 885.316804108554 3008.94133269989 255 255 253
-26.9458536810945 891.399375068669 2988.12455554835 254 250 247
29.6750965264367 913.415763990904 2920.59063380592 233 222 220
58.9196237052656 927.914697426216 2866.52122617866 130 109 106
59.8558453085172 929.796433371385 2856.09352594552 152 119 112
56.1954116164984 930.121075412528 2849.73623945597 164 127 119
51.7640061318092 930.185935598588 2844.05377984345 183 145 136
45.813162031529 929.732766867315 2839.73759056889 181 143 134
42.873486279126 930.313959294856 2832.66905974059 175 135 125
40.6665337625443 931.152123378515 2824.89766612891 175 133 121
38.4370885847294 931.988714639406 2817.11025361744 173 129 116
33.9463248980358 932.049542818719 2811.38474355461 178 135 119
27.9579905678302 931.593934398872 2807.04136445479 180 137 118
24.1948894372919 931.911513852634 2800.60961637463 179 134 111
19.6782662035702 931.970436710067 2794.86564500049 170 126 101
16.6273346728576 932.543333104588 2787.71642046313 162 118 93
9.14657676671959 931.571694697077 2784.758611128 168 124 99
3.87324271925227 931.371811766317 2779.69980966282 179 137 112
-2.13598676936755 930.914510605608 2775.34127464268 187 148 115
-5.95951713750531 931.227314104829 2768.86569592741 182 146 110
-9.07030676159426 931.795600301491 2761.67305562917 194 158 122
-11.4748564903726 932.618772452153 2753.75834364433 181 142 109
-14.6242555255081 933.18387111212 2746.53769841456 177 143 116
-18.5117439242883 933.491433553763 2740.01572861095 166 135 114
-26.7194802088249 932.262571961872 2737.76494535492 161 136 116
13.523652303796 856.40894742936 3212.43445299516 150 155 151
22.5717107855035 860.458289937051 3198.01699932029 151 156 152
15.6113869586547 859.516087061372 3195.43661285262 152 157 153
11.1695590344567 859.362057626348 3190.98082017842 138 140 137
4.22128865512184 858.422265065907 3188.40918372081 135 137 134
-2.71805186200469 857.483743976607 3185.84432162816 128 130 127
-10.4779047969492 856.284892830375 3183.91837057937 123 125 122
-16.5686363571573 855.610998862355 3180.73469251212 122 124 121
-21.0039054652251 855.460786674419 3176.28367379881 129 131 128
-24.6197569403746 855.572239346816 3171.19266269272 123 123 121
-32.3496476621909 854.378145482788 3169.28845598822 124 124 122
-37.609443142161 853.968472939179 3165.473442923 126 126 124
-43.6857372533468 853.298566883232 3162.30054554724 125 125 123
-44.8702883170014 854.192851401332 3155.27059682897 127 127 125
-49.3259251623259 854.044514084627 3150.80482260484 139 139 139
-51.3554651747499 854.676914238902 3144.39632797495 145 145 145
-52.5944682679422 855.568520105983 3137.32689225051 163 163 163
-51.4381930644712 857.238556388734 3128.29267789701 164 164 164
-51.1202901707164 858.646685918122 3119.88412510729 166 166 166
-51.6348109715559 859.793182698184 3112.10643097835 159 159 159
-54.5728827663057 860.160034047468 3106.27301384256 164 164 164
-57.524127999153 860.526355895688 3100.43004431834 175 175 175
-58.8990731309238 861.410055619966 3093.26202126282 186 186 186
-58.7109569786626 862.81013083067 3084.75963697471 188 188 188
-57.7633499668537 864.466847291674 3075.57408712836 193 193 195
-53.6980416573662 867.155372816696 3063.71311633322 201 201 203
-51.2576618006877 869.32347718408 3053.14193192461 216 217 219
-47.2937110973703 872.004867001304 3041.20744869391 221 222 224
-47.290653953483 873.392340121101 3032.57084734921 249 250 252
-44.9803462429277 875.551341045607 3021.90532475526 255 255 255
-43.4914862496576 877.449528295164 3011.87832721403 253 253 255
-40.4921139532026 879.860052236163 3000.47826515121 251 251 251
-35.9957907824184 882.781715470748 2987.6958904866 255 254 255
-29.2448948528314 886.470758507755 2972.84638629518 255 253 254
-24.1015817823997 889.640546598393 2959.29924858838 255 254 255
-11.3575821508856 895.374316493414 2938.92374812666 255 251 252
11.2132260955176 904.437083427029 2909.63211888298 255 250 250
22.9553194022243 909.896366030026 2889.76396144161 255 252 251
34.5960300645598 915.348092690145 2869.82227128539 255 247 245
40.0757739417461 918.742867818196 2855.28482794768 255 251 248
37.9363280732057 919.572530998824 2847.5626227641 226 211 208
35.7746628070292 920.400742264959 2839.82400843373 125 106 100
29.0853858783025 919.693175913088 2836.20626149799 124 104 97
28.3892291567351 921.030039037263 2827.06252875064 127 104 96
25.4224922543078 921.598643786014 2819.9743169581 151 124 113
24.6704187704276 922.93133549173 2810.79002782738 160 132 120
24.6292976508049 924.516785673749 2800.88707240328 154 122 109
18.6332949777319 924.06079500787 2796.53813242191 128 96 81
13.374363854183 923.859330659075 2791.48976393346 180 151 133
5.16861520833878 922.639531916548 2789.24046746425 175 148 127
-0.0914232623148159 922.437977860288 2784.19129578186 184 157 136
-5.35623594485268 922.23608642506 2779.13836698548 204 178 155
-11.3551141453181 921.779623834132 2774.78734008255 207 181 156
-12.2676448343397 923.09997389873 2765.48666958665 204 177 150
-13.9360205270966 924.164217043269 2756.87181031417 193 163 137
-14.9091697347763 925.479716075634 2747.52717158899 190 160 134
-18.0739763669626 926.032693174044 2740.2952956652 179 149 123
-18.385466424536 927.596907997193 2730.19653094376 177 149 125
-21.595341773073 928.146223668581 2722.9316707228 145 119 94
10.3278002798715 850.027472675262 3207.61502049702 152 157 153
21.0155582325453 854.548068921586 3191.91823921926 153 158 154
19.9077310376587 855.428983315699 3184.94413602554 149 151 148
13.7720103794385 854.752699349126 3181.72783229521 139 141 138
7.64116425339045 854.077467455989 3178.51506754624 128 130 127
-1.80513933027004 852.367011989444 3177.83434879024 130 132 129
-9.57330680371249 851.176807308037 3175.9024141511 123 125 122
-14.8510327864517 850.764308085987 3172.07438856408 120 122 119
-17.6580635463637 851.12803414301 3166.33595004078 123 123 121
-23.7630246939566 850.457826668749 3163.14197531478 123 123 121
-29.8634886688074 849.788591312164 3159.95156008627 124 124 122
-35.1423030018356 849.37827418658 3156.12275658364 123 123 121
-37.976998442554 849.742029360909 3150.36426349032 125 125 123
-43.26212781179 849.332216291824 3146.53088463633 135 135 135
-47.7367324568252 849.18047995516 3142.05104855567 140 140 140
-48.175365010056 850.315500104126 3134.32830930555 159 159 159
-47.83410449964 851.706224608648 3125.93660079074 160 160 160
-47.5237753217455 853.094931639179 3117.522753751 160 160 160
-50.450118916846 853.454368969303 3111.69780108396 156 156 156
-52.5902949203201 854.06992019085 3105.2090187199 160 160 160
-54.7481634392706 854.684456328036 3098.70740553219 169 169 169
-55.33371971481 855.810670336969 3090.8778190584 179 179 179
-55.9456380016066 856.935226679513 3083.02911380366 183 183 183
-55.7936286288805 858.314035487136 3074.50044722198 187 187 187
-54.8840982526759 859.946637493065 3065.28717266542 193 193 193
-54.0096520327693 861.576924627024 3056.04815865291 208 208 210
-51.6027568625399 863.715730363612 3045.45255207715 213 213 215
-53.9305581616365 864.319606728852 3038.82769699672 238 238 240
-51.5986269460256 866.453235706323 3028.17772122914 245 245 247
-51.643055431112 867.81881932841 3019.50658566398 244 244 246
-48.6178076069517 870.20151818269 3008.12543486088 252 252 254
-45.6409736477816 872.580702822308 2996.70887553663 247 247 249
-43.4836208508735 874.701981315366 2985.93228159001 249 249 251
-43.6762822486372 876.057169501395 2977.15363616807 251 251 253
-43.1337074195064 877.66422608267 2967.67421831159 252 252 254
-38.8055757584949 880.538628161284 2954.76967864509 252 252 254
-27.6767083910809 885.693016325631 2935.69047291221 251 249 252
-17.4047860074831 890.586582843693 2917.2240594656 255 252 253
-1.16454492377582 897.500812532027 2893.2132662076 255 253 253
6.63835485441888 901.619294558163 2876.65818951463 255 252 253
12.10190160822 904.972261590261 2862.10908724728 255 245 243
9.23795220768175 905.53783158972 2855.09507845983 255 252 248
6.35576015640993 906.101934089399 2848.06813222939 255 251 246
9.4285417940112 908.68586799825 2835.4874223681 221 202 195
15.4259611056315 912.275515496838 2820.09120343833 131 111 102
18.383634120132 914.85077114708 2807.4267104455 88 64 54
11.6674548667572 914.144311316726 2803.78946704525 110 86 74
3.47926370543927 912.934060085119 2801.55294673129 159 140 125
-4.69626188141481 911.724775162479 2799.3256128571 163 144 127
-5.52468190167743 913.032761364597 2790.0858533546 175 156 141
-8.57822525122032 913.58387865538 2782.93462513858 199 178 161
-13.837104118734 913.379730068223 2777.88628093544 207 186 167
-16.1933992643204 914.179568198546 2770.00643153635 191 169 148
-17.1231306761037 915.479586023356 2760.69318888264 198 173 153
-15.9168594288341 917.529312735127 2749.22677319972 188 164 140
-16.9159718450618 918.823769668633 2739.86320660821 201 175 152
-15.7922385351026 920.867108606068 2728.33692505775 189 163 140
-22.5876323143028 920.153634077544 2724.64222182638 170 142 118
24.4655341231508 850.157615999805 3182.04571213582 157 159 156
19.1537884988886 849.740269773862 3178.19300043362 154 156 153
13.8423917273265 849.323608990846 3174.34054509408 140 142 139
7.70118343304027 848.651311865253 3171.12057793042 131 133 130
0.736991273297072 847.723910796713 3168.53746219975 127 129 126
-6.21827102423733 846.797781199314 3165.96112083405 130 132 129
-10.6936682142826 846.640375097414 3161.48097597914 124 124 122
-15.9944902847533 846.227498430063 3157.63620563339 123 123 121
-20.4757387636625 846.070862570252 3153.15152847872 123 123 121
-27.4124394346629 845.148387448955 3150.58866134286 118 118 116
-31.8956620476327 844.992557921688 3146.10285165753 118 118 116
-37.1957396373466 844.581952086743 3142.25863250399 122 122 122
-43.3061211111805 843.917040911866 3139.06075529462 124 124 124
-42.9461619943272 845.289873830482 3130.68280565128 144 144 144
-43.4228008210469 846.406390784741 3122.93212664306 149 149 149
-42.3180130767749 848.029827541927 3113.86005741879 140 140 140
-46.0584788576082 848.126296431357 3108.67892932432 150 150 150
-48.2087074361364 848.73039888311 3102.18280164379 153 153 153
-51.173813723784 849.079825464098 3096.32969836727 158 158 158
-52.5619195278124 849.93575354176 3089.1519941907 160 160 160
-53.1792120525951 851.043863168621 3081.29930973029 173 173 173
-53.8231892004455 852.150120120871 3073.42756611 174 174 174
-53.7047908446673 853.507914095454 3064.87413326356 176 176 176
-54.4039955823998 854.610652898051 3056.96233616462 186 186 188
-52.7771330326108 856.469944218226 3047.03488812916 190 190 192
-53.535755223701 857.56875534331 3039.07970367878 206 206 208
-51.9817382253733 859.423041518648 3029.09942299641 211 211 213
-53.5777756312963 860.26554057348 3021.77121122052 218 218 220
-52.0945754702327 862.114866464825 3011.73956877671 255 255 255
-49.1051093041359 864.465212904864 3000.3323152147 218 218 220
-46.1639224695896 866.812235260395 2988.88975162075 229 229 231
-47.1154336819211 867.897581359322 2980.79496407643 226 226 228
-48.860003979506 868.729769805708 2973.35873093524 229 229 231
-48.3339682304915 870.31415799502 2963.86720872675 232 232 234
-45.5567446915373 872.649271602787 2952.30572432053 236 237 241
-43.5883563609023 874.729850745227 2941.39193984937 241 242 246
-37.8754991205226 878.060955061232 2927.02345733533 240 241 243
-31.4732986361768 881.637690330437 2911.92060751314 241 241 243
-23.635001187583 885.710050034182 2895.39095772821 242 238 239
-22.6371353169377 887.524131373212 2885.00760205613 238 234 233
-22.4280752199997 889.085100906293 2875.28588433573 252 244 242
-20.0144297972051 891.393160742897 2863.4609918383 255 252 250
-9.45899552153118 896.444815757794 2843.96557185588 250 239 237
-1.22796444892437 900.74034142521 2826.48671680675 255 252 246
-3.44391206622419 901.537639319962 2818.70888993631 255 248 245
-13.0623182346397 899.84071342132 2817.90318439667 255 248 242
-21.187832951195 898.643545351962 2815.7121658439 255 248 241
-19.7636640232075 900.683203075686 2804.40365783849 255 250 241
-18.3841807457195 902.719360251001 2793.06273852043 255 251 242
-21.4245573224545 903.260670822856 2785.92100550605 255 252 243
-23.7559307752613 904.048906298365 2778.05916360418 252 240 228
-25.3854143335173 905.083451399557 2769.47264212057 255 252 241
-24.1512606627734 907.108313206486 2758.02631305582 183 169 156
-24.4024230910291 908.633732153119 2747.97079013455 198 182 169
-20.3802194648888 911.642857355839 2733.61012247672 198 182 167
-20.0002869312206 913.409139109785 2722.77827714998 195 179 163
-28.9402565110044 911.9557760857 2721.23058183677 167 152 133
39.9050853780332 848.162709736723 3170.99593603263 154 159 155
30.3807786753323 846.472988737525 3170.2584816981 158 163 159
20.8785455635199 844.785603998075 3169.53733529133 152 154 151
14.7203068758364 844.115083284517 3166.3047369529 139 141 138
8.56680158479239 843.445543467027 3163.07557492314 128 130 127
3.24396187374054 843.030285687089 3159.21483145905 129 131 128
-0.4312733842462 843.121703296313 3154.08096477695 125 127 124
-5.75797931175748 842.707267442213 3150.21742277325 124 124 122
-11.9038104673035 842.04061958026 3146.99383853642 123 123 121
-18.8623075455805 841.122233600782 3144.41519143207 117 117 115
-26.6268791132185 839.952633125014 3142.48596790615 117 117 115
-31.9397350736799 839.541350562421 3138.63248201119 117 117 117
-38.063091610876 838.878435197285 3135.42520901066 119 119 119
-38.523117305125 839.979689219925 3127.68649590696 137 137 137
-39.0094601661513 841.079348952896 3119.92869685203 147 147 147
-37.9142159938088 842.680515159231 3110.84989096109 140 140 140
-40.8630452950103 843.022478016813 3105.00854941419 145 145 145
-43.0255892883289 843.614948383518 3098.50343510785 150 150 150
-45.2056813605459 844.206415366838 3091.98559474228 156 156 156
-47.4032877730075 844.797050573046 3085.45475916757 153 153 153
-49.618720031698 845.386550764364 3078.91128998444 171 171 171
-49.4792705407863 846.726763221732 3070.37332297828 171 171 171
-50.9480742702029 847.564155718992 3063.13731974407 172 172 172
-51.6524104199312 848.650337631511 3055.22142443414 182 182 184
-50.8146981192095 850.234932080485 3045.95554977722 184 184 186
-50.7945493807154 851.567152673252 3037.33105862925 195 195 197
-51.5851867910675 852.647657585136 3029.35257293861 199 199 201
-53.9579145946885 853.227103554788 3022.6950259315 206 206 208
-51.695449717251 855.301813501003 3011.99439409638 247 247 249
-48.704002611367 857.622567999291 3000.58842667088 208 208 210
-47.3032302093068 859.441737003525 2990.49687783489 219 219 221
-49.0179132228101 860.262605575739 2983.08225328636 217 217 219
