ply
format ascii 1.0
comment KinectMotionCapture
element vertex 803
property float x
property float y
property float z
property uchar red
property uchar green
property uchar blue
end_header
96.1099721219374 250.747003263133 3060.00851788093 26 29 22
34.8635568393272 249.169167768571 3030.37136386811 27 30 23
62.4157732915744 251.056533199094 3055.16235270756 18 21 14
50.1539256576242 194.358811459389 2579.76403688876 128 100 96
45.9977650458758 195.171293417582 2586.6052378144 132 99 92
37.1418030445505 195.689997525092 2589.65469964346 82 42 32
29.844352728106 196.307434860702 2593.97576223784 110 72 63
28.060599457699 197.263481931005 2602.69097453719 99 69 61
27.0874933755998 198.264884935404 2612.01107008346 74 51 43
189.426112338235 213.94129455181 2795.65757614329 13 10 3
203.5041355286 215.704065778853 2815.42554270552 19 20 14
157.217442639817 213.998256703483 2789.37358798995 25 28 21
160.833201584348 215.159494326421 2801.19847151465 24 27 20
193.6527890486 217.957015543521 2834.79413130652 25 28 21
212.852723464322 219.960402567122 2857.94253298686 25 28 21
224.031162433991 221.497873821073 2874.95515366873 22 25 18
218.971650456908 222.127833359786 2879.8862161106 23 26 19
226.997295034446 223.471844723963 2894.39022640508 29 32 25
213.773560419115 223.653564566002 2893.32462554436 27 30 23
212.015077652999 224.458150922451 2900.62022036902 22 25 18
209.449210912089 225.216647894558 2907.30678640515 20 23 16
212.674631139723 226.279261215929 2918.11694935697 22 25 18
216.767388192178 227.380286270335 2929.47740394249 20 23 16
205.974350523024 227.69837768678 2930.22899521793 20 23 16
202.637022169975 228.406201129717 2936.27221424698 20 23 16
197.641928864654 229.027472096328 2941.14059216266 18 21 14
212.693058547709 230.667820109751 2959.96068153199 15 18 11
207.746222548981 231.282970620573 2964.78204382955 21 24 17
173.432149237384 230.428390879781 2949.38719001357 24 27 20
169.260349859361 231.093373564664 2954.84847363378 20 23 16
182.795638897961 232.629334552207 2972.3550870507 22 25 18
181.20880531553 233.411749377924 2979.48317079909 23 26 19
191.494084960096 234.766454373641 2994.57590603182 26 29 20
188.269472140763 235.459788130651 3000.5093384389 29 32 23
165.487531373592 235.219510850088 2993.41053255275 25 28 19
160.530409723845 235.835574733281 2998.24197365778 26 29 20
187.193246059028 237.933802254873 3023.88462693397 25 28 19
160.040476848126 237.505259878815 3014.06872153147 23 26 17
143.089260497546 237.564103412948 3011.05475108794 24 27 18
126.945094973148 237.668875901716 3008.64948828188 26 29 20
126.273091021116 238.483589928939 3016.28160603545 25 31 21
119.571432185478 239.023743806179 3020.02246134337 24 30 20
107.665915964079 239.332993329774 3020.46281993483 22 28 18
84.4452499718971 239.147007122623 3013.79165048572 19 25 15
88.114997537041 240.153406903242 3024.1688981598 19 25 15
114.495055208603 242.140364486304 3048.6918911598 19 25 15
112.17668355452 242.867080157317 3055.13772602048 18 24 14
116.877118340112 243.891636124525 3065.90571188957 22 27 20
71.5892070964537 242.791399262738 3045.85733335758 24 29 22
41.0792877586248 242.341150911882 3035.12760783936 17 22 15
45.722155057867 243.372883093319 3045.95169843207 16 21 14
52.5642308805279 186.555471000067 2582.77496427872 134 110 106
51.5447921468883 187.579847119778 2592.13801125847 124 95 89
39.5636511612687 187.88060233213 2592.65505965622 92 54 43
26.7654332842082 188.133771873474 2592.57326346747 88 51 42
19.4532977586279 188.747915482923 2596.9093955029 68 38 30
18.4587358682626 189.76868373065 2606.24827265143 73 48 41
138.691621934963 202.550832923705 2748.53043343934 29 30 22
191.893886382375 206.816686221774 2798.51111983193 12 9 2
223.668570224461 209.722938449885 2831.71140465347 17 18 12
236.276399524878 211.435591046599 2850.11254651612 25 28 21
188.367729610579 209.495930511574 2822.8716456303 26 29 22
193.712886417835 210.770257422041 2835.79665344223 26 29 22
208.040694079143 212.566856398337 2855.31191844774 24 27 20
211.88213431988 213.729879573738 2866.91243320525 22 25 18
226.372699963821 215.505988100321 2886.26876776553 22 25 18
225.420267180374 216.370782101988 2894.17195369584 21 24 17
208.913894780825 216.33800819446 2890.7294498088 20 23 16
203.856995387381 216.967881621902 2895.65793064371 20 23 16
201.271787437164 217.737398529311 2902.36241188697 19 22 15
209.430622821394 219.108211780965 2916.73020043421 19 22 15
212.687722554557 220.194303499334 2927.50543507191 20 23 16
215.984533511691 221.275366873627 2938.24197906422 20 23 16
207.682636493035 221.712288470082 2940.75333359432 19 22 15
190.200363980599 221.651431142463 2936.86749218733 17 20 13
197.716484515033 222.9527660705 2950.46652778767 18 21 14
206.128913398222 224.291617203279 2964.58721822886 19 22 15
184.3977243984 224.013813628388 2957.8674559924 22 25 18
175.205028166192 224.412178064216 2959.85183888178 23 26 19
176.952267239818 225.387499065956 2969.30894070234 23 26 19
186.335093400489 226.75450249918 2983.87876072189 23 26 19
191.550652192252 227.894540951516 2995.53539973677 24 30 20
186.628558888614 228.506822869989 3000.33261614903 24 30 20
172.349776596188 228.643271175718 2998.90413718172 24 30 20
163.997757507053 229.085892282886 3001.46442128356 25 28 19
170.158437060808 230.257276913175 3013.59481777663 24 27 18
152.388718078238 230.231623121692 3009.98887405446 23 26 17
122.544336848244 229.621108487087 2998.62194664345 25 28 19
131.304108411089 230.916304235907 3012.40417291576 27 30 21
125.467724829632 231.493027271178 3016.69730151729 26 29 20
117.900029183187 231.986985511435 3019.88806255797 24 27 18
96.4634798139095 231.821147533711 3014.27641750615 23 26 17
93.1836289740629 232.527002732798 3020.26285142049 21 27 17
87.3025157031888 233.109263164996 3024.59991668199 21 27 17
109.320074411065 234.991135186777 3046.38524496999 22 28 18
113.981072999983 236.050812230027 3057.18753852765 22 28 18
98.5418274927907 236.182302471985 3055.49524016934 21 26 19
76.9129792555385 236.040307078196 3050.07068897063 21 26 19
35.8593184252141 235.03522983953 3032.88879490632 20 25 18
61.6483384390825 237.044230041817 3056.57819198834 21 26 19
51.0708298684399 178.494563603891 2582.61551351761 150 131 125
53.178199941589 179.753754629003 2594.50686270189 112 87 80
43.5549490977434 180.19526694886 2596.91241544698 90 56 46
30.7665583950976 180.423293130687 2596.82457690632 98 64 55
14.0012435049583 180.387061078808 2593.64005569453 85 55 47
7.45920578386938 181.052125562382 2598.62119030271 53 28 21
151.558505994329 195.923714172928 2759.40481306954 27 28 20
183.933352271571 199.03204911799 2793.39650714334 6 6 0
195.584122736236 200.772045540116 2811.32707185465 11 12 6
222.632821459817 203.480188088195 2840.74747869565 19 22 15
194.084598236445 202.631918118366 2828.12824951605 19 22 15
222.121927930992 205.368635961523 2857.97995493181 21 24 17
209.724192380315 205.546588290619 2857.51159094387 21 24 17
213.569414371182 206.739365315297 2869.10429060365 21 24 17
221.5368872394 208.178026533259 2883.65173921637 20 23 16
218.937143151788 208.958169678005 2890.36908450571 17 20 13
206.514088742739 209.139020711663 2889.92577193314 17 20 13
194.878417882344 209.373556078461 2890.10921281181 18 21 14
194.742363022844 210.302319672218 2898.60917803531 21 24 17
204.536102562868 211.816966109265 2914.16604274098 20 23 16
220.192700711944 213.664608366284 2933.77116429212 21 24 17
226.824085199456 214.965424967321 2946.83192315664 20 23 16
204.415419338065 214.566838391532 2939.38584781573 19 22 15
193.591448148268 214.851833902254 2940.17304809486 18 21 14
191.093047871146 215.618744040996 2946.79171331475 21 24 17
197.815228481915 216.908033265869 2959.76401402782 22 25 18
186.133769176683 217.147782494133 2959.99249074465 24 27 20
172.739951530003 217.296934226532 2959.10026055874 24 27 20
184.5962846712 218.858003326636 2975.4365723978 23 26 19
185.547590825541 219.802606547485 2984.27134028816 21 24 17
189.91397217954 220.929379234027 2995.35593856656 18 24 14
176.500744347281 221.080817468757 2994.48298287981 19 25 15
177.510894512299 222.017972982654 3003.26041856552 20 26 16
176.843905415329 222.860227164564 3010.88348607104 20 26 16
177.051437091725 223.74536492547 3019.0483748223 22 25 16
167.862281799834 224.13004617226 3021.03160171696 21 24 15
133.082103462505 224.056128007069 3014.48634723219 24 27 18
124.662960539627 224.496722060023 3017.11358589093 23 26 17
110.180023851632 224.62926976908 3015.88874960485 20 23 14
111.24540467504 225.559366756565 3024.61238367745 18 21 12
94.1095002244308 225.566578933043 3021.78910449755 17 23 13
111.719735634175 227.322032308208 3040.88477016299 19 25 15
108.505430846023 228.025685137212 3046.80677923038 20 26 16
99.1825226728742 228.426843058262 3048.92005162611 21 27 17
94.2200787051166 229.044418209986 3053.75655450678 22 27 20
65.5604407480186 228.512259057736 3044.03539724142 22 27 20
24.4826142812298 227.400229306826 3026.89330754594 19 24 17
3.5230512411184 227.276072820106 3022.21841898767 20 25 18
27.5529439481885 229.295263119242 3044.81933076272 33 38 31
52.463441804786 171.766628799959 2594.97987464749 96 76 69
43.6230495909791 172.25217557915 2598.01877608602 89 59 48
32.4081175840272 172.56954123089 2599.18942194334 82 52 42
13.2812526295027 172.326163222689 2594.12950514234 81 50 45
1.20350317381313 172.596188571075 2594.74669119749 77 49 45
-8.52687531450602 173.037578566984 2597.25897919859 198 183 176
158.023449920864 188.943310731495 2765.35301682895 17 20 11
176.775699795538 191.247583403981 2788.90150510904 13 14 6
184.388007168803 192.774797562784 2803.78888806457 8 11 4
173.524144621907 193.047323013658 2804.61754412039 16 19 12
188.489668948878 195.04987643951 2824.88567854775 16 19 12
231.091149142765 198.866640574179 2865.62139377866 20 23 16
226.833856024445 199.552855032256 2871.164773742 21 24 17
216.884476296918 199.865719348471 2872.49628209069 20 23 16
218.333286919187 200.923233355757 2882.23724184272 20 23 16
222.267370879096 202.134948358714 2893.7389012287 20 23 16
208.212666337917 202.185926228453 2892.10054223504 20 23 16
197.402720456439 202.451116536409 2892.87674237599 20 23 16
203.036919059407 203.760055200648 2905.50961180986 21 24 17
213.675151094616 205.373244620871 2921.63056553375 20 23 16
230.17981351156 207.337847902543 2941.79316925957 20 23 16
221.905955551742 207.75067501868 2944.27990390143 19 22 15
210.292628482902 207.961048584636 2944.44506601039 19 22 15
191.15030444918 207.717739807659 2939.40049007122 18 21 14
187.810647178654 208.443436929043 2945.44338002788 22 25 18
183.642816480253 209.117680343879 2950.89969180071 23 26 19
186.191908242587 210.192008894819 2960.96281809301 25 28 21
182.889858270033 210.912869194395 2966.969078327 24 27 20
181.28234892492 211.731841830369 2974.11229018498 23 26 19
183.915454583968 212.795579094703 2984.09355482343 21 24 17
175.576377032078 213.216158130402 2986.644245596 17 23 13
165.525263986178 213.540727140171 2988.07504668514 18 24 14
169.912543368964 214.695035223977 2999.13482319233 19 25 15
173.49076316833 215.795500406447 3009.58905646555 20 26 16
184.799062928626 217.324504616014 3025.05706557038 22 25 16
173.914444079966 217.598187250074 3025.90616190952 20 23 14
158.711703205173 217.636684598743 3023.99275526407 22 25 16
139.162011088117 217.443632747089 3019.34527390204 23 26 17
122.134137580559 217.400261527851 3016.4225324445 21 24 15
111.966318312033 217.739174656202 3017.96710448347 19 22 13
108.705020869492 218.454633796417 3023.93403298371 16 19 10
122.812648934408 220.098590416201 3040.8560057375 16 22 12
116.997220652932 220.668353940701 3045.12969187102 18 24 14
99.8441363475773 220.640524285633 3042.32898955025 19 25 15
87.8805665200493 220.893848322314 3042.83526199332 20 26 16
96.0293310072413 222.19786118042 3055.80601484148 21 26 19
76.1510289884502 222.045668253321 3051.47880903841 22 27 20
35.0970410686231 220.820662080209 3034.32940733728 23 28 21
-4.35103541340753 219.704898838785 3018.4036601005 26 31 24
15.2432522225716 221.593066971401 3038.34333602785 12 17 10
38.4434053927696 162.756573922081 2584.72760330602 117 104 96
34.2757057865475 163.593587774042 2591.57629897857 94 72 59
30.9033488255452 164.48878484022 2599.04385535316 99 72 63
20.4468964504874 164.850427807704 2600.8720227154 107 76 73
13.920145179855 165.50902288737 2605.83859598539 102 73 69
1.05105085308743 165.699001285491 2605.83652078232 53 29 27
-3.11394739330062 166.535226655117 2612.68298834396 186 171 168
157.014150202414 180.41741651008 2756.27910174433 42 43 35
161.287368954623 181.775238443919 2768.83931004537 18 21 12
186.4639530604 184.619332356673 2797.26484218904 2 5 0
155.047606104289 184.446609730072 2791.64492246754 13 16 9
193.398991807763 188.166260727913 2829.53017536201 13 16 9
197.134800048217 189.43318398395 2841.22022787078 18 21 14
224.458256547852 192.323924438584 2870.34114612965 21 24 17
225.082459995223 193.349007907117 2879.48883689803 20 23 16
221.656030897171 194.092005258265 2885.61533559574 21 24 17
220.691438050338 195.000251693662 2893.52417439803 23 26 19
227.123567704239 196.402810151413 2906.76775885586 23 26 19
209.785988166022 196.204211648454 2902.75859327208 21 24 17
227.801250859535 198.366110241273 2924.2258070671 20 23 16
226.115594989914 199.206573460485 2931.44344328032 18 21 14
225.2738993909 200.099171951868 2939.23255605806 17 20 13
225.281800305634 201.043178730914 2947.58731813355 17 20 13
216.169899117113 201.392747828567 2949.49868227986 19 22 15
196.208346623036 201.048789020774 2943.86557902512 21 24 17
181.1885443133 201.033029547335 2941.77853081486 24 27 20
177.842176739103 201.765463824961 2947.8274262955 23 26 19
186.25041139684 203.235894552251 2961.93283425796 21 24 17
184.630213445973 204.067803545485 2969.08673410108 20 23 16
180.497880211151 204.740658728995 2974.50766370581 20 23 16
175.525517495412 205.360825837307 2979.3536329598 20 23 16
168.86047094325 205.877191914761 2983.06164755542 15 21 11
159.64281025806 206.239601517793 2985.07647246623 16 22 12
154.659606677701 206.861024722795 2989.9330212085 17 23 13
148.824809017795 207.431210382905 2994.22587902967 18 24 14
161.785484893845 209.120752039684 3010.8631454958 22 25 16
138.859083410499 208.673830821307 3003.93833312009 22 25 16
133.019017286067 209.244561013134 3008.23600428088 21 24 15
122.014414522233 209.51480171693 3009.20475513727 23 26 17
118.7437089838 210.237395377491 3015.17997153681 22 23 15
116.345558683879 211.008561982487 3021.69845794353 19 20 12
109.629409272212 211.531068172137 3025.45631092817 16 19 10
114.190519877766 212.693742560645 3036.34223392528 17 23 13
117.924993636728 213.802070004012 3046.64014266803 18 26 15
106.005362343598 214.028944774483 3047.1070305289 18 26 15
95.8031629274143 214.356447390054 3048.68742903154 19 27 16
94.3358155595071 215.16893234544 3055.69241685054 19 26 18
90.2519938314597 215.835452453903 3061.06644797524 19 26 18
36.0361226936483 213.780507251964 3035.8546643702 19 26 18
8.93184441855244 213.224727704438 3027.42632166772 22 29 21
21.4869687659656 214.807339156 3043.06520171685 29 36 28
14.7293462427407 154.059836022066 2576.97010946231 54 35 21
17.600631294711 155.46607825284 2589.49805499362 84 60 50
21.3043092463279 156.928538119472 2602.60836028824 97 68 64
19.5221759257498 157.954028820239 2611.31136237321 119 88 85
5.87449741882562 158.057088612481 2610.67836998489 88 62 61
-4.63378204055775 158.40910604469 2612.55908721593 109 89 88
182.15542644004 175.956060501352 2785.81943743098 6 9 0
183.31779801689 177.094021888052 2795.83294530191 9 15 5
163.606696232958 176.671557973973 2789.96274381008 8 11 4
148.662431733466 176.615346609818 2787.80666420937 12 15 8
180.533472515655 180.008519435291 2820.83929851333 11 14 7
214.203950817555 183.497445683428 2854.90506892302 17 20 13
214.776595249655 184.54841498678 2864.10013264067 20 23 16
225.956350993167 186.358222558736 2881.07119455778 22 25 18
225.794730541655 187.340494768367 2889.58863824202 21 24 17
227.292479113732 188.435992278315 2899.27538794134 20 23 16
230.461434545444 189.643290785477 2910.12023686294 19 22 15
234.491778633585 190.903254748076 2921.51917734344 20 23 16
214.684789061831 190.492103343101 2915.7421840165 20 23 16
212.142634860848 191.290549353852 2922.39963654148 19 22 15
210.440358760352 192.144311894281 2929.63181125579 17 20 13
215.388919276801 193.449664997869 2941.52915007175 18 21 14
212.07266215722 194.184377163383 2947.54780875501 21 24 17
192.934635360964 193.849690840956 2942.51213331483 24 27 20
188.763897046637 194.530757893479 2947.97032386258 27 30 23
182.923528669973 195.099705526485 2952.26855862572 25 28 21
192.182123122863 196.667946941666 2966.93233752372 19 22 15
186.370730590673 197.233197482449 2971.20234527357 17 20 13
183.927898952517 198.018849575162 2977.7630599609 16 19 12
174.739479979954 198.36471022041 2979.75129334753 17 20 13
175.693060893986 199.367214161184 2988.57524466677 16 22 12
164.793555452036 199.606139103416 2989.44426078478 17 23 13
153.867817464449 199.848312106016 2990.3388461465 18 24 14
150.588513905067 200.577973315326 2996.32121808534 19 25 15
125.9565547608 199.96737690131 2988.28008432471 19 25 15
124.359002113358 200.807531975813 2995.41027827956 19 25 15
109.044808482368 200.796291891564 2993.61523488145 23 26 17
115.191348234498 202.111772960127 3005.73837501591 26 27 19
113.6293400626 202.947432346503 3012.83393724184 24 25 17
106.898821695229 203.466892414251 3016.6065090274 23 24 16
105.35798414398 204.299921467319 3023.68177511817 20 23 14
109.90916763958 205.494039364931 3034.5729085453 17 23 13
98.8452521991774 205.753270646946 3035.60218495406 17 25 14
103.448263701876 206.94089902737 3046.44281155178 19 27 16
101.978091909932 207.765054689865 3053.44887914019 20 28 17
86.5131350080337 207.772540609518 3051.80077820359 21 28 20
77.1458113500274 208.140415238206 3053.96307508843 21 28 20
42.2527681902363 207.048050314943 3040.59553859629 23 30 22
16.0442038617061 206.47390048967 3032.69770098253 25 32 24
33.9147068558261 208.408792215859 3051.5080583373 51 58 50
17.2199201156169 149.793830263384 2610.5525444141 22 13 8
4.35908214701142 149.935048997838 2610.54981502431 31 21 19
-4.56450006172604 150.399341522575 2613.67412888512 32 24 21
143.811147155726 165.611327767736 2757.40810569278 20 23 16
136.859209396444 166.155002678479 2761.39730910646 1 6 0
150.00132687128 168.26361001524 2780.62662013574 11 13 8
136.636271334289 168.304180390966 2779.72221486881 9 10 5
157.165994416612 170.95680253684 2804.28797871323 9 10 5
205.356704036069 175.696197701439 2849.25652078727 15 16 10
218.896717221542 177.754761899224 2868.09811184799 18 19 13
217.065636282374 178.636305483976 2875.45408564496 22 25 18
225.855057553566 180.310137251226 2890.56781639813 19 22 15
226.534945147182 181.366906511821 2899.6555288399 15 18 9
224.784243695805 182.23822853172 2906.93319536009 18 21 12
211.548911092721 182.262106199662 2905.90244047706 22 25 16
222.155748960567 184.03470255122 2922.03100879839 22 25 16
206.424692109259 183.881226368136 2919.25369201401 23 26 19
202.22671511076 184.569042581797 2924.73759561275 24 27 20
188.082462888699 184.543285348133 2923.19983804672 25 28 21
205.482120363544 186.771139194925 2943.85169944874 26 29 22
182.163589542075 186.098321437285 2935.93275539466 26 29 22
188.823444229766 187.548646732967 2948.94314560976 29 32 25
200.560527118787 189.342718413852 2965.3630991904 26 29 22
203.986504252284 190.544947302671 2975.95347105003 17 20 13
188.952489580619 190.467072057581 2973.88971660918 14 17 10
183.144175690052 191.029746973283 2978.15738574065 14 17 10
180.711852335794 191.8226690363 2984.70659104829 14 17 10
174.058501955131 192.327816026916 2988.40464934884 18 24 14
167.398516245518 192.833808581577 2992.10950949713 19 25 15
170.938312339337 194.021629813112 3002.58898689206 19 25 15
157.467718871807 194.074310803175 3001.78759240678 20 26 16
147.377070103242 194.356733084418 3003.26388232104 20 26 16
109.003961242651 192.793093515616 2986.33653442884 20 26 16
127.987029191866 194.985692025435 3006.83816586383 23 26 17
123.853148121936 195.665002109162 3012.26001630226 26 27 19
112.826601792288 195.901278940303 3013.25557728944 26 27 19
103.50187003139 196.250943721637 3015.37827119832 24 25 17
93.2927705579201 196.548070092135 3016.9700111556 21 24 15
83.9294309046759 196.902574231637 3019.13066585927 15 21 11
81.5065908952111 197.69407963526 3025.67066344699 15 23 12
71.2498303650091 197.997140728229 3027.30885438877 19 27 16
82.8144911152311 199.649378954759 3042.504079307 20 28 17
88.3234482971878 200.917032281823 3053.85017011845 22 29 21
35.0797224456159 198.602879390903 3029.12858981617 23 30 22
22.0832546606062 198.759160289973 3029.2579788157 23 30 22
19.6305254283007 199.554396849539 3035.82710538032 27 34 26
11.0064017406266 199.979539064163 3038.66017674363 53 60 52
121.288143335112 155.182915166403 2731.71989172592 15 16 10
104.669378036264 154.940700379667 2728.41995091985 20 23 16
137.725850458784 158.767143318657 2763.04555342493 24 27 20
120.316787107053 158.457871881777 2759.12372973599 12 13 8
143.953985200947 161.472192602324 2786.21824117849 10 11 6
151.574093401563 163.173133233545 2801.07220110038 10 11 6
175.454209526114 166.156957289572 2827.93033658314 16 17 11
231.134600959982 171.630845562491 2878.10581568044 19 20 14
221.195277751394 171.879456016918 2879.43683444988 19 22 15
227.547081562967 173.40712436825 2892.74203031094 20 23 16
226.595416291996 174.355666208629 2900.63173835403 21 24 15
199.438699901359 173.275111407906 2889.49921039327 22 25 16
211.609393890317 175.235620985807 2906.88089161095 25 28 19
232.920335278358 177.877048460892 2930.6728865387 26 29 20
222.992302864811 178.123962800378 2931.9929440668 26 29 22
193.186663881933 176.877045258477 2919.26435794374 25 28 21
195.606149236864 178.067031002431 2929.43909123191 23 26 19
163.982911778977 176.715681313122 2915.69668581192 18 21 14
165.561275667464 177.844940386136 2925.29839336606 17 20 13
180.532784821715 179.952378464177 2944.12851138994 13 16 9
189.739003727397 181.620008393467 2958.8292725596 12 15 8
191.461585533701 182.731115990826 2968.29045236959 11 14 7
185.648465601663 183.292244422254 2972.56312254098 13 16 9
180.67515290151 183.914130820614 2977.40978103322 21 24 17
164.721074928255 183.753565604202 2974.85497527581 23 26 19
152.951124267139 183.898827921305 2975.18529034138 24 27 18
143.696747028031 184.226900872967 2977.24131243309 24 27 18
165.043624767678 186.697552284801 2999.60595334231 22 25 16
175.42895770813 188.383312589222 3014.55006650112 18 21 12
131.202672405491 186.286261617899 2993.59480640604 18 21 12
150.16888603707 188.557115341544 3014.10194618316 20 23 14
148.645445847772 189.410652474604 3021.15656750908 22 25 16
129.934176358788 189.097262968592 3017.11121525369 24 27 18
118.059001086439 189.255486600358 3017.54376639507 23 26 17
104.425768479761 189.301943217539 3016.90479493882 22 25 16
95.9508017503037 189.698227642658 3019.59401640636 18 24 14
83.989527462867 189.867218674391 3020.11081156748 17 23 13
71.9979416358805 190.039962913088 3020.65681397112 17 25 14
57.3611490646031 190.046076693016 3019.60344573107 20 28 17
57.5360705492498 191.018797564926 3027.78810998123 22 30 19
77.8751030044957 193.283730652385 3048.34980475763 23 30 22
35.1404584817172 191.49741773586 3030.118462164 23 30 22
25.66223219526 191.85329763497 3032.39265981413 19 26 18
17.0470453721223 192.267096866631 3035.21853322678 27 34 26
4.00019892296033 192.405993844143 3035.40051832056 36 43 35
23.6759324964906 194.588094189008 3055.21621201731 26 33 26
136.988708488599 151.247979763948 2763.47196607018 13 16 9
130.833726254567 151.850500941349 2768.07765488933 12 13 8
123.064142590895 152.317901573387 2771.47315676046 11 12 7
141.943601001559 155.013825941628 2794.83743913424 11 12 7
140.694996187303 156.013740485973 2803.01441967018 12 13 7
213.337008288784 163.10859317885 2865.86430359641 19 20 14
218.815434251995 164.615299542047 2878.62262758477 20 23 16
225.161084711259 166.18204387401 2891.92815840276 22 25 18
214.392351929196 166.350001315709 2892.67746645993 27 30 21
210.153878555168 167.049492098312 2898.20019590401 26 29 20
210.848846446418 168.143062225704 2907.26749423526 25 28 19
215.689021832206 169.560825982674 2919.25584684272 27 30 21
220.576415473547 170.972594882899 2931.19785921961 24 27 20
217.238652550761 171.727778870045 2937.23484775707 21 24 17
199.812744412328 171.379885508339 2933.33512165197 18 21 14
193.134796870496 171.87864845629 2937.05888669789 13 16 9
175.619625380387 171.541853365229 2933.24616010101 11 14 7
191.448730054455 173.775879052932 2952.62287282041 13 16 9
186.451262225635 174.401400277334 2957.49298048679 13 16 9
187.327078313203 175.472009451748 2966.38408750449 13 16 9
168.891471172152 175.081705615751 2962.07636636694 15 18 11
188.320008341853 177.539521626249 2983.51368840968 18 21 14
168.160048456943 177.027760197953 2978.10206993908 19 22 15
148.778070099911 176.587228263748 2973.3246237822 25 28 19
139.514327051309 176.903551028052 2975.39202077574 23 26 17
147.242304116533 178.465216208118 2988.74220301163 21 24 15
164.406280099271 180.700537610954 3008.21008660009 17 20 11
165.438368357353 181.751405654143 3016.94893077291 18 21 12
145.090524972049 181.263069956548 3011.72075892485 20 23 14
150.421330485814 182.618888147006 3023.23072624806 22 25 16
145.477266188427 183.237459560177 3028.04883059735 24 27 18
134.499353792906 183.430981984364 3029.00241645166 22 25 16
120.902969471859 183.446401054243 3028.33144143899 20 23 14
100.341097121901 182.984785434254 3023.31185430096 17 23 13
85.7856951487941 182.951587413598 3022.18313641871 19 25 15
83.3666089010996 183.759901147615 3028.71692220161 18 26 15
66.1397987281815 183.555256507686 3026.01556393473 20 28 17
54.1020587301562 183.712783788452 3026.60998501423 22 30 19
35.9045812385812 183.460986998015 3023.46223565143 24 31 23
21.1604444796065 183.451425221565 3022.51777861698 24 31 23
15.1693956487744 184.03234754413 3026.96387144468 25 32 24
6.53113050865217 184.438814016297 3029.8137457459 17 24 16
0.528301503957884 185.021259976769 3034.27164910937 31 38 30
10.4574798308308 186.644555889685 3048.26105343474 25 32 25
102.401814093565 139.56423890187 2728.69358177376 16 19 12
141.866205195304 144.219616323078 2768.16946037521 9 12 5
128.487229854326 144.182293054457 2767.29039032603 11 12 7
137.635714808555 146.122046544236 2783.42517173727 11 12 7
134.737376966185 146.999895611551 2790.42458414642 11 12 7
156.145522702486 149.974756788131 2815.48768168166 13 14 8
176.059168537698 152.793968713778 2839.22368812534 16 19 12
190.39855189041 155.111679073857 2858.65043826322 20 23 16
202.384994386698 157.209856544485 2876.19473668244 19 22 15
209.548645824772 158.883785340731 2890.08904793691 19 22 13
206.117739991091 159.656643505643 2896.21557868405 20 23 14
200.231315394329 160.222914821382 2900.56028135509 16 22 12
196.81218446238 160.994264478271 2906.67568024957 14 20 10
215.685072523817 163.600728943616 2928.64246205211 12 15 8
212.335627409555 164.363271482614 2934.68996358766 12 15 8
217.286812285069 165.799937963608 2946.56528831644 13 16 9
210.649409715309 166.288682400047 2950.24993449536 16 19 12
205.671409391696 166.912335438805 2955.10098675831 18 21 14
183.994191012477 166.199931286823 2948.39186467325 18 21 14
188.185596426533 167.560228368159 2959.61570184307 20 23 16
194.937446894018 169.113983905495 2972.51978978633 25 28 21
181.564600485339 169.075180361655 2971.63485240081 27 30 23
177.424254497069 169.765151540788 2977.06120905149 28 31 24
178.356802559192 170.84801686339 2985.89416892645 27 30 23
159.844991721436 170.424508346165 2981.66702682362 21 24 15
133.635128691393 169.422740706885 2972.4164334061 17 20 11
143.050403883886 171.156911803217 2986.9001016791 15 18 9
161.05648937808 173.528826003498 3006.92847903592 16 19 10
151.828199545781 173.827660253816 3008.96291741431 16 19 10
143.437942737707 174.192917716673 3011.57260644916 15 18 9
131.600223121113 174.304450109935 3011.97520235733 16 19 10
151.558229852459 176.774571447967 3032.88459673433 19 22 13
137.145607000023 176.694443974288 3031.62137106925 18 21 12
116.643143749723 176.177397237387 3026.5509825119 18 21 12
104.731363182347 176.298117063912 3027.0254262984 19 22 13
100.600879934543 176.986699170127 3032.44253224837 20 26 16
96.474863910077 177.674679552045 3037.85495327211 20 26 16
83.6359323834999 177.740146262129 3037.84132873568 19 25 15
68.142038324559 177.623990568413 3036.23989915825 18 24 14
37.7174946850576 176.464471391248 3025.53022422789 23 28 21
30.8752068293976 176.978510468477 3029.4145859876 25 30 23
9.07497650426237 176.452566091447 3024.2169672277 27 32 25
6.59314145010992 177.277388701567 3030.81062349833 18 23 16
8.54033889600725 178.404400881613 3040.04674380939 30 35 28
11.4042311042883 179.587934731383 3049.78079026779 21 26 20
164.730263485977 140.020384302452 2795.68096169853 12 13 8
141.730460910439 139.072442923676 2787.48617893563 12 13 8
137.225986927992 139.811860037371 2793.26681197979 11 12 7
137.585033673299 140.986598278359 2802.65568836305 10 11 5
155.829902114522 143.750963368854 2825.22310313086 15 18 11
185.579470642375 147.511464673133 2856.0570339606 18 21 14
191.029036629586 149.092969926226 2868.83296108849 16 19 12
179.361638987937 149.16255189895 2869.07228716957 15 18 9
184.873216513814 150.736210127858 2881.78779570962 18 21 12
188.793465793526 152.160998743977 2893.27170095058 15 21 11
196.87402744509 153.935056999252 2907.65761703603 13 19 9
210.79459842829 156.196182270226 2926.09137013977 15 18 11
213.223801913358 157.459393014148 2936.24529271605 15 18 11
219.835101866546 159.069215342038 2949.28066275057 16 19 12
214.865791319772 159.692318357996 2954.12316722979 17 20 13
204.899138783272 159.896808378791 2955.48784540666 18 21 14
189.065287834497 159.617588974039 2952.83118947389 22 25 18
189.083562701232 160.660413333412 2961.16104486647 23 26 19
185.770398677287 161.424118764122 2967.17200902612 26 29 22
181.625343194669 162.117972866221 2972.60280622198 26 29 22
178.327613234269 162.879695732467 2978.59873715053 23 26 19
180.95135184403 164.118332339459 2988.56345336092 22 25 18
176.837889899359 164.808124473218 2993.96314022172 18 21 12
144.727574985568 163.259884119928 2980.73351026992 14 17 8
143.111431614677 164.159145735852 2987.87376700896 14 17 8
163.674116845276 166.80648899824 3009.5737605341 16 19 10
145.054107983989 166.35382762081 3005.4583694481 16 19 10
136.648426081315 166.71077277168 3008.08460438598 16 19 10
142.817658948475 168.201523095106 3020.15930520243 17 20 11
142.156791851425 169.155077737633 3027.75950547007 20 23 14
134.619648474144 169.577270718559 3030.93053452981 20 23 14
109.791689992441 168.683580603307 3023.12587213407 20 23 14
103.060539720167 169.178919019287 3026.90297442212 22 25 16
108.472376825179 170.59037164155 3038.32425343264 22 28 18
108.712740720051 171.605124439044 3046.43772010179 21 27 17
99.3881386758879 171.903040483238 3048.56827148278 19 25 15
84.8029115339539 171.8153375129 3047.47722624183 17 23 13
71.0517809993898 171.797273940113 3046.96486522672 23 28 21
34.4472524297359 170.115603322735 3032.54980169377 27 32 25
16.1731196318904 169.79369809038 3029.48887202236 32 37 30
13.7066817622054 170.625237001584 3036.06624599483 7 12 5
2.41920192495471 170.820824904332 3037.32659377621 30 35 28
29.1709566848857 173.737315250039 3061.34310153639 3 8 2
113.344353612114 127.807117780854 2757.82442995285 14 15 10
124.872606961397 130.07745679716 2775.79827156706 15 16 11
121.942989890059 130.976405351247 2782.82562621804 13 14 9
114.977145450376 131.49689895878 2786.83172751544 10 13 6
133.166956983708 134.347046168337 2809.44113604694 14 17 10
192.151797450119 140.92688011686 2861.8397652312 19 22 15
194.354324702386 142.243557236287 2872.21121619258 22 25 18
183.512518519623 142.365415686291 2873.0402384697 21 27 17
187.394463108182 143.825219866676 2884.55666770813 18 24 14
193.784409032069 145.501258696584 2897.80205879588 14 20 10
205.9927873655 147.68593086293 2915.11318776974 15 21 11
214.157218477636 149.493167223767 2929.41091653151 15 18 9
219.07566209651 150.999757709798 2941.30808123274 17 20 11
211.604632297966 151.406416159986 2944.41609237031 21 24 15
204.122678782192 151.814383674075 2947.53441959951 23 26 17
199.129086632303 152.441019522536 2952.40051391846 24 27 18
175.767266545989 151.479041732071 2944.56695662888 26 29 20
186.634090378293 153.477964374254 2960.4039041173 26 29 20
192.542346673895 155.037221055812 2972.72763331743 26 29 20
180.004845271627 155.017608472357 2972.42725889403 24 27 18
174.175202123668 155.572088845825 2976.71731944315 19 22 13
174.254913680049 156.623810381256 2984.98451445399 17 20 11
159.120609165928 156.399109834083 2983.04238786678 14 17 8
146.486191054972 156.391589832946 2982.83646588941 13 16 7
150.826747600527 157.793504978074 2993.90604264914 14 17 8
157.768162306721 159.400018719943 3006.6140928615 18 21 12
152.804014867988 160.022769373778 3011.45152237708 17 20 11
148.697029136777 160.714910966798 3016.84443101311 19 22 13
160.9002455013 162.722949939013 3032.76988288965 20 23 14
146.518171603415 162.580732196957 3031.48549857565 21 24 15
116.577487795588 161.205254076159 3020.32692447523 20 23 14
109.853017279149 161.694876399195 3024.09790066104 20 23 14
103.987703719707 162.253691430536 3028.42274179553 22 25 16
111.136987210117 163.834016732717 3040.92790803026 22 28 18
108.773658808209 164.661280757933 3047.40352460327 21 27 17
115.139760136507 166.162921993707 3059.28112245547 18 24 14
98.8423463571233 165.907037169949 3057.08134242532 17 23 13
75.4912177307552 165.12046647827 3050.62849042508 22 27 20
41.5297152646152 163.541581700682 3037.82473699316 26 31 24
33.8243165471432 163.97731262216 3041.16084519128 32 37 30
19.9387335253256 163.949714547561 3040.78340667879 22 27 20
76.303324833459 115.423100047912 2721.33547219868 2 3 0
106.979851890311 119.660289925929 2754.01228377858 14 16 11
86.2587000486061 118.847470006371 2747.78586205481 11 13 8
79.1967268388123 119.375150904685 2751.88635836353 10 12 7
102.087923843406 122.792369997924 2778.24554023637 8 11 4
130.797401823429 126.737152083821 2808.66781257671 10 13 6
184.079293292692 132.988872407172 2856.85900856271 19 24 17
201.757612622841 135.802320350009 2878.56485123109 20 25 18
207.283143903645 137.445494369849 2891.25622908268 20 26 16
207.12407103034 138.544218435406 2899.75393145065 18 24 14
205.346326826141 139.486660578996 2907.04794030093 13 19 9
206.05502054778 140.656110694125 2916.09039365065 13 19 9
216.694839600528 142.735488179757 2932.14086905019 18 21 12
231.545085553873 145.184869521056 2951.0405263182 21 24 15
201.716678774135 143.538079879059 2938.39364987575 23 26 17
190.056088443475 143.564401410277 2938.63261007075 22 25 16
186.695640239142 144.345984856037 2944.68822359968 23 26 17
184.178808751538 145.20135356945 2951.31211714534 29 32 23
169.958287681546 145.009860059287 2949.87459142206 27 30 21
193.442458996653 148.172452414821 2974.26532759971 23 26 17
193.518379343385 149.241452341209 2982.53407144113 21 24 15
185.191710332683 149.568059246482 2985.08632938871 19 22 13
190.364127439618 151.075522201841 2996.73116571129 17 20 11
182.039244351333 151.401881849906 2999.28168675601 14 17 8
155.032964363436 150.119552953711 2989.44650466438 13 16 7
153.439661088742 151.038577537667 2996.56082205021 19 22 13
162.943420657783 152.900872750675 3010.93734949878 22 25 16
157.990875387296 153.522709914048 3015.76339290327 20 23 14
150.470745919497 153.927737417095 3018.92040179151 19 22 13
136.932682110672 153.830146864888 3018.20821642086 21 24 15
139.698317752342 155.100497231785 3028.02700165909 24 27 18
120.949156058683 154.578749188044 3024.05007222397 22 25 16
115.962384950253 155.204849464393 3028.90947230525 20 23 14
111.842484351471 155.901860485882 3034.3148237383 21 24 15
92.1064240401366 155.324290624864 3029.90924034207 16 22 12
100.137452073534 157.011942741341 3042.93986767247 17 23 13
90.7937834443073 157.286397230023 3045.09282006194 14 20 10
94.5356858295208 158.613911435162 3055.35095636134 13 19 9
52.7888284409599 156.306464206999 3037.63265928264 17 22 15
47.7344980793446 156.94102611741 3042.55789607522 21 26 19
60.269019286936 158.961944524327 3058.15245377018 19 24 17
54.3735383045076 159.522399219855 3062.50700926 19 24 17
60.8405897979321 161.046979166648 3074.28097177444 120 125 119
92.5775374693103 110.654884315202 2744.13893299148 18 20 15
115.335828905883 114.183967613083 2770.61355857747 11 13 8
39.6843766475028 107.810938984161 2723.39826747678 12 14 9
64.9086666016334 111.577676481112 2751.640060689 11 14 7
195.533716481545 126.923593759869 2866.21946220196 15 20 13
214.053829767319 129.889887161186 2888.48337201212 16 21 14
216.338280834794 131.245860592249 2898.76766343624 15 21 11
217.019734899003 132.43818045567 2907.83378602966 15 21 11
216.086688181242 133.468331859804 2915.69328155829 18 26 15
210.233999593512 134.021468174552 2920.00608737908 21 27 17
224.183891892028 136.46682883505 2938.38349407315 26 29 20
229.125158179062 138.036432315133 2950.24902007651 27 30 21
213.386280882632 137.641543291067 2947.5151498222 26 29 20
175.159965723521 135.144239018428 2929.16311953218 24 27 18
172.597455848104 136.013988566522 2935.8302469111 23 26 17
171.717304267399 137.037337314004 2943.6378843744 21 24 15
182.573466250234 139.141269405899 2959.46989888615 20 23 14
179.244809577288 139.924738221077 2965.49366429767 20 23 14
189.376260399092 141.937155041516 2980.64160646296 21 24 15
193.679951931206 143.404250812029 2991.73849490003 20 23 14
193.80383072679 144.483880230853 2999.95770641645 19 22 13
180.407504417206 144.342095519278 2999.11130549124 17 20 11
157.640434722225 143.370069753442 2992.10588451712 18 21 12
157.753681542708 144.451052262615 3000.33579159782 17 20 11
175.78999359633 147.112815152345 3020.29131402458 20 23 14
162.323769674221 146.979777648302 3019.51302962843 18 21 12
153.957101512034 147.301076210357 3022.10579189554 19 22 13
143.00128478703 147.400147926202 3023.05139619585 21 24 15
114.817826120784 146.013503274659 3012.98334059708 22 25 16
117.563121548276 147.311278598956 3022.81860841394 21 24 15
110.840862299494 147.790987986062 3026.58919174788 19 22 13
104.111505742733 148.271538799591 3030.36636060911 20 23 14
108.65665509891 149.708158257736 3041.22764440114 14 20 10
83.6745140907427 148.649351300678 3033.60049173053 17 23 13
67.3208852331189 148.331526583806 3031.46568879324 16 22 12
55.2859752235722 148.383657034613 3032.07287725778 14 20 10
56.3536988117428 149.527152492661 3040.76264472958 16 21 14
56.5717930859573 150.594900729351 3048.89039275848 19 24 17
69.1250769327918 152.667946531461 3064.45861446906 25 30 23
80.8750324951473 154.659424716737 3079.41969938193 21 26 19
87.2003301635105 103.753011447719 2750.4986731315 13 15 10
48.6387447128118 101.005138260442 2731.09935801367 12 14 9
52.0222593468835 102.618432674673 2743.08838761751 11 14 7
206.777882804016 122.07245520689 2884.1110483903 18 23 16
217.218840729513 124.280530934523 2900.33963644295 19 25 15
217.902261751512 125.49204950649 2909.40130609946 19 25 15
215.328089578458 126.371913872393 2916.07818150469 22 30 19
226.762247941085 128.640421557374 2932.72916002587 24 32 21
225.071521278834 129.594495402674 2939.93504001021 25 28 19
220.915763508924 130.302629594599 2945.37401630253 26 29 20
206.81607702481 130.037614122704 2943.82736656304 25 28 19
186.857368470255 129.212218186542 2938.26225758964 23 26 17
170.9947002264 128.798263151162 2935.65413152425 22 25 16
180.129243577074 130.799919025203 2950.37669869083 20 23 14
182.636024632807 132.15261823626 2960.44069707826 20 23 14
186.017346693541 133.580620135223 2971.04204293296 22 25 16
186.916163163551 134.764877945956 2979.89351301207 23 26 17
192.898932520247 136.421633126849 2992.12883940541 23 26 17
196.399174993986 137.834650589289 3002.61431022521 22 25 16
186.394915933947 137.98103916865 3004.02491960355 22 25 16
172.974596670084 137.815798461553 3003.20581082252 23 26 17
181.626287979157 139.692808042911 3017.00937055418 23 26 17
184.374630212865 141.015058314786 3026.83799546086 22 25 16
182.88737004838 141.943410106836 3033.84563191337 24 27 18
167.717799092954 141.627543031139 3031.95199979681 23 26 17
158.509233412974 141.859126382196 3033.97679145392 23 26 17
133.801505880617 140.70434975455 3026.09132642064 22 25 16
103.833911325033 139.099188031662 3014.99342222664 20 23 14
97.0807863805736 139.577940186942 3018.79479713111 19 22 13
121.490823760676 142.808674156265 3042.25606331864 17 20 11
119.132275490056 143.661276325304 3048.72318818403 15 18 9
112.43748695283 144.132641218039 3052.46738816593 18 21 12
101.377713681093 144.226425562866 3053.51700432503 18 21 12
59.7169705799718 141.682776575628 3035.74810500275 17 20 11
29.2765836768938 140.137110821025 3025.11123496282 17 20 13
56.6347521850092 143.553007318771 3049.86866221316 18 21 14
67.4287232711177 145.531149274095 3064.36377777225 32 35 28
74.22618775237 93.481344265563 2732.30905706103 17 19 14
69.5418486060157 94.2593311040081 2738.26259828338 12 14 9
42.2465697458763 92.6164941294654 2727.35076996288 9 11 6
25.3729227112736 92.1072161708147 2724.34374015042 7 12 5
201.133431338475 114.377086371577 2880.93406553904 17 22 15
215.647678338283 117.064870209093 2900.13247679205 18 24 14
221.242960994508 118.806117215546 2912.74009535215 16 24 13
230.174740990441 120.879788246678 2927.65336571861 15 23 12
191.425728120414 118.045096494485 2908.45300054484 16 24 13
223.483709744492 122.47473375854 2939.72990152022 23 26 17
202.78181296662 121.506696498528 2933.50696244656 24 27 18
201.075589022929 122.474057876643 2940.72660541091 27 30 21
208.52638872938 124.357877021875 2954.30441464614 24 27 18
198.544870232932 124.485772974233 2955.69517551087 23 26 17
184.366815287795 124.201397768018 2954.22920817195 19 22 13
194.414141466516 126.322679407689 2969.44459717867 18 21 12
189.434922803226 126.949536752905 2974.29638567584 20 23 14
181.093994279237 127.247131927342 2976.86709145205 22 25 16
179.479291735035 128.202883849058 2983.99723034437 23 26 17
182.103852423696 129.565562784667 2993.94279681627 22 25 16
180.531624533375 130.515958258591 3001.03154943003 23 26 17
183.218005147427 131.870845653102 3010.91687938852 24 27 18
194.443587010607 134.031912394485 3026.37361002181 21 24 15
198.072915226414 135.456190383075 3036.72923249065 21 24 15
176.115252096346 134.458065623102 3030.34082557 23 26 17
166.06725864353 134.594274538636 3031.79636839676 25 28 19
138.835207799845 133.131418439566 3022.21206194417 25 28 19
130.424041416713 133.437815693071 3024.85121400938 22 25 16
112.516698629066 132.8703525713 3021.46201194251 21 24 15
95.4162032197941 132.38946422108 3018.6760499478 19 22 13
111.163364889499 134.921856568243 3036.6727876602 16 19 10
127.004401336849 137.442472417035 3054.57838473398 17 20 11
153.3748709967 140.894932349951 3078.89429816405 17 20 11
128.460306937686 139.704672826469 3071.21946921586 16 19 10
69.3896218773982 135.477702430983 3042.64748038792 15 18 9
42.4727964730054 134.163250576849 3034.14512564936 18 21 14
33.0083933182568 134.414125004429 3036.42145433019 19 22 15
71.8884486999407 138.925399308321 3067.99675372723 9 12 5
58.2196303979048 84.0391658723749 2721.259141571 16 18 13
76.8629410478447 87.4174928375276 2744.75706335628 11 13 8
33.4321052969106 83.9170229988414 2721.80242547542 9 11 6
8.44093707325921 82.4840621564353 2712.82228958437 6 11 4
175.389418219082 103.25817526996 2854.29535100277 17 22 15
191.412637806496 106.202975284886 2874.79116192624 17 22 15
196.911591465654 107.991983723914 2887.48737748555 15 23 12
218.029246233534 111.440351502115 2911.35204346003 13 21 10
226.952864120926 113.561479772999 2926.26640476162 14 22 11
226.064760004885 114.627933423946 2934.07556832416 15 23 12
203.743255948098 113.431348320796 2926.66088385663 23 26 15
200.364056933759 114.238937635053 2932.73093571909 23 26 15
202.796957318677 115.650615790603 2942.85958164256 27 30 19
196.955975977579 116.195693226464 2947.16229093515 27 30 19
197.775206816276 117.428848673484 2956.08556367336 26 29 18
181.090932273852 116.858331798429 2952.89953526182 24 27 16
191.966996442675 119.115269059101 2968.68917251155 22 25 14
181.110792469831 119.146735743714 2969.54551402851 19 22 11
175.27251107741 119.6914608301 2973.84559430925 20 23 12
167.746112610166 120.067047580472 2977.012841895 22 25 14
172.876890161218 121.711512207642 2988.67911596685 22 25 14
184.826638840699 124.024052275269 3004.81125987266 25 28 19
191.764308092656 125.82263956422 3017.49430314807 28 31 22
215.763517827248 129.289687097286 3041.32860021923 25 28 19
182.793767490026 127.14380439039 3027.62382430883 26 29 20
178.740032137071 127.84550495989 3032.96277956152 24 27 18
134.452901343991 124.64376422834 3012.23121260203 18 21 12
120.878940774113 124.444960556257 3011.56963250067 17 20 11
112.427264049186 124.74622171259 3014.24977104706 16 19 10
109.994240881912 125.625457460382 3020.78657631247 18 21 12
112.757095721992 126.995530860912 3030.59372174895 19 22 13
102.568598559961 127.133789367665 3032.1884839073 17 20 11
83.6806444693003 126.459070029493 3028.37198646464 16 19 10
69.0800022121252 126.198726119683 3027.32210275846 16 19 10
70.9979360561048 127.484361122899 3036.56383787483 16 19 10
81.6825494137348 129.574456329322 3051.15100063328 17 20 11
67.0496366617588 129.318177863975 3050.13256113456 17 20 13
61.1486243954982 129.870743590229 3054.49343741521 17 20 13
75.9729829127629 78.3669071994412 2735.64252731941 10 12 7
89.8239196256547 81.2689737663715 2755.46760675704 6 8 3
38.4675901776665 78.0602564943441 2736.08891458061 6 9 2
59.7147611342703 81.7729343360777 2761.20281347084 16 19 12
194.739442419592 99.4177662908505 2878.15842180518 20 25 18
191.254892759003 100.24458760373 2884.33058377773 15 23 12
190.2367495827 101.341439840747 2892.26438515169 14 20 10
228.658871478455 106.762266236482 2928.41105366296 17 23 13
222.835554805248 107.302921323224 2932.69687530047 19 25 15
206.282658792913 106.678538325162 2929.38834745588 22 25 14
202.90925192502 107.491306538364 2935.45188219229 22 25 14
207.005779869717 109.105432997728 2946.7327560625 26 29 18
193.696007393804 108.846867946763 2945.81766598412 27 30 19
177.84969933513 108.32707153485 2943.20893732222 25 28 17
178.650364099997 109.581994073253 2952.1474292796 22 25 14
177.805478249259 110.657012994275 2959.91241052263 19 22 11
172.787495597221 111.289808690164 2964.80181454802 15 18 7
181.220513737387 113.325563265971 2978.79905752814 15 18 7
168.652320824634 113.167174474172 2978.54967129134 18 21 10
168.717719697529 114.321138635653 2986.81630543497 18 21 10
171.346546251117 115.732944212186 2996.75037494386 22 25 16
186.736604129334 118.440960060412 3015.07576492341 25 28 19
178.41201970343 118.715954070479 3017.63358121084 23 26 17
214.389176222563 123.476651364644 3049.22081884666 24 27 18
164.281677997585 119.529410488335 3024.46010647569 21 24 15
126.811473556958 116.894008095855 3008.21147654208 13 16 7
96.9176486644265 115.046493440046 2997.07613763979 12 15 6
99.5915433636112 116.452621606969 3006.96629293254 11 14 5
138.500881944933 121.424614597478 3039.8613289765 16 19 10
111.956959493159 119.929495962081 3031.01571640683 18 21 12
98.3036481293729 119.714270313035 3030.43535997786 18 21 12
73.3325536462188 118.408182046556 3022.83378601415 15 18 9
27.402374792759 115.096370252877 3002.33314920452 15 18 9
57.1171825247023 119.097163931672 3028.9150171153 18 21 12
84.3667772337247 122.827731222033 3053.73375154743 18 21 14
68.9453340066448 71.2253874090328 2740.84244359968 9 11 6
86.8776572749108 74.6601874893765 2763.6211303458 10 12 7
66.8733638612338 73.6480308294235 2758.12889096479 11 14 7
70.3343667820109 75.3725228689097 2770.02453859399 17 20 13
171.158191993886 89.5661637048298 2861.93760384088 21 24 17
170.886638703726 90.7793082694735 2870.53008962576 19 22 13
