ply
format ascii 1.0
comment KinectMotionCapture
element vertex 792
property float x
property float y
property float z
property uchar red
property uchar green
property uchar blue
end_header
458.755210290622 348.402996769598 2801.42447045088 91 88 83
446.474304124713 347.598360382888 2801.1635492002 71 64 58
440.788032708098 347.114821555979 2795.80396385057 66 47 40
439.189061946942 346.829230796873 2787.23258051935 65 46 39
436.746946201267 346.502005848357 2779.28480913906 66 49 42
427.76980437159 345.85852266508 2776.47923244047 67 49 45
402.568093284422 344.433438939944 2786.61065972295 59 44 39
216.808897198121 335.092520777619 2916.21952024543 57 52 48
189.053786307337 333.566773025419 2929.43986462869 47 46 41
171.856157489031 332.550029023251 2934.2597716678 42 43 37
169.936527310532 332.264944533179 2926.69097467529 37 40 33
159.208201393888 331.559216602782 2926.32101634264 32 34 29
146.115784604718 330.741849285506 2927.94211697341 27 29 24
121.941334731894 329.399473618658 2938.81864676562 25 27 22
111.333230876522 328.703436474129 2938.5358890566 36 38 33
101.540629287739 328.046832334049 2937.60917497402 32 34 29
105.948560514693 328.061392449875 2924.74799805253 18 20 15
104.014006632044 327.775165341536 2917.16867123783 18 20 15
71.5052492426844 326.050297765296 2935.5878326037 19 21 16
86.0154266135629 326.537252134761 2913.9957281869 22 24 19
83.2727797526935 326.21219310055 2907.06543746456 24 26 21
85.1724674498091 326.103525472342 2896.09076147153 28 30 25
87.0273300114164 325.99125638016 2885.08357253902 28 31 24
58.7135379864643 324.472946050616 2900.36932245271 28 31 24
42.0792715602611 323.501539075529 2905.59755807657 32 35 28
11.6810288142477 321.894045428623 2923.07719781171 36 39 32
19.7133770215747 322.069282645639 2906.66847986934 41 44 37
26.1383556454016 322.167558189887 2891.5645233223 41 44 37
14.9792660317054 321.453334706204 2892.11728879025 37 40 33
19.7936013825588 321.47437963834 2878.31571910894 31 34 27
16.9750786164484 321.143147671693 2871.3303930565 27 30 23
-13.0361540902495 319.566711168943 2889.09074193891 23 26 19
-39.1444866019479 318.173340250033 2903.50554162792 21 24 17
-44.1228619312466 317.746832355449 2898.65911965513 19 22 15
-31.8973333549304 318.102249133916 2877.88052604192 20 23 16
-32.461007241372 317.873803000437 2868.8249043291 25 28 21
-21.1551260656049 318.181373104664 2848.61443296535 26 29 22
-21.8178361249071 317.944918872654 2839.48697725469 27 30 23
-9.94189881714735 318.272134347246 2818.45481462509 28 31 24
-38.7207628021724 316.768494676093 2835.87357151797 28 31 24
-43.1079884821277 316.363236410345 2830.22075754611 26 29 22
-40.9097327368859 316.252138442241 2818.22747096357 27 30 23
-52.643069175583 315.517623064682 2819.59918097682 23 26 19
-77.453765515247 314.202224349078 2833.71972865822 22 25 18
-58.5774928770051 314.83067322404 2805.41253458775 20 23 16
-16.6832332544578 316.473161232554 2754.27258991391 21 24 17
-46.541331930313 314.934863020359 2773.37917873047 21 24 17
-78.413923814362 313.313011489647 2794.73039957959 18 21 14
-40.5396316430153 314.762883792794 2746.85079669652 18 21 14
-27.9679414125706 315.093395679823 2723.85294364726 17 20 13
-28.3458766691957 314.85329372711 2713.69657768581 19 20 15
-85.1475953183505 311.486476935335 2729.31855365899 102 103 98
-96.7670403537157 310.760695145124 2730.77287021842 38 37 33
-107.65225256457 310.067758894222 2731.52428308455 128 117 113
-115.717379061647 309.496949311713 2729.38021387005 156 142 139
-123.770297779392 308.927076419637 2727.24499907983 185 176 171
-129.03825786116 308.476481620502 2722.18852893501 186 177 172
-132.238994896557 308.113613917547 2714.92596736067 197 188 181
-135.458362187477 307.74919961624 2707.64989248268 206 199 193
478.139463030646 341.371989919763 2796.91389368365 204 203 199
458.383683910493 340.244788350177 2802.34885674436 107 102 98
445.280754501536 339.421489357316 2802.7272698784 80 71 66
440.419999515345 338.97209719067 2796.73096085992 77 57 48
438.005685661057 338.632785989766 2788.80328244477 71 51 42
435.568553680514 338.291666496445 2780.8593480006 62 43 36
424.152831072358 337.546352726163 2779.99088062642 56 39 32
196.228761099872 326.670017797271 2933.37118692325 57 52 46
173.358972381917 325.437128076515 2942.72397473898 47 46 41
167.448655103126 324.961313653957 2938.43704951731 44 45 39
159.134500154211 324.378874198765 2936.11210087892 48 50 45
158.022270276416 324.115567560951 2927.8939737521 41 43 38
138.559546285825 323.04114029715 2934.7766826718 33 35 30
109.636621117504 321.552703688693 2949.6210102866 24 26 21
98.2704325353079 320.840454968922 2950.02365529515 28 30 25
99.5757988775368 320.684904582853 2939.8529422273 22 24 19
106.779417778331 320.569777626757 2915.43147572066 24 26 21
96.9812764382887 319.925849674444 2914.50080996156 29 31 26
3.60146925590676 315.652366758081 2985.12026356685 27 29 24
23.6870375268587 316.313580971286 2958.92491630027 25 27 22
84.8049343334623 318.742985243374 2897.02208291379 26 28 23
65.7453429440347 317.701033250695 2904.197195753 29 32 25
19.7197996098559 315.501932263037 2935.04777462697 35 38 31
9.3581019707818 314.841588063367 2934.94382283451 40 43 36
22.0667412699886 315.169583854079 2914.51530760171 43 46 39
9.39210863443707 314.409907806335 2916.43926662203 39 42 35
-3.24409792318514 313.653328919901 2918.39139169105 36 39 32
0.151425847920272 313.579119767859 2906.03088599433 24 27 20
12.6056588219581 313.886602892712 2885.41784228641 20 23 16
12.0813497679189 313.641634024642 2876.39067328978 18 21 14
-14.1443831702679 312.312338072274 2890.72069145652 20 23 16
-32.7245234593616 311.308902108719 2898.24356372164 21 24 17
-25.710990583744 311.381082889457 2882.33109390777 26 29 22
-27.0055047531061 311.103013768711 2873.98045575594 28 31 24
-26.835192216544 310.884932429159 2864.22193233573 32 35 28
-24.4691372550909 310.756712279932 2852.35020025881 33 36 29
-24.3778364435519 310.53222721909 2842.5340726398 32 35 28
-37.6355175078786 309.754432622477 2845.27060674343 29 32 25
-31.6780830406378 309.770445955141 2829.82730078507 28 31 24
-52.2590833264225 308.692693742087 2839.60473487629 25 28 21
-50.763424733153 308.523264199314 2828.33686179239 26 29 22
-53.6976935418927 308.170968128531 2821.26752226967 22 25 18
-59.5649063388826 307.698388004511 2817.01186078911 21 24 17
-79.9608253184312 306.635450209901 2826.923539307 21 24 15
-56.0949006598284 307.368930926363 2793.58813711908 24 27 18
-40.3524032487765 307.767013452193 2767.94847665119 24 27 18
-58.5724369446177 306.792275922181 2775.73254323404 17 20 13
-44.4280565101052 307.119561466436 2751.40408832208 18 21 14
-26.1162372929142 307.608526603349 2722.68700340802 20 23 16
-30.7762759896077 307.175002625817 2716.8362782868 24 25 19
-81.2108561484643 304.18448236614 2725.95991623235 208 209 204
-95.6508615180809 303.368995863166 2730.30924055648 21 18 13
-106.539350056052 302.694572421142 2731.0583721142 54 39 32
-115.304984198532 302.104119518557 2729.6417215669 81 64 57
-123.358357362963 301.541998911137 2727.50621660543 111 92 85
-127.932967327614 301.115059554668 2721.71745394761 124 105 98
-131.826294488234 300.713971944109 2715.18766204872 154 137 129
-132.978418044355 300.417650213308 2705.70511680893 147 133 124
457.907853193853 332.337971666566 2813.0800804117 210 206 203
451.408887798626 331.813977295311 2808.36618756712 100 95 91
442.440107218682 331.186275449788 2805.56675205248 78 67 61
440.051187360522 330.834694132091 2797.6574201365 66 47 33
436.820991524514 330.447106952836 2790.37337803989 61 43 31
433.572643380884 330.058075372142 2783.07616963192 55 39 26
410.761782691218 328.855017307084 2791.23649562994 45 32 23
207.457117179032 319.936673479104 2934.06594742436 61 61 51
197.450169973111 319.288968984751 2932.98418918504 38 39 31
176.186270813456 318.178877101059 2941.0313748728 45 50 43
150.987909275835 316.910569196529 2952.40106104486 42 49 42
157.942165265707 316.962597406787 2937.68055470394 47 54 47
152.840322928979 316.519604260122 2932.74483983852 38 43 37
138.96814619928 315.719299846205 2935.03579890367 41 43 38
97.326823659841 313.793082916462 2960.41983537174 46 48 43
83.6173337582418 313.005901940129 2962.82879606329 52 54 49
128.828725506114 314.361862401534 2906.68154568747 37 39 34
104.83014109363 313.158521825272 2917.68626834519 43 45 40
10.2437746328672 308.90351282597 2980.02034622512 50 52 47
53.6956295849507 310.403656372593 2933.71421900824 51 53 48
58.7925038730415 310.36956739755 2920.11689409109 49 51 46
44.4541134806191 309.563484524899 2923.30518675983 47 50 43
53.3445246838338 309.676258514361 2906.28314397738 46 49 42
22.0837173728712 308.205363955258 2924.37322078186 50 53 46
22.4678357678028 307.982100393274 2914.76966354225 48 51 44
5.96121792891857 307.096574830665 2920.09086935749 32 35 28
6.32149978459751 306.871369884792 2910.46972819136 25 28 21
2.07504446549889 306.465537976648 2904.91925322968 25 28 21
12.2501288335535 306.618258255787 2886.35833204113 23 26 19
9.45700324318111 306.265985291064 2879.39131036658 24 27 20
-2.41643301215699 305.563186221703 2880.66161968222 30 33 26
9.08545708208797 305.759263287283 2860.59267463229 32 35 28
-2.78779006330199 305.056450509617 2861.86282649132 33 36 29
-13.8783995255092 304.384931600979 2862.46545098961 35 38 31
-18.9685863122495 303.942804270091 2857.53818986665 39 42 35
-30.0174510242124 303.274620476917 2858.17109291829 38 41 34
-33.6170418975048 302.889043061103 2851.85431528492 32 35 28
-32.792461610115 302.66936162461 2841.33474530902 30 33 26
-44.5469462964287 301.976053333375 2842.69133322826 27 30 23
-38.6190235517159 301.945209685939 2827.22639625259 24 27 20
-48.1584885306372 301.3350449841 2826.48342152562 25 28 21
-54.0223992697866 300.862222674167 2822.23015255054 21 24 17
-60.6162930638023 300.362328322865 2818.68289726138 20 23 16
-55.5820774619769 300.29115186761 2803.80492524075 22 25 16
-54.2367946082927 300.081533432528 2792.42783800938 25 28 19
-50.0481849869505 299.973944327385 2778.17201483635 26 29 20
-50.9618553203066 299.677543763932 2768.86232902728 17 20 13
-36.1175367250062 299.952046017963 2743.80597023853 18 21 14
-30.7039291839379 299.87954830519 2727.96798420965 22 25 18
-19.6555468721384 300.006941966687 2706.33489716571 19 20 14
-86.4311121812362 296.529967717943 2732.0177515903 223 224 219
-88.2143374550011 296.195060254829 2723.31254843187 46 43 38
-99.1260340521889 295.537525594128 2724.04494151718 56 37 30
-112.799345828862 294.78451683201 2727.71563269879 78 59 52
-122.250994436408 294.181049895896 2727.03635185903 127 107 98
-130.2947824674 293.627472487156 2724.90783863833 135 113 102
-131.41397130098 293.314155653003 2715.44908239822 154 134 123
-129.80894746212 293.093255918564 2703.02519317896 162 142 131
-125.506123378891 292.962625091221 2687.61671868971 155 138 128
464.15210729489 324.470155359332 2808.92097606939 204 201 196
456.812562704881 323.91232212078 2804.83259465632 90 83 77
448.653401140724 323.322969054069 2801.38522685928 70 59 53
445.429040405035 322.924263259461 2794.10506395642 63 45 31
441.367489474939 322.492615876865 2787.4531682657 60 44 31
431.575204146907 321.840704054551 2785.29196506263 54 40 27
226.022879385748 313.452317399335 2928.96509277302 62 58 47
194.099159707013 311.983175773624 2945.33928802758 71 73 62
183.320928488508 311.320938630179 2944.93337256599 41 44 35
173.373872745777 310.691184843755 2943.89512185036 36 43 35
157.823372226018 309.851424173829 2947.43930158758 35 42 35
154.344729566557 309.466902801639 2941.21050172167 37 44 37
156.446507464564 309.290532249546 2930.38198229942 36 41 35
117.85776940082 307.59495431441 2953.03962963747 41 43 38
106.4707486462 306.918217816274 2953.42735283604 47 49 44
91.1503428856193 306.097057337464 2957.13872186531 52 54 49
61.6544987550043 304.75470428809 2972.80350486887 48 50 45
86.676120324674 305.424632589958 2942.77564338847 43 45 40
81.6568388104657 304.985000806953 2937.8997956512 45 47 42
82.1193263292854 304.745552241296 2928.35267340471 44 46 41
33.3025767641706 302.708968663313 2960.88607486193 45 47 42
-7.47941617140269 300.974809253656 2986.89432498507 45 47 42
35.1007156086718 302.265949967534 2941.19024502596 41 43 38
44.8555930187284 302.361221391467 2923.55974696234 43 46 39
44.4744880197221 302.088293908282 2914.63624802543 49 52 45
43.2910470246668 301.785213786579 2906.36600250242 37 40 33
33.6271339194187 301.178327609295 2905.53282927919 36 39 32
30.1143019883443 300.791052304357 2899.27893645442 29 32 25
29.6435972364741 300.510883044893 2890.29044806348 28 31 24
22.284092868091 299.986163636527 2887.42309621541 28 31 24
8.85487481234559 299.248397024769 2890.03548224281 28 31 24
7.5884794881067 298.938589209292 2881.70506727916 28 31 24
-0.503018302404179 298.389380222487 2879.54199036253 30 33 26
0.454778818621993 298.155254674259 2869.11891895005 29 32 25
-6.13724547054639 297.657838048503 2865.57303145501 29 32 25
-8.23351479398471 297.31562430521 2857.87589560573 28 31 24
-23.0434208508101 296.53559035537 2861.95754507883 27 30 23
-31.8471219826706 295.963453933503 2860.5130972581 27 30 23
-42.8607146879623 295.316763902586 2861.17167861027 24 27 20
-39.0465359313543 295.1746988063 2847.87928451414 23 26 19
-31.6023130924439 295.152576199039 2831.04351675159 20 23 16
-45.5676843894761 294.406035888025 2834.50222604099 22 25 18
-47.0197019019487 294.081138329346 2826.03717315919 22 25 18
-56.5413299511617 293.485598753375 2825.30749735938 19 22 15
-55.8374257872929 293.23086023626 2814.70026911516 17 20 13
-47.9075019539872 293.213255080712 2796.98128814438 20 23 14
-48.0317337371641 292.926256194783 2787.00889417995 22 25 16
-41.6917427980195 292.849512811999 2770.60740511198 18 21 12
-63.5106197912703 291.849679534925 2781.95794389353 16 19 10
-38.5720593956354 292.374229560425 2746.92869223201 15 18 9
-25.9904960615931 292.489728792123 2723.93661284774 14 17 10
-19.2325168228487 292.412037070967 2706.60309098575 23 24 18
-79.3704590532673 289.010426540241 2714.86595005536 120 117 112
-91.709963975656 288.325629282071 2717.03322958276 49 30 23
-106.8030016152 287.557013022044 2722.14472539127 66 46 37
-119.056414325469 286.879137073756 2724.37474453536 102 75 66
-128.49675467369 286.289855984122 2723.70402762524 130 103 92
-130.310596272253 285.935400196055 2714.97653102346 151 123 111
-126.638428505797 285.746830983814 2700.34562347117 150 123 112
-122.342324828314 285.573996642932 2684.93235792429 153 131 118
466.345363542212 316.124326568448 2798.11739133825 79 72 66
458.985431054276 315.56698872615 2794.01423281216 64 55 48
455.735281371386 315.154649270332 2786.71560037095 62 46 33
450.828977408831 314.683328462042 2780.68616085455 61 44 34
433.660688392012 313.782512798484 2784.29259303557 54 40 29
208.564772961678 305.360615345305 2943.44092549013 51 49 37
186.407343628926 304.318627969342 2952.07604815551 56 59 48
180.498615623373 303.841191055058 2947.79026681369 29 35 25
160.889080387498 302.89282638036 2954.56718766045 28 35 27
155.819955201067 302.445815627957 2949.65487532851 28 38 29
154.752914955819 302.135103828313 2941.46926701422 36 43 36
132.077391168474 301.08868733189 2950.96353167059 36 41 35
121.449846928415 300.454496159715 2950.66699447387 36 38 33
101.308693209842 299.500610591354 2958.293542402 48 50 45
98.6859311812118 299.139036788543 2951.44997379852 51 53 48
123.714307744134 299.702070536551 2921.4264677149 46 48 43
87.8665768950158 298.227451794694 2942.3671389931 47 49 44
44.3230123708895 296.505175725217 2970.0786370159 46 48 43
26.0762871532139 295.629537972172 2976.60881967565 43 45 40
70.4417822224706 296.819586821811 2929.72840235779 38 40 35
31.1091560594043 295.250471194572 2954.31779762922 36 38 33
20.7280228924174 294.636200993497 2954.19998998169 31 33 28
30.5276080064099 294.679679984457 2936.60163914787 32 35 28
37.1464732123927 294.61582290276 2921.63741388826 45 48 41
38.2983449175587 294.372150726893 2911.35498292803 44 47 40
36.3353606199546 294.026463253275 2903.75445064329 42 45 38
42.0134197694826 293.924005689746 2889.34335058273 30 33 26
43.0393899433761 293.670151822197 2878.96959934333 30 33 26
33.3560754727129 293.07483297971 2878.12271472412 33 36 29
17.6151712646062 292.289390958612 2882.76447300513 32 35 28
4.96100161975566 291.603674793171 2884.70364070549 32 35 28
-5.3884978217198 290.99192900327 2884.60877780732 32 35 28
-11.9464157367739 290.499447532054 2881.08734527125 32 35 28
-10.9906845567562 290.239898945097 2870.66294191836 30 33 26
-5.58224609613389 290.115611144425 2856.05598301495 30 33 26
-18.9071693109568 289.413095213505 2858.74415314995 32 35 28
-26.9781449388369 288.873170754666 2856.59600021494 32 35 28
-29.0990404084475 288.51467120151 2848.88122433294 32 35 28
-25.322532151399 288.333331886193 2835.56132315609 31 34 27
-32.6719332536718 287.814263579699 2832.70102952816 28 31 24
-38.5424298945078 287.339854753538 2828.44297825638 31 34 27
-43.6806357969262 286.88719270631 2823.48085369126 30 33 26
-40.0493581589092 286.694081556714 2810.05561211265 25 28 21
-40.121722489846 286.388798434415 2800.12072535798 25 28 21
-38.7766931855591 286.123188839139 2788.74317071699 26 29 22
-42.5492128195801 285.705994642616 2782.30087318925 29 32 23
-64.3967734547224 284.763760717298 2793.63091033873 21 24 15
-60.2203944719109 284.577224450178 2779.36582103186 17 20 11
-41.746331864589 284.797575677649 2750.76498923135 16 19 10
-27.7180997550808 284.883184761734 2726.35111178095 15 18 9
-23.091564159019 284.695563533883 2711.17730848511 22 23 17
-24.9348572685375 284.321920763947 2702.42836466867 22 23 17
-73.3333886149106 281.682618765146 2709.32405799791 132 129 122
-82.8906424177507 281.097228459499 2708.56860773707 33 14 7
-100.106616695686 280.30459640737 2715.84642419059 43 23 14
-114.469027463706 279.592841829053 2720.25252392002 104 77 68
-127.392013205013 278.922550323564 2723.23223033041 126 98 87
-130.590271022291 278.514142106419 2715.97123532251 141 113 99
-131.049933064828 278.177321121716 2705.75542844587 154 126 114
-127.422965379133 277.946159635273 2691.09153865216 158 134 122
474.229706656525 308.223199293999 2792.67668606086 76 67 62
466.850013348818 307.666386177846 2788.55920515264 69 58 52
461.93798451831 307.188513413148 2782.52587684736 64 47 39
458.655152173647 306.761959244611 2775.2031855698 57 43 34
433.295392625132 305.635777719292 2785.22155414829 49 36 28
235.297800205504 299.073311588806 2931.91044394807 51 47 38
204.913650247236 297.822317715015 2946.93173785202 45 45 35
200.593761165162 297.39236064093 2941.32761251266 23 26 17
173.633783819993 296.257445430934 2953.8913091868 23 26 19
174.998320024077 296.005720572292 2943.76329694892 28 33 26
154.618944891726 295.081284565401 2951.21730225814 28 33 26
135.119097135088 294.187771197605 2958.07401573213 35 40 34
112.494981093457 293.202460848671 2967.60615095217 36 38 33
100.327002572762 292.539970939578 2968.66284999063 38 40 35
107.275281831623 292.458317998992 2953.93733386847 44 46 41
108.602403581198 292.203567663351 2943.78188929238 43 45 40
102.772762147664 291.731965409669 2939.55346904812 36 38 33
27.418385703597 288.894976538731 2984.95843240452 39 41 36
45.2876062719301 289.133525541126 2960.85967087111 34 36 31
47.3855901706761 288.900908751819 2950.02811619955 26 28 23
50.2186595888192 288.687516844463 2938.4942069801 24 26 21
33.5634579981989 287.903443408761 2943.70850961482 21 23 18
30.1499126278841 287.506594465014 2937.52654324446 15 18 11
31.3612917585506 287.2424816889 2927.28714695125 25 28 21
24.822510895298 286.75374331702 2923.77960623198 24 27 20
28.280998970343 286.550719303949 2911.46438670726 26 29 22
39.3517528198308 286.561156361596 2892.31699811857 21 24 17
40.3878333155565 286.282856443523 2881.95045224316 21 24 17
28.4260681351043 285.63705446821 2883.15701873748 20 23 16
18.7786144073288 285.057758157341 2882.33591701635 20 23 16
6.12070945031062 284.395866646233 2884.2727920628 22 25 18
-19.3438103666856 283.381931210859 2897.92119060017 25 28 21
-17.5726873744091 283.122851845818 2886.85255344379 25 28 21
-13.5930248175273 282.921731936527 2873.67982296181 24 27 20
-3.67973858229464 282.878751656421 2854.92842193484 25 28 21
-15.5168576420519 282.243003442705 2856.22510350938 25 28 21
-22.1077787692372 281.750016857037 2852.67974368202 23 26 19
-25.7257493736962 281.336595054047 2846.34950115197 22 25 18
-22.6963348479825 281.098822500281 2833.72306104625 22 25 18
-35.2186399581262 280.447860922783 2835.7579962008 22 25 18
-48.4383081036013 279.780722003761 2838.52264717336 23 26 19
-41.8079574653343 279.633066559906 2822.3312868643 20 23 16
-34.5221737319357 279.498196422197 2805.38009212444 19 22 15
-30.9626532134677 279.263042189231 2791.90261932198 25 28 21
-36.9123906707831 278.781656675441 2787.58708935295 29 32 25
-37.0648337848827 278.447370238382 2777.59371039488 26 29 18
-60.5311678486402 277.192596960356 2780.33816681396 19 22 13
-43.4861750794557 277.283902310683 2753.17108588253 17 20 11
-41.6184719186252 276.992310571397 2740.93696596365 16 19 10
-46.2245303589817 276.539124002892 2735.12556716437 30 31 23
-36.6090979846667 276.431710465699 2714.92258804373 34 35 27
-72.6667838350274 273.835948065425 2698.65133600101 46 31 24
-89.9160718373559 273.084131264492 2705.90520936206 40 23 15
-106.399672818801 272.354019431815 2712.47921889587 80 56 46
-122.124042783622 271.645079200673 2718.36838732854 96 68 56
-127.412274981082 271.176865420916 2713.29742672784 145 116 102
-128.568956330947 270.801461981475 2703.81117688165 158 129 115
-127.695694564962 270.469560895634 2692.09129210465 159 133 120
476.33504962175 300.106081044928 2791.69141156699 74 65 60
470.598131715422 299.598350896416 2786.2949889623 64 53 47
467.320757837231 299.160676952587 2778.97649279675 60 43 36
462.386721588807 298.674918864385 2772.92687642682 57 40 33
230.008560561744 291.434237560073 2936.68331319482 54 50 41
197.196854756083 290.197332806022 2953.65029578717 51 48 39
211.542396911549 290.282945724429 2933.17184754486 27 28 20
191.825428299571 289.417837105334 2939.87160382989 29 30 24
170.570038335825 288.514210840965 2947.9257093274 28 29 23
151.808909867094 287.68346294153 2954.08321746851 29 30 24
133.117110988473 286.858330928644 2960.29101255464 36 37 32
110.496584545632 285.930243642601 2969.82574532052 30 32 27
99.1311362393792 285.311054749854 2970.22969281428 36 38 33
118.015079426507 285.505946484195 2945.6309731236 41 43 38
92.8945851829805 284.203159032307 2948.41108695478 36 38 33
67.1329782950494 282.891503797493 2951.96173073717 33 35 30
51.9573804036986 282.178954478444 2955.77832974111 29 31 26
56.3856911958593 281.977943588769 2942.93083449172 24 26 21
63.0954601085012 281.832574301244 2928.03238887068 23 25 20
54.1803073598119 281.282682492293 2926.50726006777 22 24 19
42.1797074147112 280.655088591232 2927.68547216288 20 23 16
29.4397297544489 280.010667274126 2929.5629394452 26 29 22
25.2207993176308 279.582835130768 2924.03201194555 21 24 17
22.5297899783246 279.19266010336 2917.13882453925 25 28 21
24.4206572292174 278.915283213176 2906.15689987084 24 27 20
27.0310707615118 278.65313718005 2894.46163017579 24 27 20
9.77146426953279 277.90094837968 2900.47269045301 24 27 20
1.69834016944126 277.376207181689 2898.32305695086 23 26 19
2.73254716442173 277.072502381811 2887.95531873107 24 27 20
-9.1213049973069 276.456792720417 2889.23997162211 26 29 22
-23.2017248177745 275.789897504624 2892.61568319973 25 28 21
-11.6889884224953 275.732170958364 2872.55331529956 26 29 22
-1.77682025241688 275.630913010442 2853.80080857541 27 30 23
-19.5953066235652 274.876514464227 2860.64204481457 27 30 23
-21.7045666170002 274.490395680095 2852.93526936368 23 26 19
-26.8072149536693 274.034041089012 2847.99890253335 21 24 17
-20.8100527438677 273.830937137136 2832.58328619117 22 25 18
-26.6948365203392 273.354280802401 2828.31486648579 19 22 15
-46.5638221155484 272.562955774455 2837.37486940231 22 25 18
-45.0714553536034 272.253295317026 2826.10389970241 22 25 18
-39.2349066130908 272.037179766239 2810.57178532236 18 21 14
-41.492671372793 271.639028456185 2802.75729465004 18 21 14
-40.1379285913288 271.318218804824 2791.38650191678 19 22 13
-38.8283463070866 270.993750532857 2779.98295284368 20 23 12
-38.2867883197069 270.650134035566 2769.25788068401 16 19 8
-48.1005823010592 269.726061878105 2758.43356701792 18 21 12
-62.6865889812902 269.061256185651 2762.67781510418 18 21 12
-64.3704670844927 268.666543119795 2754.04462237972 17 18 10
-53.9826751709471 268.517686908704 2733.16629662752 27 28 20
-50.7925229753516 268.216373114676 2719.42072573388 7 8 2
-91.4773436882659 266.298664255076 2729.44153979614 110 109 104
-68.0446650120699 266.388398284909 2694.55377101657 83 72 66
-80.4201842589518 265.773468584725 2696.69529688451 51 34 27
-97.6310246274081 265.068272337214 2703.97727789817 50 26 16
-116.854281192438 264.329236274843 2713.50564842313 96 68 57
-124.925117251743 263.804660013424 2711.357674406 145 113 100
-127.466530734905 263.383518324715 2703.33744426989 150 121 107
-123.156923829032 263.086766646438 2687.9333398357 164 136 124
-116.85871310926 262.82191383915 2670.26527947753 135 119 106
480.918524746311 292.041375176611 2788.79774355283 75 66 61
473.523238538263 291.487542539506 2784.6689741151 58 44 41
467.774902934484 290.975532441546 2779.26425289907 63 44 40
460.382746598276 290.421945890988 2775.13775361871 61 42 38
214.120249815324 283.570273500556 2949.8282045792 49 42 36
199.231663371103 282.867458326523 2952.61787698246 43 38 32
190.065392398761 282.307611303369 2950.91095127199 30 30 22
189.810122503776 281.9658054374 2942.07802952783 28 27 22
175.008924564577 281.270082398978 2944.93138212343 30 27 22
163.472009456719 280.655581969482 2945.21075894439 34 31 26
143.143292251894 279.832682180534 2952.70200156733 30 29 24
119.693428555942 278.940161023502 2962.87104131518 32 33 28
113.088641810005 278.45040266487 2959.31564635648 40 42 37
96.9425093277545 277.737338692395 2963.66401262264 39 41 36
121.305832770016 277.969996244565 2934.39205302457 37 39 34
62.2509115164629 275.933139930137 2965.67906157298 30 32 27
76.6709214045767 275.588774763306 2935.37153666788 23 25 20
69.2994996411418 275.08272042381 2932.49564018806 23 25 20
62.71608961204 274.594691950648 2928.9557504298 25 27 22
41.8027284304281 273.449146089438 2928.61102363887 21 24 17
39.1189002739432 273.047997550698 2921.72269196523 30 33 26
27.9324350851833 272.461912210651 2922.25626133955 27 30 23
22.1592360722997 271.993723952588 2918.06877470312 29 32 25
16.3850260033636 271.52545378771 2913.8805547157 25 28 21
-0.0959266436284523 270.831118594047 2919.2216286702 25 28 21
-21.8536582026423 270.02994741975 2929.38246271545 26 29 22
-25.2731645253188 269.615023819301 2923.19608357181 25 28 21
-13.5449742067575 269.511093475052 2903.28966878729 27 30 23
-4.94246076884375 269.337168126256 2886.05747058207 27 30 23
-5.46897686895509 268.973377180592 2877.02809979339 26 29 22
-6.02736533326631 268.607004684726 2867.97561097165 22 25 18
-14.1105422395273 268.08911742604 2865.81872469232 25 28 21
-20.6874056891555 267.601641236007 2862.28358348666 26 29 22
-21.3017875810795 267.230735915287 2853.19048087464 24 27 20
-25.66168658988 266.785448426488 2847.55756831099 25 28 21
-9.29715192598057 266.736430090114 2822.36657126861 27 30 23
-14.4764627402554 266.270555529521 2817.37428747466 27 30 23
-28.4947954037826 265.638344791907 2820.79547751808 23 26 19
-43.9334587882305 264.982690323226 2825.65699402184 22 25 18
-52.7306299137638 264.452794356169 2824.21749389828 21 24 17
-36.7084334988317 264.376033468791 2798.77818803188 21 24 17
-40.4563895045555 263.93451811724 2792.35357401107 21 24 17
-42.7684206583605 263.517708771872 2784.49964996494 23 26 15
-38.5977142261766 263.213794785306 2770.22985396378 20 23 14
-40.2552125362128 262.804206985669 2761.61541469388 16 19 10
-63.4946084708394 262.020551462955 2774.40765169781 14 17 8
-76.6014146312537 261.416419340278 2777.25443787378 19 22 13
-71.0996401865394 261.128734146114 2761.47957042494 15 16 8
-25.092966423641 261.511169490022 2704.66828027408 17 18 10
-66.9250415777687 258.853164072159 2694.09191138499 42 33 26
-77.2083814092761 258.29456413243 2694.04527819421 51 38 30
-93.0375295848049 257.653189107693 2699.85883289695 53 31 20
-111.582802229352 256.975044155973 2708.64396023104 44 17 6
-120.361490450146 256.446735592798 2707.21786680009 127 98 84
-120.846129500226 256.040606120317 2696.9836024965 129 100 86
-112.428462697752 255.760095080093 2677.14649740746 125 99 86
-95.1949261214122 255.598217168555 2647.64444574701 111 95 82
483.850577044715 283.912604347172 2787.17667264562 62 52 50
475.624638299648 283.342135756528 2783.68069782161 62 48 45
464.941286197154 282.718209241015 2782.10871967772 66 47 43
447.722132173901 281.953112679102 2785.67896617407 60 41 37
227.574713963151 276.445486659883 2939.78348587018 45 40 34
197.201166200164 275.440019408312 2954.8137091725 50 50 42
188.851853611891 274.908182993311 2952.46382480243 33 34 26
178.642475179537 273.981880716293 2942.58806333584 30 29 24
171.92163519439 273.484871061621 2938.9485021781 31 30 25
148.359714092337 272.642936472934 2949.03656535178 28 27 22
140.092341047144 272.117721181881 2946.74581976544 26 29 22
122.264092943862 271.400500243067 2952.34513119936 38 43 36
106.091952098962 270.720360649301 2956.67481021686 37 42 35
90.7692676410345 270.060504036557 2960.38534440567 32 37 30
54.928209756163 269.000578317705 2981.33265908295 28 33 26
62.6462124067926 268.799503585495 2965.92949035007 28 33 26
82.0904651220733 268.820193168533 2940.50103199651 24 29 22
94.3322223880361 268.694283252173 2920.96680152136 23 28 21
81.435517794171 268.085329789214 2922.73083375648 23 28 21
58.4347760466786 267.288945668922 2933.22593854254 23 28 21
40.1976474507606 266.587202388755 2939.763958808 23 28 21
29.0121277205233 266.019808040562 2940.29830823894 25 28 21
34.1024185176297 265.751436185391 2926.6950241197 26 29 20
29.8730406613097 265.310647633098 2921.15675191294 26 29 20
23.3262455674228 264.827759026056 2917.64343113706 25 28 19
1.44211637971559 264.073361193507 2927.71316823703 26 29 20
-11.172607877707 263.48730440196 2929.68143553492 27 30 21
-23.7489081203548 262.90438194447 2931.67786757418 24 27 18
-35.5261644847484 262.337641599723 2933.01829443259 25 28 19
-27.5550311906427 262.108454931163 2916.56344648354 25 28 19
-18.9078647548235 261.885465530393 2899.36336967035 24 27 18
-10.3452412958198 261.655616937182 2882.10197110586 24 27 18
-15.3970678072748 261.196767870737 2877.20243346621 23 26 19
-15.957589788123 260.810454801385 2868.14829700987 24 27 20
-25.517139176757 260.277752737631 2867.39144950622 24 27 20
-23.8796534200991 259.923838037099 2856.22516102909 24 27 20
-23.0304230590164 259.55463677158 2845.72299754728 24 27 20
-24.4436766120961 259.147798732102 2837.28563044222 25 28 21
-17.7614704185052 258.862697181698 2821.13116514024 29 32 25
-30.2976256127874 258.283085641245 2823.15642147522 23 26 19
-47.9337885598041 257.63022424869 2830.1303421612 21 24 17
-44.2768819395603 257.294262038785 2816.72295600996 21 24 17
-42.1376900676087 256.932462492946 2804.68558291228 23 26 19
-42.2304056095162 256.535521037024 2794.73547886293 24 27 20
-25.6786990637174 256.370165337742 2768.44424633429 20 23 14
-30.9560181907504 255.893103930999 2763.38115203626 15 18 11
-55.7013836265816 255.149955441321 2777.55225252131 18 21 14
-60.2115079146903 254.686510022402 2771.81005199621 18 21 14
-66.1643850371674 254.203312154039 2767.49223683697 15 18 11
-72.1183700225381 253.720033871397 2763.17361815697 12 13 7
-12.5679943802344 254.075996232745 2692.71314410463 19 20 14
-13.7584309849488 253.638700662206 2683.20211085799 4 5 0
-65.8056649258314 251.312447482154 2693.63013956332 51 41 32
-78.8871490410605 250.73742414134 2696.49542967196 43 30 21
-94.0152303994168 250.1423065538 2701.58240034582 47 25 14
-113.947375991439 249.497949222642 2711.8323982823 45 18 7
-120.641342122225 249.003395765516 2708.21233099622 134 106 94
-121.122575312806 248.57511260377 2697.98042346006 123 95 83
-106.510000306987 248.301243914935 2671.5182545615 131 107 95
483.477836719946 275.704816636757 2788.09992779584 117 109 106
474.429565687161 275.12386771051 2785.24310476828 52 41 37
460.461891981144 274.452042930282 2786.23045018277 64 46 42
444.07389542371 273.737960894646 2789.16814775628 50 35 30
230.43322663234 269.041344879398 2938.11277490533 44 41 34
205.74108523834 268.218743643313 2948.61665182572 25 25 17
186.826187534519 267.505234142262 2954.66328320232 24 27 18
190.628071272535 267.196225175538 2942.59616721041 27 30 23
178.243687224292 266.601533199249 2943.49662715055 26 27 21
160.262454515501 265.912384877672 2948.9848844954 23 24 18
166.414034403109 265.639861207013 2934.91618830495 25 24 19
141.29620272887 264.834116596833 2946.34659526785 29 32 25
132.240478508082 264.303962175102 2944.71966317863 31 36 29
124.79273488201 263.80151263079 2941.78845761079 30 35 28
71.1467643020485 262.170305274342 2968.35273926872 24 29 22
81.979913327169 261.969293205176 2950.26736594681 24 29 22
87.9986589176593 261.685930904871 2936.10202596274 23 28 21
86.103178238413 261.27428740251 2928.55038888828 23 28 21
76.3596140287825 260.73970401486 2927.65984110753 23 28 21
50.249531043637 259.956297050967 2940.84142479947 23 28 21
28.1434779771619 259.240850140763 2950.75018736071 24 29 22
18.5438225672758 258.717983871036 2949.96431596659 24 27 18
29.8571597551964 258.504489881945 2930.99164696201 25 28 19
22.5549097432913 258.01386614985 2928.16597272014 27 30 21
6.02807988047704 257.391431767001 2933.47385901658 26 29 20
-12.7399226434917 256.741332729258 2940.86233565965 23 26 17
-10.0145467254675 256.396301105486 2929.24998481958 23 26 17
-16.4920374386215 255.921225311888 2925.78694384176 24 27 18
-29.0508941877026 255.36384593877 2927.79615042252 23 26 17
-29.4369530809335 254.971920060765 2918.86845755163 21 24 15
-29.8546914209967 254.577422193284 2909.91778654604 21 24 15
-27.2881993150766 254.219492047485 2898.18989762924 22 25 16
-14.2459966592126 253.992082726873 2876.76533972669 22 25 18
-14.8076410489668 253.585910061533 2867.71028901941 23 26 19
-17.6432012520207 253.149404221455 2860.71178445539 24 27 20
-21.2429034051076 252.702314423395 2854.3949090576 23 26 19
-26.3426503466764 252.236288866469 2849.46030204813 24 27 20
-32.929766704739 251.752392940274 2845.9180409021 25 28 21
-31.3887780105282 251.362676614992 2834.68191277978 23 26 19
-36.5204226011628 250.894089396688 2829.72416950845 24 27 20
-42.3918765978084 250.416888404428 2825.46541008614 24 27 20
-40.9444110010657 250.019603133228 2814.16144673639 22 25 18
-64.3551808944878 249.352767540078 2826.83004281626 21 24 17
-42.5505074509329 249.168223410583 2795.70115002107 21 24 17
-30.3442549140631 248.872989099463 2773.66995601323 20 23 16
-42.1147299552369 248.328368525209 2775.01570531559 21 24 17
-48.0830316696079 247.843375930569 2770.68669944987 20 23 16
-51.8961487359535 247.379083869787 2764.21473341709 17 20 13
-47.8412107992381 246.987851336344 2749.86057207728 21 24 17
-26.7040751457843 246.749138562129 2718.2471980402 19 20 14
-34.9345199927449 246.234838480366 2715.98357225756 13 14 8
-29.663556322028 245.839504810176 2700.04054541512 19 20 14
-70.9964262891569 243.716860417225 2699.70965471643 41 31 21
-81.9651120217681 243.186101609962 2700.40167178297 49 35 24
-95.6906020742128 242.637256830567 2704.03527747274 46 26 15
-112.841133642869 242.067532012603 2711.36166381192 46 22 10
-117.460491585103 241.58941896199 2705.54020318534 143 116 105
-117.259076350155 241.1426850947 2694.5677374986 134 107 98
-106.092453342227 240.763304900631 2671.78276211997 119 97 86
483.930621773478 267.515421770626 2788.38668044456 149 144 140
473.233307420035 266.91650581021 2786.80470745038 58 48 46
458.446612974851 266.256350982645 2788.43342299208 58 43 38
446.162971063044 265.636937772366 2788.17145673272 44 31 25
224.3210392516 261.488272543016 2943.52483849671 44 44 36
185.00244858816 260.515441318168 2965.65706096399 27 28 20
185.610228035543 260.130342823428 2956.21482066862 26 29 20
186.182424673149 259.742328961957 2946.74647639114 28 31 24
193.173205185658 259.442126015601 2932.0506633359 27 28 22
163.080963002824 258.622641708328 2947.28604757392 23 24 18
147.563184924282 258.011512902039 2950.85510657257 28 29 23
140.099282279254 257.51265889081 2947.91220519913 32 35 28
129.451219970976 256.971929815535 2947.60126742082 32 37 30
137.133264600931 256.673622377986 2932.17124497153 26 31 24
132.834891260471 256.215098691089 2926.58286663393 23 28 21
78.6647496307813 255.119906198137 2962.65076252014 23 28 21
95.7954802289827 254.938749372068 2939.24985906069 23 28 21
90.7601470633539 254.474545986861 2934.36195620171 22 27 20
81.0100849019877 253.952567786442 2933.46705624185 23 28 21
68.9330309016163 253.404154632923 2934.59024622678 24 29 22
49.0849590464335 252.766517773132 2942.43115179144 24 29 22
26.2018744605395 252.099139666597 2953.01190772875 24 29 22
31.3543446295412 251.757920659325 2939.453624255 24 27 18
34.1225831546055 251.385626925813 2927.87220734554 26 29 20
13.6898361513662 250.754732163032 2936.52434019704 28 31 22
2.57394603052363 250.230244727955 2937.10938294977 26 29 20
9.13648302131076 249.895151379043 2922.1029502997 22 25 16
-1.20533271205492 249.379360514296 2922.01414351613 22 25 16
-12.284778320012 248.857855363111 2922.62562077987 22 25 16
-24.8559451497279 248.323602168554 2924.62602065913 20 23 14
-28.2859827606803 247.881456923373 2918.43186927687 20 23 14
-27.1921322310524 247.48157313639 2908.10658628565 21 24 15
-23.8763940900699 247.099563856646 2895.68668321461 22 25 16
-27.3821165715236 246.651289159886 2889.43763520765 22 25 18
-12.158257880724 246.369330472095 2865.88892565575 23 26 19
-18.7376017138776 245.888204626069 2862.35201853288 24 27 20
-34.258083820061 245.331273145323 2867.15472295055 23 26 19
-36.3456005483622 244.88983301639 2859.46372392009 24 27 20
-27.3415917962532 244.536266606932 2841.28633721285 25 28 21
-30.9858739397142 244.076801661591 2834.9370821461 24 27 20
-36.1173607360874 243.604935715564 2829.97943665579 24 27 20
-39.785697414719 243.143535997158 2823.61243966611 24 27 20
-50.057736832956 242.633590092509 2823.57424482835 23 26 19
-49.3550937056972 242.202030946013 2812.96520680044 23 26 19
-42.1436139915159 241.811341260798 2795.95885171487 21 24 17
-58.2298332021953 241.262816759388 2801.58652044427 20 23 16
-52.5552402329645 240.855719096317 2785.93603350726 21 24 17
-55.6059291959061 240.390377249202 2778.78172593108 22 25 18
-54.3617063245145 239.948678147077 2767.33020262749 20 23 16
-53.8794035709946 239.499311913869 2756.56134496395 21 24 17
-48.4361742378712 239.073476817015 2740.74304268079 21 22 16
-50.1879379890684 238.605306483617 2732.0602661258 15 16 10
-7.23005098252183 238.353731889658 2677.97636947645 14 15 9
-70.5797706543205 236.187138649615 2699.97355775279 46 33 24
-82.9475532732564 235.669916341622 2702.12148145167 53 39 30
-96.6702593025925 235.151075657032 2705.75725731585 34 14 3
-111.734740819389 234.631697683596 2710.89071650822 61 39 26
-115.663727059824 234.149523260192 2704.3349583377 121 97 85
-114.774978666501 233.679225505955 2692.62530466392 118 94 84
-108.427382692808 233.218706563975 2674.99234811974 133 113 104
489.342944375754 259.387377180378 2784.85820972614 190 185 181
475.333907625292 258.760235559672 2785.81579651599 100 92 89
460.541402039219 258.12636025814 2787.44043254863 56 45 41
445.791986286554 257.495983181644 2789.09632304028 50 41 36
207.601797222281 253.85754677536 2957.3035880883 45 46 38
183.779775845052 253.17349816109 2967.20389874528 21 24 15
177.091362736627 252.685634988901 2963.58789085123 28 33 26
184.970949688765 252.356346929249 2948.30120860111 25 30 23
176.636452373931 251.848611267782 2945.962186214 26 29 22
167.509674766911 251.333443035193 2944.28382191675 24 27 20
144.755992324892 250.679240206261 2953.72341433591 24 27 20
134.899478730191 250.161738951038 2952.75136813685 36 39 32
123.46769560612 249.630143902585 2953.10737730859 28 33 26
100.1256770798 248.985126497933 2963.35584997673 23 28 21
108.631783644901 248.64967162589 2947.2879828223 21 26 19
109.933286948194 248.241412231738 2937.11348381116 23 28 21
100.932168339555 247.736438715361 2935.52626404178 22 27 20
87.2242180434237 247.190768014557 2937.93756412335 20 25 18
75.1293747439705 246.66225347341 2939.04795905612 22 27 20
59.1543555423573 246.103266585245 2943.52114942197 25 30 23
48.7000175162047 245.594156798034 2943.35080666798 25 30 23
44.4988415671386 245.137468301086 2937.83260361228 25 30 23
51.9317989770238 244.771699548482 2922.22196529353 27 30 21
43.0337568454626 244.275132386116 2920.70951044199 28 31 22
33.3802202507045 243.774156679298 2919.88469030709 27 30 21
31.4446682223846 243.330678511798 2912.30354893065 25 28 19
25.6486311932154 242.858334381852 2908.09948547851 20 23 14
16.0250876108186 242.359818315435 2907.29642037692 20 23 14
1.84400278162711 241.832767310601 2910.59986607991 19 22 13
-11.5289143506458 241.31444713582 2913.25417738773 17 20 11
-11.961077914044 240.8792358597 2904.29284300844 20 23 14
-10.1554934037926 240.454969190555 2893.24835103562 22 25 16
-22.7267912496705 239.944860553508 2895.24877823541 23 26 17
-19.4651475611147 239.524975143446 2882.78946909131 22 25 18
-26.0063806561073 239.049142635819 2879.28051054468 23 26 19
-19.833095356157 238.637987746631 2863.99151577018 24 27 20
-36.0965252285026 238.112775680796 2869.49083879115 23 26 19
-27.7701781851407 237.705674989477 2852.05726059376 23 26 19
-33.6096978455982 237.229938971061 2847.82165847365 24 27 20
-34.277896089574 236.775628657411 2838.68912077679 25 28 21
-40.1349662385755 236.298496991612 2834.44078886376 22 25 18
-45.2586615278734 235.824014698007 2829.48907282792 22 25 18
-70.8923290080083 235.278185025496 2844.25226029166 22 25 18
-38.7300544955578 234.927886521089 2803.33898878098 23 26 19
-46.1045734952039 234.441475027881 2800.46094654342 24 27 20
-73.0651816920918 233.901866023204 2816.7326056076 20 23 16
-62.2774475235075 233.466975410137 2796.14275771063 19 22 15
-56.6410570600904 233.012326051568 2780.46433610316 24 27 20
-58.2672121922347 232.537303406405 2771.87228673142 23 26 19
-63.5053808976651 232.053681913033 2766.83754018139 20 23 16
-54.4553617399732 231.591582418952 2747.4579210284 23 24 18
-20.562774445509 231.15398876869 2702.85810701916 20 21 15
-16.0391655706991 230.665971687976 2687.60816838231 6 7 1
-72.9694200313706 228.657416858238 2703.14384586724 49 36 27
-83.9311572765611 228.164752117443 2703.84079851754 74 60 51
-94.8630229047829 227.674555852609 2704.55941824379 104 84 75
-103.680486615635 227.185263238647 2703.10541325607 110 88 77
-106.940543757966 226.69176573669 2695.79918760457 122 100 89
-107.457590197455 226.193267669195 2685.54066815062 111 91 82
-108.011127886353 225.691849899833 2675.25597509937 119 101 91
483.206764400437 250.644324777168 2780.36567662539 149 144 140
462.635977098556 249.985504116807 2786.4475264099 55 48 42
243.382435840604 247.207402034636 2938.7434944268 43 42 37
211.27225812061 246.506425673642 2954.98670765358 45 46 40
202.084242355749 245.996699359141 2953.26397807321 31 34 27
196.97031886793 245.519554751118 2948.31933233965 28 33 26
175.66557130464 244.920635688717 2956.33949533898 27 32 25
172.199578026863 244.457986813948 2950.11917507158 25 30 23
157.451020901706 243.914246161931 2953.01116346041 22 27 20
137.130798117577 243.335638521995 2960.50980125809 25 28 21
113.68640000331 242.741981428419 2970.68431692814 36 39 32
106.304330919019 242.25959217382 2967.80082184653 28 31 24
92.5611969972784 241.737888712008 2970.18673796582 23 26 19
82.0367984535926 241.238946554531 2969.96565834856 25 28 21
86.5814394406712 240.830199341243 2957.20144111464 25 28 21
92.6473903794074 240.425645400309 2943.06970743538 22 25 18
83.6864285039467 239.934320451004 2941.51166727154 22 25 18
80.2384451603668 239.473067103954 2935.30440985842 24 27 20
58.7673827589494 238.920450183819 2944.43927884093 27 30 23
51.4375036314827 238.442285163773 2941.59363876939 27 30 23
43.3369047581653 237.961204836738 2939.4243093687 27 30 23
53.8824944248937 237.562374366444 2921.12947614187 27 30 21
52.7216772554056 237.107850535055 2912.87486402059 27 30 21
46.9013599522339 236.632938259993 2908.65318627149 25 28 19
41.08007911959 236.157959130263 2904.43080970069 22 25 16
36.0254688922224 235.685564391579 2899.52889099745 19 22 13
20.2491748963252 235.177884238415 2904.14640138464 18 21 12
-2.34028260817154 234.653987223252 2914.9410350966 19 22 13
-4.28587557660998 234.195457086076 2907.35283306421 18 21 12
-7.7720891501718 233.731155205892 2901.11784630008 23 26 17
-15.8124643658653 233.2550694204 2898.99219961237 25 28 19
-14.7871738525431 232.799106909782 2888.6169319524 24 27 18
-12.2981023751263 232.342680072345 2876.83271474162 21 24 15
-15.1086885336444 231.873587069454 2869.85214933506 22 25 16
-26.164441914811 231.391385945219 2870.48100068226 23 26 17
-26.0057250054149 230.924764456459 2860.7128124396 22 25 16
-28.1135266125303 230.453116858067 2853.00666098378 23 26 17
-34.6921001949079 229.976503481588 2849.47062956571 24 27 18
-45.7015912958159 229.498150935674 2850.13303692097 22 25 16
-50.0496947713698 229.023667436725 2844.50823283053 18 21 12
-57.3463459181585 228.548492972759 2841.68669557906 17 20 11
-62.4378934962264 228.07337390031 2836.75828087974 19 22 13
-58.7718499028251 227.593263800315 2823.35678817786 22 25 16
-50.0677936441221 227.104497593186 2804.96156917024 26 29 22
-50.1630530159996 226.61736551461 2795.00886973396 22 25 18
-40.1636306658328 226.114432597535 2775.08224975793 20 23 16
-49.7412952624854 225.633206288633 2774.31253088824 23 26 19
-49.9480094997982 225.137100289215 2764.27928446378 22 25 18
-56.644123400847 224.651182250995 2760.6577039533 22 25 18
-54.7591630725632 224.14590902295 2748.43530626155 18 19 13
4.08592802558738 223.491203588106 2678.69347378921 21 22 16
-18.45881600545 223.03145862757 2690.75588282432 33 34 28
-70.4494311521413 221.130664975382 2701.22711073825 97 87 78
-81.4187531301065 220.656152812592 2701.91865700028 122 109 101
-89.5695639996392 220.171807561401 2699.71291131447 80 63 55
-96.3181761243179 219.681991310492 2696.0532539761 86 67 60
-97.5213820171104 219.164997350544 2686.53256031196 74 55 48
-100.137532562425 218.652683109295 2678.45768987757 91 77 68
468.021210803866 241.851471291537 2782.89938804037 72 67 61
243.794411272246 239.732379314998 2939.00428174545 55 56 50
214.943345948242 239.133552601633 2952.67017151526 24 27 20
199.235483520662 238.603850897676 2956.10184675702 30 33 26
181.144488312029 238.067806967808 2961.51160490424 29 34 27
173.641250827976 237.580486621999 2958.5399528098 30 35 28
168.567760208218 237.103301745466 2953.62461752121 27 32 25
144.167690516247 236.554062717115 2964.341608085 23 28 21
123.079060828795 236.024195589429 2972.51878930637 27 30 23
114.083148046538 235.540445852698 2970.93545085426 35 38 31
107.49950141774 235.065393892372 2967.39545530843 27 30 23
92.9561919785558 234.567938818574 2970.43676104763 22 25 18
83.2251324080895 234.08688886069 2969.55554930405 25 28 21
71.1391998299855 233.60181590561 2970.67291832611 24 27 20
81.989714402356 233.169737096144 2952.59866878439 21 24 17
84.8717071811844 232.71454123076 2941.09929484548 22 25 18
82.9927633896013 232.247091418086 2933.55906856682 24 27 20
65.427793203451 231.75389662271 2939.35037051807 27 30 23
44.0230613592578 231.260930473552 2948.53362608 28 31 24
39.8376758647627 230.793437149314 2943.02710961024 27 30 23
48.844399512447 230.336309169971 2926.0864975352 27 30 21
50.0229840596615 229.867519689775 2915.82229102072 27 30 21
46.5280646896504 229.39364432042 2909.58094474733 23 26 17
31.469094219835 228.916845317064 2913.48357805694 20 23 14
26.4432648179032 228.443481300423 2908.60251827869 17 20 11
7.63104995928554 227.974016047074 2915.96015387958 17 20 11
