ply
format ascii 1.0
comment KinectMotionCapture
element vertex 759
property float x
property float y
property float z
property uchar red
property uchar green
property uchar blue
end_header
-145.251974463463 660.605192184448 2766.00003242493 166 165 161
-137.98514008522 661.810696125031 2770.99990844727 154 153 149
-130.502462387085 662.06032037735 2772.0000743866 141 140 136
-122.925221920013 661.831617355347 2770.99990844727 145 144 140
-115.394756197929 661.841154098511 2770.99990844727 145 144 140
-107.980757951736 662.566781044006 2773.9999294281 139 138 134
-100.658789277077 664.008259773254 2779.99997138977 139 140 135
-93.2034328579903 664.73263502121 2782.99999237061 124 125 120
-85.8238562941551 666.173040866852 2789.00003433228 126 127 122
-78.2711505889893 666.418612003326 2789.99996185303 134 135 130
-70.5607682466507 665.230393409729 2785.00008583069 93 94 89
-62.5833421945572 660.936236381531 2766.99995994568 136 137 132
-54.7633059322834 657.358050346375 2752.00009346008 138 140 135
-47.0933839678764 654.73461151123 2740.9999370575 146 148 143
-39.5409949123859 653.066098690033 2733.99996757507 151 150 146
-32.0265516638756 651.396989822388 2726.99999809265 154 153 149
-24.5590955018997 649.96600151062 2720.99995613098 143 142 138
-17.1178951859474 648.295700550079 2713.99998664856 150 149 145
-9.72187984734774 647.102415561676 2709.00011062622 140 139 135
-2.35389149747789 646.14737033844 2704.99992370605 144 143 139
4.99420147389174 645.430684089661 2701.99990272522 153 152 148
12.3351039364934 645.191133022308 2700.99997520447 146 145 141
19.6559652686119 644.473195075989 2697.99995422363 146 145 141
26.9404519349337 643.276989459991 2693.00007820129 148 147 143
34.184955060482 641.841232776642 2687.00003623962 148 147 143
41.4585024118423 641.360342502594 2684.99994277954 149 148 143
48.7392209470272 641.117870807648 2684.00001525879 150 149 144
56.0770109295845 641.591370105743 2686.00010871887 151 150 145
63.3547157049179 641.347587108612 2684.99994277954 151 150 145
70.7320719957352 642.058670520782 2687.99996376038 153 152 147
77.9803842306137 641.57497882843 2686.00010871887 154 153 148
85.4080989956856 642.523765563965 2690.00005722046 158 157 152
92.6849991083145 642.277717590332 2688.99989128113 155 154 149
100.104928016663 642.986416816711 2691.99991226196 153 152 147
107.341408729553 642.500460147858 2690.00005722046 152 151 146
114.60930109024 642.252564430237 2688.99989128113 152 151 146
121.87147885561 642.004191875458 2687.99996376038 147 148 143
129.175931215286 641.994118690491 2687.99996376038 148 149 144
136.632367968559 642.700016498566 2690.99998474121 168 169 164
144.051253795624 643.166422843933 2693.00007820129 154 155 150
151.593014597893 644.110023975372 2697.00002670288 149 150 145
158.920437097549 644.097685813904 2697.00002670288 153 154 149
166.370689868927 644.562363624573 2698.99988174438 149 150 144
173.767030239105 644.787728786469 2700.00004768372 147 148 142
181.235417723656 645.251333713531 2701.99990272522 146 147 141
188.783973455429 645.953178405762 2704.99992370605 147 148 142
196.203351020813 646.176934242249 2706.00008964539 137 138 132
203.702822327614 646.638929843903 2707.99994468689 148 149 144
211.290642619133 647.339105606079 2710.99996566772 156 156 156
219.216763973236 648.993849754334 2717.99993515015 170 170 170
227.180361747742 650.648057460785 2724.99990463257 166 166 166
235.009267926216 651.824116706848 2730.00001907349 169 169 169
243.308693170547 654.19340133667 2740.00000953674 175 175 175
252.302378416061 658.233284950256 2756.99996948242 156 156 156
261.858910322189 663.466155529022 2779.00004386902 143 143 143
271.534234285355 668.698310852051 2801.00011825562 124 124 124
279.534459114075 669.632434844971 2805.0000667572 117 117 117
287.248641252518 669.849932193756 2805.99999427795 125 125 125
294.442176818848 668.873429298401 2802.00004577637 138 138 138
302.152246236801 669.08997297287 2802.99997329712 134 134 132
310.198545455933 670.022130012512 2806.99992179871 151 151 149
318.945169448853 672.385990619659 2816.99991226196 163 163 161
327.397495508194 674.033105373383 2823.99988174438 184 184 182
335.17524600029 674.247860908508 2825.00004768372 176 176 174
342.836260795593 674.223363399506 2825.00004768372 163 163 161
351.737141609192 676.585018634796 2835.00003814697 175 177 174
-177.289992570877 660.407721996307 2796.99993133545 207 209 204
-168.781027197838 656.879723072052 2782.00006484985 200 202 197
-160.526961088181 654.059290885925 2769.99998092651 195 196 191
-152.779579162598 653.127312660217 2766.00003242493 190 191 186
-145.368605852127 653.611421585083 2767.99988746643 160 159 155
-137.946382164955 654.094994068146 2769.99998092651 153 152 148
-130.465820431709 654.34193611145 2770.99990844727 140 139 135
-122.757650911808 653.407514095306 2766.99995994568 144 143 139
-115.404054522514 654.361665248871 2770.99990844727 145 144 140
-108.106255531311 655.787587165833 2776.99995040894 139 138 134
-100.775554776192 657.212913036346 2782.99999237061 138 139 134
-93.3114737272263 657.929241657257 2786.00001335144 124 125 120
-85.9231427311897 659.353494644165 2792.00005531311 126 127 122
-78.4458443522453 660.30478477478 2796.0000038147 108 109 104
-70.7692056894302 659.602284431458 2792.99998283386 78 79 74
-62.8372579813004 656.065344810486 2778.00011634827 130 131 126
-54.9269691109657 651.819050312042 2759.99999046326 138 140 135
-47.2003184258938 648.753046989441 2746.99997901917 146 148 143
-39.5876094698906 646.394908428192 2736.99998855591 153 152 148
-32.0526547729969 644.508481025696 2729.00009155273 153 152 148
-24.5791580528021 643.093824386597 2723.00004959106 148 147 143
-17.1319097280502 641.44229888916 2716.00008010864 155 154 150
-9.72267333418131 639.790177345276 2709.00011062622 140 139 135
-2.35321396030486 638.609826564789 2703.9999961853 154 153 149
4.99276118353009 637.901127338409 2700.99997520447 151 150 146
12.3269762843847 637.428104877472 2698.99988174438 143 142 138
19.6429993957281 636.718332767487 2696.00009918213 146 145 141
26.9326437264681 635.771751403809 2691.99991226196 147 146 142
34.2004634439945 634.824514389038 2687.99996376038 147 146 142
41.4773263037205 634.34910774231 2686.00010871887 149 148 143
48.7613566219807 634.109318256378 2684.99994277954 150 149 144
56.0815744102001 634.341180324554 2686.00010871887 151 150 145
63.3834674954414 634.336292743683 2686.00010871887 150 149 144
70.7378163933754 634.803175926209 2687.99996376038 152 151 146
78.0157446861267 634.561002254486 2687.00003623962 153 152 147
85.4150205850601 635.262846946716 2690.00005722046 157 156 151
92.726968228817 635.255634784698 2690.00005722046 155 154 149
100.075826048851 635.483980178833 2690.99998474121 153 152 147
107.310138642788 635.003328323364 2688.99989128113 152 151 146
114.533290266991 634.522140026093 2687.00003623962 153 152 147
121.835932135582 634.512603282928 2687.00003623962 150 151 146
129.090189933777 634.266436100006 2686.00010871887 148 149 144
136.592522263527 635.200321674347 2690.00005722046 168 169 164
144.116252660751 636.13361120224 2694.00000572205 161 162 157
151.717513799667 637.302458286285 2698.99988174438 149 150 145
159.050896763802 637.290120124817 2698.99988174438 156 157 152
166.383847594261 637.277185916901 2698.99988174438 148 149 143
173.8450974226 637.735962867737 2700.99997520447 145 146 140
181.316763162613 638.194262981415 2703.00006866455 144 145 139
188.938409090042 639.124095439911 2707.00001716614 150 151 145
196.508750319481 639.817357063293 2710.00003814697 143 144 138
204.019621014595 640.273869037628 2711.99989318848 145 146 141
211.618795990944 640.965938568115 2714.99991416931 148 148 148
219.314411282539 641.893625259399 2719.00010108948 161 161 161
227.448001503944 644.001007080078 2727.9999256134 162 162 162
235.285580158234 645.163536071777 2733.00004005432 151 151 151
243.593722581863 647.505819797516 2743.00003051758 161 161 161
252.779215574265 651.971936225891 2762.00008392334 169 169 169
262.821108102798 658.325552940369 2789.00003433228 160 160 160
272.524207830429 663.498282432556 2811.00010871887 108 108 108
280.15348315239 663.47748041153 2811.00010871887 102 102 102
287.474900484085 662.748098373413 2808.00008773804 118 118 118
294.253885746002 660.83824634552 2799.99995231628 132 132 132
302.174597978592 661.524176597595 2802.99997329712 132 132 130
310.110867023468 662.209570407867 2805.99999427795 153 153 151
318.74206662178 664.310395717621 2815.00005722046 163 163 161
327.189475297928 665.938675403595 2822.00002670288 183 183 181
335.436791181564 667.094528675079 2826.99990272522 175 175 173
343.225002288818 667.306005954742 2828.00006866455 161 161 159
351.76232457161 668.932855129242 2835.00003814697 172 174 171
-176.79688334465 650.989592075348 2789.00003433228 204 206 201
-168.794393539429 649.369359016418 2782.00006484985 194 196 191
-160.539701581001 646.581292152405 2769.99998092651 197 198 193
-152.846977114677 645.893514156342 2766.99995994568 179 180 175
-145.432755351067 646.372318267822 2769.00005340576 160 159 155
-138.057023286819 647.083878517151 2772.0000743866 153 152 148
-130.664631724358 647.794961929321 2775.00009536743 137 136 132
-123.07807803154 647.571623325348 2773.9999294281 141 140 136
-115.704908967018 648.515045642853 2778.00011634827 144 143 139
-108.309634029865 649.45787191391 2782.00006484985 139 138 134
-100.92855244875 650.633573532104 2786.99994087219 138 139 134
-93.4529975056648 651.341736316681 2789.99996185303 124 125 120
-86.0224366188049 652.516305446625 2795.00007629395 128 129 124
-78.5644352436066 653.690278530121 2799.99995231628 118 119 114
-70.9016546607018 653.229415416718 2798.00009727478 105 106 101
-63.0459487438202 650.6667137146 2786.99994087219 128 129 124
-55.0906620919704 646.235704421997 2767.99988746643 131 133 128
-47.3759993910789 643.671691417694 2756.99996948242 144 146 141
-39.7065579891205 640.873610973358 2744.99988555908 149 148 144
-32.1374870836735 638.77534866333 2736.00006103516 145 144 140
-24.6082432568073 636.442959308624 2726.0000705719 163 162 158
-17.1396136283875 634.343385696411 2717.00000762939 157 156 152
-9.72346682101488 632.47674703598 2709.00011062622 162 161 157
-2.35253549180925 631.076335906982 2703.00006866455 181 180 176
4.99132042750716 630.375802516937 2700.00004768372 145 144 140
12.323415838182 629.908204078674 2697.99995422363 142 141 137
19.6446012705565 629.439949989319 2696.00009918213 147 146 142
26.9548520445824 628.97115945816 2694.00000572205 146 145 141
34.2414267361164 628.268122673035 2690.99998474121 147 146 142
41.4807088673115 627.09778547287 2686.00010871887 150 149 144
48.7653277814388 626.860618591309 2684.99994277954 151 150 145
56.0652501881123 626.856327056885 2684.99994277954 151 150 145
63.3886158466339 627.084970474243 2686.00010871887 150 149 144
70.690929889679 627.079546451569 2686.00010871887 152 151 146
78.0220702290535 627.306997776031 2687.00003623962 153 152 147
85.3901728987694 627.767205238342 2688.99989128113 158 157 152
92.6655232906342 627.526640892029 2687.99996376038 154 153 148
100.046716630459 627.985775470734 2690.00005722046 152 151 146
107.358701527119 627.97737121582 2690.00005722046 152 151 146
114.670380949974 627.968430519104 2690.00005722046 154 153 148
121.891066431999 627.492070198059 2687.99996376038 151 152 146
129.196643829346 627.481997013092 2687.99996376038 146 147 141
136.654227972031 628.171682357788 2690.99998474121 159 160 154
144.181236624718 629.094183444977 2694.9999332428 169 170 164
151.729568839073 630.016088485718 2698.99988174438 153 154 148
159.063518047333 630.003750324249 2698.99988174438 152 153 147
166.458681225777 630.224347114563 2700.00004768372 156 157 152
173.987567424774 630.91117143631 2703.00006866455 150 151 146
181.53227865696 631.597340106964 2706.00008964539 150 151 146
189.162597060204 632.516443729401 2710.00003814697 152 153 148
196.81416451931 633.434891700745 2713.99998664856 160 161 156
204.637378454208 634.819626808167 2720.00002861023 147 148 143
212.414726614952 635.970294475555 2724.99990463257 145 145 143
219.976708292961 636.420428752899 2726.99999809265 148 148 146
228.049203753471 638.270080089569 2734.99989509583 159 159 157
235.820218920708 639.185786247253 2739.00008201599 161 161 159
244.322806596756 641.96765422821 2750.99992752075 157 157 155
253.53068113327 646.382510662079 2769.99998092651 152 152 150
263.877689838409 653.363227844238 2799.99995231628 182 182 180
273.223459720612 657.543122768402 2818.00007820129 84 84 82
280.772536993027 657.288908958435 2816.99991226196 114 114 112
287.905901670456 656.100928783417 2812.00003623962 127 127 125
294.906347990036 654.679358005524 2805.99999427795 129 129 127
302.736014127731 655.123889446259 2808.00008773804 136 136 134
310.465276241302 655.334413051605 2809.00001525879 154 154 152
318.765431642532 656.711220741272 2815.00005722046 156 156 154
327.097356319427 658.087313175201 2821.00009918213 182 182 180
336.054414510727 660.629332065582 2832.00001716614 176 176 174
343.856573104858 660.837948322296 2832.99994468689 159 159 157
352.035641670227 661.746084690094 2836.99989318848 169 171 168
-176.874190568924 643.689692020416 2789.99996185303 202 204 199
-168.625712394714 641.165494918823 2779.00004386902 189 191 186
-160.436525940895 638.640582561493 2767.99988746643 195 196 191
-152.859136462212 638.422310352325 2766.99995994568 168 169 164
-145.496860146523 639.126360416412 2769.99998092651 161 160 156
-138.117864727974 639.829874038696 2773.00000190735 155 154 150
-130.675107240677 640.302121639252 2775.00009536743 136 135 131
-123.176701366901 640.542984008789 2776.00002288818 141 140 136
-115.839153528214 641.70628786087 2780.99989891052 143 142 138
-108.474113047123 642.869055271149 2786.00001335144 139 138 134
-101.153984665871 644.492745399475 2792.99998283386 136 137 132
-93.7955230474472 646.115899085999 2799.99995231628 122 123 118
-86.3679721951485 647.507786750793 2805.99999427795 126 127 122
-78.8794681429863 648.668229579926 2811.00010871887 84 85 80
-71.1101368069649 647.520422935486 2805.99999427795 88 89 84
-63.1868094205856 644.525945186615 2792.99998283386 117 118 113
-55.1747605204582 639.684677124023 2772.0000743866 134 136 131
-47.4314093589783 636.919617652893 2759.99999046326 139 141 136
-39.7242568433285 633.692443370819 2746.00005149841 148 147 143
-32.1401059627533 631.387650966644 2736.00006103516 149 148 144
-24.6012173593044 628.851473331451 2724.99990463257 163 162 158
-17.1347036957741 626.776278018951 2716.00008010864 149 148 144
-9.72784962505102 625.392735004425 2710.00003814697 173 172 168
-2.35446798615158 624.239325523376 2704.99992370605 177 176 172
4.99727390706539 623.777687549591 2703.00006866455 145 144 140
12.3381232842803 623.315393924713 2700.99997520447 147 146 142
19.6753516793251 623.083412647247 2700.00004768372 150 149 145
26.967054232955 621.927618980408 2694.9999332428 147 146 142
34.2569388449192 621.232807636261 2691.99991226196 149 148 144
41.499525308609 620.075881481171 2687.00003623962 151 150 145
48.8056167960167 620.072185993195 2687.00003623962 152 151 146
56.0906939208508 619.837284088135 2686.00010871887 152 151 146
63.464567065239 620.524644851685 2688.99989128113 151 150 145
70.7229822874069 620.057702064514 2687.00003623962 152 151 146
78.0574232339859 620.282411575317 2687.99996376038 153 152 147
85.333563387394 620.045006275177 2687.00003623962 159 158 153
92.741958796978 620.73016166687 2690.00005722046 153 152 147
100.091978907585 620.95308303833 2690.99998474121 151 150 145
107.407264411449 620.944738388062 2690.99998474121 152 151 146
114.636957645416 620.474338531494 2688.99989128113 154 153 148
121.900826692581 620.234131813049 2687.99996376038 151 152 146
129.303112626076 620.685577392578 2690.00005722046 147 148 142
136.766701936722 621.36709690094 2693.00007820129 154 155 149
144.246220588684 622.048199176788 2696.00009918213 173 174 168
151.572972536087 622.036457061768 2696.00009918213 157 158 152
158.958256244659 622.25478887558 2697.00002670288 149 150 144
166.410177946091 622.703373432159 2698.99988174438 156 157 152
173.936888575554 623.382031917572 2701.99990272522 150 151 146
181.546524167061 624.290943145752 2706.00008964539 151 152 147
189.247220754623 625.42986869812 2710.99996566772 142 143 138
197.047114372253 626.798987388611 2717.00000762939 149 150 145
204.80377972126 627.936840057373 2721.99988365173 158 159 154
212.743043899536 629.535496234894 2729.00009155273 150 150 148
220.397055149078 630.210757255554 2732.00011253357 152 152 150
228.400334715843 631.808161735535 2739.00008201599 147 147 145
236.6131991148 633.866310119629 2747.99990653992 155 155 153
245.407328009605 637.307822704315 2763.00001144409 163 163 161
254.648357629776 641.671240329742 2782.00006484985 146 146 144
264.557391405106 647.417664527893 2806.99992179871 167 167 165
273.631900548935 650.856971740723 2822.00002670288 84 84 82
281.391650438309 651.066720485687 2822.99995422363 109 109 107
288.336992263794 649.431049823761 2815.99998474121 124 124 122
295.348674058914 648.025572299957 2809.99994277954 129 129 127
302.866220474243 647.77284860611 2809.00001525879 137 137 135
310.709208250046 648.211479187012 2811.00010871887 151 151 149
318.562269210815 648.649513721466 2812.99996376038 151 151 149
327.353090047836 650.931835174561 2822.99995422363 183 183 181
336.316108703613 653.444170951843 2834.00011062622 178 178 176
344.488263130188 654.341816902161 2838.00005912781 158 158 156
352.184951305389 654.316842556 2838.00005912781 164 166 163
-176.634535193443 635.24317741394 2786.00001335144 198 200 195
-168.456986546516 632.976651191711 2776.00002288818 193 195 190
-160.449221730232 631.165444850922 2767.99988746643 176 177 172
-152.981773018837 631.405889987946 2769.00005340576 166 167 162
-145.666033029556 632.329881191254 2773.00000190735 159 158 154
-138.37793469429 633.481323719025 2778.00011634827 152 151 147
-130.96809387207 634.176194667816 2780.99989891052 137 136 132
-123.452827334404 634.414434432983 2782.00006484985 140 139 135
-115.973420441151 634.880006313324 2783.99991989136 144 143 139
-108.638577163219 636.257350444794 2789.99996185303 142 141 137
-101.343251764774 638.090312480927 2798.00009727478 130 131 126
-94.10460293293 640.606641769409 2809.00001525879 128 129 124
-86.6211950778961 641.75420999527 2813.99989128113 111 112 107
-79.138420522213 643.129289150238 2819.9999332428 123 124 119
-71.217268705368 640.854716300964 2809.99994277954 91 92 87
-63.2145553827286 637.21114397049 2793.99991035461 122 123 118
-55.2389547228813 632.88277387619 2775.00009536743 131 133 128
-47.4524460732937 629.693925380707 2760.99991798401 137 139 134
-39.7564172744751 626.732647418976 2747.99990653992 149 148 144
-32.1662127971649 624.454855918884 2737.99991607666 152 151 147
-24.6393363922834 622.404515743256 2729.00009155273 159 158 154
-17.1550251543522 620.125532150269 2719.00010108948 139 138 134
-9.73222963511944 618.302047252655 2710.99996566772 181 180 176
-2.35553039237857 617.162227630615 2706.00008964539 146 145 141
4.99952910467982 616.705894470215 2703.9999961853 157 156 152
12.3391281813383 616.021037101746 2700.99997520447 156 155 151
19.6842383593321 616.019725799561 2700.99997520447 147 146 142
26.959240436554 614.421308040619 2694.00000572205 152 151 147
34.2342741787434 613.506555557251 2690.00005722046 153 152 148
41.5029004216194 612.819314002991 2687.00003623962 157 156 151
48.8277450203896 613.043606281281 2687.99996376038 154 153 148
56.1161227524281 612.811386585236 2687.00003623962 153 152 147
63.4461045265198 613.034546375275 2687.99996376038 153 152 147
70.7287043333054 612.801134586334 2687.00003623962 152 151 146
78.0346915125847 612.795114517212 2687.00003623962 154 153 148
85.245169699192 612.104296684265 2684.00001525879 157 156 151
92.6459953188896 612.781345844269 2687.00003623962 155 154 149
99.9512374401093 612.773537635803 2687.00003623962 152 151 146
107.296139001846 612.99329996109 2687.99996376038 151 150 145
114.518254995346 612.528383731842 2686.00010871887 154 153 148
121.955931186676 613.202929496765 2688.99989128113 154 155 147
129.409581422806 613.877058029175 2691.99991226196 149 150 144
136.929988861084 614.778578281403 2696.00009918213 152 153 147
144.257694482803 614.76743221283 2696.00009918213 175 176 170
151.528760790825 614.527583122253 2694.9999332428 160 161 155
158.911883831024 614.74335193634 2696.00009918213 148 149 143
166.546627879143 615.870594978333 2700.99997520447 153 154 149
174.014955759048 616.313219070435 2703.00006866455 148 149 144
181.829154491425 617.895245552063 2710.00003814697 149 150 145
189.401656389236 618.564784526825 2713.00005912781 131 132 127
197.425112128258 620.601654052734 2721.99988365173 135 136 131
205.045446753502 621.270000934601 2724.99990463257 167 168 163
213.149324059486 623.30561876297 2733.99996757507 141 141 139
220.817446708679 623.97289276123 2736.99998855591 142 142 140
229.16841506958 626.463294029236 2747.99990653992 154 154 152
237.66465485096 629.180908203125 2759.99999046326 154 154 152
246.758416295052 633.265733718872 2778.00011634827 156 156 154
256.132364273071 637.805759906769 2798.00009727478 176 176 174
265.614241361618 642.344951629639 2818.00007820129 177 177 175
274.13734793663 644.37597990036 2826.99990272522 103 103 101
281.612128019333 643.899321556091 2825.00004768372 110 110 108
288.66571187973 642.51047372818 2819.00000572205 125 125 123
296.00128531456 641.804933547974 2815.99998474121 133 133 131
303.42772603035 641.326904296875 2813.99989128113 137 137 135
311.174184083939 641.532182693481 2815.00005722046 148 148 146
318.698763847351 641.281187534332 2813.99989128113 147 147 145
327.144950628281 642.852902412415 2821.00009918213 183 183 181
336.103022098541 645.33543586731 2832.00001716614 179 179 177
344.51299905777 646.678149700165 2838.00005912781 159 159 157
352.334231138229 646.88104391098 2838.99998664856 162 164 161
-184.748202562332 629.506468772888 2793.99991035461 210 215 209
-176.267996430397 626.366257667542 2779.99997138977 198 200 195
-168.288201093674 624.802649021149 2773.00000190735 193 195 190
-160.403937101364 623.463690280914 2766.99995994568 172 173 168
-152.93861925602 623.701333999634 2767.99988746643 162 163 158
-145.625069737434 624.614536762238 2772.0000743866 159 158 154
-138.388961553574 625.977873802185 2778.00011634827 153 152 148
-130.884364247322 626.213908195496 2779.00004386902 138 137 133
-123.462699353695 626.90007686615 2782.00006484985 138 137 133
-116.024374961853 627.585649490356 2785.00008583069 140 139 135
-108.842000365257 629.848122596741 2795.00007629395 141 140 136
-101.604945957661 632.110059261322 2805.0000667572 129 130 125
-94.3801999092102 634.822130203247 2816.99991226196 122 123 118
-86.9360268115997 636.406898498535 2823.99988174438 107 108 103
-79.4816017150879 638.216555118561 2832.00001716614 204 205 200
-71.3244080543518 634.166121482849 2813.99989128113 98 99 94
-63.287541270256 630.340337753296 2796.99993133545 128 129 124
-55.3031526505947 626.063346862793 2778.00011634827 133 135 130
-47.4391058087349 622.010827064514 2759.99999046326 136 138 133
-39.7307090461254 618.859231472015 2746.00005149841 149 148 144
-32.1688242256641 617.059111595154 2737.99991607666 157 156 152
-24.6864818036556 616.160035133362 2733.99996757507 146 145 141
-17.1816553920507 613.682627677917 2723.00004959106 153 152 148
-9.73661057651043 611.204624176025 2711.99989318848 166 165 161
-2.35659233294427 610.07833480835 2707.00001716614 146 145 141
5.00178430229425 609.627425670624 2704.99992370605 158 157 153
12.3446984216571 608.950674533844 2701.99990272522 155 154 150
19.6785479784012 608.498632907867 2700.00004768372 147 146 142
26.9514191895723 606.91910982132 2693.00007820129 154 153 149
34.1988690197468 605.564475059509 2687.00003623962 155 154 150
41.4599217474461 604.885280132294 2684.00001525879 156 155 150
48.7772040069103 605.107009410858 2684.99994277954 154 153 148
56.1415478587151 605.778753757477 2687.99996376038 153 152 147
63.4984448552132 606.224715709686 2690.00005722046 153 152 147
70.81338763237 606.219291687012 2690.00005722046 151 150 145
78.0409947037697 605.537235736847 2687.00003623962 154 153 148
85.1885229349136 604.403853416443 2681.99992179871 157 156 151
92.5844758749008 605.072736740112 2684.99994277954 155 154 149
99.8848676681519 605.065047740936 2684.99994277954 152 151 146
107.224896550179 605.282127857208 2686.00010871887 151 150 145
114.527426660061 605.273246765137 2686.00010871887 154 153 148
122.011035680771 606.165111064911 2690.00005722046 155 156 148
129.516050219536 607.056498527527 2694.00000572205 155 156 148
136.940881609917 607.496559619904 2696.00009918213 151 152 146
144.322648644447 607.710719108582 2697.00002670288 159 160 154
151.709452271461 607.924342155457 2697.99995422363 176 177 171
159.160226583481 608.36273431778 2700.00004768372 152 153 147
166.621401906013 608.800411224365 2701.99990272522 151 152 147
173.964232206345 608.787059783936 2701.99990272522 164 165 160
181.642085313797 609.899699687958 2707.00001716614 152 153 148
189.346626400948 611.011683940887 2711.99989318848 160 161 156
197.44049012661 613.249599933624 2721.99988365173 138 138 136
205.211862921715 614.360511302948 2726.99999809265 134 134 132
213.32174539566 616.371870040894 2736.00006103516 169 169 167
221.237882971764 617.706775665283 2742.00010299683 129 129 127
229.853212833405 620.843231678009 2756.00004196167 145 145 143
238.716244697571 624.429643154144 2772.0000743866 158 158 156
247.932016849518 628.690898418427 2790.99988937378 164 164 162
257.524996995926 633.627355098724 2812.99996376038 156 156 154
266.76544547081 637.43668794632 2829.99992370605 106 106 104
274.933815002441 638.542532920837 2835.00003814697 103 103 101
282.231360673904 637.620747089386 2831.00008964539 116 116 114
289.096832275391 635.797619819641 2822.99995422363 122 122 120
296.233475208282 634.649753570557 2818.00007820129 133 133 131
303.557962179184 633.952021598816 2815.00005722046 141 141 139
311.418116092682 634.379744529724 2816.99991226196 141 141 139
318.722069263458 633.681178092957 2813.99989128113 148 148 146
327.052712440491 635.008692741394 2819.9999332428 178 178 176
335.889905691147 637.236475944519 2829.99992370605 184 184 182
344.659149646759 639.23853635788 2838.99998664856 155 155 153
352.607607841492 639.663934707642 2841.00008010864 167 169 166
-183.836847543716 618.84218454361 2779.99997138977 207 212 206
-175.901353359222 617.520570755005 2773.9999294281 194 196 191
-168.240755796432 617.088854312897 2772.0000743866 190 192 187
-160.648480057716 616.879105567932 2770.99990844727 160 161 156
-153.116494417191 616.891443729401 2770.99990844727 151 152 147
-145.741686224937 617.571234703064 2773.9999294281 160 159 155
-138.549402356148 619.140863418579 2780.99989891052 153 152 148
-131.177395582199 620.042204856873 2785.00008583069 136 135 131
-123.73885512352 620.720267295837 2788.00010681152 136 135 131
-116.241969168186 621.174991130829 2789.99996185303 138 137 133
-109.045438468456 623.410522937775 2799.99995231628 137 136 132
-101.794213056564 625.645399093628 2809.99994277954 123 124 119
-94.5553258061409 628.325164318085 2822.00002670288 117 118 113
-87.0969593524933 629.890918731689 2828.9999961853 142 143 138
-79.8528790473938 633.460223674774 2845.00002861023 215 216 211
-71.4315623044968 627.454519271851 2818.00007820129 192 193 188
-63.3831769227982 623.674690723419 2801.00011825562 114 115 110
-55.3872473537922 619.448900222778 2782.00006484985 138 140 135
-47.4773198366165 614.999830722809 2762.00008392334 142 144 139
-39.7339202463627 611.440658569336 2746.00005149841 148 147 143
-32.1949273347855 610.10754108429 2740.00000953674 161 160 156
-24.6975105255842 608.996510505676 2734.99989509583 146 145 141
-17.1956662088633 606.771469116211 2724.99990463257 189 188 184
-9.74098965525627 604.100584983826 2713.00005912781 144 143 139
-2.35765357501805 602.987706661224 2707.99994468689 146 145 141
5.0003407523036 602.096974849701 2703.9999961853 160 159 155
12.3411295935512 601.428270339966 2700.99997520447 154 153 149
19.6509882807732 600.313663482666 2696.00009918213 152 151 147
26.9335824996233 599.198341369629 2690.99998474121 157 156 152
34.188911318779 598.082661628723 2686.00010871887 158 157 153
41.4787232875824 597.856879234314 2684.99994277954 156 155 150
48.7811416387558 597.853183746338 2684.99994277954 154 153 148
56.1460852622986 598.517000675201 2687.99996376038 153 152 147
63.5271817445755 599.180161952972 2690.99998474121 153 152 147
70.8980783820152 599.62010383606 2693.00007820129 152 151 146
78.0763104557991 598.500728607178 2687.99996376038 154 153 148
85.2589011192322 597.603559494019 2684.00001525879 157 156 151
92.5919190049171 597.819089889526 2684.99994277954 155 154 149
99.8184680938721 597.366094589233 2683.00008773804 153 152 147
107.113711535931 597.35780954361 2683.00008773804 151 150 145
114.493921399117 597.7942943573 2684.99994277954 154 153 148
121.930047869682 598.452746868134 2687.99996376038 156 157 149
129.382118582726 599.110662937164 2690.99998474121 154 155 147
136.748552322388 599.322736263275 2691.99991226196 150 151 143
144.227057695389 599.979519844055 2694.9999332428 156 157 151
151.665210723877 600.413143634796 2697.00002670288 180 181 175
159.113809466362 600.8460521698 2698.99988174438 151 152 146
166.819512844086 602.168917655945 2704.99992370605 162 163 158
174.235418438911 602.378189563751 2706.00008964539 158 159 154
181.924730539322 603.477299213409 2710.99996566772 165 166 161
189.431205391884 603.908002376556 2713.00005912781 163 163 161
197.673425078392 606.564044952393 2724.99990463257 152 152 150
205.679312348366 608.329236507416 2733.00004005432 132 132 130
213.728070259094 610.093712806702 2740.9999370575 183 184 179
221.739023923874 611.634969711304 2747.99990653992 144 145 140
230.37126660347 614.733695983887 2762.00008392334 152 153 148
239.251211285591 618.276834487915 2778.00011634827 151 152 147
248.66159260273 622.931957244873 2799.00002479553 160 161 156
258.643180131912 628.699123859406 2825.00004768372 168 169 164
267.822533845901 632.239878177643 2841.00008010864 72 73 68
275.633335113525 632.441997528076 2842.00000762939 86 87 82
282.850652933121 631.308495998383 2836.99989318848 115 116 111
289.937674999237 629.952073097229 2831.00008964539 120 121 116
296.991348266602 628.595173358917 2825.00004768372 136 137 132
304.011732339859 627.237975597382 2819.00000572205 138 138 136
311.330407857895 626.547873020172 2815.99998474121 139 139 137
318.858593702316 626.302361488342 2815.00005722046 146 146 144
326.84451341629 626.94638967514 2818.00007820129 175 175 173
335.795432329178 629.369616508484 2828.9999961853 182 182 180
344.562500715256 631.347477436066 2838.00005912781 155 155 153
352.880984544754 632.434725761414 2842.99993515015 166 168 165
361.733138561249 634.4113945961 2851.99999809265 168 170 167
-184.181869029999 612.430334091187 2785.00008583069 206 211 205
-176.16879940033 610.905051231384 2778.00011634827 192 194 189
-168.496742844582 610.478699207306 2776.00002288818 189 191 186
-160.951033234596 610.491573810577 2776.00002288818 156 157 152
-153.294369578362 610.064148902893 2773.9999294281 150 151 146
-145.91084420681 610.735714435577 2776.99995040894 160 159 155
-138.610228896141 611.846625804901 2782.00006484985 153 152 148
-131.37623667717 613.396823406219 2789.00003433228 133 132 128
-124.015010893345 614.506602287292 2793.99991035461 131 130 126
-116.584584116936 615.396022796631 2798.00009727478 138 137 133
-109.326779842377 617.384433746338 2806.99992179871 136 135 131
-102.055966854095 619.592368602753 2816.99991226196 125 126 121
-94.7974622249603 622.239589691162 2828.9999961853 127 128 123
-87.1963202953339 622.906744480133 2832.00001716614 192 193 188
-79.999640583992 626.872599124908 2849.99990463257 216 217 212
-71.5133547782898 620.499968528748 2821.00009918213 220 221 216
-63.5466873645782 617.645919322968 2808.00008773804 124 125 120
-55.5509924888611 613.691329956055 2789.99996185303 132 134 129
-47.5842952728271 608.856379985809 2767.99988746643 130 132 127
-39.8094728589058 605.120480060577 2750.99992752075 148 147 143
-32.2210304439068 603.143811225891 2742.00010299683 155 154 150
-24.699505418539 601.606249809265 2734.99989509583 167 166 162
-17.2033701092005 599.628329277039 2726.0000705719 190 189 185
-9.75255016237497 597.429692745209 2716.00008010864 151 150 146
-2.36132694408298 596.550345420837 2711.99989318848 150 149 145
5.00444322824478 595.230400562286 2706.00008964539 161 160 156
12.3512651771307 594.569802284241 2703.00006866455 149 148 144
19.6598637849092 593.248724937439 2697.00002670288 150 149 145
26.9557777792215 592.366993427277 2693.00007820129 162 161 157
34.2171229422092 591.264665126801 2687.99996376038 168 167 163
41.4975211024284 590.821743011475 2686.00010871887 157 156 151
48.8032437860966 590.818107128143 2686.00010871887 155 154 149
56.1714917421341 591.473758220673 2688.99989128113 155 154 149
63.5558888316154 592.128753662109 2691.99991226196 155 154 149
70.9037780761719 592.34344959259 2693.00007820129 154 153 148
78.1116336584091 591.457605361938 2688.99989128113 157 156 151
85.3292644023895 590.791165828705 2686.00010871887 157 156 151
92.5993174314499 590.564131736755 2684.99994277954 156 155 150
99.8264476656914 590.116500854492 2683.00008773804 154 153 148
107.122257351875 590.108275413513 2683.00008773804 152 151 146
114.503040909767 590.539336204529 2684.99994277954 154 153 148
121.894381940365 590.969860553741 2687.00003623962 160 161 153
129.248142242432 591.179847717285 2687.99996376038 154 156 145
136.556178331375 591.16929769516 2687.99996376038 150 151 143
144.024357199669 591.81797504425 2690.99998474121 151 152 144
151.564672589302 592.685997486115 2694.9999332428 174 175 167
159.185290336609 593.773424625397 2700.00004768372 159 160 154
166.770935058594 594.64031457901 2703.9999961853 153 154 149
174.249053001404 595.066785812378 2706.00008964539 139 139 137
181.871801614761 595.93254327774 2710.00003814697 146 146 144
189.585596323013 597.017526626587 2714.99991416931 160 160 158
197.761312127113 599.421381950378 2726.0000705719 162 162 162
205.996245145798 601.824581623077 2736.99998855591 168 168 166
214.13442492485 603.787243366241 2746.00005149841 121 122 117
222.320944070816 605.749428272247 2755.00011444092 180 181 176
230.805948376656 608.370542526245 2766.99995994568 158 159 154
239.872336387634 612.310111522675 2785.00008583069 158 159 154
249.924317002296 618.447542190552 2812.99996376038 163 164 159
260.127693414688 624.584078788757 2841.00008010864 122 123 118
268.596887588501 626.32292509079 2848.99997711182 78 79 74
276.138931512833 625.862777233124 2846.99988365173 96 97 92
283.569693565369 625.182449817657 2844.00010108948 116 117 112
290.676146745682 623.842179775238 2838.00005912781 115 116 111
297.538965940475 622.061908245087 2829.99992370605 132 133 128
304.357588291168 620.281338691711 2822.00002670288 137 137 135
311.684846878052 619.599282741547 2819.00000572205 138 138 136
319.334894418716 619.576394557953 2819.00000572205 144 144 142
327.216148376465 619.99249458313 2821.00009918213 168 168 166
336.057037115097 622.166275978088 2831.00008964539 178 178 176
344.708561897278 623.89999628067 2838.99998664856 156 156 154
353.030264377594 624.973893165588 2844.00010108948 165 167 164
362.012445926666 627.146065235138 2854.00009155273 165 167 164
-193.07367503643 609.016299247742 2803.99990081787 209 214 208
-184.328466653824 605.338513851166 2786.99994087219 204 209 203
-176.245957612991 603.614926338196 2779.00004386902 189 191 186
-168.631330132484 603.411197662354 2778.00011634827 186 188 183
-161.079630255699 603.424072265625 2778.00011634827 157 158 153
-153.47221493721 603.219151496887 2776.99995040894 154 155 150
-145.974904298782 603.448212146759 2778.00011634827 153 152 148
-138.770654797554 604.979991912842 2785.00008583069 156 155 151
-131.669268012047 607.162952423096 2795.00007629395 138 137 133
-124.246798455715 608.042061328888 2799.00002479553 128 127 123
-116.80219322443 608.920514583588 2802.99997329712 138 137 133
-109.452337026596 610.450208187103 2809.99994277954 132 131 127
-102.281488478184 613.282799720764 2822.99995422363 122 123 118
-95.1066315174103 616.549372673035 2838.00005912781 121 122 117
-71.5697854757309 613.310515880585 2822.99995422363 211 212 207
-63.5744258761406 610.274374485016 2809.00001525879 118 119 114
-55.6550212204456 607.237577438354 2795.00007629395 131 133 128
-47.6568825542927 602.244675159454 2772.0000743866 128 130 125
-39.8995131254196 598.989367485046 2756.99996948242 147 146 142
-32.2353765368462 595.950603485107 2743.00003051758 148 147 143
-24.6744025498629 593.562960624695 2732.00011253357 180 179 175
-17.1795077621937 591.391980648041 2721.99988365173 178 177 173
-9.75692644715309 590.306758880615 2717.00000762939 158 157 153
-2.36238795332611 589.438199996948 2713.00005912781 161 160 156
5.01039531081915 588.569104671478 2709.00011062622 157 156 152
12.3613998293877 587.699294090271 2704.99992370605 147 146 142
19.676024094224 586.394369602203 2698.99988174438 151 150 146
26.9679576158524 585.306167602539 2694.00000572205 164 163 159
34.2580713331699 584.651947021484 2690.99998474121 171 170 166
41.547205299139 584.214389324188 2688.99989128113 157 156 151
48.8616786897182 584.210753440857 2688.99989128113 155 154 149
56.1968944966793 584.423840045929 2690.00005722046 155 154 149
63.5373890399933 584.636270999908 2690.99998474121 155 154 149
70.8304569125175 584.413647651672 2690.00005722046 155 154 149
78.0307427048683 583.538711071014 2686.00010871887 157 156 151
85.3360891342163 583.532154560089 2686.00010871887 157 156 151
92.5722196698189 583.090603351593 2684.00001525879 156 155 150
99.8343974351883 582.865655422211 2683.00008773804 154 153 148
107.090838253498 582.640171051025 2681.99992179871 153 152 147
114.426836371422 582.848608493805 2683.00008773804 154 153 148
121.813297271729 583.273708820343 2684.99994277954 164 165 157
129.162192344666 583.481132984161 2686.00010871887 157 159 148
136.465340852737 583.470642566681 2686.00010871887 151 152 144
143.875122070313 583.893954753876 2687.99996376038 152 153 145
151.52034163475 585.185706615448 2694.00000572205 164 165 157
159.07983481884 586.04234457016 2697.99995422363 169 170 164
166.783958673477 587.332904338837 2703.9999961853 146 147 142
174.262657761574 587.75407075882 2706.00008964539 162 162 160
181.953072547913 588.826239109039 2710.99996566772 128 128 126
189.600303769112 589.68061208725 2714.99991416931 178 178 176
197.776585817337 592.054724693298 2726.0000705719 158 158 158
206.012085080147 594.428181648254 2736.99998855591 177 177 175
214.228853583336 596.583902835846 2746.99997901917 130 131 126
222.580045461655 598.956048488617 2757.99989700317 139 140 135
231.157213449478 601.761937141418 2770.99990844727 165 166 161
240.579634904861 606.521546840668 2792.99998283386 165 166 161
251.275986433029 614.103376865387 2828.00006866455 180 181 176
261.246114969254 619.512677192688 2852.9999256134 76 77 72
269.465655088425 620.578587055206 2858.00004005432 83 84 79
276.644587516785 619.255304336548 2851.99999809265 97 98 93
283.790230751038 617.931663990021 2845.99995613098 118 119 114
291.004955768585 616.824805736542 2841.00008010864 120 121 116
297.876328229904 615.066170692444 2832.99994468689 130 131 126
305.242776870728 614.392697811127 2829.99992370605 138 138 136
312.260508537292 613.06756734848 2823.99988174438 138 138 136
319.924533367157 613.044619560242 2823.99988174438 144 144 142
327.703773975372 613.238275051117 2825.00004768372 163 163 161
336.437374353409 615.168035030365 2834.00011062622 174 174 172
344.368904829025 615.577757358551 2835.99996566772 154 154 152
352.434635162354 616.204142570496 2838.99998664856 164 166 163
361.023187637329 617.698192596436 2845.99995613098 164 166 163
-192.262262105942 598.863542079926 2792.00005531311 207 212 206
-184.276640415192 597.591161727905 2786.00001335144 201 206 200
-176.19626224041 595.889210700989 2778.00011634827 186 188 183
-168.765902519226 596.331536769867 2779.99997138977 183 185 180
-161.266192793846 596.558928489685 2780.99989891052 158 159 154
-153.594791889191 596.142292022705 2779.00004386902 156 157 152
-146.038919687271 596.154034137726 2779.00004386902 150 149 145
-138.781577348709 597.452282905579 2785.00008583069 157 156 152
-131.726786494255 599.822759628296 2796.0000038147 142 141 137
-124.389804899693 601.120054721832 2802.00004577637 122 121 117
-116.978138685226 602.202177047729 2806.99992179871 131 130 126
-109.655790030956 603.927493095398 2815.00005722046 129 128 124
-102.543249726295 607.153952121735 2829.99992370605 126 127 122
-71.4994445443153 605.036199092865 2819.9999332428 226 227 222
-63.6021420359612 602.896094322205 2809.99994277954 166 167 162
-55.7192228734493 600.326240062714 2798.00009727478 120 122 117
-47.7466695010662 595.824658870697 2776.99995040894 142 143 138
-39.9606041610241 592.3952460289 2760.99991798401 144 143 139
-32.237958163023 588.536083698273 2743.00003051758 147 146 142
-24.6944446116686 586.607336997986 2733.99996757507 168 167 163
-17.2061361372471 584.892511367798 2726.0000705719 148 147 143
-9.77207440882921 583.820760250092 2720.99995613098 155 154 150
-2.36431928351521 582.533895969391 2714.99991416931 189 188 184
5.01079764217138 581.246435642242 2709.00011062622 149 148 144
12.3669635504484 580.60210943222 2706.00008964539 147 146 142
19.6921862661839 579.527974128723 2700.99997520447 157 156 152
27.0101670175791 578.882455825806 2697.99995422363 167 166 162
34.29901227355 578.021705150604 2694.00000572205 172 171 167
41.5659919381142 577.160477638245 2690.00005722046 155 154 149
48.8655865192413 576.942265033722 2688.99989128113 153 152 147
56.1178252100945 576.294481754303 2686.00010871887 153 152 147
63.4244009852409 576.289653778076 2686.00010871887 153 152 147
70.7044526934624 576.0697722435 2684.99994277954 153 152 147
77.9788494110107 575.849235057831 2684.00001525879 156 155 150
85.2793380618095 575.842797756195 2684.00001525879 157 156 151
92.5106033682823 575.406610965729 2681.99992179871 157 156 151
99.8423397541046 575.613558292389 2683.00008773804 155 154 149
107.05941170454 575.176239013672 2680.99999427795 153 152 147
114.307940006256 574.952960014343 2680.0000667572 154 153 148
121.777564287186 575.80178976059 2684.00001525879 171 172 164
129.220470786095 576.435506343842 2687.00003623962 163 164 156
136.5777105093 576.639592647552 2687.99996376038 156 157 149
143.939957022667 576.843082904816 2688.99989128113 158 159 151
151.532217860222 577.904105186462 2694.00000572205 149 150 144
159.15122628212 578.964471817017 2698.99988174438 190 191 185
166.735291481018 579.809904098511 2703.00006866455 168 169 164
174.340605735779 580.654621124268 2707.00001716614 170 170 168
182.101398706436 581.92777633667 2713.00005912781 171 171 169
189.824461936951 582.985877990723 2717.99993515015 153 153 151
197.791829705238 584.686875343323 2726.0000705719 167 167 167
206.027910113335 587.030649185181 2736.99998855591 145 145 143
214.323237538338 589.373826980591 2747.99990653992 184 185 180
222.758427262306 591.93080663681 2759.99999046326 142 143 138
231.425061821938 594.916045665741 2773.9999294281 176 177 172
241.287022829056 600.688517093658 2801.00011825562 169 170 165
252.183586359024 608.604669570923 2838.00005912781 162 163 158
261.998355388641 613.51752281189 2861.00006103516 69 70 65
270.051538944244 614.140927791595 2864.00008201599 84 85 80
276.956230401993 612.190663814545 2855.00001907349 104 105 100
283.811271190643 610.240042209625 2845.99995613098 107 108 103
290.719121694565 608.503460884094 2838.00005912781 123 124 119
297.793060541153 607.195377349854 2832.00001716614 135 136 131
305.373013019562 606.95892572403 2831.00008964539 139 140 135
312.725573778152 606.293261051178 2828.00006866455 137 137 135
320.514172315598 606.484651565552 2828.9999961853 142 142 140
328.307420015335 606.675565242767 2829.99992370605 156 156 154
336.698889732361 607.93799161911 2835.99996566772 167 167 165
344.51487660408 608.128011226654 2836.99989318848 149 149 147
352.459579706192 608.532011508942 2838.99998664856 164 166 163
361.17547750473 610.221564769745 2846.99988365173 162 164 161
-191.932782530785 590.256989002228 2786.99994087219 209 211 208
-183.893993496895 588.78892660141 2779.99997138977 200 202 199
-175.956189632416 587.531983852386 2773.9999294281 188 189 184
-168.536171317101 587.96900510788 2776.00002288818 176 177 172
-161.046788096428 588.193595409393 2776.99995040894 150 151 146
-153.551518917084 588.417708873749 2778.00011634827 150 151 146
-145.997807383537 588.429391384125 2778.00011634827 151 150 145
-138.892129063606 590.346813201904 2786.99994087219 156 155 150
-131.87849521637 592.899322509766 2799.00002479553 148 147 142
-124.532781541348 594.180405139923 2805.0000667572 123 122 117
-117.237433791161 595.884561538696 2812.99996376038 129 128 123
-110.015064477921 598.223626613617 2823.99988174438 137 136 132
-103.131175041199 602.892458438873 2845.99995613098 114 114 112
-71.8601271510124 600.378096103668 2834.00011062622 224 224 222
-63.6298432946205 595.511019229889 2811.00010871887 150 150 148
-55.7435750961304 592.973530292511 2799.00002479553 131 132 127
-47.7676801383495 588.528752326965 2778.00011634827 133 132 127
-39.9782732129097 585.142552852631 2762.00008392334 145 144 140
-32.2287827730179 580.908358097076 2742.00010299683 148 147 143
-24.6693193912506 578.58020067215 2730.99994659424 159 158 154
-17.2011982649565 577.310681343079 2724.99990463257 139 138 134
-9.77285671979189 576.464354991913 2720.99995613098 182 181 177
-2.36450834199786 575.193703174591 2714.99991416931 177 176 172
5.01119811087847 573.922455310822 2709.00011062622 147 146 142
12.3588107526302 572.862446308136 2703.9999961853 153 152 148
19.6791775524616 571.801900863647 2698.99988174438 166 165 161
27.0023159682751 571.376323699951 2697.00002670288 178 177 173
34.3144871294498 570.950150489807 2694.9999332428 162 161 157
41.5847599506378 570.099711418152 2690.99998474121 160 159 155
48.8513149321079 569.460570812225 2687.99996376038 156 155 151
56.0805052518845 568.608939647675 2684.00001525879 155 154 150
63.3822232484818 568.604230880737 2684.00001525879 155 154 150
70.6837400794029 568.598866462708 2684.00001525879 155 154 150
77.926941215992 568.169355392456 2681.99992179871 158 157 153
85.1907879114151 567.951023578644 2680.99999427795 154 155 150
92.4834385514259 567.94399023056 2680.99999427795 155 156 151
99.9246686697006 568.783700466156 2684.99994277954 155 156 151
107.147760689259 568.351924419403 2683.00008773804 153 154 149
114.402264356613 568.131268024445 2681.99992179871 153 154 149
121.741779148579 568.333864212036 2683.00008773804 161 162 156
129.230618476868 569.17130947113 2687.00003623962 170 171 165
136.690035462379 569.79638338089 2690.00005722046 150 151 145
144.111827015877 570.20902633667 2691.99991226196 156 157 151
151.600286364555 570.832848548889 2694.9999332428 156 157 152
159.163624048233 571.668028831482 2698.99988174438 188 189 184
166.809931397438 572.714447975159 2703.9999961853 176 177 172
174.547329545021 573.972046375275 2710.00003814697 159 159 157
182.383969426155 575.44082403183 2717.00000762939 174 174 172
190.048605203629 576.273620128632 2720.99995613098 149 149 147
198.024719953537 577.953040599823 2729.00009155273 180 180 178
206.11897110939 579.843521118164 2737.99991607666 134 134 132
214.417606592178 582.157075405121 2749.00007247925 176 178 175
222.775399684906 584.46991443634 2759.99999046326 189 189 187
231.692880392075 588.052570819855 2776.99995040894 134 134 132
241.649836301804 593.963921070099 2805.0000667572 190 190 188
252.824574708939 602.415263652802 2845.00002861023 166 166 164
262.384295463562 606.630742549896 2865.00000953674 74 74 72
