ply
format ascii 1.0
comment KinectMotionCapture
element vertex 757
property float x
property float y
property float z
property uchar red
property uchar green
property uchar blue
end_header
-10.5349476546481 801.507662989406 2843.93975242663 229 229 231
-20.1196450064018 799.990319932194 2843.15968722709 231 231 233
-26.7226850724751 799.330544753716 2839.60469730519 230 230 232
-28.894834539376 799.953891912163 2831.8577395539 230 230 232
-32.5609914565403 800.148127510197 2825.49564364196 231 231 233
-37.7078610566168 799.914209084613 2820.52805208006 230 230 232
-43.5912565755974 799.466564184449 2816.26078570081 229 229 231
-45.8300842953774 800.084449916979 2808.46546379782 227 227 229
-48.0914486251995 800.700499574385 2800.65350084815 228 228 230
-51.8252049250862 800.88897050783 2794.24266597889 226 226 228
-59.9074222491531 799.800389022678 2792.08329016538 226 226 228
-67.2572319579241 798.924982125078 2789.22118988169 226 226 228
-71.0083983347403 799.111614083046 2782.79743028432 226 226 228
-74.0576990678545 799.509175005138 2775.64849983821 227 227 229
-76.4115212442813 800.117196851512 2767.76947155995 228 228 230
-80.9227992112349 800.087653938158 2762.02892698719 231 231 233
-84.7341692330814 800.268930778947 2755.561497358 241 241 243
-88.5595604716589 800.448832769551 2749.0838964857 236 236 238
-90.2842177145344 801.261475805039 2740.42696311227 248 248 250
-95.5495530065762 801.015939405899 2735.37372887178 244 244 246
-100.119451285364 800.980741077929 2729.59036606114 225 225 227
-104.000675794656 801.155403025153 2723.0722639175 249 249 251
-104.415606855666 802.381870320257 2712.89680184731 226 226 228
-103.478718612449 804.026099223286 2701.23305074949 230 230 232
-101.203294963779 806.087372053183 2688.07137720713 222 222 224
235.956222640472 821.857075436193 2952.3274419678 254 255 255
228.338483638549 820.961695848456 2949.27101285599 254 255 255
215.840723794567 818.765628667063 2950.0808785041 255 255 255
200.939929895098 815.92224823792 2952.85085907751 254 255 255
194.191670359499 815.249285169689 2949.19082414077 252 253 255
189.87264007493 815.226464019591 2943.58938358577 247 248 250
181.514206779028 814.121789419244 2941.22998588175 250 251 253
170.757079127098 812.370033647569 2940.8338502193 244 245 247
158.422783808751 810.188762254956 2941.76228973413 252 253 255
151.719554105135 809.520940700683 2938.13492392637 230 231 233
143.425964860896 808.42253483654 2935.82256481163 234 235 237
139.120890737568 808.402696349417 2930.23125648353 240 241 243
131.634888920156 807.521274852636 2927.27039716867 232 233 235
123.366868979618 806.425646954655 2924.97629338178 232 233 235
112.745772806471 804.686285357578 2924.67883262029 233 233 235
104.509661348371 803.593551479981 2922.40816910909 233 233 235
100.206888139685 803.57504488347 2916.81882998643 234 234 236
96.6770429782948 803.770525268223 2910.55555568038 234 234 236
91.5741357244086 803.53658365405 2905.61983324398 229 229 231
85.6886482106418 803.088291328456 2901.35104705372 227 227 229
80.5780223700032 802.854093243944 2896.41002242702 222 222 224
77.7819377373437 803.260935656863 2889.44470074861 218 218 220
73.4260310319201 803.239428660111 2883.8165343456 215 215 217
69.0605993170696 803.217100645932 2878.18175337838 209 209 211
61.6195548761018 802.341162897915 2875.25321792439 205 205 207
57.2441886776018 802.318328798844 2869.61123267454 202 202 204
52.0974544204278 802.081971841121 2864.64372687396 207 207 209
46.1855303415062 801.632493759964 2860.35577024735 217 217 219
38.7573835021815 800.757790451341 2857.43688526974 217 217 219
31.3372802667957 799.883679020527 2854.52383427025 209 209 211
21.6652337080721 798.373348885413 2853.68018881127 205 205 207
12.765648148255 797.076799022366 2852.16256302555 209 209 211
4.63197909681323 795.993439510853 2849.96620968418 230 230 232
-1.2486919334469 795.54637378755 2845.70092127858 228 228 230
-11.5979815724296 793.829449757719 2845.60061252504 222 222 224
-21.9215034517029 792.11443397235 2845.51899303607 225 225 227
-29.2582930219532 791.246583568654 2842.66607512676 227 227 229
-32.1589478068596 791.645791046454 2835.6249096409 227 227 229
-34.3420373959813 792.254510855498 2827.86994707113 228 228 230
-38.0150535876946 792.439886385486 2821.50283384669 227 227 229
-43.1647979057011 792.20286737256 2816.53314263534 226 226 228
-46.1320827979601 792.596617324769 2809.44364791926 223 223 225
-49.1177559802196 792.9888178766 2802.34081529131 224 224 226
-51.3969615105063 793.589631734865 2794.51613617937 225 225 227
-57.3120552219009 793.138881233269 2790.22587537348 225 225 227
-63.2278786837215 792.687772894676 2785.93508374341 223 223 225
-67.7079503658644 792.655729199561 2780.21685412851 222 222 224
-72.1975034156417 792.622857664113 2774.49174707469 221 221 223
-78.1244220856663 792.170372539396 2770.19290531771 219 219 221
-83.3405334042585 791.926732797535 2765.17536419301 222 222 224
-86.4334701478981 792.309287903614 2757.99472506422 234 234 236
-90.9591135015604 792.272715981464 2752.24343663572 229 229 231
-93.3793916212675 792.860906510395 2744.31642705343 241 241 243
-99.3365377095461 792.404956982835 2739.99565524799 242 242 244
-103.192515029437 792.573479331283 2733.49582423247 226 226 228
-107.760862094759 792.532551775015 2727.7135569099 249 249 251
-106.769006268477 794.154050229375 2716.08953785191 218 218 220
-106.51591053813 795.564080353945 2705.16394133487 226 226 228
-105.611539399621 797.178133110048 2693.47646504577 229 229 231
-98.5454813732411 800.655198286809 2675.14924498695 218 218 218
236.618693377817 813.405161404348 2961.41071589073 191 192 194
235.567214759117 814.232550034977 2953.24185875766 252 253 255
225.500153298389 812.699549681016 2952.11203821407 254 255 255
215.455111576602 811.168800763625 2950.99789717611 253 253 255
199.742244766207 808.141420000139 2954.41358787415 253 254 255
192.998688275849 807.47163553196 2950.75668389849 251 252 254
186.259115862677 806.802482895917 2947.10296574278 242 243 245
178.717816491428 805.92045467019 2944.10172250081 245 246 248
168.772753054005 804.399129831133 2943.06040006666 243 244 246
156.444041372933 802.240117267955 2943.99300002468 233 234 236
148.947915542057 801.362475886947 2941.02482074343 229 230 232
141.460479741429 800.485886599817 2938.0626519026 228 229 231
137.162313056253 800.461061875782 2932.47662014458 235 236 238
131.268957454714 800.010758039581 2928.20212002088 220 221 223
123.002659624284 798.923405168968 2925.90960102003 229 230 232
113.171761791923 797.412752510319 2924.95079924908 231 231 233
104.935345828093 796.328119123229 2922.67995602577 230 230 232
100.633161887787 796.304223576846 2917.09101678023 231 231 233
97.103868561851 796.491504019928 2910.82810097716 232 232 234
93.5609849933132 796.677922477057 2904.55532895106 227 227 229
88.449116878905 796.44074569301 2899.61309420887 224 224 226
80.2300385364663 795.358293516205 2897.35483044556 220 220 222
76.6636750861567 795.543407279207 2891.06503074355 219 219 221
71.5412510999904 795.305684429278 2886.11543553573 216 216 218
69.489668865907 795.910719285047 2878.45578678912 208 208 210
62.0484236218166 795.040142213105 2875.52713292154 204 204 206
56.9089811575418 794.80145888336 2870.56519579073 201 201 203
51.0020741164947 794.352208006776 2866.28087727278 208 208 210
45.8547324848606 794.112944500196 2861.31321092827 223 223 225
39.9444486548801 793.66353955368 2857.02644372356 224 224 226
31.7661713103727 792.584870663254 2854.79777663748 203 203 205
22.846864584078 791.297716027782 2853.26590214598 208 208 210
12.4416269176373 789.5928683644 2853.12509664253 216 216 218
4.30981540541486 788.517774134769 2850.92983725924 229 229 231
-3.80965974624825 787.443570158668 2848.74381975333 217 217 219
-11.916658604507 786.370257413842 2846.56685109302 221 221 223
-20.0112293148875 785.297831999967 2844.39889635684 227 227 229
-25.8720927275597 784.852012451698 2840.14797322807 222 222 224
-30.9955858184436 784.61438222381 2835.19760347258 225 225 227
-35.3879819128313 784.584601980059 2829.54294322716 228 228 230
-39.7901852877109 784.553858364145 2823.88146307216 227 227 229
-43.4701055984532 784.730310449367 2817.5092997055 226 226 228
-47.1640778007827 784.90550468703 2811.12694345149 224 224 226
-49.4174240032139 785.494721747186 2803.32065710109 222 222 224
-52.4187082332073 785.874545280425 2796.20644499945 221 221 223
-56.8840105867876 785.838331480646 2790.49919534063 221 221 223
-63.5205120423947 785.180206854953 2786.91995690373 219 219 221
-67.9981790957824 785.142742042957 2781.2034429965 217 217 219
-72.4855571386098 785.104321659447 2775.48017902265 214 214 216
-77.696327998054 784.85847546809 2770.46620365763 216 216 218
-84.3361248493555 784.199257823559 2766.88486525873 216 216 218
-86.004878318964 784.983630333597 2758.26831452781 226 226 228
-89.8230655744157 785.147447402736 2751.79585450331 220 220 222
-92.244779578633 785.721770173137 2743.86743929774 242 242 244
-98.9074234130405 785.059865254765 2740.26952502163 238 238 240
-101.36149217637 785.63114872214 2732.31763976602 221 221 223
-106.632866742868 785.378969461453 2727.25999387919 246 246 248
-107.731007152951 786.3572454243 2717.82303826262 213 213 215
-110.249079756841 786.922806172462 2709.82472627038 232 232 234
-108.638175944484 788.715545851083 2697.41529904999 226 226 228
-102.247887557665 791.937066109229 2679.8316469246 217 219 218
237.869243226068 806.225780570272 2961.04586455528 191 192 194
232.719074710078 805.977326482254 2956.07610238986 253 254 255
220.208467426162 803.823652268593 2956.87686938333 254 255 255
210.178187031092 802.307611643899 2955.77379812355 255 255 255
199.357001708762 800.582380094022 2955.33106556215 248 249 251
192.615608859267 799.915529478758 2951.67603939349 241 242 244
183.452844283319 798.616239506874 2949.96761564327 235 236 238
175.920062952942 797.740288639197 2946.97287257095 237 238 240
167.591902462404 796.654724639758 2944.63522259154 227 228 230
159.276491835884 795.570442855133 2942.30711623234 221 222 224
151.773658953742 794.697754559171 2939.33409995485 228 229 231
143.481768382259 793.615796368013 2937.02305555495 234 235 237
138.384358581368 793.375260697027 2932.09157941638 221 222 224
130.902755303468 792.505118290803 2929.13367135047 223 224 226
124.220444905732 791.845433407269 2925.52121713079 225 226 228
113.597880078892 790.138632699774 2925.22285663822 226 226 228
106.934379279395 789.480840424736 2921.62434196119 224 224 226
101.05932751082 789.032736328918 2917.36312181874 222 222 224
97.5306823113913 789.211824630979 2911.1006343616 222 222 224
92.4284157724573 788.972438490865 2906.16534881555 219 219 221
88.0988669858587 788.941427093905 2900.55653616576 218 218 220
81.4330526282423 788.284273449893 2896.95605309883 217 217 219
76.3180122222944 788.044221305361 2892.01179860756 216 216 218
71.1982325458029 787.80407358776 2887.0638135568 213 213 215
69.9187331828215 788.603560830719 2878.72981247099 206 206 208
64.7780484447771 788.361898801438 2873.7666652247 202 202 204
59.6321618915332 788.119945213122 2868.80004007177 201 201 203
52.9563483995092 787.462578965861 2865.19230734204 215 215 217
47.0445305147793 787.012930256172 2860.9044268336 223 223 225
41.1320385926817 786.563226941938 2856.6160574245 215 215 217
32.1950505199338 785.285404165327 2855.07170709235 201 201 203
22.521457140622 783.802072412592 2854.22707706224 210 210 212
14.3721095279878 782.733693080502 2852.01943387483 227 227 229
6.98450128500472 781.872729017941 2849.13000578283 216 216 218
-1.88920826364058 780.599663686216 2847.63125702361 204 204 206
-10.7460121304617 779.327848415626 2846.14476988573 216 216 218
-17.3576792762224 778.675380018717 2842.58356301994 221 221 223
-23.2252283149579 778.228899372547 2838.32778998957 217 217 219
-29.0934480900149 777.782304645439 2834.07153015028 219 219 221
-34.9624797369263 777.335524660027 2829.81468082939 221 221 223
-40.8321339746331 776.888634494002 2825.55737962106 221 221 223
-43.0439338708379 777.467426805367 2817.7814527483 221 221 223
-45.2782736781312 778.044442518 2809.98888273712 222 222 224
-47.5354748056369 778.619556823301 2802.18002491305 219 219 221
-51.2657855142347 778.783323614939 2795.77126821808 217 217 219
-57.9018336978505 778.127924181016 2792.19237217135 216 216 218
-63.0928038652581 777.881362416122 2787.19304160306 213 213 215
-66.8517654284892 778.042449706121 2780.76350171993 210 210 212
-70.6246891943474 778.202405901996 2774.32383460892 207 207 209
-76.5541704458435 777.74947420434 2770.02313291997 205 205 207
-82.484388049858 777.296303622472 2765.72189622337 208 208 210
-84.1568009546143 778.063830640644 2757.10260736408 216 216 218
-87.2715714160939 778.422392272829 2749.90601897559 212 212 214
-91.8153850979153 778.372937282755 2744.14149323316 229 229 231
-99.8845956034382 777.307584808775 2741.99195847654 229 229 231
-102.333856398154 777.865527056111 2734.04378552109 225 225 227
-106.901995404773 777.813444261477 2728.26161252124 242 242 244
-108.693557213813 778.570243500942 2719.55589574015 211 211 213
-112.595381283907 778.71784553255 2713.02272347146 229 229 231
-111.666286924165 780.278996579131 2701.35290161546 227 227 229
-105.952393282297 783.250318938276 2684.51298030901 216 218 217
233.36707513644 797.575261412016 2965.14913897037 217 218 220
227.410905006897 797.116105038162 2960.82905841495 254 255 255
216.549572564685 795.403284361798 2960.35757969011 249 250 252
208.975914231036 794.5283131973 2957.33291449113 250 250 252
200.597685838663 793.445693524194 2954.95927861179 246 247 249
193.854403398354 792.781427688123 2951.30260125382 235 236 238
182.262646938796 790.867801572815 2951.53593655787 228 229 231
173.121219427165 789.58141223454 2949.84304584518 229 230 232
165.605975381811 788.712666874228 2946.86075794533 218 219 221
159.703390413577 788.260480223907 2942.57955771992 217 218 220
153.800451921428 787.808563653283 2938.29810258549 225 226 228
146.301731527251 786.941943920968 2935.32809827676 232 233 235
139.60697043502 786.283520657303 2931.70662467329 211 212 214
128.949334303028 784.589949869252 2931.38290725531 222 223 225
120.691238092451 783.519511739046 2929.09641946021 221 222 224
112.445844048199 782.45025198551 2926.81914570528 224 224 226
107.360383680263 782.208772549771 2921.89632718532 223 223 225
101.485527794839 781.760624578857 2917.63524882052 219 219 221
95.6102286965397 781.312619934203 2913.37384988722 218 218 220
89.7343933953576 780.864691338766 2909.11206263421 217 217 219
86.1922632748593 781.034920515857 2902.83975479678 216 216 218
81.8605981518639 780.99838024221 2897.2290854877 216 216 218
75.9721721104696 780.549879735014 2892.95816804157 215 215 217
70.0832547106733 780.101518653753 2888.68689510547 212 212 214
68.0399794771387 780.679744314219 2881.03313248697 206 206 208
65.2073075234285 781.051231239888 2874.04081431919 203 203 205
60.0616757114643 780.806430585326 2869.0743594127 202 202 204
52.6229187953935 779.946879084632 2866.14785971092 222 222 224
45.1924865516395 779.087991616858 2863.22710362819 218 218 220
39.286645314264 778.638707594627 2858.94355756617 204 204 206
30.3557939715442 777.372215105667 2857.40341879371 202 202 204
20.6877727255197 775.902727730851 2856.56319272346 217 217 219
13.296205027316 775.046879595442 2853.67092025105 229 229 231
5.16340759203793 773.987806453242 2851.47502730106 207 207 209
-2.209853252509 773.133232273791 2848.5960323104 198 198 200
-10.3201025240824 772.075787039339 2846.41678772818 218 218 220
-13.9603130539157 772.239086254308 2840.07334420726 222 222 224
-20.5774115504715 771.588627353836 2836.50821021786 213 213 215
-27.190939473301 770.938408324218 2832.94596030558 214 214 216
-33.800616956714 770.288431120941 2829.38620840687 216 216 218
-40.4067234185648 769.638593850698 2825.82904592669 217 217 219
-43.3495992792881 770.001223133062 2818.75708820616 217 217 219
-44.8513845336329 770.766890142322 2810.26148155071 220 220 222
-47.8353750232932 771.126158809311 2803.15970193605 217 217 219
-52.2883751251804 771.079938408745 2797.46102527961 214 214 216
-60.3666345908427 770.023830085213 2795.3049775621 212 212 214
-64.8279395587674 769.976588793366 2789.60056983704 209 209 211
-66.4237830157472 770.734307448262 2781.03673812322 206 206 208
-68.0468013212769 771.489764893548 2772.45319532827 204 204 206
-71.8400519048625 771.639531024924 2765.99874125861 198 198 200
-78.4958795343 770.984212420505 2762.40580155593 201 201 203
-81.5982339823633 771.332896155503 2755.21786929003 208 208 210
-86.1347168194357 771.278668460619 2749.45892813573 207 207 209
-90.6805618630149 771.22355247659 2743.69290114176 224 224 226
-98.0494125963123 770.366199015035 2740.81708905724 205 205 207
-100.502299896985 770.910096039073 2732.86592155139 224 224 226
-104.375877585424 771.051980671373 2726.35319672781 218 218 220
-107.566845568271 771.39230120388 2719.10127873519 203 203 205
-114.248591423876 770.732901029815 2715.48923520626 218 218 220
-114.003875151112 772.067881633332 2704.557478578 223 223 225
-110.348945046087 774.395736921836 2689.92682126327 216 218 217
-90.9351657488859 781.297638523504 2658.33564915106 212 214 213
231.508900187112 788.588353789738 2976.10783755841 212 213 215
228.041123730365 788.750357542885 2969.88938861523 254 255 255
221.280726801248 788.08598973438 2966.22030408257 244 245 247
212.889425155182 787.00974908692 2963.83722343365 247 248 250
206.142084196662 786.34715588342 2960.17761244143 231 230 235
198.585638437867 785.479324894081 2957.16575564871 231 232 234
191.849044115204 784.818289341811 2953.51394301197 224 225 227
183.498832620581 783.746721690709 2951.16067316039 213 214 216
174.354780555879 782.471022980637 2949.46593400331 210 211 213
167.641541597559 781.812756117043 2945.83136066959 210 211 213
160.130265603592 780.950067619405 2942.85197997408 214 215 217
154.22762093617 780.498085236138 2938.57073750611 223 224 226
147.526612872407 779.841645624818 2934.94503986427 215 216 218
141.625431006883 779.390319439155 2930.66486113638 206 207 209
129.375682790585 777.303840200668 2931.65507079077 217 218 220
119.534459603039 775.832927481991 2930.68927971715 216 217 219
111.29337356828 774.772221141479 2928.41487777793 218 218 220
106.212549184517 774.528249569031 2923.49540735867 217 217 219
101.126993334991 774.28413367035 2918.57250626786 213 213 215
94.4715052589258 773.632625947429 2914.97953754051 210 210 212
87.8199054168287 772.981642318175 2911.38939013158 208 208 210
83.5065282319465 772.940709164048 2905.79225036534 209 209 211
80.7359431291452 773.305496515744 2898.84520082314 209 209 211
76.3997605476945 773.263213334214 2893.23122762305 208 208 210
71.2825186201238 773.017516282789 2888.2853486092 207 207 209
70.0074301873443 773.784491403553 2879.9540859435 204 204 206
65.6365132246304 773.739782684571 2874.31492076334 204 204 206
58.960946646093 773.087644510355 2870.70768798472 213 213 215
50.7635185330662 772.031620439257 2868.46525279831 228 228 230
45.6213561068166 771.784342269754 2863.50100589744 197 197 199
39.7155696170599 771.334943195061 2859.21749894038 186 186 188
30.7840294454604 770.079118918106 2857.67691485776 214 214 216
21.8693015178428 768.824577363065 2856.14881930385 229 229 231
16.7309874326507 768.577670695921 2851.18736402927 228 228 230
7.08933268354128 767.123701916005 2850.36633020006 197 197 199
-0.288466565229406 766.274126660188 2847.48377606683 198 198 200
-10.6395165621644 764.622031420754 2847.38251956286 219 219 221
-14.2771000473425 764.777209193418 2841.04093930596 220 220 222
-21.6331630042632 763.929076587045 2838.1744440589 208 208 210
-26.7650461233986 763.682283051542 2833.21794577892 210 210 212
-32.6385885950733 763.234868791849 2828.95782325216 212 212 214
-38.5128515991195 762.787366289091 2824.69717794915 212 212 214
-43.6557015472763 762.539405112587 2819.73242918941 213 213 215
-45.8844642421472 763.089221605467 2811.94405885366 216 216 218
-50.3188155517229 763.03898566215 2806.25888076523 214 214 216
-53.3119108409739 763.386284901576 2799.15044025953 210 210 212
-60.663151273002 762.537527328642 2796.2874377981 209 209 211
-62.9585851708234 763.081663504999 2788.45041283555 205 205 207
-63.8392015443514 764.0213125387 2779.17094938226 202 202 204
-66.1848127464673 764.561214920747 2771.29782285301 200 200 202
-68.5530776213949 765.099212000463 2763.40797006513 192 192 194
-75.2178656319205 764.445785874739 2759.80824989973 195 195 197
-79.7489960945561 764.386614838508 2754.05316375689 199 199 201
-85.7053669028445 763.930638501551 2749.73295383267 202 202 204
-91.6625172576078 763.474330165467 2745.41217711694 218 218 220
-96.91688367396 763.21536336547 2740.36653194388 198 198 200
-99.3715506905071 763.74523613402 2732.41429772541 218 218 220
-102.548100116861 764.075851356038 2725.17278289278 206 206 208
-107.136625796373 764.010735816747 2719.37576514525 203 203 205
-112.429545953818 763.747670319185 2714.3024452588 214 214 216
-114.265337746594 764.467489644007 2705.56447790803 219 219 221
-113.367335000225 765.971038125553 2693.87182530962 211 213 212
-106.321725188649 769.238288958361 2675.52842467547 213 215 214
236.057257594618 782.256814065677 2973.19719631289 235 236 238
226.823948178215 780.982517495987 2971.43775969883 251 252 254
220.068075671272 780.321244918105 2967.77226517133 241 242 246
213.316606592214 779.660707043411 2964.10967202708 221 222 226
206.569450804243 779.00087705629 2960.45020926518 230 229 234
198.199613312781 777.935247201284 2958.08274218576 213 214 216
192.276488080219 777.480201684177 2953.78663740366 214 215 217
184.735019193101 776.619618113805 2950.78567437445 204 205 207
176.39527293593 775.557292269684 2948.44003780841 198 199 201
168.873263822243 774.698902109663 2945.45289821729 203 204 206
160.557175454594 773.63903051277 2943.12442419149 206 207 209
153.854300459506 772.984859283707 2939.4973846611 219 220 222
145.559469307156 771.927127965027 2937.18433128526 201 202 204
138.869227323903 771.274417871047 2933.56616261866 206 207 209
129.00833075378 769.815433004742 2932.58587583006 212 213 215
119.96009176353 768.559724190822 2930.96098934518 213 214 216
111.718656378559 767.507054964099 2928.68637486411 215 215 217
105.85118821546 767.059117146285 2924.43065308135 215 215 217
99.1981675081246 766.410299034456 2920.83978110268 211 211 213
94.1147728624871 766.163749003054 2915.91813990831 207 207 209
89.0263224887526 765.916889375393 2910.9931266176 205 205 207
85.4896855346734 766.070924907694 2904.72471886973 205 205 207
81.9393172024596 766.224027276675 2898.44635222616 207 207 209
79.1492496035415 766.576482442176 2891.48511694179 206 206 208
74.0256664801473 766.32740398004 2886.53462393225 206 206 208
71.2057354507376 766.677678849886 2879.55172896617 205 205 207
64.530889042945 766.028157643208 2875.94473703313 205 205 207
57.8597946851573 765.379000138241 2872.34046688342 220 220 222
48.9033451839025 764.13194168643 2870.78186989677 226 226 228
44.5285461098788 764.081462272424 2865.14015573859 186 186 188
37.8685700676202 763.433265218824 2861.54395035796 186 186 188
31.9686223907318 762.984100177829 2857.26467726638 221 221 223
22.2968877754357 761.541435670787 2856.42189515861 228 228 230
15.6545412484186 760.894517444993 2852.83847626733 219 219 221
6.01670978408908 759.45435013764 2852.01998944901 193 193 195
-0.609638021322967 758.808559113652 2848.44846855897 199 199 201
-9.46847178292032 757.568960546781 2846.96067309101 217 217 219
-13.8510218388421 757.5177532427 2841.31304191671 207 207 209
-20.466475551125 756.872605786488 2837.74942164707 197 197 199
-25.6003231269246 756.622775046581 2832.79118942946 199 199 201
-32.2128782044904 755.977683180663 2829.22967072357 203 203 205
-37.3526875729353 755.727220109525 2824.26711347236 203 203 205
-43.2300137349093 755.27914086583 2820.00424469949 203 203 205
-46.9180499330932 755.421449065243 2813.6260250073 203 203 205
-49.8921960348109 755.759320410099 2806.5312734179 202 202 204
-53.6103647303658 755.899068053547 2800.13119706558 198 198 200
-57.3425628952673 756.037589537795 2793.7209442408 196 196 198
-61.0888549430246 756.174830259191 2787.30076244926 193 193 195
-62.6919018580541 756.898956895756 2778.73153864477 191 191 193
-65.7558835257164 757.229042735466 2771.57162390131 190 190 192
-67.408873171666 757.948974094311 2762.96617429544 182 182 184
-73.3638401921604 757.493410198897 2758.64698409605 187 187 189
-77.8990012585825 757.428346105619 2752.88865175599 184 184 186
-84.5679490299409 756.776674026407 2749.28592497578 187 187 189
-89.1159531609738 756.710012293799 2743.51856880877 193 193 195
-95.0807388481405 756.252726947748 2739.19225212888 178 178 180
-98.2405861065507 756.573881601087 2731.96279713459 205 205 207
-102.1180590062 756.698812025307 2725.44716271287 199 199 201
-107.403496228577 756.433713642692 2720.37896259176 212 212 214
-111.304604595508 756.556221508042 2713.84618204467 211 211 213
-113.834582583292 757.065385885214 2705.83924840385 213 213 215
-114.315957023953 758.153978257002 2695.61462726909 216 218 217
-111.39262478979 760.207727324195 2681.6878562259 213 215 214
242.428780121636 775.35001851324 2977.78106468664 191 192 194
231.537202950508 773.682841447766 2977.28789210624 251 252 254
223.961319386117 772.822785686474 2974.26198381649 245 246 248
218.034615969192 772.365986573057 2969.96327624988 240 241 243
212.925899485462 772.110365292087 2965.02323276701 207 208 210
206.1809106394 771.453409681489 2961.36564990384 241 241 243
198.626841308012 770.596693969075 2958.35527765811 187 186 191
192.703961754651 770.141578739001 2954.05935062101 195 194 199
186.780966103959 769.686812566639 2949.76334119051 189 188 193
180.050496030392 769.03228775865 2946.11629560787 181 181 183
170.909894345099 767.778943907504 2944.42417093622 191 191 193
162.589216519879 766.72682567223 2942.092409187 194 194 196
153.480802734879 765.476477734776 2940.42363338609 202 202 204
145.187883421532 764.426996583335 2938.11200773187 190 190 190
137.703992672441 763.578027280366 2935.15254867522 201 201 201
130.228238069459 762.729817070068 2932.1992860065 202 202 202
120.385756934483 761.285926135718 2931.2327198906 207 207 207
113.722924081295 760.638662652969 2927.63444827548 213 213 213
107.063934617594 759.991859887169 2924.03896514905 214 214 214
101.97897959011 759.742146871238 2919.11647125646 211 211 213
96.1062022149326 759.294017923297 2914.85689974445 207 207 209
91.7945418680501 759.242101144192 2909.26065443946 203 203 205
89.0303861218702 759.585154774317 2902.3181555895 204 204 206
83.1428465062274 759.136367614601 2898.04787928036 202 202 204
78.803139054668 759.082656657749 2892.43129294278 202 202 204
73.6819755707132 758.830936382171 2887.4825406002 201 201 203
70.8650127151516 759.170428973297 2880.50174271232 202 202 204
63.424514402314 758.32656851107 2877.57406011306 202 202 204
57.5229861756732 757.87712606838 2873.29363984214 225 225 227
49.3314989411209 756.837703746417 2871.05530093944 224 224 226
44.9569587188861 756.78168912748 2865.41374639154 179 179 181
37.5382110781093 755.939699841514 2862.5015463195 189 189 191
29.370711421481 754.902111651627 2860.28090029121 226 226 228
21.2158275432666 753.865515608579 2858.06940473535 225 225 227
15.3298519721439 753.417303232527 2853.80026514686 210 210 212
8.69305247701568 752.773353976794 2850.22117693281 189 189 191
1.31240445277392 751.93415246559 2847.33661020651 199 199 201
-6.80596696074964 750.900185748398 2845.15159663357 217 217 219
-13.4250866967509 750.257389544779 2841.58503621764 205 205 207
-20.0406823540287 749.614799573493 2838.02132600321 193 193 195
-25.174466120131 749.362076427846 2833.06312539201 195 195 197
-30.3136310793521 749.108808216291 2828.10131555524 200 200 202
-35.4578513188346 748.855130470656 2823.13583896355 200 200 202
-42.0720802977852 748.212222650473 2819.57282339641 199 199 201
-47.2223022228233 747.957759982299 2814.60299207899 199 199 201
-49.465669788259 748.478721572974 2806.80359372809 197 197 199
-51.7319692416731 748.997746167632 2798.98785622797 193 193 195
-53.2973749829009 749.708522481791 2790.44585169166 191 191 191
-57.7755242102513 749.643148118539 2784.72884687885 189 189 189
-61.5441314491878 749.770206568079 2778.29214227676 187 187 189
-68.1949144793668 749.123332175602 2774.70290228334 185 185 187
-70.5531259106131 749.634422566126 2766.82020116365 179 179 181
-75.0721355978343 749.565121098253 2761.07385031695 186 186 188
-76.7590484086962 750.265396802719 2752.44370952511 180 180 182
-81.3058982813839 750.193530891888 2746.67686926739 182 182 184
-85.1564653065833 750.31293403984 2740.18071149152 182 182 184
-93.2438212540072 749.278253755276 2738.0181780775 167 167 169
-99.2139777833181 748.820144976315 2733.68796378868 201 201 203
-103.786282512899 748.745181779805 2727.90294955062 200 200 202
-106.276482849242 749.244235361193 2719.92450588803 214 214 216
-108.789696509907 749.741076502144 2711.92966264609 208 208 210
-113.403909136689 749.662140373969 2706.11395387829 211 211 213
-116.646658663722 749.964301664976 2698.82430505513 216 218 217
-115.08916851483 751.601372798909 2686.37507416131 207 209 208
232.788180225103 766.531485217408 2976.92349257141 240 241 243
226.032797905473 765.875230600357 2973.2580843311 252 253 255
221.742651943557 765.814721046341 2967.67739173882 197 198 200
214.98920187959 765.159469735337 2964.01368379083 241 242 244
209.056009000108 764.702831956955 2959.71027269152 203 203 205
200.681368884827 763.653152969314 2957.33940488189 196 195 200
195.566145592246 763.395391481251 2952.39463363385 187 186 191
188.018011228895 762.545111435426 2949.38889084805 180 179 184
180.478377166897 761.695908343607 2946.38931556709 169 169 171
169.727489489756 760.059057127199 2945.99799093273 178 178 180
163.016340097835 759.409323675913 2942.3649755937 182 182 184
154.708154573742 758.366521846661 2940.0423169696 197 197 199
145.61439387752 757.128383706717 2938.38422535049 184 184 184
135.741658897842 755.695354385956 2937.39548811611 196 196 196
129.860507221781 755.245620997115 2933.12983776787 198 198 198
122.395135578847 754.403778225281 2930.1841341808 205 205 205
116.517430574401 753.95468251817 2925.92098562834 207 207 205
108.276879891973 752.918405382143 2923.64738999322 204 204 202
102.404884398879 752.470130672017 2919.3883845459 212 212 210
98.881510196708 752.608273391619 2913.12951074971 199 199 199
95.3444494608822 752.745546324618 2906.86071088754 197 197 197
91.7936556963985 752.881915832495 2900.5819510838 195 195 195
85.1232153209453 752.23753106879 2896.97817919472 192 192 192
80.0051023198423 751.983130469398 2892.03162463589 196 196 196
74.8818842424281 751.7283461738 2887.08136735479 194 194 194
70.5237917703157 751.667798753787 2881.45141869542 197 197 199
63.8529542291546 751.023690892684 2877.84765477203 195 195 197
57.951435905653 750.574070020812 2873.56724077633 229 229 231
50.5227653664875 749.736594068966 2870.6478702444 203 203 205
44.6243250556226 749.28728229426 2866.36968913139 185 185 187
37.9662366236273 748.644286510527 2862.77487846518 205 205 207
30.555050715289 747.808177623333 2859.86848431676 227 227 229
21.6429169617789 746.586097527152 2858.34213928169 222 222 224
14.2522011547337 745.751497586914 2855.45059198966 195 195 197
6.86976352500146 744.917528041075 2852.56475444108 187 187 189
0.242990694067302 744.27678080957 2848.99295098877 203 203 205
-5.63420423551353 743.828951172423 2844.73017861336 209 209 211
-11.5122143379951 743.380995753365 2840.46681466462 194 194 196
-18.1322895413687 742.740601514564 2836.89957377642 183 183 183
-23.2704825279855 742.484633956223 2831.93845487061 186 186 186
-28.4137784925544 742.228153025657 2826.97333962982 193 193 193
-32.827657222775 742.162917423523 2821.30322105186 193 193 193
-39.4486755303964 741.522088319869 2817.73529428459 192 192 192
-44.6054793788897 741.264224739363 2812.7606743641 187 187 187
-46.8547268347148 741.770879300124 2804.95694108725 190 190 188
-49.1269783968078 742.275591014383 2797.13681627895 186 186 184
-51.4218404377558 742.778490541226 2789.2999969959 182 182 180
-57.3473846246728 742.325638814447 2785.00214977415 178 178 176
-62.5544899599255 742.063072942476 2779.99104141439 179 179 177
-67.0494986860493 741.990388262189 2774.26177776293 180 180 178
-70.1243078672222 742.297282637578 2767.09389645452 177 177 177
-73.217595027355 742.602500859154 2759.91261157476 176 176 176
-74.9080967055984 743.285966660437 2751.2797839909 170 170 170
-78.0426537998247 743.587572709927 2744.06856335882 170 170 170
-82.6078382119304 743.508396474949 2738.28839497396 157 157 157
-92.1104260376562 742.10231662546 2737.56841629222 157 157 157
-98.7847149101426 741.454513412185 2733.96183723039 212 212 212
-104.056383956871 741.184984588909 2728.9038899896 197 197 197
-105.149197694287 742.048117661156 2719.47021257029 190 190 190
-109.749316232561 741.96488662415 2713.66469915347 209 209 209
-112.973312455213 742.257663895682 2706.38859746896 204 204 204
-118.978555114803 741.795189281589 2702.0329263817 213 213 215
-118.787835852842 743.026401330088 2691.06120608274 211 211 213
-110.401876519285 746.510801246638 2671.22048006607 211 211 213
235.012067031926 758.655994926692 2984.67122228985 190 191 193
234.039617634043 759.374360754613 2976.55910290353 229 230 232
226.459372976587 758.524914686235 2973.53008690452 244 245 247
222.990395712784 758.654529628507 2967.31060341497 189 190 192
217.053274706424 758.197215165149 2963.00434130511 207 208 210
211.931988459848 757.935507727293 2958.05544938234 177 177 179
203.550637182793 756.893469963384 2955.67975521262 193 192 197
197.617359846275 756.437482525007 2951.37628618269 173 172 177
190.064971000288 755.592314019355 2948.36719064557 179 179 181
181.713571472514 754.553479350767 2946.01322536242 160 160 162
170.959711904242 752.932797413681 2945.62012271836 169 169 171
165.852340275474 752.673949785687 2940.68133228449 179 179 181
159.138956021438 752.026922502306 2937.04641607648 190 190 192
150.832375307434 750.992674558511 2934.72496414057 177 177 177
138.55674293021 748.990906177796 2935.6968388915 188 188 188
131.080638167555 748.153361743579 2932.74337640882 190 190 190
123.612948968864 747.316678295342 2929.79601890911 199 199 199
117.73322515336 746.867359298205 2925.53140574643 198 198 196
110.277934840965 746.031998530641 2922.59274868662 201 201 199
103.616101073929 745.390352646295 2918.99552426164 206 206 204
100.091068964573 745.520026794706 2912.73540571817 195 195 195
95.771454359161 745.456323410418 2907.13333449994 193 193 193
91.4425377640344 745.39204569267 2901.52451716175 192 192 192
83.9974241459616 744.558147019276 2898.59353928765 190 190 190
78.8839055855974 744.301131430063 2893.65030209152 190 190 190
75.3100043968771 744.42774279527 2887.3547417959 191 191 191
72.4922922629485 744.745009731055 2880.37328816282 191 191 193
65.8171146607005 744.103198518001 2876.76609519248 193 193 195
58.3798289571367 743.270292455873 2873.84079696844 219 219 221
50.9508230814086 742.437987049947 2870.92120953371 191 191 193
44.2911948336326 741.797465379923 2867.32529515406 194 194 196
37.6350392180069 741.157205518302 2863.73219396269 210 210 212
30.2258692991146 740.326507046096 2860.82699417584 225 225 227
23.5792016532166 739.68695607202 2857.24077460687 213 213 215
17.6888629949561 739.238061646267 2852.96846866868 189 189 191
10.2972727952557 738.40866783974 2850.07601940383 189 189 191
3.66154573749045 737.769794071962 2846.49773433086 206 206 208
-3.71621514249942 736.941311491208 2843.61531485053 202 202 204
-11.0861171958756 736.113356433799 2840.73888955037 190 190 192
-18.4478357124684 735.285994231944 2837.86810519657 179 179 179
-23.5837485446548 735.027283944596 2832.9086253309 182 182 182
-26.513556667995 735.33570883037 2825.84586613612 190 190 190
-30.9314643514789 735.264550432991 2820.17250240681 191 191 191
-36.8244562456093 734.814664395946 2815.89826805861 189 189 189
-41.9877938720314 734.553403803431 2810.91889445653 182 182 182
-44.9714121885432 734.857170744374 2803.81710351095 187 187 185
-48.6995102938166 734.971051464426 2797.40969809656 185 185 183
-51.7177145688819 735.271897069381 2790.28282025437 180 180 178
-56.1976969708287 735.195112489379 2784.56442873919 172 172 170
-59.9678320375703 735.305259155758 2778.1265309206 174 174 172
-63.0347862739755 735.601767135372 2770.96429122014 177 177 175
-67.5502545447673 735.521719469444 2765.22015871315 174 174 174
-70.649668083953 735.815329036368 2758.03437389035 171 171 171
-72.3460181682676 736.481742142819 2749.39722029685 167 167 167
-75.486701641547 736.771739537657 2742.18149972173 166 166 166
-79.3521169851896 736.873301153692 2735.67448771206 149 149 149
-88.864498905298 735.479870231749 2734.9474731516 168 168 168
-96.2498263564242 734.647429020697 2732.05954845113 204 204 204
-102.227795945535 734.188059986698 2727.72366392508 182 182 182
-105.416684239572 734.473046992878 2720.47297326804 187 187 187
-110.014446294618 734.384390938666 2714.66914063742 209 209 209
-113.929000107962 734.480428809829 2708.12677360056 204 204 204
-119.930064975341 734.018053668237 2703.77413158788 210 210 212
-120.422409843978 735.039411806241 2693.54121720112 212 212 214
-116.145687641492 737.354969005474 2678.12650580311 210 210 212
243.709586798787 753.249959349694 2978.59760762408 216 217 219
241.891324781895 753.757006970691 2971.10660135755 242 243 245
231.823078669815 752.332395056772 2969.97617656671 205 206 208
225.879766696841 751.874220593183 2965.66542213695 247 248 250
219.117692013171 751.223617663259 2961.99548556306 241 242 244
213.992701468892 750.958851562101 2957.04359834607 199 199 201
206.420794832408 750.116891761342 2954.02066467583 176 176 178
198.857624721175 749.276017692982 2951.00377532163 151 151 153
190.493173676864 748.244041761513 2948.64038345645 174 174 176
182.949000794405 747.405165117539 2945.63757019317 151 151 153
174.608021659604 746.375508879213 2943.29120536583 152 152 154
168.689367639248 745.92181135311 2938.99834868872 163 163 165
161.969340143644 745.276844749035 2935.35862709087 178 178 178
152.857193214693 744.058904124106 2933.68730920367 164 164 164
142.16907770317 742.46051543233 2933.34197874908 168 168 168
133.095528631602 741.245970511473 2931.69865847233 169 169 169
126.415381969525 740.604902240021 2928.08816156464 180 180 180
118.949451527416 739.773907087118 2925.14181336043 178 178 176
111.491607435366 738.943696864758 2922.2016255768 195 195 193
104.827699748026 738.304471467322 2918.60261550595 191 191 189
101.30119736202 738.42578186043 2912.34138876348 182 182 182
95.4173082734067 737.976573508334 2908.07375666587 184 184 184
91.8698477287512 738.096454904027 2901.79732966878 183 183 183
85.2013410107286 737.457404986531 2898.1952810283 187 187 187
81.6351801955904 737.576129914655 2891.90529194832 184 184 184
78.0551950123112 737.693854402417 2885.60527622141 184 184 184
76.0019390227371 738.188665327454 2877.94356135076 184 184 186
68.5497265870954 737.359807489297 2875.00746292514 202 202 204
61.1056474443519 736.531668282385 2872.07726413712 189 189 191
52.1423901507516 735.327103742318 2870.51394727655 176 176 178
45.4804052637709 734.688960142291 2866.91633656424 205 205 207
38.0627646170586 733.862843260777 2864.0053138497 217 217 219
32.1672328440505 733.413408647184 2859.72924057564 214 214 216
24.7614314930744 732.588240522284 2856.82651074786 181 181 183
19.6215151390513 732.326726536688 2851.86411444248 188 188 190
12.975575916514 731.689643839166 2848.27814094844 198 198 200
5.58490831819247 730.865502972031 2845.38668158121 216 216 218
-2.54379663044579 729.854775880774 2843.19429472143 194 194 196
-9.91611208279575 729.031872408494 2840.31585100709 188 188 190
-17.2806185045813 728.209522297433 2837.44336550558 176 176 176
-21.6790572712835 728.134384924624 2831.78409505523 179 179 179
-24.6126342934112 728.431422009846 2824.71854602384 188 188 188
-29.0348923392818 728.354216008624 2819.04229246871 188 188 188
-34.1993808999908 728.090073731813 2814.06177545648 185 185 185
-40.0999167870415 727.63930770004 2809.78206784947 178 178 178
-43.0873521478667 727.931682940105 2802.67745214579 180 180 178
-46.8194656405916 728.036874234866 2796.26709187769 184 184 182
-49.8416040227399 728.32625891174 2789.13730406546 179 179 177
-54.3257760825118 728.243489132193 2783.41584506169 169 169 167
-57.3803754179638 728.530005134574 2776.26251108126 171 171 169
-58.3009447700999 729.369991013718 2766.95358004762 176 176 174
-62.1142708279918 729.46800574684 2760.48431070717 171 171 171
-65.2286006058269 729.749354326271 2753.28765068033 168 168 168
-69.0722177672927 729.844616423111 2746.79640872981 164 164 164
-72.9298851698217 729.938590934195 2740.29497493783 163 163 163
-78.9210555708393 729.478749925364 2735.94951847085 142 142 142
-87.0258191446969 728.466676442631 2733.77448040485 193 193 193
-94.4162230640384 727.639091795152 2730.88319474071 197 197 197
-100.398852866061 727.179166000491 2726.54392910676 175 175 175
-106.382258913512 726.718848730308 2722.20409877303 199 199 199
-110.975541130603 726.62485005858 2716.40348661114 197 197 197
-115.578484093248 726.529770039646 2710.59586569139 207 207 207
-119.5002110925 726.616504205735 2704.04825153388 203 203 205
-121.369266032517 727.250316094383 2695.28573537319 215 215 217
-117.772454199992 729.34267279657 2680.61175403565 201 201 201
255.886290179483 747.677676286475 2978.75068969777 196 197 199
249.100789439328 747.02644971837 2975.06347343972 230 231 233
242.319412261366 746.375955897966 2971.37954462843 173 174 176
231.427570825002 744.774535364587 2970.88651354633 233 234 236
224.666035283634 744.126325633525 2967.21668545319 161 162 164
219.545753179066 743.85872516085 2962.26849160501 194 195 197
216.053953190479 743.970838328308 2956.03237478526 198 198 200
210.920430143844 743.702961374787 2951.07428641814 196 196 198
203.3460384077 742.866565531407 2948.04957942867 168 168 170
193.350802465087 741.463162672136 2946.97218869583 170 170 172
186.607610482112 740.818271518618 2943.31596952592 156 156 158
179.063263933091 739.985046109781 2940.31276451564 150 150 152
173.133689130881 739.530314519018 2936.01198589297 149 149 151
165.601695728006 738.698548289776 2933.01803781001 173 173 173
156.480285114923 737.490670833671 2931.34005545242 159 159 159
144.986000947487 735.719443902597 2931.64447730412 160 160 160
135.110824925276 734.327002342414 2930.65447056794 160 160 160
127.634209508973 733.500309427453 2927.7003983896 170 170 170
120.165682093253 732.674371704838 2924.7524876777 171 171 169
114.281437549847 732.224596862603 2920.48459503394 192 192 190
107.610936416988 731.587406306601 2916.8808155406 181 181 179
100.944044100243 730.950637950959 2913.27994877062 176 176 176
95.8439981705101 730.688669311367 2908.34615860676 179 179 179
91.5178814771389 730.613247578469 2902.73960900749 178 178 178
86.4056398745436 730.350559800534 2897.79697429752 184 184 184
81.2882014083187 730.087491248972 2892.85086481854 180 180 180
78.4835162186379 730.383529069455 2885.8787471657 180 180 180
75.6606237674 730.678241258237 2878.8934239658 190 190 192
69.7468082480603 730.227116353931 2874.60408785218 210 210 212
62.3003655023924 729.404002894275 2871.67190661734 180 180 182
52.5704896578616 728.024258298054 2870.78729539345 178 178 180
45.146819746134 727.202989691916 2867.87163201648 213 213 215
36.2121107144677 726.011322893112 2866.32937020686 219 219 221
31.0805844929813 725.747550796499 2861.37275017282 202 202 204
24.4336395591866 725.112995839488 2857.78635489775 178 178 180
20.8016645874598 725.21853277525 2851.44858893132 190 190 192
15.6547301470344 724.953542312974 2846.48079297928 199 199 201
8.25708312952056 724.13403374697 2843.58429754565 217 217 219
0.121291758036879 723.130738247668 2841.3868112292 189 189 191
-9.49010438088083 721.759745057135 2840.58783832297 186 186 188
-15.3712043300152 721.310822400257 2836.32222957919 177 177 177
-21.2531211025735 720.861803699664 2832.0560282162 180 180 180
-24.1861771200782 721.14771089863 2824.9908004971 187 187 187
-28.6081713625912 721.064880477886 2819.31470968987 187 187 187
-32.3066121988131 721.16461473067 2812.92873180808 185 185 185
-38.9424386495971 720.530053979174 2809.35010205225 178 178 178
-42.6601277931997 720.628049672951 2802.95016185553 177 177 175
-47.1184728735075 720.541856222243 2797.2477025158 183 183 181
-48.689315608234 721.185906316337 2788.70141860541 179 179 177
-52.4535017765801 721.279926129207 2782.26775158453 168 168 166
-54.7920577859564 721.737495158591 2774.39902800338 169 169 167
-55.718294671697 722.557605164369 2765.08588777846 172 172 170
-58.8225116165981 722.828839877869 2757.8965075313 170 170 170
-61.9451857687425 723.098459864112 2750.69373908181 166 166 166
-65.7972925505588 723.184610329082 2744.19629667211 160 160 160
-68.9546871946964 723.451118849183 2736.96834283682 158 158 158
-74.9570656002028 722.990190635549 2732.61475594129 139 139 139
-83.7778979315629 721.803945028816 2731.15477876436 161 161 161
-92.5819383428219 720.61882077962 2729.70698008857 180 180 180
-97.8691994404684 720.339186741683 2724.63767865241 177 177 177
-105.95292942912 719.335896856025 2722.47793277185 194 194 194
-110.546113051148 719.236200637245 2716.67736322443 198 198 198
-117.22921292808 718.594225582111 2713.06442639821 201 201 201
-118.379114683439 719.394125205537 2703.58904436648 200 200 202
-120.938794480868 719.831102628739 2695.56021360883 216 216 218
-119.400390088704 721.345437274407 2683.09652535813 201 201 201
261.292281808378 741.419488567116 2975.22710071532 208 209 211
247.873563731021 739.266379092598 2976.60489278131 238 239 241
238.620871043517 738.05551353271 2974.83172611094 220 221 223
231.031829334083 737.221664866562 2971.79641194513 183 184 186
225.91446482945 736.951164201722 2966.85031843736 158 159 161
222.430076448376 737.055214938842 2960.61953361227 173 174 176
218.115923898198 736.971521657146 2955.02132070168 174 174 176
214.607037977207 737.074304746111 2948.7727706662 166 166 168
207.023873883735 736.24260505923 2945.74172819465 170 170 172
197.829220503809 735.038621979783 2944.01067031808 165 165 167
189.459624865425 734.022658827998 2941.64363013476 155 155 157
181.102915722858 733.008038345165 2939.28593844815 148 148 148
173.562498982837 732.180687469497 2936.28561199596 146 146 146
164.427750023808 730.982314472283 2934.59830300571 164 164 164
156.90854235356 730.157099974502 2931.61336228199 150 150 150
147.803813543453 728.961477176752 2929.94753499164 151 151 149
137.921390188183 727.581980475908 2928.95234007734 149 149 147
129.645469519101 726.574771045726 2926.65325121771 155 155 153
122.962849758861 725.938958626456 2923.04069365329 163 163 161
116.284073388109 725.303606924135 2919.43092457756 187 187 185
109.60891078504 724.668588207583 2915.8240713628 166 166 164
102.937870989313 724.034132101288 2912.21991523178 165 165 165
97.8335187322115 723.768807896863 2907.28328079973 170 170 170
95.0621116607926 724.056040931629 2900.33524256703 168 168 168
89.1640727390168 723.60559666952 2896.05734669326 174 174 174
84.0405741453454 723.33921886236 2891.1065328595 172 172 172
78.1390588425368 722.888672206063 2886.82611636428 175 175 175
74.5485792098983 722.988967617673 2880.51840470537 208 208 210
68.6391597881606 722.537929999132 2876.23225585883 221 221 223
61.962795477811 721.903650344301 2872.62453524432 175 175 177
53.7623092256552 720.903597459924 2870.38016665269 180 180 182
44.8125545429678 719.721515067766 2868.82675199944 223 223 225
36.639135979732 718.723475736614 2866.60201555221 216 216 218
29.9929560611618 718.091601123858 2863.01589395245 173 173 175
23.3503920086333 717.459929820855 2859.43239460095 192 192 194
18.9702394979232 717.375201719374 2853.78662614592 197 197 199
14.5806908048041 717.289761807768 2848.13374811525 200 200 202
7.93582071858268 716.657814074595 2844.54857567054 217 217 219
