ply
format ascii 1.0
comment KinectMotionCapture
element vertex 800
property float x
property float y
property float z
property uchar red
property uchar green
property uchar blue
end_header
203.191146254539 247.030451893806 2598.00004959106 160 134 121
211.724996566772 248.732790350914 2615.9999370575 165 146 132
223.618805408478 254.142761230469 2673.00009727478 113 99 88
-82.6800540089607 247.36388027668 2677.00004577637 22 25 18
-76.3909667730331 250.69397687912 2713.00005912781 22 25 18
-69.8797255754471 253.931432962418 2747.99990653992 20 23 16
-61.9059801101685 251.993834972382 2726.99999809265 20 23 16
-53.9067685604095 249.409005045891 2698.99988174438 28 31 24
-46.6292016208172 249.87331032753 2703.9999961853 14 15 9
-39.3241606652737 250.337272882462 2709.00011062622 14 15 7
-32.3570966720581 253.665626049042 2744.99988555908 18 18 10
-24.7586164623499 252.557992935181 2733.00004005432 18 19 11
-17.0419346541166 248.770087957382 2691.99991226196 19 20 12
-9.76504758000374 250.526517629623 2710.99996566772 22 22 14
-2.34687887132168 248.308911919594 2687.00003623962 24 24 16
4.97186463326216 247.661978006363 2680.0000667572 49 50 42
12.2798904776573 247.569173574448 2678.99990081787 21 22 14
19.6043495088816 247.753277420998 2680.99999427795 23 23 15
26.9195567816496 247.752219438553 2680.99999427795 25 26 18
34.0942032635212 246.734365820885 2670.00007629395 19 20 12
41.2551760673523 245.993360877037 2661.99994087219 15 18 9
48.609271645546 246.453434228897 2667.00005531311 14 17 8
56.367639452219 248.576462268829 2690.00005722046 15 18 9
63.6355355381966 248.296543955803 2687.00003623962 16 19 10
70.7283467054367 247.461900115013 2677.99997329712 15 18 9
77.5677934288979 245.980098843575 2661.99994087219 13 16 7
84.5745876431465 245.237290859222 2654.00004386902 15 18 9
92.1946838498116 246.249750256538 2664.99996185303 16 19 12
98.7921059131622 244.582310318947 2647.0000743866 11 14 7
107.974261045456 249.105244874954 2696.00009918213 10 13 6
114.68555778265 247.71437048912 2680.99999427795 15 16 10
121.496610343456 246.692791581154 2670.00007629395 25 25 17
129.452958703041 247.980728745461 2684.00001525879 23 19 8
135.29397547245 245.295524597168 2654.99997138977 23 17 5
139.63420689106 240.300491452217 2601.0000705719 64 51 35
145.879447460175 238.908395171165 2585.99996566772 117 100 84
152.633726596832 238.439932465553 2581.00008964539 124 98 81
159.360155463219 237.971186637878 2575.99997520447 136 109 90
166.510850191116 238.148838281631 2578.00006866455 148 117 97
173.604518175125 238.233804702759 2578.9999961853 149 116 97
180.91307580471 238.595560193062 2582.99994468689 142 111 91
188.170000910759 238.864660263062 2585.99996566772 147 116 96
195.4425573349 239.133477210999 2588.99998664856 154 123 103
203.278228640556 240.048512816429 2598.99997711182 161 135 120
211.410477757454 241.240277886391 2611.99998855591 163 144 130
220.783978700638 243.724599480629 2638.99993896484 16 7 0
-84.1662511229515 244.375213980675 2724.99990463257 22 25 18
-76.7885521054268 244.558095932007 2726.99999809265 22 25 18
-69.984532892704 246.803313493729 2752.00009346008 20 23 16
-61.6362914443016 243.487909436226 2714.99991416931 19 22 15
-53.5895749926567 240.620583295822 2683.00008773804 19 22 15
-46.2863557040691 240.712448954582 2684.00001525879 15 18 11
-39.8484990000725 246.185049414635 2744.99988555908 16 19 10
-31.9930948317051 243.406385183334 2713.99998664856 15 18 9
-24.6872361749411 244.394183158875 2724.99990463257 15 18 9
-17.3085853457451 245.202258229256 2733.99996757507 17 20 11
-9.72585566341877 242.153510451317 2700.00004768372 18 21 12
-2.35746428370476 242.064088582993 2698.99988174438 21 24 15
4.97579574584961 240.539357066154 2681.99992179871 36 39 30
12.2896013781428 240.449279546738 2680.99999427795 20 23 14
19.3200223147869 236.950844526291 2641.99995994568 19 22 13
26.7600901424885 239.012628793716 2664.99996185303 21 24 15
34.0573973953724 239.190652966499 2667.00005531311 20 23 14
41.1950051784515 238.381832838058 2657.99999237061 18 21 14
48.4473742544651 238.379925489426 2657.99999237061 17 20 13
56.4120374619961 241.426855325699 2691.99991226196 16 19 12
63.8751834630966 241.872668266296 2697.00002670288 17 20 13
70.8635225892067 240.61419069767 2683.00008773804 17 20 13
77.6877701282501 239.086374640465 2665.99988937378 18 21 14
84.5783054828644 238.006725907326 2654.00004386902 17 20 13
91.6106104850769 237.46483027935 2648.00000190735 16 19 12
100.326709449291 241.047725081444 2687.99996376038 15 18 11
108.780018985271 243.554100394249 2716.00008010864 14 17 10
115.84560573101 242.831856012344 2707.99994468689 14 17 10
122.047990560532 240.495279431343 2681.99992179871 14 14 6
129.265680909157 240.310534834862 2680.0000667572 12 14 3
136.268123984337 239.766836166382 2674.00002479553 17 19 6
140.767693519592 235.098317265511 2621.99997901917 26 23 6
146.506324410439 232.850581407547 2596.99988365173 67 58 41
152.817770838737 231.678634881973 2584.00011062622 121 100 83
159.428909420967 231.044337153435 2576.99990272522 132 106 89
166.324257850647 230.858117341995 2575.00004768372 149 118 100
173.679277300835 231.29914700985 2579.99992370605 145 114 96
181.060925126076 231.73987865448 2585.00003814697 141 112 94
188.614666461945 232.359603047371 2592.00000762939 143 115 94
195.903852581978 232.620432972908 2595.00002861023 137 106 85
203.521519899368 233.239516615868 2601.99999809265 154 128 111
211.419448256493 234.127208590508 2611.99998855591 142 123 108
220.207691192627 235.910847783089 2631.99996948242 57 48 41
234.114646911621 242.892533540726 2710.00003814697 12 8 5
-86.9806632399559 244.863063097 2815.99998474121 24 25 19
-76.9607946276665 237.649276852608 2733.00004005432 22 25 18
-69.377176463604 237.217590212822 2727.9999256134 20 23 16
-62.0248913764954 237.568199634552 2732.00011253357 19 22 15
-54.7304265201092 238.266319036484 2740.00000953674 21 24 17
-47.2368784248829 238.181561231613 2739.00008201599 15 18 11
-39.255004376173 235.139802098274 2703.9999961853 14 17 8
-31.3578844070435 231.315046548843 2660.00008583069 15 18 9
-23.9906832575798 230.27266561985 2648.00000190735 16 19 10
-17.100403085351 234.88250374794 2700.99997520447 17 20 11
-9.74788889288902 235.317885875702 2706.00008964539 16 19 10
-2.35319812782109 234.274581074715 2694.00000572205 14 17 8
5.00012887641788 234.361484646797 2694.9999332428 16 19 10
12.3313888907433 233.926326036453 2690.00005722046 16 19 10
19.6133740246296 233.229964971542 2681.99992179871 21 24 15
26.9721187651157 233.576819300652 2686.00010871887 18 21 12
34.0205542743206 231.662377715111 2664.00003433228 21 24 15
41.1967746913433 231.13901913166 2657.99999237061 16 19 12
48.4494529664516 231.137111783028 2657.99999237061 15 18 11
56.0791604220867 232.700169086456 2676.00011825562 15 18 11
63.7121275067329 233.915030956268 2690.00005722046 15 18 11
70.9986239671707 233.738273382187 2687.99996376038 15 18 11
77.9242292046547 232.51773416996 2674.00002479553 15 18 11
84.6775323152542 231.036096811295 2657.00006484985 15 18 11
92.0988917350769 231.467127799988 2661.99994087219 15 18 11
100.704237818718 234.59330201149 2697.99995422363 14 17 10
108.263976871967 235.023677349091 2703.00006866455 13 16 9
114.695452153683 233.106136322021 2680.99999427795 12 15 8
121.32503092289 231.796965003014 2665.99988937378 13 12 7
128.258213400841 231.183141469955 2658.99991989136 16 18 7
135.10175049305 230.48210144043 2651.00002288818 15 17 4
141.954824328423 229.867741465569 2644.00005340576 20 17 2
146.907418966293 226.384192705154 2604.00009155273 38 29 14
153.060764074326 224.986970424652 2588.00005912781 117 96 79
159.744963049889 224.458903074265 2582.00001716614 127 100 83
166.718795895576 224.365204572678 2581.00008964539 145 114 96
174.023151397705 224.705889821053 2585.00003814697 144 113 93
181.278631091118 224.95935857296 2588.00005912781 137 109 88
188.840821385384 225.560188293457 2595.00002861023 142 114 93
195.987477898598 225.639224052429 2595.99995613098 127 96 75
203.764617443085 226.413309574127 2605.00001907349 140 113 96
211.509078741074 227.100133895874 2612.99991607666 130 108 94
220.802411437035 229.351013898849 2638.99993896484 56 47 38
-95.2719748020172 238.701596856117 2834.00011062622 21 22 16
-86.5209475159645 235.925778746605 2801.00011825562 32 33 27
-77.1048069000244 230.62264919281 2737.99991607666 21 24 17
-69.074884057045 228.772580623627 2716.00008010864 18 21 14
-62.2772239148617 231.049552559853 2743.00003051758 19 22 15
-54.7926388680935 231.051936745644 2743.00003051758 21 24 17
-47.0663793385029 229.874774813652 2729.00009155273 16 19 12
-39.3582731485367 228.36035490036 2710.99996566772 16 19 10
-31.5596126019955 225.4978120327 2677.00004577637 16 19 10
-24.2000762373209 224.9935567379 2671.0000038147 15 18 9
-17.0378051698208 226.679101586342 2690.99998474121 16 19 10
-9.58978850394487 224.236816167831 2661.99994087219 16 19 10
-2.36115884035826 227.690741419792 2703.00006866455 18 21 12
5.00590493902564 227.269515395164 2697.99995422363 15 18 9
12.3227369040251 226.426795125008 2687.99996376038 16 19 10
19.6215081959963 226.00494325161 2683.00008773804 15 18 9
26.7824456095696 224.656209349632 2667.00005531311 20 23 14
34.0730622410774 224.739208817482 2667.99998283386 21 24 15
41.2914976477623 224.400714039803 2664.00003433228 21 24 17
48.5790781676769 224.483087658882 2664.99996185303 19 22 15
55.9557601809502 224.902123212814 2670.00007629395 18 21 14
63.2410645484924 224.899649620056 2670.00007629395 15 18 11
70.5525428056717 224.981158971786 2671.0000038147 14 17 10
77.694334089756 224.556922912598 2665.99988937378 12 15 8
84.4898223876953 223.290175199509 2651.00002288818 13 16 9
91.5491357445717 222.865432500839 2645.99990844727 14 17 10
99.2526635527611 223.95646572113 2658.99991989136 13 16 9
106.185600161552 223.27846288681 2651.00002288818 12 15 8
112.860552966595 222.179099917412 2638.00001144409 10 13 6
120.101273059845 222.258552908897 2638.99993896484 15 16 11
128.408208489418 224.190562963486 2661.99994087219 22 23 15
135.769844055176 224.35362637043 2664.00003433228 16 18 7
142.336487770081 223.253190517426 2651.00002288818 23 19 7
147.082701325417 219.541952013969 2607.00011253357 26 17 2
153.540179133415 218.609541654587 2595.99995613098 112 90 76
160.37018597126 218.266397714615 2592.00000762939 121 94 77
167.306944727898 218.091368675232 2589.99991416931 118 85 68
174.703449010849 218.505516648293 2595.00002861023 118 85 66
181.916400790215 218.666791915894 2596.99988365173 120 92 71
189.43065404892 219.164595007896 2602.9999256134 122 94 73
196.599379181862 219.241097569466 2604.00009155273 120 87 68
204.320400953293 219.906687736511 2611.99998855591 118 91 74
212.165161967278 220.656126737595 2621.00005149841 122 100 86
221.815302968025 223.173141479492 2651.00002288818 62 52 43
-84.9799141287804 224.21669960022 2750.99992752075 21 24 17
-76.9952833652496 222.834348678589 2733.99996757507 21 24 17
-69.4083198904991 222.429752349854 2729.00009155273 19 22 15
-61.689417809248 221.454292535782 2717.00000762939 20 23 16
-54.3953329324722 221.945628523827 2723.00004959106 22 25 18
-46.7750802636147 221.051067113876 2711.99989318848 16 19 12
-39.185643196106 219.993144273758 2698.99988174438 18 21 12
-31.7495316267014 219.505548477173 2693.00007820129 17 20 11
-24.5091207325459 220.484778285027 2704.99992370605 17 20 11
-17.0701555907726 219.752013683319 2696.00009918213 17 20 11
-9.69105213880539 219.263508915901 2690.00005722046 17 20 11
-2.36824317835271 220.975458621979 2710.99996566772 16 19 10
5.03579620271921 221.219941973686 2713.99998664856 14 17 8
12.3048992827535 218.774273991585 2684.00001525879 14 17 8
19.3809568881989 216.002270579338 2650.00009536743 10 13 4
26.7232786864042 216.897949576378 2661.00001335144 21 24 15
34.1383032500744 217.874869704247 2673.00009727478 18 21 12
41.3551777601242 217.465817928314 2667.99998283386 21 24 17
48.781581223011 218.116104602814 2676.00011825562 20 23 16
55.9580288827419 217.624947428703 2670.00007629395 19 22 15
63.2436275482178 217.622548341751 2670.00007629395 17 20 13
70.6610679626465 218.027427792549 2674.99995231628 15 18 11
77.9306218028069 217.94293820858 2674.00002479553 13 16 9
84.6207216382027 216.391146183014 2654.99997138977 13 16 9
91.3106203079224 215.083584189415 2638.99993896484 13 16 9
98.1741473078728 214.346349239349 2630.00011444092 13 16 9
105.148404836655 213.934808969498 2625 12 15 8
112.308882176876 213.930502533913 2625 12 15 8
120.470196008682 215.718820691109 2647.0000743866 13 14 9
129.185199737549 218.24024617672 2677.99997329712 18 19 13
137.559115886688 219.946295022964 2698.99988174438 15 16 8
143.791899085045 218.229472637177 2677.99997329712 22 18 6
148.386240005493 214.31228518486 2630.00011444092 29 20 5
153.782889246941 211.86175942421 2599.99990463257 98 76 62
160.562172532082 211.448192596436 2595.00002861023 123 96 79
167.636588215828 211.441814899445 2595.00002861023 119 86 69
175.046980381012 211.842507123947 2599.99990463257 111 78 59
182.343870401382 212.079986929893 2602.9999256134 122 91 71
189.656421542168 212.3172134161 2605.99994659424 114 86 65
197.060078382492 212.63562142849 2609.99989509583 107 76 56
204.484835267067 212.95377612114 2614.00008201599 126 98 84
212.578192353249 213.92334997654 2625.99992752075 119 97 83
221.154525876045 215.299889445305 2642.99988746643 77 64 56
-84.5507606863976 215.615302324295 2736.99998855591 18 21 14
-77.1391168236732 215.775981545448 2739.00008201599 20 23 16
-69.5636421442032 215.463668107986 2734.99989509583 20 23 16
-61.8507824838161 214.599654078484 2723.99997711182 22 25 18
-53.8381189107895 212.317228317261 2694.9999332428 19 22 15
-46.5526953339577 212.634280323982 2698.99988174438 14 17 10
-39.1000770032406 212.163254618645 2693.00007820129 17 20 11
-31.7743569612503 212.322175502777 2694.9999332428 21 24 15
-24.3016816675663 211.299076676369 2681.99992179871 23 26 17
-17.03916862607 212.008953094482 2690.99998474121 21 24 15
-9.77069418877363 213.663950562477 2711.99989318848 18 21 12
-2.36833654344082 213.585391640663 2710.99996566772 23 26 17
5.01187238842249 212.7975076437 2700.99997520447 10 13 4
12.2549533843994 210.591197013855 2673.00009727478 20 23 14
19.4987412542105 210.039079189301 2665.99988937378 15 18 9
26.8147177994251 210.353329777718 2670.00007629395 15 18 9
34.1268740594387 210.509702563286 2671.99993133545 10 13 4
41.294801980257 209.877982735634 2664.00003433228 14 17 10
48.6376546323299 210.191369056702 2667.99998283386 16 19 12
55.9392645955086 210.26811003685 2668.99991035461 17 20 13
63.1513595581055 210.029467940331 2665.99988937378 18 21 14
70.5317556858063 210.342019796371 2670.00007629395 18 21 14
77.9919773340225 210.811853408813 2676.00011825562 15 18 11
84.8471522331238 209.705784916878 2661.99994087219 14 17 10
91.9716358184814 209.38728749752 2657.99999237061 13 16 9
99.8951569199562 210.801541805267 2676.00011825562 13 16 9
106.514483690262 209.458410739899 2658.99991989136 13 16 9
113.939128816128 209.769278764725 2663.00010681152 15 18 11
122.022353112698 211.1826390028 2680.99999427795 9 9 7
130.106806755066 212.438121438026 2697.00002670288 9 10 5
138.074144721031 213.378220796585 2709.00011062622 14 15 9
145.676821470261 213.687866926193 2713.00005912781 15 15 5
151.100262999535 210.925504565239 2677.99997329712 27 17 5
154.557749629021 205.800205469131 2612.99991607666 78 56 42
160.877734422684 204.770356416702 2599.99990463257 124 97 80
167.772218585014 204.527869820595 2596.99988365173 121 88 71
175.323009490967 205.072671175003 2604.00009155273 104 71 52
182.771176099777 205.459699034691 2608.99996757507 127 96 76
190.100342035294 205.688938498497 2611.99998855591 117 89 68
197.59613275528 206.075415015221 2617.00010299683 100 69 51
205.040171742439 206.382855772972 2621.00005149841 125 97 83
213.071972131729 207.241207361221 2631.99996948242 112 90 77
221.330225467682 208.256736397743 2644.99998092651 79 66 57
-84.1523557901382 207.165434956551 2723.99997711182 17 20 13
-77.0012214779854 207.928970456123 2733.99996757507 16 19 12
-69.6171671152115 208.159878849983 2736.99998855591 17 20 13
-61.5806542336941 206.260964274406 2711.99989318848 23 26 19
-53.9999902248383 205.57864010334 2703.00006866455 23 26 19
-46.1749993264675 203.60304415226 2677.00004577637 16 19 12
-39.2032042145729 205.353975296021 2700.00004768372 19 22 13
-31.869899481535 205.583497881889 2703.00006866455 24 27 18
-24.4566537439823 205.280289053917 2698.99988174438 24 27 18
-17.0398205518723 204.672619700432 2690.99998474121 21 24 15
-9.81070008128881 207.106977701187 2723.00004959106 20 23 14
-2.3684271145612 206.194505095482 2710.99996566772 18 21 12
5.03618735820055 206.42264187336 2713.99998664856 17 20 11
12.333364225924 204.596906900406 2690.00005722046 18 21 12
19.6603983640671 204.444199800491 2687.99996376038 19 22 13
26.9663911312819 204.21513915062 2684.99994277954 17 20 11
34.1281741857529 203.22522521019 2671.99993133545 10 13 4
41.2808768451214 202.539324760437 2663.00010681152 13 16 9
48.5848188400269 202.689737081528 2664.99996185303 17 20 13
55.7946786284447 202.45960354805 2661.99994087219 17 20 13
63.2485300302505 203.06584239006 2670.00007629395 15 18 11
70.7193613052368 203.595697879791 2677.00004577637 16 19 12
78.257255256176 204.201340675354 2684.99994277954 17 20 13
85.4878649115562 203.970119357109 2681.99992179871 16 19 12
92.9094031453133 204.194948077202 2684.99994277954 16 19 12
100.010931491852 203.735038638115 2678.99990081787 14 17 10
107.720300555229 204.491659998894 2688.99989128113 13 16 9
115.184269845486 204.71565425396 2691.99991226196 13 16 9
122.436590492725 204.559162259102 2690.00005722046 18 18 16
129.146829247475 203.56597006321 2677.00004577637 17 19 14
137.263789772987 204.77768778801 2693.00007820129 21 22 16
146.165564656258 206.977605819702 2721.99988365173 19 19 11
151.613757014275 204.310819506645 2687.00003623962 19 11 0
155.45080602169 199.819043278694 2628.00002098084 57 38 24
161.007478833199 197.836384177208 2601.99999809265 127 104 88
167.972266674042 197.67826795578 2599.99990463257 106 77 59
175.464183092117 198.128178715706 2605.99994659424 91 60 42
182.918041944504 198.501795530319 2611.00006103516 119 92 73
190.107345581055 198.571041226387 2611.99998855591 128 101 82
197.754412889481 199.096143245697 2618.99995803833 103 76 59
205.047726631165 199.240908026695 2621.00005149841 111 88 74
213.322639465332 200.297594070435 2634.99999046326 99 80 66
221.589326858521 201.277926564217 2648.00000190735 54 44 34
-85.4839012026787 202.891886234283 2766.99995994568 25 26 20
-77.2293880581856 201.061680912971 2742.00010299683 18 21 14
-69.2636147141457 199.671104550362 2723.00004959106 18 21 14
-61.605628579855 198.940172791481 2713.00005912781 21 24 17
-53.9820045232773 198.135659098625 2701.99990272522 19 22 15
-46.4526936411858 197.477519512177 2693.00007820129 17 20 13
-39.204653352499 197.992384433746 2700.00004768372 19 22 13
-32.2483852505684 200.560256838799 2734.99989509583 22 25 16
-24.8653348535299 201.221257448196 2743.99995803833 22 25 16
-17.4077283591032 201.588705182076 2749.00007247925 19 22 13
-9.80745814740658 199.609205126762 2721.99988365173 17 20 11
-2.36327270977199 198.362797498703 2704.99992370605 16 19 10
5.00111514702439 197.629451751709 2694.9999332428 16 19 10
12.3108932748437 196.89579308033 2684.99994277954 18 21 12
19.7123251855373 197.628542780876 2694.9999332428 20 23 14
27.0376950502396 197.407707571983 2691.99991226196 20 23 14
34.3721248209476 197.333261370659 2690.99998474121 13 16 7
41.5614359080791 196.598574519157 2680.99999427795 15 18 11
48.896536231041 196.670234203339 2681.99992179871 17 20 13
56.0901872813702 196.228370070457 2676.00011825562 17 20 13
63.4166821837425 196.299567818642 2677.00004577637 15 18 11
70.5898627638817 195.930495858192 2671.99993133545 15 18 11
78.1435370445251 196.587741374969 2680.99999427795 15 18 11
85.3634998202324 196.364805102348 2677.99997329712 15 18 11
92.6705747842789 196.361601352692 2677.99997329712 14 17 10
100.126594305038 196.651414036751 2681.99992179871 14 17 10
107.764303684235 197.234258055687 2690.00005722046 14 17 10
114.846169948578 196.790337562561 2684.00001525879 14 17 10
121.439680457115 195.612996816635 2667.99998283386 21 22 17
128.572583198547 195.388570427895 2664.99996185303 15 17 12
137.676566839218 198.023170232773 2700.99997520447 7 8 2
145.472764968872 198.604643344879 2709.00011062622 17 17 9
150.65997838974 195.740193128586 2670.00007629395 29 21 10
154.746562242508 191.776022315025 2615.9999370575 70 52 38
161.322697997093 191.110640764236 2607.00011253357 121 99 85
168.365955352783 191.031500697136 2605.99994659424 108 81 64
176.009148359299 191.611841320992 2614.00008201599 94 67 50
183.274894952774 191.75212085247 2615.9999370575 113 87 70
190.696388483047 192.038714885712 2619.99988555908 112 89 71
198.139011859894 192.32514500618 2624.00007247925 105 82 66
205.75912296772 192.757830023766 2630.00011444092 107 88 74
214.13978934288 193.849861621857 2644.99998092651 92 76 63
223.438233137131 195.674449205399 2670.00007629395 43 35 24
-96.433237195015 202.474594116211 2868.00003051758 29 30 24
-87.4951109290123 199.936240911484 2832.00001716614 21 22 16
-77.8799578547478 195.208981633186 2765.00010490417 18 21 14
-69.9274465441704 194.08193230629 2749.00007247925 19 22 15
-61.4488683640957 191.048368811607 2706.00008964539 22 25 18
-54.0638454258442 191.050410270691 2706.00008964539 21 24 17
-46.6786026954651 191.052138805389 2706.00008964539 16 19 12
-39.7723577916622 193.383574485779 2739.00008201599 19 22 13
-32.237745821476 193.031817674637 2733.99996757507 22 25 16
-24.8209126293659 193.38583946228 2739.00008201599 22 25 16
-17.2120369970798 191.903859376907 2717.99993515015 19 22 13
-9.67809557914734 189.644977450371 2686.00010871887 19 22 13
-2.33801966533065 188.939154148102 2676.00011825562 16 19 10
4.9678897485137 189.009696245193 2677.00004577637 15 18 9
12.2975772246718 189.362436532974 2681.99992179871 17 20 11
19.5959936827421 189.150035381317 2678.99990081787 19 22 13
26.9783958792686 189.643487334251 2686.00010871887 20 23 14
34.3477986752987 189.854204654694 2688.99989128113 16 19 10
41.6869409382343 189.852878451347 2688.99989128113 17 20 13
48.9894412457943 189.710080623627 2687.00003623962 16 19 12
56.595254689455 190.626084804535 2700.00004768372 16 19 12
63.6558383703232 189.706161618233 2687.00003623962 15 18 11
70.7508847117424 189.068377017975 2677.99997329712 15 18 11
78.0588686466217 189.065784215927 2677.99997329712 13 16 9
84.7608745098114 187.721580266953 2658.99991989136 13 16 9
92.5008282065392 188.706859946251 2673.00009727478 13 16 9
99.9807938933373 189.056485891342 2677.99997329712 13 16 9
107.447609305382 189.33530151844 2681.99992179871 13 16 9
114.079982042313 188.201949000359 2665.99988937378 14 17 10
121.26187980175 188.05667757988 2664.00003433228 17 18 13
129.493787884712 189.464151859283 2684.00001525879 14 15 9
137.273609638214 190.094873309135 2693.00007820129 17 18 10
144.40381526947 189.807638525963 2688.99989128113 20 18 6
149.762377142906 187.332108616829 2654.00004386902 36 30 18
155.225217342377 185.209348797798 2624.00007247925 95 81 68
162.132769823074 184.921592473984 2619.99988555908 84 66 52
169.405549764633 185.057103633881 2621.99997901917 80 58 44
176.823258399963 185.333490371704 2625.99992752075 78 56 42
184.051916003227 185.397937893867 2627.00009346008 95 76 61
191.212520003319 185.391589999199 2627.00009346008 96 80 64
198.825418949127 185.808405280113 2632.99989700317 90 76 63
206.470295786858 186.224967241287 2638.99993896484 93 81 69
215.361565351486 187.699735164642 2660.00008583069 48 40 29
-95.6631675362587 193.09289753437 2845.00002861023 35 36 30
-87.4054133892059 192.010000348091 2828.9999961853 20 21 15
-77.8544470667839 187.601059675217 2763.99993896484 21 24 17
-69.3956464529037 185.160100460052 2727.9999256134 24 27 20
-61.7689043283463 184.619322419167 2720.00002861023 24 27 20
-54.2654991149902 184.349775314331 2716.00008010864 22 25 18
-47.1804700791836 185.64110994339 2734.99989509583 15 18 11
-40.0641486048698 187.271609902382 2759.0000629425 16 19 10
-32.2270579636097 185.508027672768 2733.00004005432 18 21 12
-24.3958346545696 182.72602558136 2691.99991226196 18 21 12
-16.8769899755716 180.894032120705 2664.99996185303 17 20 11
-9.58834588527679 180.622965097427 2661.00001335144 18 21 12
-2.32324656099081 180.487394332886 2658.99991989136 19 22 13
4.93836728855968 180.623129010201 2661.00001335144 17 20 11
12.132927775383 179.604664444923 2645.99990844727 17 20 11
19.3991661071777 180.011406540871 2651.99995040894 19 22 13
26.8085654824972 181.164547801018 2668.99991035461 19 22 13
34.1956987977028 181.70653283596 2677.00004577637 17 20 11
41.3938127458096 181.230127811432 2670.00007629395 16 19 12
48.8635003566742 181.907370686531 2680.0000667572 15 18 11
56.2827624380589 182.244971394539 2684.99994277954 15 18 11
64.013384282589 183.396801352501 2701.99990272522 16 19 12
70.9910988807678 182.376444339752 2687.00003623962 17 20 13
78.0615359544754 181.763052940369 2677.99997329712 14 17 10
85.6563597917557 182.37116932869 2687.00003623962 14 17 10
92.6770269870758 181.75733089447 2677.99997329712 13 16 9
100.24556517601 182.229205965996 2684.99994277954 13 16 9
106.930427253246 181.139811873436 2668.99991035461 13 16 9
113.955490291119 180.728927254677 2663.00010681152 13 16 9
121.766716241837 181.539386510849 2674.99995231628 14 15 9
129.498198628426 182.145982980728 2684.00001525879 14 15 9
137.482151389122 183.023765683174 2697.00002670288 5 6 0
144.247606396675 182.272627949715 2686.00010871887 33 33 21
150.388151407242 180.842667818069 2664.99996185303 53 49 37
156.531915068626 179.548308253288 2645.99990844727 76 64 50
163.623467087746 179.407328367233 2644.00005340576 59 43 28
170.832693576813 179.401829838753 2644.00005340576 71 53 39
178.310602903366 179.667487740517 2648.00000190735 68 50 36
185.38923561573 179.525807499886 2645.99990844727 75 59 44
192.674651741982 179.587498307228 2647.0000743866 63 51 37
200.115785002708 179.784640669823 2650.00009536743 73 63 51
208.589643239975 180.863440036774 2665.99988937378 62 54 43
-96.2043330073357 186.376482248306 2861.00006103516 35 36 30
-86.419589817524 182.210192084312 2796.99993133545 24 25 19
-77.5471702218056 179.346442222595 2753.00002098084 23 26 19
-69.5505738258362 178.111031651497 2733.99996757507 25 28 21
-61.7028102278709 177.005663514137 2717.00000762939 23 26 19
-54.1673861443996 176.616638898849 2710.99996566772 21 24 17
-47.2682900726795 178.50761115551 2740.00000953674 18 21 14
-39.8040860891342 178.57414484024 2740.9999370575 22 25 16
-31.7918136715889 175.643607974052 2696.00009918213 21 24 15
-24.3332032114267 174.927845597267 2684.99994277954 20 23 14
-16.7255569249392 172.061920166016 2641.00003242493 18 21 12
-9.51659586280584 172.06235229969 2641.00003242493 20 23 14
-2.32856627553701 173.626139760017 2664.99996185303 21 24 15
4.92739537730813 172.974586486816 2654.99997138977 19 22 13
12.2112846001983 173.495531082153 2663.00010681152 17 20 11
19.4144397974014 172.908663749695 2654.00004386902 19 22 13
26.6788750886917 173.038214445114 2655.99989891052 20 23 14
34.069087356329 173.753887414932 2667.00005531311 19 22 13
41.2556491792202 173.361748456955 2661.00001335144 18 21 14
48.5551506280899 173.490583896637 2663.00010681152 14 17 10
56.0959577560425 174.335822463036 2676.00011825562 14 17 10
63.7785792350769 175.376236438751 2691.99991226196 17 20 13
70.7820728421211 174.527168273926 2678.99990081787 17 20 13
78.0641213059425 174.459606409073 2677.99997329712 14 17 10
85.7548117637634 175.238713622093 2690.00005722046 14 17 10
93.0953696370125 175.235822796822 2690.00005722046 14 17 10
99.5021164417267 173.604130744934 2664.99996185303 14 17 10
106.05251789093 172.428295016289 2647.0000743866 15 18 11
113.745257258415 173.141285777092 2657.99999237061 16 17 11
122.180409729481 174.831122159958 2684.00001525879 20 20 12
130.612164735794 176.325231790543 2707.00001716614 16 17 9
137.333691120148 175.474181771278 2694.00000572205 20 22 11
144.574508070946 175.339415669441 2691.99991226196 9 10 0
151.691004633904 175.074145197868 2687.99996376038 26 24 11
158.193469047546 174.1573959589 2674.00002479553 66 57 42
165.052160620689 173.696354031563 2667.00005531311 57 43 30
172.388926148415 173.756152391434 2667.99998283386 62 48 35
179.865166544914 173.945933580399 2671.0000038147 53 41 27
187.287017703056 174.070417881012 2673.00009727478 55 45 33
194.500625133514 173.999279737473 2671.99993133545 48 42 28
203.369423747063 175.360530614853 2693.00007820129 35 31 20
-94.4923833012581 175.390139222145 2809.99994277954 34 35 29
-86.7313072085381 175.20572245121 2806.99992179871 27 28 22
-78.3665329217911 173.647835850716 2782.00006484985 25 28 21
-69.5273354649544 170.591607689857 2733.00004005432 23 26 19
-62.4996423721313 171.779632568359 2752.00009346008 22 25 18
-54.1691146790981 169.222205877304 2710.99996566772 21 24 17
-46.3727042078972 167.788103222847 2687.99996376038 21 24 17
-39.398729801178 169.34996843338 2713.00005912781 22 25 18
-32.1583934128284 170.224979519844 2726.99999809265 21 24 17
-24.1617821156979 166.418105363846 2665.99988937378 19 22 13
-16.7957544326782 165.54482281208 2651.99995040894 16 19 10
-9.58176143467426 165.982201695442 2658.99991989136 17 20 11
-2.32339790090919 165.982395410538 2658.99991989136 18 21 12
4.99993469566107 168.167158961296 2694.00000572205 16 19 10
12.4180279672146 169.04079914093 2707.99994468689 14 17 8
19.8174044489861 169.102728366852 2709.00011062622 16 19 10
26.7399940639734 166.168138384819 2661.99994087219 18 21 12
33.993523567915 166.104778647423 2661.00001335144 17 20 11
41.2259511649609 165.978759527206 2658.99991989136 19 22 15
48.2467114925385 165.16587138176 2645.99990844727 14 17 10
55.9509955346584 166.599944233894 2668.99991035461 14 17 10
63.4252205491066 167.097449302673 2677.00004577637 16 19 12
70.387989282608 166.283920407295 2664.00003433228 16 19 12
77.9208391904831 166.843384504318 2673.00009727478 13 16 9
85.7894048094749 167.964354157448 2690.99998474121 13 16 9
93.202143907547 168.086424469948 2693.00007820129 13 16 9
99.7666269540787 166.772693395615 2671.99993133545 15 18 11
106.777042150497 166.332602500916 2664.99996185303 16 19 12
113.620445132256 165.705054998398 2654.99997138977 18 19 13
123.504415154457 169.321298599243 2713.00005912781 19 19 11
130.761012434959 169.13016140461 2710.00003814697 17 18 10
138.000726699829 168.938800692558 2707.00001716614 14 16 5
145.599484443665 169.184103608131 2710.99996566772 19 19 7
153.050154447556 169.241920113564 2711.99989318848 19 17 5
159.854903817177 168.613091111183 2701.99990272522 20 16 4
166.480720043182 167.859300971031 2690.00005722046 28 20 7
173.880413174629 167.916521430016 2690.99998474121 43 33 23
181.554287672043 168.22312772274 2696.00009918213 39 31 20
189.044490456581 168.342307209969 2697.99995422363 40 34 22
197.782382369041 169.52195763588 2717.00000762939 26 22 11
209.266245365143 172.884985804558 2770.99990844727 20 17 8
233.924359083176 180.233538150787 2888.99993896484 24 24 16
-94.6633964776993 168.023928999901 2815.00005722046 15 18 11
-86.579442024231 167.250633239746 2802.00004577637 24 27 20
-78.6787793040276 166.715890169144 2792.99998283386 23 26 19
-62.0700344443321 163.138598203659 2733.00004005432 22 25 18
-53.771123290062 160.633236169815 2690.99998474121 22 25 18
-45.4252399504185 157.172530889511 2632.99989700317 24 27 20
-38.4995266795158 158.248260617256 2651.00002288818 20 21 16
-31.9706946611404 161.830961704254 2710.99996566772 17 18 13
-24.3800394237041 160.578221082687 2690.00005722046 15 16 11
-17.0939397066832 161.116093397141 2698.99988174438 16 17 11
-9.74782183766365 161.474660038948 2704.99992370605 16 17 11
-2.34269257634878 160.0421667099 2680.99999427795 14 15 9
4.95554320514202 159.385487437248 2670.00007629395 15 16 10
12.4780219048262 162.429645657539 2720.99995613098 15 16 8
19.6424331516027 160.280153155327 2684.99994277954 18 19 11
26.7709456384182 159.0855717659 2664.99996185303 20 21 13
34.2883877456188 160.218849778175 2684.00001525879 21 22 14
41.087668389082 158.188164234161 2650.00009536743 16 19 10
48.211719840765 157.828658819199 2644.00005340576 16 19 10
55.5543974041939 158.18527340889 2650.00009536743 16 19 10
62.9532784223557 158.601343631744 2657.00006484985 16 19 10
70.2051669359207 158.599361777306 2657.00006484985 15 18 9
77.3984640836716 158.477768301964 2654.99997138977 13 16 7
85.4731947183609 160.027295351028 2680.99999427795 13 16 7
92.7896499633789 160.024657845497 2680.99999427795 14 17 8
99.9563410878181 159.783035516739 2677.00004577637 14 17 8
107.74189978838 160.496190190315 2688.99989128113 14 17 8
115.849286317825 161.567240953445 2707.00001716614 14 17 8
123.553663492203 161.981493234634 2713.99998664856 15 16 10
131.343975663185 162.455186247826 2721.99988365173 15 16 10
138.514697551727 162.15281188488 2717.00000762939 14 15 9
145.872384309769 162.088945508003 2716.00008010864 14 15 9
154.352769255638 163.218438625336 2734.99989509583 13 14 8
161.693766713142 163.094460964203 2733.00004005432 13 14 8
178.473442792892 164.815098047256 2762.00008392334 12 13 7
185.532987117767 164.392098784447 2755.00011444092 13 14 8
194.095179438591 165.281638503075 2769.99998092651 15 16 10
223.710626363754 170.573756098747 2858.99996757507 18 21 14
-93.623623251915 158.579111099243 2783.99991989136 8 11 4
-86.2729549407959 159.037366509438 2792.00005531311 20 23 16
-77.8077766299248 157.330840826035 2762.00008392334 22 25 18
-70.6763416528702 158.244371414185 2778.00011634827 20 23 16
-61.8674345314503 155.170202255249 2723.99997711182 21 24 17
-52.7735725045204 150.44379234314 2641.00003242493 20 23 16
-45.7543730735779 151.071816682816 2651.99995040894 22 25 18
-39.6770238876343 155.630275607109 2732.00011253357 19 20 15
-31.8419001996517 153.808385133743 2700.00004768372 14 15 10
-24.6526561677456 154.948517680168 2720.00002861023 13 14 9
-17.354117706418 156.088441610336 2740.00000953674 15 16 10
-9.81297437101603 155.120402574539 2723.00004959106 16 17 11
-2.35412083566189 153.468534350395 2694.00000572205 13 14 8
12.1894730255008 151.417464017868 2657.99999237061 16 17 9
19.7234842926264 153.581738471985 2696.00009918213 17 18 10
26.8721841275692 152.384757995605 2674.99995231628 19 20 12
34.1233052313328 152.15602517128 2671.0000038147 20 21 13
41.4764955639839 152.38282084465 2674.99995231628 17 20 11
48.4501831233501 151.356160640717 2657.00006484985 16 19 10
55.8704733848572 151.810377836227 2664.99996185303 16 19 10
63.3342266082764 152.264416217804 2673.00009727478 15 18 9
70.4450160264969 151.863723993301 2665.99988937378 15 18 9
77.6047855615616 151.633784174919 2661.99994087219 13 16 7
85.380032658577 152.542859315872 2677.99997329712 13 16 7
92.5154462456703 152.255550026894 2673.00009727478 13 16 7
99.772535264492 152.19584107399 2671.99993133545 13 16 7
108.265906572342 153.901666402817 2701.99990272522 13 16 7
116.152219474316 154.582008719444 2713.99998664856 13 16 7
123.784869909286 154.863402247429 2719.00010108948 15 16 10
131.251260638237 154.916748404503 2720.00002861023 15 16 10
139.487341046333 155.824199318886 2736.00006103516 14 15 9
147.058188915253 155.934065580368 2737.99991607666 14 15 9
154.92157638073 156.328499317169 2744.99988555908 13 14 8
163.355007767677 157.235234975815 2760.99991798401 13 14 8
171.19425535202 157.515317201614 2766.00003242493 13 14 8
182.808011770248 161.097973585129 2828.9999961853 13 14 8
191.464692354202 161.889985203743 2842.99993515015 14 15 9
198.23494553566 161.087408661842 2828.9999961853 16 17 11
207.0392370224 161.935895681381 2844.00010108948 17 18 12
217.434942722321 163.922876119614 2878.99994850159 17 18 12
223.560452461243 162.664204835892 2857.00011253357 17 20 13
-92.0792371034622 148.489341139793 2737.99991607666 37 40 33
-84.6994146704674 148.654460906982 2740.9999370575 24 27 20
-78.8804516196251 151.8564671278 2799.99995231628 21 24 17
-70.0168162584305 149.255231022835 2752.00009346008 19 22 15
-62.777653336525 149.907842278481 2763.99993896484 19 22 15
-54.1938319802284 147.089153528214 2711.99989318848 16 19 12
-46.2905019521713 145.51767706871 2683.00008773804 17 20 13
-39.387658238411 147.091716527939 2711.99989318848 17 18 13
-32.1494229137897 147.852018475533 2726.0000705719 11 12 7
-24.8074270784855 148.449406027794 2736.99998855591 10 11 6
-17.284931614995 148.016080260277 2729.00009155273 12 13 7
-9.76639799773693 146.985903382301 2710.00003814697 12 13 7
-2.34719621948898 145.684376358986 2686.00010871887 13 14 8
4.98923659324646 145.792797207832 2687.99996376038 13 14 8
12.3594980686903 146.172225475311 2694.9999332428 13 14 6
19.4752886891365 144.381940364838 2661.99994087219 14 15 7
26.8327500671148 144.869431853294 2671.0000038147 14 15 7
34.4053283333778 146.061837673187 2693.00007820129 14 15 7
41.8963059782982 146.548941731453 2701.99990272522 14 17 8
49.7462451457977 147.957861423492 2727.9999256134 15 18 9
56.9412559270859 147.305577993393 2716.00008010864 15 18 9
63.7150928378105 145.839542150497 2688.99989128113 15 18 9
70.8433464169502 145.403847098351 2680.99999427795 16 19 10
77.8984799981117 144.913703203201 2671.99993133545 15 18 9
85.6374725699425 145.670771598816 2686.00010871887 15 18 9
92.7949100732803 145.397186279297 2680.99999427795 14 17 8
100.522123277187 145.991116762161 2691.99991226196 14 17 8
108.028493821621 146.205231547356 2696.00009918213 14 17 8
116.198219358921 147.232562303543 2714.99991416931 14 17 8
123.788274824619 147.446259856224 2719.00010108948 15 16 10
131.592661142349 147.876650094986 2726.99999809265 14 15 9
140.102967619896 149.011746048927 2747.99990653992 14 15 9
149.103283882141 150.52618086338 2776.00002288818 14 15 9
154.869377613068 148.786962032318 2743.99995803833 13 14 8
163.241147994995 149.596035480499 2759.0000629425 13 14 8
172.746270895004 151.326611638069 2790.99988937378 15 16 10
182.360634207726 153.00264954567 2822.00002670288 15 16 10
190.998449921608 153.756737709045 2835.99996566772 15 16 10
200.973212718964 155.486449599266 2868.00003051758 16 17 11
209.592834115028 156.077370047569 2878.99994850159 16 17 11
215.854749083519 154.933333396912 2858.00004005432 20 23 16
222.314417362213 154.006034135818 2841.00008010864 16 19 12
-84.330826997757 140.557885169983 2729.00009155273 24 27 20
-76.9950076937675 140.766009688377 2733.00004005432 21 24 17
-70.5275312066078 142.776668071747 2772.0000743866 18 21 14
-62.8701746463776 142.572343349457 2767.99988746643 18 21 14
-53.4558817744255 137.783646583557 2674.99995231628 15 18 11
-46.5160235762596 138.866618275642 2696.00009918213 15 18 11
-39.4758507609367 140.00092446804 2717.99993515015 15 16 11
-32.2328358888626 140.774473547935 2733.00004005432 11 12 7
-24.7808936983347 140.826731920242 2733.99996757507 10 11 6
-17.2157175838947 140.003114938736 2717.99993515015 12 13 7
-9.73422359675169 139.127805829048 2700.99997520447 12 13 7
-2.37522274255753 140.003621578217 2717.99993515015 10 11 5
5.10816415771842 141.754925251007 2752.00009346008 11 12 6
19.5636004209518 137.736529111862 2674.00002479553 14 15 7
26.9841607660055 138.354048132896 2686.00010871887 16 17 9
34.5084480941296 139.125868678093 2700.99997520447 17 18 10
42.3936136066914 140.824675559998 2733.99996757507 14 17 8
49.9664023518562 141.132533550262 2740.00000953674 14 17 8
57.4249811470509 141.079634428024 2739.00008201599 14 17 8
64.4750371575356 140.150919556618 2720.99995613098 15 18 9
70.9509178996086 138.294920325279 2684.99994277954 16 19 10
78.1629309058189 138.086974620819 2680.99999427795 16 19 10
85.9904512763023 138.908937573433 2697.00002670288 15 18 9
93.1781008839607 138.649091124535 2691.99991226196 15 18 9
100.898206233978 139.161646366119 2701.99990272522 14 17 8
108.512185513973 139.467969536781 2707.99994468689 14 17 8
116.4580732584 140.13460278511 2720.99995613098 13 16 7
124.428927898407 140.749529004097 2733.00004005432 14 15 9
131.885647773743 140.746250748634 2733.00004005432 14 15 9
139.800727367401 141.20626449585 2742.00010299683 13 14 8
148.570045828819 142.438516020775 2766.00003242493 13 14 8
156.510189175606 142.795085906982 2773.00000190735 12 13 7
163.186222314835 142.018616199493 2757.99989700317 12 13 7
183.9809268713 146.592602133751 2846.99988365173 11 12 6
190.936028957367 145.97000181675 2835.00003814697 13 14 8
197.965115308762 145.450219511986 2825.00004768372 18 19 13
207.996591925621 147.092685103416 2857.00011253357 21 22 16
-77.4477124214172 134.089127182961 2749.00007247925 21 24 17
-69.9440985918045 134.090930223465 2749.00007247925 19 22 15
-61.7133565247059 132.531628012657 2717.00000762939 18 21 14
-54.656270891428 133.411079645157 2734.99989509583 15 18 11
-47.1038371324539 133.168429136276 2730.00001907349 14 17 10
-39.9561412632465 134.193867444992 2750.99992752075 11 12 7
-32.516710460186 134.487450122833 2756.99996948242 11 12 7
-24.9084196984768 134.049117565155 2747.99990653992 12 13 8
-17.1464774757624 132.049649953842 2707.00001716614 15 16 10
-9.78132151067257 132.391437888145 2713.99998664856 14 15 9
-2.3770306725055 132.684275507927 2720.00002861023 15 16 10
5.03590097650886 132.342770695686 2713.00005912781 15 16 10
12.5390077009797 133.366957306862 2733.99996757507 16 17 9
19.6665246039629 131.122633814812 2687.99996376038 15 16 8
26.9547030329704 130.878165364265 2683.00008773804 18 19 11
34.9564999341965 133.462756872177 2736.00006103516 18 19 11
42.5187386572361 133.754506707191 2742.00010299683 14 17 8
49.3293814361095 131.948500871658 2704.99992370605 14 17 8
57.4683547019959 133.703246712685 2740.9999370575 14 17 8
64.5951479673386 132.970079779625 2726.0000705719 15 18 9
71.1905360221863 131.407499313354 2694.00000572205 15 18 9
78.1357362866402 130.722790956497 2680.0000667572 15 18 9
86.2158089876175 131.891429424286 2703.9999961853 15 18 9
93.699648976326 132.035553455353 2707.00001716614 15 18 9
101.012758910656 131.935626268387 2704.99992370605 14 17 8
108.234398066998 131.73796236515 2700.99997520447 13 16 7
116.503790020943 132.759481668472 2721.99988365173 13 16 7
124.022252857685 132.854104042053 2723.99997711182 14 15 9
133.336678147316 134.753048419952 2763.00001144409 14 15 9
141.129836440086 134.993568062782 2767.99988746643 13 14 8
149.164587259293 135.428979992867 2776.99995040894 13 14 8
155.836760997772 134.645015001297 2760.99991798401 12 13 7
177.892506122589 140.147492289543 2874.00007247925 9 10 4
185.277968645096 139.801800251007 2867.00010299683 10 11 5
190.132513642311 137.651771306992 2822.99995422363 11 12 6
196.918785572052 137.013271450996 2809.99994277954 17 18 12
-76.7170414328575 125.390321016312 2723.00004959106 29 32 25
-69.8694363236427 126.451134681702 2746.00005149841 21 24 17
-61.533123254776 124.748833477497 2709.00011062622 24 27 20
-53.9381355047226 124.289661645889 2698.99988174438 18 21 14
-47.7778948843479 127.514377236366 2769.00005340576 6 9 2
-40.5090376734734 128.436431288719 2789.00003433228 9 10 5
-32.7415876090527 127.838626503944 2776.00002288818 11 12 7
-24.845564737916 126.227468252182 2740.9999370575 14 15 10
-17.1848926693201 124.938525259495 2713.00005912781 16 17 11
-9.77795198559761 124.93883818388 2713.00005912781 15 16 10
-2.35349149443209 124.017931520939 2693.00007820129 15 16 10
5.04344655200839 125.123143196106 2717.00000762939 15 16 10
12.5668263062835 126.182153820992 2740.00000953674 14 15 7
19.9303925037384 125.444933772087 2723.99997711182 14 15 7
27.3270718753338 125.260174274445 2720.00002861023 15 16 8
34.3184992671013 123.693719506264 2686.00010871887 17 18 10
40.9225448966026 121.528424322605 2638.99993896484 15 18 9
49.0205399692059 123.783886432648 2687.99996376038 16 19 10
57.2810359299183 125.808864831924 2732.00011253357 16 19 10
64.3123239278793 124.978542327881 2713.99998664856 15 18 9
71.2979435920715 124.240197241306 2697.99995422363 13 16 7
78.8664966821671 124.560788273811 2704.99992370605 15 18 9
86.6961404681206 125.203549861908 2719.00010108948 15 18 9
94.2557081580162 125.385642051697 2723.00004959106 15 18 9
101.575307548046 125.245243310928 2720.00002861023 14 17 8
107.956454157829 124.045632779598 2694.00000572205 14 17 8
114.323660731316 122.984059154987 2671.0000038147 14 17 8
122.977986931801 124.362625181675 2700.99997520447 16 19 12
131.988555192947 125.925153493881 2734.99989509583 13 16 9
141.235142946243 127.533495426178 2769.99998092651 14 17 10
148.362368345261 127.161860466003 2762.00008392334 15 18 11
155.501767992973 126.836106181145 2755.00011444092 11 14 7
165.679261088371 128.904148936272 2799.99995231628 9 12 5
176.039695739746 130.925878882408 2844.00010108948 10 13 6
183.989748358727 131.059870123863 2846.99988365173 14 17 10
190.204277634621 129.996880888939 2823.99988174438 15 18 11
194.260358810425 127.598866820335 2772.0000743866 15 18 11
202.254801988602 127.870589494705 2778.00011634827 15 18 11
-78.7191316485405 121.034897863865 2793.99991035461 5 8 1
-70.6343501806259 120.256789028645 2776.00002288818 27 30 23
-62.6702532172203 119.521796703339 2759.0000629425 9 12 5
-54.179172962904 117.443658411503 2710.99996566772 8 11 4
-39.7546589374542 118.572093546391 2736.99998855591 10 11 6
-32.4120670557022 119.049407541752 2747.99990653992 11 12 7
-24.4563482701778 116.883918642998 2697.99995422363 13 14 9
-17.0839298516512 116.841055452824 2697.00002670288 15 16 10
-9.70969256013632 116.711378097534 2694.00000572205 15 16 10
-2.34830100089312 116.408251225948 2687.00003623962 16 17 11
4.99715283513069 116.624839603901 2691.99991226196 15 16 10
12.4432723969221 117.534421384335 2713.00005912781 14 15 7
19.9381615966558 118.053942918777 2724.99990463257 15 16 8
27.2171776741743 117.360264062881 2709.00011062622 15 16 8
34.5875918865204 117.272950708866 2707.00001716614 16 17 9
41.4041988551617 115.669205784798 2670.00007629395 15 18 9
56.5065331757069 116.750091314316 2694.9999332428 17 20 11
64.0531107783318 117.095336318016 2703.00006866455 16 19 10
71.4845284819603 117.180489003658 2704.99992370605 15 18 9
79.0723636746407 117.482088506222 2711.99989318848 15 18 9
86.8256315588951 117.956794798374 2723.00004959106 15 18 9
94.3270549178123 118.041455745697 2724.99990463257 15 18 9
101.054765284061 117.216303944588 2706.00008964539 14 17 8
108.279459178448 117.040753364563 2701.99990272522 14 17 8
115.096651017666 116.475224494934 2688.99989128113 14 17 8
122.434362769127 116.472646594048 2688.99989128113 16 19 12
133.342787623405 119.675114750862 2763.00001144409 15 18 11
147.13017642498 118.629574775696 2739.00008201599 14 17 10
156.464770436287 120.055563747883 2772.0000743866 11 14 7
165.505409240723 121.134839951992 2796.99993133545 9 12 5
174.743667244911 122.257202863693 2822.99995422363 10 13 6
181.861102581024 121.863625943661 2813.99989128113 12 15 8
188.726663589478 121.34001404047 2802.00004577637 13 16 9
196.016624569893 121.119402348995 2796.99993133545 13 16 9
-71.8063116073608 114.547625184059 2822.00002670288 23 26 19
-63.398465514183 113.290697336197 2790.99988937378 28 31 24
-55.0796613097191 111.871190369129 2756.00004196167 13 16 9
-46.8481965363026 110.207967460155 2714.99991416931 10 13 6
-39.7119261324406 110.980115830898 2733.99996757507 11 12 7
-31.7758284509182 109.35714840889 2694.00000572205 11 12 7
-24.5747100561857 110.047802329063 2710.99996566772 11 12 7
-17.1413067728281 109.845273196697 2706.00008964539 13 14 8
-9.71350353211164 109.399013221264 2694.9999332428 15 16 10
-2.34835082665086 109.074391424656 2687.00003623962 16 17 11
4.97312657535076 108.749605715275 2678.99990081787 16 17 11
12.4389491975307 110.089004039764 2711.99989318848 18 19 11
20.0776048004627 111.38766258955 2743.99995803833 17 18 10
27.27803401649 110.209979116917 2714.99991416931 16 17 9
34.8055399954319 110.574677586555 2723.99997711182 14 15 7
41.8858081102371 109.640255570412 2700.99997520447 15 18 9
49.0044467151165 109.071038663387 2687.00003623962 17 20 11
