ply
format ascii 1.0
comment KinectMotionCapture
element vertex 802
property float x
property float y
property float z
property uchar red
property uchar green
property uchar blue
end_header
106.016464531422 237.36660182476 2647.0000743866 16 16 8
111.653260886669 234.04398560524 2609.99989509583 19 15 6
117.451854050159 231.438606977463 2581.00008964539 92 78 65
123.670600354671 229.909017682076 2563.99989128113 116 98 84
130.611509084702 229.813903570175 2562.99996376038 134 111 95
137.76122033596 230.077147483826 2565.99998474121 142 115 98
144.926741719246 230.340078473091 2569.00000572205 141 112 94
152.167215943336 230.692371726036 2572.99995422363 145 114 94
159.119591116905 230.59606552124 2572.00002670288 145 114 94
166.324257850647 230.858117341995 2575.00004768372 138 109 91
173.679277300835 231.29914700985 2579.99992370605 146 119 102
181.27104640007 232.008814811707 2588.00005912781 141 118 104
189.342349767685 233.256056904793 2601.99999809265 136 118 104
197.489202022552 234.502911567688 2615.9999370575 41 29 17
212.047219276428 243.010118603706 2710.99996566772 21 15 3
222.508445382118 246.407240629196 2749.00007247925 26 23 16
233.677834272385 250.341564416885 2792.99998283386 15 14 9
242.667183279991 251.765727996826 2809.00001525879 16 18 15
-92.645950615406 239.642083644867 2756.00004196167 22 23 17
-85.0038304924965 239.29800093174 2752.00009346008 23 24 18
-77.6929557323456 239.910110831261 2759.0000629425 20 23 16
-70.3181475400925 240.435004234314 2765.00010490417 21 24 17
-63.0692318081856 241.568252444267 2778.00011634827 20 23 16
-54.6705015003681 238.005444407463 2736.99998855591 17 20 13
-46.7884801328182 235.920608043671 2713.00005912781 13 16 9
-38.8775542378426 232.878848910332 2677.99997329712 14 17 8
-32.0180505514145 236.18483543396 2716.00008010864 17 20 11
-24.5976969599724 236.099049448967 2714.99991416931 18 21 12
-17.1573832631111 235.665157437325 2710.00003814697 15 18 9
-9.66863799840212 233.404725790024 2684.00001525879 15 18 9
-2.3304873611778 232.013583183289 2667.99998283386 17 20 11
4.95745614171028 232.361361384392 2671.99993133545 17 20 11
12.2259529307485 231.926202774048 2667.00005531311 17 20 11
19.4086115807295 230.795055627823 2654.00004386902 16 19 10
26.5302807092667 229.750528931618 2641.99995994568 15 18 9
34.0333208441734 231.749340891838 2664.99996185303 14 17 8
41.2587709724903 231.486842036247 2661.99994087219 14 17 8
48.3765453100204 230.78927397728 2654.00004386902 14 17 8
55.8695942163467 231.830567121506 2665.99988937378 15 18 9
63.309483230114 232.436761260033 2673.00009727478 16 17 9
70.6288442015648 232.520893216133 2674.00002479553 16 17 9
77.865943312645 232.343822717667 2671.99993133545 15 16 8
85.155576467514 232.340395450592 2671.99993133545 15 16 8
92.3756808042526 232.162758708 2670.00007629395 14 15 7
99.0992411971092 230.854421854019 2654.99997138977 15 15 7
105.78066855669 229.632824659348 2641.00003242493 16 16 8
112.51363158226 228.671818971634 2630.00011444092 22 18 9
118.230476975441 225.884675979614 2598.00004959106 67 53 40
124.013498425484 223.532110452652 2571.00009918213 114 96 82
130.87186217308 223.265960812569 2568.00007820129 129 106 90
138.035491108894 223.521173000336 2571.00009918213 135 108 91
145.102098584175 223.602205514908 2572.00002670288 135 106 88
152.114480733871 223.596006631851 2572.00002670288 139 106 87
159.435614943504 224.024221301079 2576.99990272522 140 109 89
166.847974061966 224.539041519165 2582.99994468689 128 99 81
174.629047513008 225.488230586052 2594.00010108948 135 108 91
182.189226150513 226.089373230934 2601.0000705719 128 105 91
190.223470330238 227.211698889732 2614.00008201599 120 101 87
198.931828141212 229.029044508934 2634.99999046326 51 39 25
211.664900183678 235.191717743874 2706.00008964539 26 20 8
224.945947527885 241.52746796608 2779.00004386902 24 21 12
253.044217824936 254.544317722321 2928.99990081787 14 16 13
-102.312713861465 237.097233533859 2815.00005722046 26 27 21
-92.7170440554619 232.300266623497 2757.99989700317 20 21 15
-84.2969119548798 229.86127436161 2729.00009155273 21 24 17
-78.0622884631157 233.486488461494 2772.0000743866 21 24 17
-69.1257417201996 228.941038250923 2717.99993515015 20 23 16
-62.1637031435966 230.628371238708 2737.99991607666 17 20 13
-55.6116290390491 234.505504369736 2783.99991989136 16 19 12
-46.4282482862473 226.75809264183 2691.99991226196 18 21 14
-39.1550213098526 227.181062102318 2697.00002670288 19 22 13
-31.7364484071732 226.76132619381 2691.99991226196 15 18 9
-24.3994034826756 226.846739649773 2693.00007820129 14 17 8
-17.2024220228195 228.869244456291 2717.00000762939 14 17 8
-9.70866996794939 227.016612887383 2694.9999332428 12 15 6
-2.34106765128672 225.753307342529 2680.0000667572 14 17 8
4.93725435808301 224.152773618698 2661.00001335144 15 18 9
12.2493868693709 225.079014897346 2671.99993133545 18 21 12
19.5776280015707 225.499525666237 2677.00004577637 20 23 14
26.7523191869259 224.403500556946 2664.00003433228 20 23 14
33.8304117321968 223.138734698296 2648.9999294281 20 23 14
40.9350022673607 222.463309764862 2641.00003242493 18 21 12
48.4879389405251 224.06193614006 2660.00008583069 14 17 8
56.0815036296844 225.407525897026 2676.00011825562 14 17 8
63.5726675391197 226.078897714615 2684.00001525879 16 17 9
70.42046636343 224.559992551804 2665.99988937378 15 16 8
77.2572010755539 223.293483257294 2651.00002288818 17 18 10
84.553562104702 223.458632826805 2653.00011634827 15 16 8
92.8985029459 226.150304079056 2684.99994277954 14 15 7
99.9245569109917 225.472539663315 2677.00004577637 13 13 5
105.985321104527 222.85732626915 2645.99990844727 14 14 6
113.245598971844 222.937107086182 2647.0000743866 20 16 7
119.509644806385 221.163690090179 2625.99992752075 27 17 5
124.452732503414 217.284619808197 2579.99992370605 86 68 54
131.386891007423 217.110976576805 2578.00006866455 115 92 76
138.41700553894 217.105522751808 2578.00006866455 121 94 75
145.559400320053 217.268198728561 2579.99992370605 114 85 67
152.593865990639 217.262178659439 2579.99992370605 120 87 68
160.060822963715 217.845350503922 2586.99989318848 125 92 73
167.436152696609 218.259796500206 2592.00000762939 113 82 64
175.242036581039 219.179138541222 2602.9999256134 114 85 69
182.616904377937 219.508811831474 2607.00011253357 117 91 78
190.667808055878 220.595940947533 2619.99988555908 115 96 82
199.392840266228 222.356274724007 2641.00003242493 37 25 11
213.629022240639 229.925394058228 2730.99994659424 26 20 6
225.521609187126 234.547108411789 2786.00001335144 19 16 7
234.700843691826 236.137568950653 2805.0000667572 15 15 7
-94.0655395388603 228.043809533119 2798.00009727478 23 24 18
-86.5244492888451 228.291898965836 2801.00011825562 24 25 19
-76.8826305866241 222.508326172829 2730.00001907349 22 25 18
-70.1713263988495 224.874928593636 2759.0000629425 22 25 18
-61.8937648832798 222.187861800194 2726.0000705719 17 20 13
-53.9758279919624 220.233947038651 2701.99990272522 16 19 12
-47.5684627890587 224.80046749115 2757.99989700317 20 23 16
-39.4905358552933 221.704855561256 2720.00002861023 18 21 12
-31.619843095541 218.608930706978 2681.99992179871 18 21 12
-17.1208083629608 220.404088497162 2703.9999961853 16 19 10
-9.73067991435528 220.160111784935 2700.99997520447 13 16 7
-2.36474885605276 220.649421215057 2707.00001716614 13 16 7
5.10259391739964 224.154323339462 2750 14 17 8
12.5295417383313 222.768291831017 2733.00004005432 15 18 9
19.6954403072596 219.507217407227 2693.00007820129 18 21 12
26.8940012902021 218.283623456955 2677.99997329712 18 21 12
33.9339599013329 216.5707051754 2657.00006484985 19 22 13
41.1381721496582 216.324701905251 2654.00004386902 20 23 14
48.781581223011 218.116104602814 2676.00011825562 15 18 9
56.377187371254 219.255089759827 2690.00005722046 15 18 9
62.9120096564293 216.481447219849 2655.99989891052 17 18 10
70.2912509441376 216.886356472969 2661.00001335144 14 15 7
77.2020220756531 215.905323624611 2648.9999294281 16 17 9
84.3976214528084 215.820625424385 2648.00000190735 15 16 8
92.7984416484833 218.588173389435 2681.99992179871 13 14 6
100.115224719048 218.584358692169 2681.99992179871 12 12 4
107.031054794788 217.765256762505 2671.99993133545 13 13 5
113.934695720673 217.02741086483 2663.00010681152 17 13 4
119.741998612881 214.41487967968 2631.00004196167 23 13 1
125.277802348137 211.639240384102 2596.99988365173 62 44 30
131.646975874901 210.493251681328 2582.99994468689 114 91 75
138.690993189812 210.487946867943 2582.99994468689 121 94 77
145.7908898592 210.563868284225 2584.00011062622 111 82 64
152.89568901062 210.639491677284 2585.00003814697 116 83 64
160.438418388367 211.285218596458 2592.99993515015 122 87 68
167.830392718315 211.686253547668 2598.00004959106 116 84 69
175.518274307251 212.412863969803 2607.00011253357 120 88 75
182.974338531494 212.813273072243 2611.99998855591 116 88 76
190.966412425041 213.783726096153 2624.00007247925 115 96 82
200.231164693832 216.057345271111 2651.99995040894 34 25 10
215.04545211792 223.951771855354 2749.00007247925 25 22 7
226.258978247643 227.690696716309 2795.00007629395 17 17 5
237.303912639618 231.021761894226 2835.99996566772 15 15 5
-86.0644578933716 219.475418329239 2786.00001335144 16 17 11
-77.4489119648933 216.642543673515 2750 21 24 17
-69.5636421442032 215.463668107986 2734.99989509583 24 27 20
-62.4865517020226 216.805532574654 2752.00009346008 20 23 16
-55.1765821874142 217.595621943474 2762.00008392334 17 20 13
-47.4151037633419 216.573417186737 2749.00007247925 18 21 14
-39.6227650344372 214.999452233315 2729.00009155273 27 30 21
-31.9158397614956 213.267594575882 2707.00001716614 24 27 18
-24.4104154407978 212.244480848312 2694.00000572205 20 23 14
-17.0518327504396 212.166532874107 2693.00007820129 14 17 8
-9.70944762229919 212.324619293213 2694.9999332428 15 18 9
-2.3735782597214 214.058101177216 2717.00000762939 16 19 10
5.02300588414073 213.270217180252 2707.00001716614 16 19 10
12.3604014515877 212.403252720833 2696.00009918213 13 16 7
19.5865090936422 210.984498262405 2677.99997329712 13 16 7
26.8749762326479 210.82603931427 2676.00011825562 13 16 7
34.2035070061684 210.982397198677 2677.99997329712 15 18 9
41.5428206324577 211.138516664505 2680.0000667572 17 20 11
48.3824387192726 209.088414907455 2654.00004386902 15 18 9
55.1847442984581 207.431972026825 2632.99989700317 16 19 10
62.606543302536 208.21750164032 2642.99988746643 19 20 12
70.214755833149 209.396660327911 2657.99999237061 16 17 9
77.7588188648224 210.18160879612 2667.99998283386 16 17 9
84.6240371465683 209.154337644577 2654.99997138977 16 17 9
91.7986258864403 208.993420004845 2653.00011634827 16 17 9
99.1485491394997 209.226027131081 2655.99989891052 17 17 9
107.035234570503 210.482463240623 2671.99993133545 17 17 9
113.810770213604 209.532961249352 2660.00008583069 20 16 7
119.610123336315 207.007825374603 2628.00002098084 25 15 3
125.234425067902 204.482510685921 2595.99995613098 40 24 9
131.754025816917 203.611180186272 2585.00003814697 116 93 77
138.696357607841 203.448489308357 2582.99994468689 121 94 77
146.022215485573 203.836902976036 2588.00005912781 108 79 61
153.374761343002 204.22500371933 2592.99993515015 124 91 74
160.877734422684 204.770356416702 2599.99990463257 119 86 69
168.15984249115 205.000400543213 2602.9999256134 115 83 68
175.457656383514 205.230161547661 2605.99994659424 122 90 77
182.911291718483 205.61720430851 2611.00006103516 114 86 75
190.973699092865 206.633925437927 2624.00007247925 113 94 80
201.446875929832 210.091397166252 2667.99998283386 41 32 17
214.271292090416 215.674415230751 2739.00008201599 24 21 6
227.400898933411 221.178025007248 2809.00001525879 17 17 5
237.229183316231 223.216578364372 2835.00003814697 17 17 7
-102.869957685471 215.219840407372 2829.99992370605 26 27 21
-85.2027162909508 209.751188755035 2757.99989700317 17 20 13
-77.0575553178787 208.08108150959 2736.00006103516 18 21 14
-69.2101940512657 206.94300532341 2720.99995613098 22 25 18
-62.3753927648067 208.922892808914 2746.99997901917 17 20 13
-54.4994324445724 207.480013370514 2727.9999256134 20 23 16
-46.7442087829113 206.112906336784 2710.00003814697 19 22 15
-39.3193624913692 205.962419509888 2707.99994468689 25 28 19
-31.9995954632759 206.420123577118 2713.99998664856 22 25 16
-24.5563313364983 206.116944551468 2710.00003814697 20 23 14
-17.0398205518723 204.672619700432 2690.99998474121 17 20 11
-9.6773924306035 204.292818903923 2686.00010871887 18 21 12
-2.33697611838579 203.456401824951 2674.99995231628 19 22 13
4.96196188032627 203.380316495895 2674.00002479553 20 23 14
12.3241934925318 204.444780945778 2687.99996376038 18 21 12
19.7189133614302 205.052673816681 2696.00009918213 16 19 10
26.9764363765717 204.291209578514 2686.00010871887 14 17 8
34.217581152916 203.757613897324 2678.99990081787 15 18 9
41.2498749792576 202.38721370697 2661.00001335144 14 17 8
48.0196662247181 200.332015752792 2634.0000629425 15 18 9
55.1239736378193 200.025841593742 2630.00011444092 15 18 9
62.4904930591583 200.632080435753 2638.00001144409 17 18 10
69.9796676635742 201.46618783474 2648.9999294281 17 18 10
77.7909159660339 202.984496951103 2668.99991035461 14 15 7
84.9459990859032 202.677249908447 2664.99996185303 14 15 7
92.0789316296577 202.36973464489 2661.00001335144 14 15 7
99.4882956147194 202.670365571976 2664.99996185303 15 15 7
107.359766960144 203.80724966526 2680.0000667572 16 16 8
114.20015245676 202.966600656509 2668.99991035461 19 15 6
119.796685874462 200.148597359657 2631.99996948242 30 20 10
124.853201210499 196.798175573349 2588.00005912781 60 44 29
131.708011031151 196.489259600639 2584.00011062622 116 95 78
138.647869229317 196.332186460495 2582.00001716614 101 75 58
146.027684211731 196.783170104027 2588.00005912781 102 73 57
153.380483388901 197.157829999924 2592.99993515015 128 96 81
160.883724689484 197.684317827225 2599.99990463257 120 88 73
168.230697512627 197.982400655746 2604.00009155273 109 81 69
175.531521439552 198.204219341278 2607.00011253357 112 85 74
183.198273181915 198.805883526802 2615.00000953674 108 86 75
191.271871328354 199.78740811348 2628.00002098084 101 84 74
200.623705983162 201.984912157059 2657.00006484985 34 28 14
214.592114090919 208.515003323555 2743.00003051758 16 17 3
225.142404437065 211.395666003227 2780.99989891052 12 12 0
235.229462385178 213.667780160904 2811.00010871887 22 24 13
-94.2779630422592 205.601647496223 2803.99990081787 18 19 13
-76.4407515525818 199.008524417877 2713.99998664856 18 21 14
-69.7214677929878 200.990989804268 2740.9999370575 23 26 19
-61.1968897283077 197.620242834091 2694.9999332428 15 18 11
-54.6013414859772 200.40887594223 2733.00004005432 16 19 12
-46.8839295208454 199.310749769211 2717.99993515015 19 22 15
-39.4224561750889 199.092343449593 2714.99991416931 20 23 14
-32.0125669240952 199.093639850616 2714.99991416931 19 22 13
-24.6025435626507 199.094638228416 2714.99991416931 18 21 12
-17.1480998396873 198.582097887993 2707.99994468689 16 19 10
-9.63451247662306 196.089282631874 2674.00002479553 15 18 9
-2.32483143918216 195.136204361916 2661.00001335144 18 21 12
4.98441373929381 196.969464421272 2686.00010871887 19 22 13
12.3750837519765 197.922423481941 2698.99988174438 19 22 13
19.7415836155415 197.921857237816 2698.99988174438 17 20 11
27.0176101475954 197.261050343513 2690.00005722046 16 19 10
34.0527966618538 195.49997150898 2665.99988937378 17 20 11
41.080866008997 194.325342774391 2650.00009536743 15 18 9
48.4225191175938 194.763660430908 2655.99989891052 15 18 9
55.6500144302845 194.688454270363 2654.99997138977 15 18 9
63.203476369381 195.639610290527 2667.99998283386 15 16 8
70.6427022814751 196.077153086662 2674.00002479553 14 15 7
77.939510345459 196.074455976486 2674.00002479553 14 15 7
85.2041244506836 195.998191833496 2673.00009727478 14 15 7
92.9128006100655 196.874856948853 2684.99994277954 14 15 7
100.313261151314 197.018027305603 2687.00003623962 15 15 7
107.24350810051 196.2810754776 2677.00004577637 16 16 8
114.717803895473 196.570381522179 2680.99999427795 19 16 7
120.893470942974 194.733172655106 2655.99989891052 26 18 7
125.340193510056 190.47637283802 2598.00004959106 68 54 41
132.171541452408 190.10517001152 2592.99993515015 110 88 74
139.189884066582 190.027013421059 2592.00000762939 98 75 59
146.42795920372 190.241873264313 2595.00002861023 102 74 60
153.622627258301 190.383151173592 2596.99988365173 122 93 79
161.013275384903 190.74410200119 2601.99999809265 114 86 72
168.430581688881 191.10481441021 2607.00011253357 112 88 76
175.739794969559 191.318616271019 2609.99989509583 112 90 79
183.485060930252 191.972017288208 2618.99995803833 97 79 69
191.205903887749 192.551821470261 2627.00009346008 92 79 70
200.253292918205 194.37737762928 2651.99995040894 29 25 13
211.470305919647 198.108151555061 2703.00006866455 20 20 8
225.150361657143 203.817173838615 2780.99989891052 17 17 5
-104.29510474205 202.541679143906 2868.99995803833 29 30 24
-93.9787030220032 197.320953011513 2795.00007629395 18 19 13
-86.0430374741554 196.618095040321 2785.00008583069 16 17 11
-78.0771225690842 195.70317864418 2772.0000743866 20 23 16
-69.8511376976967 193.87012720108 2746.00005149841 25 28 21
-63.2655397057533 196.696504950523 2786.00001335144 13 16 9
-54.3635338544846 192.109435796738 2720.99995613098 14 17 10
-46.3853478431702 189.851880073547 2688.99989128113 17 20 13
-39.0463173389435 189.853370189667 2688.99989128113 19 22 13
-32.2023704648018 192.819997668266 2730.99994659424 18 21 12
-24.6940422803164 192.397370934486 2724.99990463257 18 21 12
-17.1993728727102 191.762670874596 2716.00008010864 17 20 11
-9.63846035301685 188.868314027786 2674.99995231628 16 19 10
-2.3284088820219 188.162490725517 2664.99996185303 19 22 13
4.96603408828378 188.939094543457 2676.00011825562 20 23 14
12.4030373990536 190.986350178719 2704.99992370605 19 22 13
19.6471977978945 189.644277095795 2686.00010871887 18 21 12
26.8679093569517 188.866823911667 2674.99995231628 16 19 10
33.9773707091808 187.806695699692 2660.00008583069 17 20 11
41.2373617291451 187.805384397507 2660.00008583069 16 19 10
48.4424829483032 187.591999769211 2657.00006484985 16 19 10
56.1969876289368 189.284637570381 2680.99999427795 15 18 9
63.5847672820091 189.494341611862 2684.00001525879 14 15 7
71.0943341255188 189.986184239388 2690.99998474121 13 14 6
78.2046169042587 189.418792724609 2683.00008773804 15 16 8
85.7171788811684 189.839527010918 2688.99989128113 14 15 7
93.4697836637497 190.683588385582 2700.99997520447 13 14 6
100.05547106266 189.197689294815 2680.0000667572 14 14 6
107.367485761642 189.194113016129 2680.0000667572 16 16 8
115.064166486263 189.825594425201 2688.99989128113 21 18 9
121.534995734692 188.480228185654 2670.00007629395 45 36 27
126.454263925552 185.016974806786 2621.00005149841 97 84 75
133.195668458939 184.447780251503 2612.99991607666 80 66 55
140.107691287994 184.160709381104 2608.99996757507 72 53 39
147.166639566422 184.085205197334 2608.00004005432 83 61 48
154.101252555847 183.868274092674 2605.00001907349 103 81 68
161.328315734863 184.004068374634 2607.00011253357 100 78 65
169.017896056175 184.633627533913 2615.9999370575 97 80 70
176.48658156395 184.980615973473 2621.00005149841 94 80 71
184.402212500572 185.750812292099 2631.99996948242 71 61 52
191.867589950562 186.026722192764 2635.99991798401 22 18 9
212.338164448738 191.51745736599 2713.99998664856 12 14 3
222.972080111504 194.332718849182 2753.99994850159 22 24 13
-94.3517908453941 190.445929765701 2805.99999427795 22 23 17
-85.9532952308655 188.820019364357 2782.00006484985 23 24 18
-77.8544470667839 187.601059675217 2763.99993896484 25 28 21
-70.9982514381409 189.4361525774 2790.99988937378 29 32 25
-63.4039640426636 189.506307244301 2792.00005531311 16 19 12
-55.224534124136 187.607780098915 2763.99993896484 17 20 13
-46.6802045702934 183.672711253166 2706.00008964539 18 21 14
-32.4511043727398 186.797693371773 2752.00009346008 19 22 13
-24.7673913836479 185.509011149406 2733.00004005432 19 22 13
-17.1683002263308 184.016406536102 2710.99996566772 20 23 14
-9.68563463538885 182.455658912659 2687.99996376038 18 21 12
-2.32324656099081 180.487394332886 2658.99991989136 20 23 14
4.95692575350404 181.301906704903 2671.0000038147 21 24 15
12.2521482408047 181.369498372078 2671.99993133545 20 23 14
19.6551885455847 182.387128472328 2687.00003623962 18 21 12
26.8688332289457 181.571811437607 2674.99995231628 15 18 9
34.2212468385696 181.842282414436 2678.99990081787 15 18 9
41.5178388357162 181.773126125336 2677.99997329712 16 19 10
48.8088019192219 181.703746318817 2677.00004577637 16 19 10
55.9892989695072 181.294709444046 2671.0000038147 16 19 10
63.8712421059608 182.989567518234 2696.00009918213 15 16 8
70.7797333598137 181.833446025848 2678.99990081787 15 16 8
78.1489834189415 181.966677308083 2680.99999427795 16 17 9
85.4969695210457 182.031810283661 2681.99992179871 15 16 8
92.7462428808212 181.893080472946 2680.0000667572 13 14 6
99.4615256786346 180.803954601288 2664.00003433228 14 14 6
107.090689241886 181.411296129227 2673.00009727478 16 16 8
115.324825048447 182.900652289391 2694.9999332428 21 18 9
121.357031166553 180.928602814674 2665.99988937378 53 44 35
127.134025096893 178.82065474987 2634.99999046326 78 65 56
134.015783667564 178.409144282341 2628.99994850159 55 41 30
141.025379300117 178.201004862785 2625.99992752075 71 53 41
148.24378490448 178.264051675797 2627.00009346008 77 57 46
155.230447649956 178.055480122566 2624.00007247925 77 57 46
162.323877215385 177.982375025749 2622.99990653992 70 52 40
169.863522052765 178.384035825729 2628.99994850159 94 81 72
177.637219429016 178.988993167877 2638.00001144409 85 76 67
186.159953474998 180.272147059441 2657.00006484985 45 38 30
218.604445457458 189.547061920166 2793.99991035461 18 21 12
224.679708480835 188.250929117203 2775.00009536743 16 17 9
-101.17556899786 181.292101740837 2782.99999237061 23 24 18
-93.4806168079376 181.099832057953 2779.99997138977 26 27 21
-85.9252288937569 181.167870759964 2780.99989891052 27 28 22
-77.8570175170898 180.063039064407 2763.99993896484 22 25 18
-70.0847953557968 179.479122161865 2755.00011444092 23 26 19
-62.5430718064308 179.416120052338 2753.99994850159 17 20 13
-54.8067651689053 178.701385855675 2743.00003051758 20 23 16
-46.3194735348225 174.924433231354 2684.99994277954 17 20 13
-39.6443456411362 177.857503294945 2730.00001907349 21 24 15
-32.1809574961662 177.793547511101 2729.00009155273 15 18 9
-24.5869588106871 176.752060651779 2713.00005912781 16 19 10
-17.1435363590717 176.361843943596 2707.00001716614 20 23 14
-9.69676580280066 175.319865345955 2690.99998474121 19 22 13
-2.35390523448586 175.515502691269 2694.00000572205 16 19 10
4.97750425711274 174.733653664589 2681.99992179871 18 21 12
12.2708966955543 174.342483282089 2676.00011825562 19 22 13
19.568057730794 174.276798963547 2674.99995231628 18 21 12
26.9601289182901 174.862414598465 2684.00001525879 17 20 11
34.3118011951447 174.991726875305 2686.00010871887 16 19 10
41.7672730982304 175.511673092842 2694.00000572205 15 18 9
48.7374812364578 174.142077565193 2673.00009727478 15 18 9
55.8024793863297 173.423737287521 2661.99994087219 15 18 9
63.2810518145561 174.008145928383 2671.0000038147 16 17 9
70.8613321185112 174.722597002983 2681.99992179871 15 16 8
77.860064804554 174.003586173058 2671.0000038147 17 18 10
85.1172283291817 173.935830593109 2670.00007629395 16 17 9
92.8531140089035 174.779832363129 2683.00008773804 15 16 8
99.8754799365997 174.255564808846 2674.99995231628 16 16 8
108.336225152016 176.141321659088 2703.9999961853 16 16 8
115.756548941135 176.202848553658 2704.99992370605 18 15 8
121.770709753036 174.24488067627 2674.99995231628 18 11 3
127.861931920052 172.612443566322 2650.00009536743 74 64 55
134.886756539345 172.34767973423 2645.99990844727 73 60 51
141.942963004112 172.147870063782 2642.99988746643 57 40 30
149.490118026733 172.534003853798 2648.9999294281 54 37 27
156.832784414291 172.659397125244 2651.00002288818 52 38 27
164.247632026672 172.84968495369 2654.00004386902 60 47 38
171.936646103859 173.300266265869 2661.00001335144 44 34 24
180.067181587219 174.141317605972 2674.00002479553 10 7 0
212.20500767231 182.979226112366 2809.99994277954 14 16 11
219.785049557686 182.907357811928 2809.00001525879 20 23 16
232.054963707924 186.611786484718 2865.9999370575 13 16 9
-99.9426618218422 171.579778194427 2749.00007247925 27 28 22
-92.9455310106277 172.518983483315 2763.99993896484 28 29 23
-85.7116654515266 173.145949840546 2773.9999294281 27 28 22
-75.3242671489716 166.906654834747 2674.00002479553 22 25 18
-68.3316588401794 167.657911777496 2686.00010871887 22 25 18
-53.3898435533047 166.787803173065 2671.99993133545 26 29 22
-39.2099432647228 168.538480997086 2700.00004768372 20 23 14
-32.0758484303951 169.788032770157 2720.00002861023 13 16 7
-24.5424266904593 169.039845466614 2707.99994468689 13 16 7
-17.0807503163815 168.353855609894 2697.00002670288 18 21 12
-9.75473131984472 168.978497385979 2707.00001716614 18 21 12
-2.36359192058444 168.853849172592 2704.99992370605 14 17 8
4.9906549975276 167.85503923893 2688.99989128113 15 18 9
12.2437728568912 166.668742895126 2670.00007629395 19 22 13
19.590625539422 167.167618870735 2677.99997329712 18 21 12
26.9609857350588 167.541444301605 2684.00001525879 17 20 11
34.3128927052021 167.665332555771 2686.00010871887 18 21 12
41.6135601699352 167.539298534393 2684.00001525879 15 18 9
48.9760711789131 167.662724852562 2686.00010871887 15 18 9
55.8671429753304 166.35026037693 2664.99996185303 15 18 9
63.188299536705 166.473254561424 2667.00005531311 14 15 7
70.5729424953461 166.72083735466 2671.0000038147 14 15 7
77.9499858617783 166.905805468559 2674.00002479553 17 18 10
85.3749662637711 167.152941226959 2677.99997329712 17 18 10
92.9252654314041 167.587086558342 2684.99994277954 16 17 9
100.998774170876 168.832376599312 2704.99992370605 16 16 8
108.98070037365 169.76535320282 2720.00002861023 16 16 8
115.845777094364 168.950513005257 2707.00001716614 15 15 7
122.593954205513 168.073073029518 2693.00007820129 20 15 9
129.216969013214 167.133048176765 2677.99997329712 25 18 10
136.36939227581 166.941732168198 2674.99995231628 29 20 13
143.075257539749 166.250988841057 2664.00003433228 45 35 26
150.567054748535 166.496112942696 2667.99998283386 48 38 28
158.25754404068 166.928216814995 2674.99995231628 44 35 26
167.594715952873 168.982520699501 2707.99994468689 24 17 7
175.883486866951 169.850885868073 2721.99988365173 8 4 0
185.864180326462 172.216549515724 2759.99999046326 25 25 17
199.414610862732 177.576795220375 2845.99995613098 10 13 6
205.134630203247 175.823658704758 2818.00007820129 9 14 8
213.872984051704 176.690831780434 2832.00001716614 15 17 12
220.652461051941 175.935611128807 2819.9999332428 17 19 14
231.738150119781 178.549110889435 2861.99998855591 15 18 11
-92.7465781569481 164.621666073799 2757.99989700317 27 30 23
-78.8759663701057 167.133718729019 2799.99995231628 23 26 19
-70.1654627919197 164.628908038139 2757.99989700317 23 26 19
-62.1608756482601 163.377374410629 2736.99998855591 20 23 16
-54.4704869389534 162.722483277321 2726.0000705719 23 26 19
-47.3402440547943 163.798496127129 2743.99995803833 14 17 10
-39.8065634071827 163.620695471764 2740.9999370575 15 18 11
-32.1475900709629 162.726387381554 2726.0000705719 14 17 10
-24.6519353240728 162.369042634964 2720.00002861023 14 17 10
-17.1066056936979 161.235481500626 2700.99997520447 15 18 11
-9.75863263010979 161.653742194176 2707.99994468689 15 18 11
-2.36890697851777 161.833003163338 2710.99996566772 15 18 11
5.02050342038274 161.474794149399 2704.99992370605 16 19 12
12.2074577957392 158.907651901245 2661.99994087219 18 21 14
19.5546466857195 159.563824534416 2673.00009727478 18 21 14
27.0220804959536 160.577937960625 2690.00005722046 17 20 13
34.6844159066677 162.069365382195 2714.99991416931 15 18 11
41.5528118610382 159.978970885277 2680.0000667572 15 16 8
48.795223236084 159.738838672638 2676.00011825562 16 17 9
55.7430684566498 158.72249007225 2658.99991989136 17 18 10
62.9532784223557 158.601343631744 2657.00006484985 16 17 9
70.46939432621 159.196272492409 2667.00005531311 15 16 8
78.3896297216415 160.507246851921 2688.99989128113 15 16 8
85.887648165226 160.803243517876 2694.00000572205 15 16 8
93.7241166830063 161.636233329773 2707.99994468689 14 15 7
100.591100752354 160.797715187073 2694.00000572205 14 15 7
107.261091470718 159.779965877533 2677.00004577637 14 15 7
115.207344293594 160.671949386597 2691.99991226196 15 16 8
123.462609946728 161.86212003231 2711.99989318848 14 17 10
131.006211042404 162.037417292595 2714.99991416931 14 17 10
137.85195350647 161.376968026161 2703.9999961853 14 17 10
145.496428012848 161.671206355095 2709.00011062622 13 16 9
152.94186770916 161.726504564285 2710.00003814697 13 16 9
160.62881052494 162.020295858383 2714.99991416931 12 15 8
170.879900455475 164.760500192642 2760.99991798401 8 11 4
180.088862776756 166.306897997856 2786.99994087219 10 13 6
189.573615789413 167.972326278687 2815.00005722046 12 15 8
197.949051856995 168.563410639763 2825.00004768372 16 19 12
207.542955875397 170.108899474144 2851.0000705719 16 19 12
211.991220712662 167.477563023567 2806.99992179871 16 19 12
223.632380366325 170.514106750488 2858.00004005432 19 22 15
229.72060739994 169.254705309868 2836.99989318848 18 21 14
-93.9599126577377 159.148722887039 2793.99991035461 28 31 24
-79.3853402137756 160.520747303963 2818.00007820129 22 25 18
-70.3201591968536 157.446876168251 2763.99993896484 22 25 18
-62.1172674000263 155.796810984612 2734.99989509583 18 21 14
-55.09153008461 157.05169737339 2756.99996948242 19 22 15
-47.6004220545292 157.167091965675 2759.0000629425 11 14 7
-40.5629277229309 159.10516679287 2792.99998283386 12 15 8
-24.6979724615812 155.233353376389 2724.99990463257 12 15 8
-17.2844473272562 155.461817979813 2729.00009155273 13 16 9
-9.79495514184237 154.835566878319 2717.99993515015 13 16 9
-2.37334542907774 154.721796512604 2716.00008010864 13 16 9
5.03735477104783 154.607817530632 2713.99998664856 14 17 10
12.3041225597262 152.841627597809 2683.00008773804 17 20 13
19.5186398923397 151.986673474312 2667.99998283386 17 20 13
26.9123669713736 152.612626552582 2678.99990081787 16 19 12
34.3277156352997 153.067484498024 2687.00003623962 15 18 11
41.7090766131878 153.23731303215 2690.00005722046 14 15 7
48.1584221124649 150.444716215134 2641.00003242493 16 17 9
55.5140785872936 150.841981172562 2648.00000190735 16 17 9
63.4526908397675 152.549222111702 2677.99997329712 16 17 9
71.1320266127586 153.34478020668 2691.99991226196 15 16 8
78.3336088061333 153.057858347893 2687.00003623962 14 15 7
85.953913629055 153.568178415298 2696.00009918213 14 15 7
93.2076722383499 153.394758701324 2693.00007820129 14 15 7
100.1832857728 152.822405099869 2683.00008773804 14 15 7
107.103921473026 152.249872684479 2673.00009727478 15 16 8
114.911094307899 152.930244803429 2684.99994277954 16 17 9
123.101972043514 154.009059071541 2703.9999961853 13 16 9
131.154745817184 154.802829027176 2717.99993515015 13 16 9
136.122509837151 152.065292000771 2670.00007629395 13 16 9
146.252542734146 155.079796910286 2723.00004959106 13 16 9
156.332522630692 157.752260565758 2769.99998092651 11 14 7
165.425792336464 159.228444099426 2796.0000038147 11 14 7
171.998858451843 158.255621790886 2779.00004386902 9 12 5
180.223241448402 158.820167183876 2789.00003433228 11 14 7
187.35659122467 158.416450023651 2782.00006484985 13 16 9
195.291891694069 158.695861697197 2786.99994087219 16 19 12
207.330420613289 162.163645029068 2848.00004959106 17 20 13
215.773418545723 162.670254707336 2857.00011253357 18 21 14
221.525937318802 161.183893680573 2831.00008964539 17 20 13
-96.8883484601974 156.24463558197 2881.00004196167 19 22 15
-77.1056488156319 148.439690470695 2736.99998855591 20 23 16
-68.8464716076851 146.760404109955 2706.00008964539 18 21 14
-62.5732466578484 149.419724941254 2755.00011444092 16 19 12
-55.0131350755692 149.312853813171 2753.00002098084 16 19 12
-47.4292151629925 149.097308516502 2749.00007247925 13 16 9
-40.0557368993759 149.586632847786 2757.99989700317 8 11 4
-24.2001581937075 144.81545984745 2670.00007629395 11 14 7
-17.2722619026899 147.907584905624 2726.99999809265 11 14 7
-9.7808139398694 147.202864289284 2713.99998664856 11 14 7
-2.35069147311151 145.901322364807 2690.00005722046 11 14 7
5.06533775478601 148.016586899757 2729.00009155273 12 15 8
12.3457396402955 146.009504795074 2691.99991226196 15 18 11
19.5557661354542 144.978567957878 2673.00009727478 16 19 12
26.8729347735643 145.086392760277 2674.99995231628 15 18 11
34.3286730349064 145.736411213875 2687.00003623962 14 17 10
41.4466448128223 144.976079463959 2673.00009727478 14 15 7
48.597414046526 144.540950655937 2664.99996185303 15 16 8
56.0397580265999 144.973412156105 2673.00009727478 16 17 9
64.4496306777 147.52085506916 2720.00002861023 16 17 9
71.134015917778 146.000429987907 2691.99991226196 16 17 9
78.7147805094719 146.432265639305 2700.00004768372 18 19 11
85.8287662267685 145.996168255806 2691.99991226196 17 18 10
93.0718034505844 145.831048488617 2688.99989128113 16 17 9
100.596807897091 146.099582314491 2694.00000572205 15 16 8
107.747994363308 145.825609564781 2688.99989128113 15 16 8
114.999860525131 145.714148879051 2687.00003623962 15 16 8
122.695609927177 146.144777536392 2694.9999332428 13 16 9
130.048483610153 146.14138007164 2694.9999332428 13 16 9
137.553796172142 146.300464868546 2697.99995422363 12 15 8
144.322946667671 145.700231194496 2687.00003623962 11 14 7
157.296270132065 151.118531823158 2786.99994087219 10 13 6
166.199490427971 152.307093143463 2809.00001525879 10 13 6
173.550888895988 152.031466364861 2803.99990081787 13 16 9
178.935721516609 150.129109621048 2769.00005340576 14 17 10
186.620831489563 150.232687592506 2770.99990844727 15 18 11
198.730826377869 153.751596808434 2835.99996566772 16 19 12
208.282425999641 155.101552605629 2861.00006103516 16 19 12
219.480022788048 157.535418868065 2905.99989891052 16 19 12
227.71380841732 157.746404409409 2910.00008583069 15 18 11
-83.4037736058235 139.012724161148 2698.99988174438 18 21 14
-75.7835954427719 138.551250100136 2690.00005722046 19 22 15
-69.5606991648674 140.819400548935 2733.99996757507 18 21 14
-61.6209506988525 139.739453792572 2713.00005912781 16 19 12
-54.7947809100151 141.234681010246 2742.00010299683 14 17 10
-47.4132150411606 141.545042395592 2747.99990653992 14 17 10
-40.3908528387547 143.245980143547 2780.99989891052 9 12 5
-24.4183354079723 138.766348361969 2694.00000572205 12 15 8
-16.9940292835236 138.200297951698 2683.00008773804 12 15 8
-9.65854153037071 138.046115636826 2680.0000667572 11 14 7
-2.33589787967503 137.68570125103 2673.00009727478 12 15 8
4.97637595981359 138.097733259201 2680.99999427795 13 16 9
12.2543442994356 137.63390481472 2671.99993133545 15 18 11
19.6660272777081 138.457655906677 2687.99996376038 16 19 12
26.9841607660055 138.354048132896 2686.00010871887 14 17 10
34.6489883959293 139.692470431328 2711.99989318848 14 17 10
41.4942614734173 137.837186455727 2676.00011825562 15 16 8
48.8175377249718 137.887522578239 2677.00004577637 15 16 8
56.6073171794415 139.070838689804 2700.00004768372 15 16 8
64.1670003533363 139.481320977211 2707.99994468689 16 17 9
71.5322718024254 139.428064227104 2707.00001716614 16 17 9
78.5127878189087 138.705044984818 2693.00007820129 18 19 11
85.7034996151924 138.445392251015 2687.99996376038 18 19 11
92.8319692611694 138.134062290192 2681.99992179871 16 17 9
100.562132894993 138.698130846024 2693.00007820129 15 16 8
107.790909707546 138.54093849659 2690.00005722046 15 16 8
115.045681595802 138.435065746307 2687.99996376038 15 16 8
123.245187103748 139.410525560379 2707.00001716614 13 16 9
130.148410797119 138.892292976379 2697.00002670288 12 15 8
146.099239587784 140.06969332695 2720.00002861023 10 13 6
156.623065471649 142.898082733154 2775.00009536743 9 12 5
173.245936632156 144.125565886497 2799.00002479553 11 14 7
181.654527783394 144.738972187042 2811.00010871887 12 15 8
190.262526273727 145.455107092857 2825.00004768372 14 17 10
198.595806956291 145.913615822792 2834.00011062622 18 21 14
211.199894547462 149.35801923275 2901.00002288818 20 23 16
220.165431499481 150.073394179344 2914.99996185303 22 25 18
231.554105877876 152.332976460457 2959.00011062622 17 20 13
-83.4985747933388 131.794616580009 2701.99990272522 20 23 16
-76.7152085900307 132.820904254913 2723.00004959106 20 23 16
-70.3766420483589 134.92015004158 2766.00003242493 19 22 15
-62.5991970300674 134.43398475647 2756.00004196167 13 16 9
-55.0359711050987 134.337887167931 2753.99994850159 10 13 6
-47.3626479506493 133.900120854378 2744.99988555908 10 13 6
-40.0432869791985 134.486541152 2756.99996948242 12 15 8
-32.1274995803833 132.877692580223 2723.99997711182 14 17 10
-24.5277248322964 132.000342011452 2706.00008964539 15 18 11
-16.8677754700184 129.90328669548 2663.00010681152 14 17 10
-9.64797288179398 130.586549639702 2677.00004577637 12 15 8
-2.39188689738512 133.513540029526 2736.99998855591 13 16 9
5.02290762960911 132.001295685768 2706.00008964539 14 17 10
12.4289356172085 132.196217775345 2710.00003814697 16 19 12
19.5421446114779 130.293369293213 2671.0000038147 16 19 12
27.0752590149641 131.463527679443 2694.9999332428 14 17 10
34.4198867678642 131.413981318474 2694.00000572205 13 16 9
41.6348688304424 130.974039435387 2684.99994277954 16 17 9
49.110546708107 131.363153457642 2693.00007820129 16 17 9
56.6087402403355 131.703317165375 2700.00004768372 15 16 8
64.1686171293259 132.0920586586 2707.99994468689 15 16 8
71.6133490204811 132.187947630882 2710.00003814697 15 16 8
78.6896795034409 131.649553775787 2698.99988174438 16 17 9
85.9288424253464 131.452441215515 2694.9999332428 16 17 9
93.3535099029541 131.547793745995 2697.00002670288 14 15 7
100.041843950748 130.667492747307 2678.99990081787 14 15 7
107.072308659554 130.323529243469 2671.99993133545 14 15 7
115.433774888515 131.540164351463 2697.00002670288 14 15 7
123.384848237038 132.171303033829 2710.00003814697 13 16 9
130.103394389153 131.485432386398 2696.00009918213 13 16 9
147.875443100929 134.258553385735 2753.00002098084 11 14 7
159.844160079956 138.107463717461 2832.00001716614 9 12 5
167.036294937134 137.664631009102 2822.99995422363 8 11 4
174.921438097954 137.806817889214 2825.99997520447 8 11 4
183.597728610039 138.533964753151 2841.00008010864 10 13 6
192.018359899521 139.017075300217 2851.0000705719 12 15 8
202.034458518028 140.572682023048 2882.99989700317 17 20 13
210.477009415627 140.957847237587 2891.00003242493 20 23 16
222.436681389809 143.585532903671 2944.9999332428 21 24 17
-87.0235338807106 129.670903086662 2815.99998474121 17 20 13
-78.9709389209747 129.074200987816 2802.99997329712 22 25 18
-70.9889754652977 128.477290272713 2789.99996185303 23 26 19
-63.3502677083015 128.432810306549 2789.00003433228 10 13 6
-55.1971606910229 127.190843224525 2762.00008392334 16 19 12
-47.5363321602345 126.869678497314 2755.00011444092 10 13 6
-39.6811366081238 125.811517238617 2732.00011253357 12 15 8
-32.1636535227299 125.582098960876 2726.99999809265 14 17 10
-24.3017002940178 123.464375734329 2680.99999427795 14 17 10
-16.988530755043 123.510912060738 2681.99992179871 14 17 10
-9.79597214609385 125.169098377228 2717.99993515015 15 18 11
-2.41379253566265 127.19552218914 2762.00008392334 15 18 11
5.04344655200839 125.123143196106 2717.00000762939 15 18 11
12.2641222551465 123.142726719379 2674.00002479553 15 18 11
19.6011457592249 123.372599482536 2678.99990081787 16 19 12
26.7945975065231 122.819438576698 2667.00005531311 17 20 13
34.1523997485638 123.09505045414 2673.00009727478 17 20 13
41.7444072663784 123.969122767448 2691.99991226196 16 19 10
49.1664372384548 124.152295291424 2696.00009918213 13 16 7
56.6939637064934 124.51945245266 2703.9999961853 12 15 6
64.3834099173546 125.116690993309 2717.00000762939 13 16 7
72.0643103122711 125.575616955757 2726.99999809265 14 17 8
79.1872143745422 125.067323446274 2716.00008010864 13 16 7
86.7917910218239 125.341683626175 2721.99988365173 13 16 7
94.1518619656563 125.24750828743 2720.00002861023 13 16 7
100.193589925766 123.541541397572 2683.00008773804 14 17 8
108.196891844273 124.321907758713 2700.00004768372 15 18 9
114.537671208382 123.214289546013 2676.00011825562 16 19 10
122.431613504887 123.810105025768 2688.99989128113 15 18 11
129.334315657616 123.392850160599 2680.0000667572 14 17 10
139.603555202484 126.060172915459 2737.99991607666 12 15 8
149.060681462288 127.760380506516 2775.00009536743 10 13 6
160.130128264427 130.611255764961 2836.99989318848 9 12 5
167.691096663475 130.469426512718 2834.00011062622 9 12 5
173.687547445297 129.176512360573 2805.99999427795 14 17 10
182.567998766899 130.047127604485 2825.00004768372 15 18 11
192.561641335487 131.608039140701 2858.99996757507 15 18 11
203.020289540291 133.352786302567 2897.0000743866 14 17 10
210.991516709328 133.394151926041 2898.00000190735 14 17 10
219.118431210518 133.527398109436 2901.00002288818 15 18 11
-86.0365703701973 120.599918067455 2783.99991989136 21 24 17
-78.4092172980309 120.558388531208 2782.99999237061 17 20 13
-71.3976845145226 121.556393802166 2805.99999427795 19 22 15
-63.2835477590561 120.691448450089 2786.00001335144 18 21 14
-55.518165230751 120.346181094646 2778.00011634827 6 9 2
-47.3475977778435 118.874371051788 2743.99995803833 12 15 8
-39.7982336580753 118.702054023743 2740.00000953674 11 14 7
-31.9284833967686 117.273204028606 2707.00001716614 14 17 10
-24.4382191449404 116.797283291817 2696.00009918213 14 17 10
-17.0459244400263 116.581119596958 2690.99998474121 15 18 11
-9.81421489268541 117.967739701271 2723.00004959106 15 18 11
-2.37539340741932 117.751248180866 2717.99993515015 15 18 11
5.03242295235395 117.447972297668 2710.99996566772 15 18 11
12.3423682525754 116.581320762634 2690.99998474121 15 18 11
19.5503737777472 115.757845342159 2671.99993133545 15 18 11
26.8152970820665 115.627363324165 2668.99991035461 17 20 13
34.3959368765354 116.623111069202 2691.99991226196 17 20 13
41.9779606163502 117.272108793259 2707.00001716614 17 20 11
49.3134371936321 117.141135036945 2703.9999961853 15 18 9
56.7371770739555 117.226622998714 2706.00008964539 13 16 7
64.5270496606827 117.961741983891 2723.00004959106 13 16 7
72.0923468470573 118.176847696304 2727.9999256134 13 16 7
79.6263366937637 118.305161595345 2730.99994659424 14 17 8
87.080717086792 118.303336203098 2730.99994659424 14 17 8
93.7385931611061 117.305047810078 2707.99994468689 14 17 8
100.756004452705 116.869762539864 2697.99995422363 14 17 8
109.241232275963 118.080347776413 2726.0000705719 15 18 9
117.279596626759 118.684314191341 2740.00000953674 16 19 10
123.253934085369 117.252320051193 2707.00001716614 15 18 11
133.004978299141 119.371920824051 2756.00004196167 13 16 9
141.289278864861 120.018668472767 2770.99990844727 11 14 7
151.696085929871 122.311025857925 2823.99988174438 9 12 5
160.190120339394 122.914031147957 2838.00005912781 9 12 5
167.872309684753 122.867196798325 2836.99989318848 9 12 5
175.486475229263 122.77689576149 2835.00003814697 11 14 7
182.959780097008 122.599840164185 2831.00008964539 13 16 9
193.643525242805 124.501258134842 2875 13 16 9
204.426348209381 126.315802335739 2917.00005531311 12 15 8
210.777699947357 125.358730554581 2894.99998092651 13 16 9
-85.3275805711746 112.068399786949 2760.99991798401 20 23 16
-79.1434273123741 114.01841044426 2809.00001525879 20 23 16
-70.6358328461647 112.680442631245 2776.00002288818 17 20 13
-63.6483430862427 113.737210631371 2802.00004577637 12 15 8
-54.8398345708847 111.384086310863 2743.99995803833 0 2 0
-47.4348776042461 111.588105559349 2749.00007247925 13 16 9
-39.8717001080513 111.426629126072 2744.99988555908 9 12 5
-32.4599407613277 111.711531877518 2752.00009346008 11 14 7
-24.7560068964958 110.859662294388 2730.99994659424 14 17 10
-16.9766079634428 108.789846301079 2680.0000667572 16 19 12
-9.72431711852551 109.520792961121 2697.99995422363 15 18 11
-2.37631774507463 110.373377799988 2719.00010108948 16 19 12
5.01767871901393 109.723851084709 2703.00006866455 15 18 11
12.3839098960161 109.601892530918 2700.00004768372 15 18 11
19.7629779577255 109.642162919044 2700.99997520447 15 18 11
27.3785050958395 110.615909099579 2724.99990463257 15 18 11
34.8438732326031 110.696457326412 2726.99999809265 16 19 12
42.1494320034981 110.330328345299 2717.99993515015 18 21 12
49.423910677433 110.004656016827 2710.00003814697 16 19 10
56.9061189889908 110.165931284428 2713.99998664856 15 18 9
64.2203465104103 110.0023239851 2710.00003814697 15 18 9
72.1995905041695 110.893927514553 2732.00011253357 15 18 9
79.5405432581902 110.72999984026 2727.9999256134 16 19 10
87.0825573801994 110.850065946579 2730.99994659424 16 19 10
94.0521210432053 110.279984772205 2717.00000762939 15 18 9
101.243615150452 110.034450888634 2710.99996566772 14 17 8
108.682490885258 110.072903335094 2711.99989318848 15 18 9
117.62448400259 111.531712114811 2747.99990653992 15 18 9
125.578671693802 111.93510890007 2757.99989700317 15 18 11
134.214282035828 112.865924835205 2780.99989891052 13 16 9
143.943682312965 114.567644894123 2822.99995422363 8 11 4
152.182713150978 114.970482885838 2832.99994468689 8 11 4
161.265939474106 115.941300988197 2857.00011253357 10 13 6
168.645054101944 115.653902292252 2849.99990463257 11 14 7
174.87108707428 114.635959267616 2825.00004768372 13 16 9
183.222085237503 115.038156509399 2835.00003814697 13 16 9
190.953329205513 115.034408867359 2835.00003814697 13 16 9
203.098997473717 117.586754262447 2898.00000190735 14 17 10
214.349687099457 119.449011981487 2944.00000572205 17 20 13
-77.8207555413246 104.57219183445 2762.00008392334 31 34 27
-70.9680393338203 105.595871806145 2789.00003433228 7 10 3
-62.6273900270462 104.385562241077 2756.99996948242 21 24 17
-47.0562018454075 103.251792490482 2726.99999809265 11 14 7
-39.7417619824409 103.59338670969 2736.00006103516 9 12 5
-32.5195603072643 104.389205574989 2756.99996948242 10 13 6
-24.6567856520414 102.988824248314 2720.00002861023 12 15 8
-16.9389378279448 101.247496902943 2674.00002479553 16 19 12
-9.71369724720716 102.042883634567 2694.9999332428 15 18 11
-2.37636524252594 102.951735258102 2719.00010108948 16 19 12
5.0084968097508 102.156564593315 2697.99995422363 15 18 11
12.4208498746157 102.535031735897 2707.99994468689 15 18 11
19.9389811605215 103.178396821022 2724.99990463257 14 17 10
27.4393353611231 103.405132889748 2730.99994659424 15 18 11
34.9467881023884 103.555984795094 2734.99989509583 15 18 11
42.1347618103027 102.873712778091 2717.00000762939 16 19 10
49.2972321808338 102.342769503593 2703.00006866455 16 19 10
56.5927252173424 102.190285921097 2698.99988174438 16 19 10
64.1505345702171 102.492041885853 2707.00001716614 16 19 10
71.2760388851166 102.112114429474 2697.00002670288 16 19 10
78.9006575942039 102.451428771019 2706.00008964539 16 19 10
86.1276611685753 102.260552346706 2700.99997520447 16 19 10
94.4693759083748 103.318899869919 2729.00009155273 15 18 9
100.946836173534 102.332696318626 2703.00006866455 15 18 9
108.524329960346 102.520003914833 2707.99994468689 15 18 9
116.59949272871 103.12358289957 2723.99997711182 15 18 9
125.990942120552 104.749143123627 2766.99995994568 15 18 11
135.423466563225 106.223039329052 2805.99999427795 12 15 8
144.252449274063 107.091069221497 2828.9999961853 7 10 3
153.045192360878 107.845343649387 2848.99997711182 8 11 4
161.833554506302 108.52374881506 2867.00010299683 9 12 5
169.29928958416 108.293518424034 2861.00006103516 10 13 6
176.731571555138 108.063146471977 2855.00001907349 14 17 10
181.222096085548 106.129452586174 2803.99990081787 14 17 10
192.640915513039 108.245484530926 2859.99989509583 14 17 10
196.795389056206 106.273800134659 2808.00008773804 16 19 12
203.577876091003 105.815909802914 2796.0000038147 19 22 15
-70.7403346896172 97.6669639348984 2779.99997138977 16 19 12
-63.5826215147972 98.3356758952141 2799.00002479553 15 18 11
