ply
format ascii 1.0
comment KinectMotionCapture
element vertex 761
property float x
property float y
property float z
property uchar red
property uchar green
property uchar blue
end_header
-53.5605996847153 657.555103302002 2691.99991226196 173 178 174
-45.762974768877 650.719821453094 2664.00003433228 166 171 167
-38.1318889558315 644.128143787384 2637.00008392334 158 160 157
-30.4830707609653 634.115993976593 2595.99995613098 143 143 141
-23.1021735817194 625.324547290802 2559.99994277954 182 182 180
-16.0493440926075 621.662199497223 2545.00007629395 161 162 157
-9.1210687533021 620.930433273315 2542.00005531311 154 155 150
-2.20733694732189 619.709491729736 2536.99994087219 177 176 172
4.67552337795496 617.99955368042 2529.99997138977 172 171 167
11.5294512361288 616.777539253235 2525.00009536743 156 155 151
18.3561649173498 615.554928779602 2519.99998092651 159 158 153
25.1956563442945 615.308880805969 2519.00005340576 154 153 148
32.029639929533 615.062236785889 2517.99988746643 159 158 153
38.9044247567654 615.547955036163 2519.99998092651 160 159 154
45.8081215620041 616.27721786499 2523.00000190735 159 158 153
52.6236407458782 615.784704685211 2520.99990844727 162 161 156
59.4989135861397 616.024434566498 2522.0000743866 162 163 158
66.4320886135101 616.752088069916 2525.00009536743 161 162 157
73.3813792467117 617.479145526886 2528.00011634827 164 165 160
80.5689990520477 619.915425777435 2538.00010681152 169 170 165
87.9830792546272 623.572468757629 2552.99997329712 178 178 176
96.0361286997795 630.89245557785 2582.99994468689 152 154 151
103.573709726334 634.059548377991 2595.99995613098 141 143 140
110.925979912281 635.760605335236 2602.9999256134 126 128 125
118.270672857761 637.216806411743 2608.99996757507 132 132 130
125.695705413818 638.916730880737 2615.9999370575 145 145 143
133.056908845901 640.127539634705 2621.00005149841 149 149 147
140.391439199448 641.093492507935 2625 143 143 141
147.803544998169 642.303168773651 2630.00011444092 150 150 148
155.419170856476 644.244849681854 2638.00001144409 152 152 150
162.646427750587 644.476413726807 2638.99993896484 159 161 158
170.200452208519 645.928561687469 2644.99998092651 169 171 168
177.920743823051 647.868514060974 2653.00011634827 177 179 176
186.730742454529 653.470695018768 2676.00011825562 185 187 184
196.172669529915 660.781562328339 2706.00008964539 196 198 195
-53.6843538284302 651.740610599518 2697.99995422363 177 182 178
-45.921329408884 645.705580711365 2673.00009727478 167 172 168
-38.3519195020199 640.636086463928 2651.99995040894 160 162 157
-30.6734517216682 630.976140499115 2611.99998855591 142 144 139
-23.1130886822939 618.658423423767 2561.00010871887 155 157 152
-16.038041561842 614.311754703522 2542.99998283386 156 157 152
-9.10746119916439 613.104939460754 2538.00010681152 149 150 145
-2.20229662954807 611.41437292099 2530.99989891052 182 183 177
4.67036105692387 610.448002815247 2526.99995040894 166 167 161
11.5303928032517 609.96425151825 2525.00009536743 157 158 152
18.3722358196974 609.23832654953 2522.0000743866 157 156 151
25.1777097582817 608.028650283813 2516.99995994568 158 158 150
32.0195406675339 608.026325702667 2516.99995994568 156 155 150
38.90760242939 608.748137950897 2519.99998092651 160 161 156
45.8300188183784 609.710931777954 2523.9999294281 157 158 153
52.6696778833866 609.465301036835 2523.00000190735 158 159 154
59.5745407044888 609.943926334381 2525.00009536743 166 167 162
66.5690377354622 611.146569252014 2529.99997138977 158 158 156
73.5324919223785 611.86558008194 2532.99999237061 166 166 164
80.6390270590782 613.550186157227 2539.99996185303 171 171 169
88.1625190377235 617.891311645508 2558.00008773804 175 175 173
96.1926132440567 624.888837337494 2586.99989318848 148 148 146
103.74166816473 628.020823001862 2599.99990463257 124 124 122
111.06276512146 629.461467266083 2605.99994659424 146 146 144
118.370860815048 630.659997463226 2611.00006103516 150 149 147
125.849932432175 632.582485675812 2618.99995803833 150 149 145
133.219882845879 633.779764175415 2624.00007247925 138 137 133
140.670105814934 635.21808385849 2630.00011444092 139 140 135
148.096323013306 636.414110660553 2634.99999046326 152 152 150
155.667185783386 638.092696666718 2641.99995994568 148 148 146
162.96748816967 638.563096523285 2644.00005340576 155 155 153
170.535638928413 639.998972415924 2650.00009536743 160 160 158
178.337141871452 642.158687114716 2658.99991989136 164 164 162
186.884969472885 646.732926368713 2677.99997329712 184 186 183
195.897981524467 652.513802051544 2701.99990272522 193 195 194
-53.5295382142067 642.548382282257 2690.00005722046 191 196 192
-45.8563454449177 637.536227703094 2668.99991035461 168 173 169
-38.3695177733898 633.717834949493 2653.00011634827 161 163 158
-30.6759625673294 623.926997184753 2611.99998855591 142 144 139
-23.1420509517193 612.463355064392 2563.99989128113 149 151 146
-16.0330478101969 607.209920883179 2542.00005531311 153 154 149
-9.09744016826153 605.538845062256 2535.00008583069 152 153 148
-2.20073643140495 604.1060090065 2529.00004386902 176 177 171
4.66889468953013 603.389322757721 2526.00002288818 161 162 156
11.5359025076032 603.388726711273 2526.00002288818 154 155 149
18.3883067220449 602.909684181213 2523.9999294281 154 153 148
25.1997765153646 601.713597774506 2519.00005340576 156 155 150
32.0348739624023 601.472318172455 2517.99988746643 154 153 148
38.9570966362953 602.66375541687 2523.00000190735 160 161 156
45.8337515592575 602.899193763733 2523.9999294281 158 159 154
52.7157299220562 603.134095668793 2525.00009536743 159 160 155
59.626579284668 603.607177734375 2526.99995040894 170 171 166
66.6534006595612 605.035185813904 2532.99999237061 164 164 162
73.5965296626091 605.507254600525 2535.00008583069 162 162 160
80.6455612182617 606.695294380188 2539.99996185303 168 168 166
88.2730707526207 611.704468727112 2561.00010871887 169 169 167
96.3863283395767 619.101345539093 2592.00000762939 150 150 148
104.069292545319 622.914910316467 2608.00004005432 142 142 140
111.412696540356 624.339282512665 2614.00008201599 146 146 144
118.74308437109 625.524163246155 2618.99995803833 143 142 140
126.148372888565 626.947402954102 2625 136 135 131
133.433625102043 627.653479576111 2628.00002098084 140 139 135
140.788286924362 628.597855567932 2631.99996948242 142 143 138
148.220539093018 629.780530929565 2637.00008392334 141 141 139
155.79742193222 631.440222263336 2644.00005340576 147 147 145
163.165345788002 632.144033908844 2647.0000743866 147 147 145
170.677840709686 633.324801921844 2651.99995040894 154 154 152
178.351208567619 634.982705116272 2658.99991989136 155 155 153
186.969414353371 639.744400978088 2678.99990081787 171 173 170
195.840805768967 644.982933998108 2700.99997520447 183 185 184
-53.593598306179 635.995924472809 2693.00007820129 206 211 207
-46.0147261619568 632.457435131073 2677.99997329712 171 176 172
-38.5028198361397 628.682196140289 2661.99994087219 162 164 159
-30.7606793940067 618.529736995697 2618.99995803833 143 145 140
-23.1619980186224 606.014966964722 2565.99998474121 143 145 140
-16.0532798618078 601.056933403015 2545.00007629395 152 153 148
-9.10177081823349 598.932385444641 2536.00001335144 153 154 149
-2.20004632137716 597.043514251709 2528.00011634827 174 175 169
4.6655791811645 596.098661422729 2523.9999294281 160 161 155
11.5231424570084 595.861852169037 2523.00000190735 156 157 151
18.3825232088566 595.860660076141 2523.00000190735 155 154 149
25.2218414098024 595.386505126953 2520.99990844727 157 156 151
32.0629365742207 595.147967338562 2519.99998092651 156 155 150
38.9448329806328 595.617413520813 2522.0000743866 160 161 156
45.7830093801022 595.377862453461 2520.99990844727 159 160 155
52.7408979833126 596.554636955261 2526.00002288818 159 160 155
59.6314258873463 596.786201000214 2526.99995040894 172 173 168
66.6588172316551 598.198115825653 2532.99999237061 170 170 168
73.6315324902534 598.900854587555 2536.00001335144 163 163 161
80.6520953774452 599.839270114899 2539.99996185303 170 170 168
88.3836150169373 605.500102043152 2563.99989128113 169 169 167
96.4684933423996 612.577319145203 2594.00010108948 142 142 140
104.357019066811 617.528319358826 2615.00000953674 140 140 138
111.634790897369 618.464291095734 2618.99995803833 139 139 137
119.024679064751 619.87179517746 2625 138 137 135
126.302674412727 620.570421218872 2628.00002098084 142 141 137
133.64739716053 621.504485607147 2631.99996948242 137 136 132
141.174003481865 623.14647436142 2638.99993896484 137 138 133
148.569613695145 624.079406261444 2642.99988746643 144 144 142
155.986577272415 625.011920928955 2647.0000743866 139 139 137
163.424834609032 625.943660736084 2651.00002288818 146 146 144
171.077474951744 627.583205699921 2657.99999237061 153 153 151
178.767710924149 629.222214221954 2664.99996185303 153 153 151
186.844527721405 632.041096687317 2677.00004577637 168 170 167
195.638597011566 636.984169483185 2697.99995422363 181 183 182
206.201240420341 647.120416164398 2740.9999370575 196 198 197
-46.0012890398502 624.994277954102 2677.00004577637 168 173 169
-38.5204255580902 621.72919511795 2663.00010681152 165 167 162
-30.8689028024673 613.560497760773 2628.00002098084 148 150 145
-23.2270751148462 600.721836090088 2572.99995422363 137 139 134
-16.0861294716597 595.353543758392 2549.99995231628 155 156 151
-9.10969357937574 592.552959918976 2538.00010681152 153 154 149
-2.20283633098006 590.919017791748 2530.99989891052 167 168 162
4.66596009209752 589.284658432007 2523.9999294281 155 156 150
11.5195168182254 588.817119598389 2522.0000743866 155 156 150
18.3621626347303 588.348865509033 2519.99998092651 155 154 149
25.2238977700472 588.58060836792 2520.99990844727 157 156 151
32.0655517280102 588.344752788544 2519.99998092651 156 155 150
38.9171205461025 588.341891765594 2519.99998092651 159 160 155
45.7504130899906 588.105022907257 2519.00005340576 160 161 156
52.7243092656136 589.501798152924 2525.00009536743 157 158 153
59.5890767872334 589.497208595276 2525.00009536743 176 177 172
66.6115880012512 590.892851352692 2530.99989891052 179 179 177
73.5794231295586 591.587543487549 2533.99991989136 160 160 158
80.6586295366287 592.982053756714 2539.99996185303 167 167 165
88.321827352047 598.11133146286 2562.00003623962 166 166 164
96.5506583452225 606.041252613068 2595.99995613098 125 125 123
104.60489243269 611.869394779205 2621.00005149841 129 129 127
111.89953237772 612.794458866119 2625 136 136 136
119.306325912476 614.185869693756 2631.00004196167 143 142 140
126.505047082901 614.409446716309 2631.99996948242 137 136 132
133.962780237198 615.79966545105 2638.00001144409 139 138 134
141.399249434471 616.955816745758 2642.99988746643 137 138 133
148.806288838387 617.878019809723 2647.0000743866 135 135 133
156.116798520088 618.332743644714 2648.9999294281 142 142 140
163.622722029686 619.487226009369 2654.00004386902 142 142 140
171.284094452858 621.107876300812 2661.00001335144 148 148 146
179.117202758789 623.194754123688 2670.00007629395 149 149 147
187.208145856857 625.981211662292 2681.99992179871 166 168 165
195.87142765522 630.400776863098 2700.99997520447 178 180 179
206.367775797844 640.187561511993 2743.00003051758 192 194 193
-46.1940690875053 620.304346084595 2687.99996376038 167 172 168
-38.6537536978722 616.615474224091 2671.99993133545 165 167 164
-30.9888869524002 608.772158622742 2638.00001144409 150 152 149
-23.3102180063725 595.851182937622 2582.00001716614 136 138 135
-16.1252934485674 589.852809906006 2555.99999427795 157 158 153
-9.12479404360056 586.623013019562 2542.00005531311 150 151 146
-2.20475695095956 584.546446800232 2532.99999237061 164 165 160
4.67003835365176 582.930982112885 2526.00002288818 153 154 149
11.5250227972865 582.238018512726 2523.00000190735 155 156 150
18.3782353997231 582.006096839905 2522.0000743866 154 153 148
25.2359602600336 582.004249095917 2522.0000743866 157 156 151
32.0681631565094 581.54034614563 2519.99998092651 156 155 150
38.9357283711433 581.768214702606 2520.99990844727 158 159 154
45.7722917199135 581.533968448639 2519.99998092651 160 161 156
52.7285933494568 582.683920860291 2525.00009536743 156 157 152
59.5939159393311 582.679331302643 2525.00009536743 178 179 174
66.616989672184 584.05876159668 2530.99989891052 182 182 180
73.5853835940361 584.745407104492 2533.99991989136 163 163 161
80.665148794651 586.123645305634 2539.99996185303 166 166 164
88.3634313941002 591.424286365509 2562.99996376038 163 163 161
96.5584442019463 599.031627178192 2595.99995613098 123 123 121
104.733057320118 605.48460483551 2624.00007247925 129 129 127
112.079054117203 606.629610061646 2628.99994850159 138 138 138
119.587987661362 608.466327190399 2637.00008392334 140 139 137
126.85164809227 608.917891979218 2638.99993896484 135 134 130
134.379744529724 610.522568225861 2645.99990844727 137 136 132
141.731530427933 611.203849315643 2648.9999294281 136 137 132
149.043008685112 611.653745174408 2651.00002288818 139 139 137
156.305998563766 611.872375011444 2651.99995040894 148 148 146
163.820624351501 613.013327121735 2657.00006484985 141 141 139
171.683833003044 615.307211875916 2667.00005531311 147 147 145
179.667994379997 617.831110954285 2677.99997329712 149 149 147
187.641650438309 620.123744010925 2687.99996376038 168 170 167
196.321874856949 624.492049217224 2707.00001716614 178 180 179
205.706670880318 630.705118179321 2733.99996757507 190 192 191
-46.2665632367134 613.957285881042 2691.99991226196 163 168 164
-38.7292355298996 610.539793968201 2677.00004577637 167 169 166
-31.0501474887133 602.788209915161 2642.99988746643 142 144 141
-23.3392026275396 589.562356472015 2585.00003814697 144 146 143
-16.1202978342772 582.721829414368 2555.0000667572 153 153 151
-9.11835674196482 579.301774501801 2539.99996185303 151 152 147
-2.2023250348866 577.021539211273 2529.99997138977 154 155 150
4.66856919229031 575.881063938141 2525.00009536743 152 153 148
11.5259615704417 575.424313545227 2523.00000190735 155 156 151
18.3870159089565 575.423061847687 2523.00000190735 158 157 153
25.2380128949881 575.193226337433 2522.0000743866 154 153 148
32.0707708597183 574.734747409821 2519.99998092651 153 152 147
38.938894867897 574.959933757782 2520.99990844727 156 157 152
45.8123423159122 575.18458366394 2522.0000743866 159 160 155
52.7537502348423 576.092898845673 2526.00002288818 159 160 155
59.5987439155579 575.860202312469 2525.00009536743 172 173 168
66.6223838925362 577.223539352417 2530.99989891052 181 181 179
73.5913291573524 577.902019023895 2533.99991989136 167 167 165
80.6398987770081 579.036056995392 2539.00003433228 166 166 164
88.2671177387238 583.818435668945 2559.99994277954 170 170 168
96.5662077069283 592.020869255066 2595.99995613098 154 154 152
104.821301996708 598.854303359985 2625.99992752075 137 137 135
112.258583307266 600.441932678223 2632.99989700317 140 140 140
119.869664311409 602.713048458099 2642.99988746643 136 135 133
127.198278903961 603.387355804443 2645.99990844727 138 137 133
134.64443385601 604.517042636871 2651.00002288818 131 130 126
141.849830746651 604.506075382233 2651.00002288818 131 132 127
149.335950613022 605.63462972641 2655.99989891052 148 148 146
156.672015786171 606.078565120697 2657.99999237061 148 148 146
164.141848683357 606.977999210358 2661.99994087219 142 142 140
171.826064586639 608.560800552368 2668.99991035461 147 147 145
179.883390665054 611.283123493195 2680.99999427795 150 150 148
188.214838504791 614.688813686371 2696.00009918213 170 172 169
196.482241153717 617.637753486633 2709.00011062622 179 181 180
205.797895789146 623.54987859726 2734.99989509583 190 192 191
-45.9781177341938 602.85472869873 2674.99995231628 171 176 172
-38.7323759496212 603.308916091919 2677.00004577637 166 168 165
-31.1231594532728 597.001314163208 2648.9999294281 144 146 143
-23.3772136271 583.48149061203 2588.99998664856 144 146 143
-16.1531548947096 576.947331428528 2559.99994277954 155 155 153
-9.13345720618963 573.342382907867 2543.99991035461 153 154 149
-2.20511574298143 570.863842964172 2532.99999237061 154 155 150
4.67449566349387 569.736838340759 2528.00011634827 154 155 150
11.5314647555351 568.834722042084 2523.9999294281 156 157 152
18.3885097503662 568.608164787292 2523.00000190735 158 157 153
25.2400580793619 568.381011486053 2522.0000743866 156 155 150
32.098826020956 568.378686904907 2522.0000743866 156 155 150
38.9883890748024 568.826496601105 2523.9999294281 155 156 151
45.8705574274063 569.048523902893 2525.00009536743 158 159 154
52.7580194175243 569.269835948944 2526.00002288818 157 158 153
59.6271641552448 569.265305995941 2526.00002288818 171 172 167
66.6540935635567 570.612370967865 2532.00006484985 181 181 179
73.6263245344162 571.282863616943 2535.00008583069 166 166 164
80.6464031338692 572.17800617218 2539.00003433228 167 167 165
88.274210691452 576.903641223907 2559.99994277954 172 172 170
96.722774207592 585.910320281982 2599.99990463257 156 156 154
104.949459433556 592.437267303467 2628.99994850159 135 135 133
112.480767071247 594.456732273102 2638.00001144409 137 137 137
120.060674846172 596.475481987 2647.0000743866 136 135 133
127.304568886757 596.691012382507 2648.00000190735 131 130 126
134.655132889748 597.356557846069 2651.00002288818 143 142 138
141.914591193199 597.570896148682 2651.99995040894 144 145 140
149.46024119854 598.911345005035 2657.99999237061 143 143 141
156.920194625854 599.800527095795 2661.99994087219 138 138 136
164.339765906334 600.463807582855 2664.99996185303 147 147 145
172.097116708755 602.253139019012 2673.00009727478 145 145 143
180.165871977806 604.942977428436 2684.99994277954 162 162 160
188.299357891083 607.632219791412 2697.00002670288 168 170 167
196.425005793571 610.095500946045 2707.99994468689 177 179 178
205.437630414963 615.036368370056 2730.00001907349 195 197 196
216.986253857613 626.960098743439 2782.99999237061 203 208 204
-38.7789160013199 596.74471616745 2680.0000667572 163 165 162
-31.2314294278622 591.848850250244 2657.99999237061 151 153 150
-23.5235895961523 580.049693584442 2605.00001907349 142 144 141
-16.1986332386732 571.589887142181 2566.99991226196 157 157 155
-9.14496835321188 567.137539386749 2546.99993133545 159 159 157
-2.20703543163836 564.465999603271 2535.00008583069 153 154 149
4.67487471178174 562.907218933105 2528.00011634827 155 156 151
11.5323988720775 562.015891075134 2523.9999294281 157 158 153
18.3827113360167 561.569392681122 2522.0000743866 157 156 152
25.2320915460587 561.344861984253 2520.99990844727 157 156 152
32.0886969566345 561.342597007751 2520.99990844727 158 157 153
38.9452017843723 561.339735984802 2520.99990844727 155 156 151
45.8379201591015 561.781585216522 2523.00000190735 157 158 153
52.7413934469223 562.223017215729 2525.00009536743 157 158 153
59.6083737909794 562.218487262726 2525.00009536743 170 171 166
66.5804818272591 563.104033470154 2529.00004386902 181 181 179
73.5160484910011 563.543617725372 2530.99989891052 166 166 164
80.5575847625732 564.650774002075 2536.00001335144 168 168 166
88.177852332592 569.319725036621 2556.99992179871 175 175 173
96.6933220624924 578.66358757019 2598.99997711182 160 160 158
105.077631771564 586.002886295319 2631.99996948242 132 132 130
112.617671489716 587.998032569885 2641.00003242493 133 133 133
120.160974562168 589.769840240479 2648.9999294281 138 137 135
127.458944916725 590.205252170563 2651.00002288818 126 125 121
134.818226099014 590.862810611725 2654.00004386902 154 153 149
142.19343662262 591.519713401794 2657.00006484985 147 148 143
149.753242731094 592.843949794769 2663.00010681152 141 141 139
157.168373465538 593.499660491943 2665.99988937378 144 144 142
164.599359035492 594.154834747314 2668.99991035461 146 146 144
172.303766012192 595.699965953827 2676.00011825562 149 149 147
180.179968476295 597.689628601074 2684.99994277954 165 165 163
188.17438185215 599.901258945465 2694.9999332428 167 169 166
196.222603321075 602.112233638763 2704.99992370605 179 181 180
205.528780817986 607.884049415588 2730.99994659424 195 197 196
216.379225254059 617.661476135254 2775.00009536743 201 206 202
-38.8399250805378 590.382933616638 2684.00001525879 164 166 165
-31.3984639942646 587.746202945709 2671.99993133545 153 155 154
-23.6609522253275 576.310217380524 2619.99988555908 142 144 143
-16.2567421793938 566.633343696594 2575.99997520447 157 157 155
-9.16007254272699 561.135232448578 2551.00011825562 161 161 159
-2.21069669350982 558.496117591858 2539.00003433228 151 151 149
4.68079978600144 556.736171245575 2530.99989891052 159 159 157
11.5516083315015 556.075692176819 2528.00011634827 161 162 157
18.3987729251385 555.194556713104 2523.9999294281 157 156 152
25.2641588449478 555.192828178406 2523.9999294281 155 154 150
32.1167446672916 554.970502853394 2523.00000190735 155 154 150
38.9792397618294 554.967701435089 2523.00000190735 156 157 152
45.823447406292 554.744303226471 2522.0000743866 158 159 154
52.662082016468 554.52036857605 2520.99990844727 158 159 154
59.5659427344799 554.955780506134 2523.00000190735 168 169 164
66.5068477392197 555.610656738281 2526.00002288818 182 182 180
73.5219568014145 556.704819202423 2530.99989891052 166 166 164
80.5958062410355 558.018267154694 2536.99994087219 168 168 166
88.2883593440056 563.0704164505 2559.99994277954 177 177 175
96.8498736619949 572.520792484283 2602.9999256134 172 172 170
105.325572192669 580.21080493927 2638.00001144409 131 131 129
112.882517278194 582.181632518768 2647.0000743866 131 131 131
120.261259377003 583.052098751068 2651.00002288818 140 139 137
127.661392092705 583.922028541565 2654.99997138977 144 143 139
135.032117366791 584.571421146393 2657.99999237061 144 143 139
142.472252249718 585.440158843994 2661.99994087219 135 136 131
149.821251630783 585.86847782135 2664.00003433228 152 152 150
157.298639416695 586.736083030701 2667.99998283386 147 147 145
164.858996868134 587.823092937469 2673.00009727478 143 143 141
172.767996788025 590.008914470673 2683.00008773804 163 163 161
180.663794279099 591.974258422852 2691.99991226196 173 173 171
188.398510217667 593.279302120209 2697.99995422363 163 165 162
196.310386061668 595.023572444916 2706.00008964539 184 186 185
205.394133925438 600.065529346466 2729.00009155273 197 199 198
215.538069605827 607.745051383972 2763.99993896484 198 203 199
-39.0022434294224 585.519134998322 2694.9999332428 166 168 167
-31.5067619085312 582.480311393738 2680.99999427795 154 156 155
-23.8073635846376 572.705686092377 2635.99991798401 143 145 144
-16.2959191948175 560.975074768066 2582.00001716614 155 155 153
-9.16440039873123 554.458200931549 2552.00004577637 162 162 160
-2.20913323573768 551.199674606323 2536.99994087219 158 158 156
4.67932783067226 549.67874288559 2529.99997138977 165 165 163
11.5525396540761 549.243569374084 2528.00011634827 163 164 159
18.4075459837914 548.590540885925 2525.00009536743 158 157 153
25.2762045711279 548.588812351227 2525.00009536743 157 156 152
32.1193262934685 548.151969909668 2523.00000190735 155 154 150
38.9978252351284 548.366367816925 2523.9999294281 154 155 150
45.845303684473 548.145711421967 2523.00000190735 157 158 153
52.6872016489506 547.924518585205 2522.0000743866 158 159 154
59.5235005021095 547.702729701996 2520.99990844727 165 166 161
66.4858371019363 548.566699028015 2525.00009536743 178 178 176
73.4987929463387 549.647390842438 2529.99997138977 170 170 168
80.6022509932518 551.16194486618 2536.99994087219 169 169 167
88.2609188556671 555.934727191925 2559.00001525879 177 177 175
96.9692245125771 566.137850284576 2605.99994659424 178 178 176
105.453737080097 573.733329772949 2641.00003242493 133 133 131
113.019421696663 575.679779052734 2650.00009536743 132 132 132
120.452255010605 576.756715774536 2654.99997138977 140 139 137
127.911925315857 577.833116054535 2660.00008583069 152 151 147
135.296806693077 578.474402427673 2663.00010681152 140 139 135
142.751097679138 579.332292079926 2667.00005531311 140 141 136
150.001764297485 579.320788383484 2667.00005531311 150 150 148
157.546818256378 580.394804477692 2671.99993133545 142 142 140
165.180265903473 581.685483455658 2677.99997329712 147 147 145
172.845885157585 582.975566387177 2684.00001525879 167 167 165
180.543631315231 584.265053272247 2690.00005722046 175 175 173
188.203617930412 585.336744785309 2694.9999332428 165 167 164
196.325540542603 587.710976600647 2706.00008964539 187 189 188
205.184131860733 592.039167881012 2726.0000705719 197 199 198
215.164706110954 599.18999671936 2759.0000629425 197 202 198
-39.1790494322777 580.809116363525 2707.00001716614 171 173 172
-31.6855795681477 578.451812267303 2696.00009918213 162 164 163
-23.9718575030565 569.442510604858 2654.00004386902 144 146 145
-16.3477212190628 555.712223052979 2589.99991416931 151 151 149
-9.15795285254717 547.130823135376 2549.99995231628 163 163 161
-2.20843963325024 544.127404689789 2536.00001335144 171 171 169
4.68340329825878 543.269097805023 2532.00006484985 173 173 171
11.5717481821775 543.268442153931 2532.00006484985 157 157 155
18.4381864964962 542.623579502106 2529.00004386902 151 152 147
25.3082681447268 542.407274246216 2528.00011634827 158 157 153
32.1346335113049 541.546702384949 2523.9999294281 156 157 152
39.0318557620049 541.972994804382 2526.00002288818 155 156 151
45.8853170275688 541.755020618439 2525.00009536743 158 159 154
52.733201533556 541.536509990692 2523.9999294281 160 161 156
59.5518760383129 541.102945804596 2522.0000743866 163 164 159
66.4911568164825 541.741609573364 2525.00009536743 176 176 174
73.5627636313438 543.237805366516 2532.00006484985 181 181 179
80.6722193956375 544.73352432251 2539.00003433228 173 173 171
88.26794475317 549.017727375031 2559.00001525879 175 175 173
97.0885753631592 559.73744392395 2608.99996757507 184 184 182
105.541966855526 567.023754119873 2642.99988746643 135 135 133
113.198980689049 569.375038146973 2654.00004386902 134 134 134
120.507150888443 569.794893264771 2655.99989891052 158 157 153
127.922013401985 570.643246173859 2660.00008583069 153 152 148
135.358259081841 571.491003036499 2664.00003433228 139 138 134
142.922908067703 572.76725769043 2670.00007629395 156 157 152
150.182262063026 572.755753993988 2670.00007629395 134 134 132
157.736033201218 573.816239833832 2674.99995231628 151 151 149
165.378212928772 575.090765953064 2680.99999427795 154 154 152
172.988146543503 576.150119304657 2686.00010871887 160 160 158
180.624708533287 577.208876609802 2690.99998474121 168 168 166
188.288003206253 578.267157077789 2696.00009918213 169 171 168
196.268111467361 580.182671546936 2704.99992370605 188 190 189
205.049335956573 584.242403507233 2723.99997711182 185 187 186
214.791193604469 590.660691261292 2753.99994850159 195 200 196
-39.2400771379471 574.337959289551 2710.99996566772 171 173 170
-31.6881127655506 571.1629986763 2696.00009918213 164 166 163
-24.1454020142555 566.292583942413 2673.00009727478 139 141 138
-16.4121519774199 550.828516483307 2599.99990463257 151 153 150
-9.16587002575397 540.660440921783 2552.00004577637 178 180 177
-2.2077455651015 537.059366703033 2535.00008583069 177 179 176
4.6819276176393 536.211729049683 2530.99989891052 177 179 176
11.5681020542979 536.211133003235 2530.99989891052 150 152 149
18.4323694556952 535.574376583099 2528.00011634827 153 155 152
25.2902675420046 535.148918628693 2526.00002288818 151 151 149
32.0990048348904 534.087300300598 2520.99990844727 157 157 155
38.9886125922203 534.508168697357 2523.00000190735 158 158 156
45.8526313304901 534.50483083725 2523.00000190735 158 158 156
52.7374036610127 534.712731838226 2523.9999294281 159 159 157
59.5329999923706 534.072756767273 2520.99990844727 163 163 161
66.4964467287064 534.915149211884 2525.00009536743 173 173 171
73.5104978084564 535.968840122223 2529.99997138977 183 183 181
80.6468576192856 537.657499313354 2538.00010681152 173 173 171
88.3094370365143 542.311310768127 2559.99994277954 187 187 185
97.0962643623352 552.68406867981 2608.99996757507 187 187 185
105.590261518955 560.090363025665 2644.00005340576 129 129 127
113.335877656937 562.835514545441 2657.00006484985 138 138 136
120.74352055788 563.673675060272 2661.00001335144 150 149 145
128.076359629631 564.087569713593 2663.00010681152 139 138 134
135.470494627953 564.712643623352 2665.99988937378 153 152 148
142.88055896759 565.337240695953 2668.99991035461 151 152 147
150.362744927406 566.173017024994 2673.00009727478 138 138 136
157.866269350052 567.008316516876 2677.00004577637 152 152 150
165.514439344406 568.266570568085 2683.00008773804 149 149 147
172.872707247734 568.465292453766 2684.00001525879 162 162 160
180.370166897774 569.087028503418 2687.00003623962 163 163 161
188.092947006226 570.343554019928 2693.00007820129 173 175 172
196.428328752518 573.293805122375 2707.00001716614 182 184 183
205.290883779526 577.513992786407 2726.99999809265 186 188 187
214.807584881783 583.215892314911 2753.99994850159 193 195 192
-39.3590033054352 568.68052482605 2719.00010108948 177 179 176
-31.8787060678005 567.219197750092 2711.99989318848 170 172 169
-24.2647621780634 561.7835521698 2686.00010871887 153 155 152
-16.5649708360434 548.817694187164 2624.00007247925 130 132 129
-9.18815191835165 535.014629364014 2558.00008773804 169 171 168
-2.20966339111328 530.622780323029 2536.99994087219 180 182 179
4.68600075691938 529.786050319672 2532.99999237061 162 164 161
11.5781659260392 529.785454273224 2532.99999237061 151 153 150
18.441129475832 528.947651386261 2529.00004386902 152 154 151
25.2822674810886 528.10925245285 2525.00009536743 157 159 156
32.088827341795 527.061223983765 2519.99998092651 156 158 155
38.9453507959843 527.05842256546 2519.99998092651 156 156 154
45.8017513155937 527.055025100708 2519.99998092651 157 157 155
52.6998043060303 527.469456195831 2522.0000743866 158 158 156
59.5849603414536 527.674198150635 2523.00000190735 161 161 159
66.4753690361977 527.878284454346 2523.9999294281 170 170 168
73.429137468338 528.500139713287 2526.99995040894 183 183 181
80.5896818637848 530.376374721527 2536.00001335144 178 178 176
88.2819145917892 535.179913043976 2559.00001525879 178 178 176
97.1039235591888 545.629322528839 2608.99996757507 185 185 183
105.598576366901 552.941024303436 2644.00005340576 141 141 139
113.387443125248 555.860221385956 2657.99999237061 145 145 143
120.843753218651 556.896686553955 2663.00010681152 137 136 132
128.18256020546 557.305157184601 2664.99996185303 145 144 140
135.633543133736 558.131396770477 2668.99991035461 143 142 138
143.105834722519 558.956980705261 2673.00009727478 138 139 134
150.599464774132 559.781968593597 2677.00004577637 147 147 145
158.055424690247 560.397326946259 2680.0000667572 152 152 150
165.588945150375 561.221241950989 2684.00001525879 150 150 148
173.014879226685 561.626374721527 2686.00010871887 160 160 158
180.652588605881 562.658250331879 2690.99998474121 161 161 159
188.526481389999 564.316749572754 2698.99988174438 172 174 171
196.878761053085 567.229151725769 2713.00005912781 180 182 181
205.607667565346 570.97715139389 2730.99994659424 184 186 185
214.511901140213 574.933528900146 2750 192 194 191
224.891021847725 582.443237304688 2786.00001335144 197 199 196
-39.7529937326908 566.900849342346 2746.00005149841 186 188 185
-31.9164991378784 560.503780841827 2714.99991416931 178 180 177
-24.3389643728733 556.170642375946 2694.00000572205 148 150 147
-16.6104789823294 543.166041374207 2631.00004196167 133 135 132
-9.18888114392757 528.096318244934 2558.00008773804 176 178 175
-2.21158098429441 524.174213409424 2539.00003433228 179 181 178
4.69007296487689 523.348271846771 2535.00008583069 158 160 157
11.5745142102242 522.728323936462 2532.00006484985 154 156 153
18.4280071407557 521.694898605347 2526.99995040894 152 154 151
25.2642445266247 520.867347717285 2523.00000190735 161 163 160
32.0786349475384 520.039319992065 2519.00005340576 158 160 157
38.9020666480064 519.623637199402 2516.99995994568 155 155 153
45.7508414983749 519.620180130005 2516.99995994568 156 156 154
52.6830740272999 520.442128181458 2520.99990844727 158 158 156
59.6132874488831 521.05700969696 2523.9999294281 161 161 159
66.5333047509193 521.464943885803 2526.00002288818 168 168 166
73.463998734951 521.872341632843 2528.00011634827 183 183 181
80.6277990341187 523.724138736725 2536.99994087219 179 179 177
88.288851082325 528.259098529816 2559.00001525879 184 184 182
97.1859842538834 538.986206054688 2611.00006103516 188 188 186
105.726666748524 546.409606933594 2647.0000743866 138 138 136
113.481655716896 549.084663391113 2660.00008583069 137 137 135
120.989330112934 550.313949584961 2665.99988937378 144 143 139
128.384962677956 550.923466682434 2668.99991035461 150 149 145
135.8982026577 551.945328712463 2674.00002479553 143 142 138
143.224030733109 552.140951156616 2674.99995231628 139 140 135
150.667384266853 552.748739719391 2677.99997329712 148 148 146
158.244594931602 553.768873214722 2683.00008773804 148 148 146
165.786787867546 554.581940174103 2687.00003623962 155 155 153
173.350274562836 555.394530296326 2690.99998474121 156 156 154
181.002110242844 556.412875652313 2696.00009918213 158 158 156
188.960015773773 558.256149291992 2704.99992370605 169 171 168
197.401776909828 561.337172985077 2720.00002861023 176 178 177
205.924466252327 564.41742181778 2734.99989509583 180 182 181
214.216098189354 566.67149066925 2746.00005149841 191 193 190
223.777800798416 572.020411491394 2772.0000743866 196 198 195
-39.6837368607521 558.453977108002 2740.9999370575 208 210 207
-32.0248268544674 554.993152618408 2723.99997711182 148 150 147
-24.422200396657 550.716817378998 2703.00006866455 154 156 153
-16.6244152933359 536.456406116486 2632.99989700317 141 143 140
-9.18960571289063 521.176636219025 2558.00008773804 181 183 180
-2.21349764615297 517.713367938995 2540.99988937378 163 165 162
4.6959943138063 517.102181911469 2538.00010681152 156 158 155
11.5891415625811 516.49022102356 2535.00008583069 155 157 154
18.4440482407808 515.266597270966 2529.00004386902 152 154 151
25.286266580224 514.449894428253 2525.00009536743 161 163 160
32.081164419651 513.225197792053 2519.00005340576 158 160 157
38.8896763324738 512.611210346222 2516.00003242493 155 155 153
45.7544513046741 512.811601161957 2516.99995994568 155 155 153
52.7081191539764 513.826429843903 2522.0000743866 158 158 156
59.6652179956436 514.636993408203 2526.00002288818 160 160 158
66.5385276079178 514.631986618042 2526.00002288818 166 166 164
73.498822748661 515.23768901825 2529.00004386902 184 184 182
80.602340400219 516.657829284668 2536.00001335144 179 179 177
88.3647799491882 521.744430065155 2561.00010871887 188 188 186
97.4169224500656 533.145785331726 2617.00010299683 188 188 186
105.934642255306 540.268123149872 2651.99995040894 130 130 128
113.57581615448 542.296826839447 2661.99994087219 132 132 130
120.998725295067 543.102562427521 2665.99988937378 150 149 145
128.491148352623 544.111549854279 2671.0000038147 149 148 144
136.061206459999 545.323550701141 2677.00004577637 145 144 140
143.449276685715 545.720100402832 2678.99990081787 143 144 139
150.904059410095 546.319901943207 2681.99992179871 146 146 144
158.433705568314 547.122836112976 2686.00010871887 148 148 146
165.984615683556 547.925114631653 2690.00005722046 156 156 154
173.49237203598 548.523247241974 2693.00007820129 155 155 153
181.150197982788 549.528121948242 2697.99995422363 158 158 156
189.183995127678 551.55086517334 2707.99994468689 168 170 167
197.489306330681 554.183900356293 2720.99995613098 175 177 176
205.864742398262 556.816339492798 2733.99996757507 180 182 181
213.998198509216 558.633506298065 2743.00003051758 191 193 190
223.310187458992 563.301146030426 2766.00003242493 196 198 195
-39.5420603454113 549.027621746063 2730.99994659424 206 208 205
-32.0273414254189 547.623157501221 2723.99997711182 133 135 132
-24.4060475379229 543.001532554626 2700.99997520447 164 166 163
-16.5878348052502 528.126358985901 2627.00009346008 141 143 140
-9.19392053037882 514.456748962402 2559.00001525879 175 177 174
-2.21541407518089 511.240601539612 2542.99998283386 156 158 155
4.70006372779608 510.637402534485 2539.99996185303 159 161 158
11.5991979837418 510.033667087555 2536.99994087219 153 155 152
18.4600818902254 508.826196193695 2530.99989891052 163 165 162
25.2982676029205 507.819354534149 2526.00002288818 163 165 162
32.1091562509537 506.811916828156 2520.99990844727 156 158 155
38.9545597136021 506.608068943024 2519.99998092651 156 156 154
45.8125695586205 506.604790687561 2519.99998092651 154 154 152
52.7122505009174 507.002949714661 2522.0000743866 156 156 154
59.5990233123302 507.199645042419 2523.00000190735 159 159 157
66.491037607193 507.39574432373 2523.9999294281 166 166 164
73.4755024313927 508.194446563721 2528.00011634827 183 183 181
80.6086137890816 509.796619415283 2536.00001335144 180 180 178
88.4406715631485 515.21772146225 2562.99996376038 181 181 179
97.610630095005 527.070641517639 2621.99997901917 180 180 178
106.062717735767 533.696293830872 2654.99997138977 131 131 129
113.712623715401 535.697937011719 2664.99996185303 142 142 140
121.189668774605 536.693930625916 2670.00007629395 141 140 136
128.741636872292 537.890374660492 2676.00011825562 139 138 134
136.224165558815 538.684129714966 2680.0000667572 143 142 138
143.513858318329 538.673400878906 2680.0000667572 144 145 140
150.971919298172 539.265096187592 2683.00008773804 148 148 146
158.445850014687 539.856314659119 2686.00010871887 152 152 150
166.182428598404 541.250824928284 2693.00007820129 151 151 149
173.698857426643 541.840851306915 2696.00009918213 155 155 153
181.49970471859 543.234169483185 2703.00006866455 160 160 158
189.3380433321 544.626951217651 2710.00003814697 163 165 162
197.576805949211 547.023952007294 2721.99988365173 171 173 172
205.729618668556 549.018442630768 2732.00011253357 179 181 180
214.014232158661 551.213204860687 2743.00003051758 192 194 191
223.32689166069 555.818736553192 2766.00003242493 196 198 195
-39.9940311908722 547.785520553589 2762.00008392334 194 196 193
-32.1591831743717 542.433381080627 2734.99989509583 127 129 126
-24.4712103158236 537.080645561218 2707.99994468689 172 174 171
-16.702800989151 524.587392807007 2644.99998092651 152 154 151
-9.21979080885649 508.920192718506 2565.99998474121 184 186 183
-2.21732980571687 504.755675792694 2545.00007629395 154 156 153
4.70228167250752 503.962218761444 2540.99988937378 162 164 161
11.5863857790828 502.573251724243 2533.99991989136 153 155 152
18.4615254402161 501.9770860672 2530.99989891052 171 173 170
25.3102574497461 501.182019710541 2526.99995040894 167 169 166
32.1244038641453 500.188231468201 2522.0000743866 157 159 156
38.9885194599628 500.185430049896 2522.0000743866 157 157 155
45.8525083959103 500.182092189789 2522.0000743866 154 154 152
52.7372546494007 500.376641750336 2523.00000190735 155 155 153
59.5800392329693 500.173985958099 2522.0000743866 159 159 157
66.4435178041458 500.169038772583 2522.0000743866 166 166 164
73.4230652451515 500.956892967224 2526.00002288818 179 179 177
80.5512890219688 502.537488937378 2533.99991989136 183 183 181
88.516540825367 508.678793907166 2565.00005722046 181 181 179
97.8043377399445 520.967066287994 2627.00009346008 181 181 179
106.270663440228 527.503490447998 2660.00008583069 138 138 136
113.934755325317 529.478073120117 2670.00007629395 145 145 143
121.425934135914 530.46053647995 2674.99995231628 137 136 132
129.04018163681 531.83901309967 2681.99992179871 141 140 136
136.38710975647 532.027184963226 2683.00008773804 143 142 138
143.685504794121 532.016515731812 2683.00008773804 142 143 138
151.208534836769 532.79846906662 2687.00003623962 150 150 148
158.693894743919 533.381581306458 2690.00005722046 152 152 150
166.441902518272 534.757137298584 2697.00002670288 149 149 147
173.905327916145 535.140812397003 2698.99988174438 155 155 153
181.782022118568 536.713600158691 2707.00001716614 160 160 158
189.561933279037 537.889182567596 2713.00005912781 161 163 160
197.664245963097 539.85732793808 2723.00004959106 169 171 170
205.669716000557 541.428208351135 2730.99994659424 178 180 179
213.874146342278 543.395161628723 2740.9999370575 192 194 191
223.101273179054 547.74022102356 2763.00001144409 196 198 195
-40.2577966451645 543.83111000061 2779.99997138977 183 185 182
-32.2439968585968 536.400258541107 2742.00010299683 141 143 140
-24.6267449110746 533.076822757721 2724.99990463257 131 133 130
-16.7230442166328 518.015384674072 2648.00000190735 133 135 132
-9.22410003840923 502.17068195343 2566.99991226196 184 186 183
-2.22011609002948 498.45427274704 2548.00009727478 159 161 158
4.70264721661806 497.084736824036 2540.99988937378 158 160 157
11.5827135741711 495.519131422043 2532.99999237061 181 183 180
18.4410754591227 494.539856910706 2528.00011634827 173 175 172
25.2921935170889 493.951320648193 2525.00009536743 154 156 153
32.1396328508854 493.557840585709 2523.00000190735 161 163 160
39.0070043504238 493.555039167404 2523.00000190735 157 157 155
45.856062322855 493.356168270111 2522.0000743866 156 156 154
52.7413450181484 493.547976016998 2523.00000190735 155 155 153
59.608269482851 493.54362487793 2523.00000190735 157 157 155
66.4750039577484 493.53876709938 2523.00000190735 161 161 159
73.3705908060074 493.728965520859 2523.9999294281 179 179 177
80.4303362965584 494.896739721298 2529.99997138977 183 183 181
88.4888395667076 501.541018486023 2563.99989128113 184 184 182
98.1469601392746 515.617549419403 2635.99991798401 183 183 181
106.518536806107 521.477878093719 2665.99988937378 134 134 132
114.114187657833 523.034274578094 2674.00002479553 137 137 135
121.662214398384 524.198830127716 2680.0000667572 143 142 138
129.146263003349 524.971663951874 2684.00001525879 142 141 137
136.448338627815 524.961531162262 2684.00001525879 147 146 142
143.803551793098 525.146484375 2684.99994277954 147 148 143
151.388838887215 526.113212108612 2690.00005722046 146 146 144
158.823877573013 526.492655277252 2691.99991226196 146 146 144
166.516184806824 527.653813362122 2697.99995422363 151 151 149
173.982858657837 528.032183647156 2700.00004768372 153 153 151
181.8628013134 529.583334922791 2707.99994468689 155 155 153
189.576134085655 530.547261238098 2713.00005912781 166 168 165
197.67901301384 532.488346099854 2723.00004959106 174 176 175
205.685034394264 534.03776884079 2730.99994659424 180 182 181
213.968083262444 536.173284053802 2742.00010299683 190 192 189
222.875520586967 539.67672586441 2759.99999046326 193 195 192
-32.2817638516426 529.556095600128 2744.99988555908 145 147 144
-24.628646671772 525.699973106384 2724.99990463257 141 143 140
-9.2104384675622 494.449824094772 2562.99996376038 188 190 187
-2.21854471601546 491.170674562454 2546.0000038147 154 156 153
4.7011598944664 490.013033151627 2539.99996185303 154 156 153
11.57446205616 488.276124000549 2530.99989891052 186 188 185
18.4279084205627 487.310379743576 2526.00002288818 166 168 165
25.2841245383024 486.922889947891 2523.9999294281 161 163 160
32.1421101689339 486.727774143219 2523.00000190735 157 159 156
38.9790870249271 486.339211463928 2520.99990844727 157 157 155
45.8414070308208 486.335903406143 2520.99990844727 157 157 155
52.7454055845737 486.717998981476 2523.00000190735 156 156 154
59.636477380991 486.906558275223 2523.9999294281 157 157 155
66.4537698030472 486.51596903801 2522.0000743866 159 159 157
73.3471587300301 486.703485250473 2523.00000190735 175 175 173
80.341137945652 487.469255924225 2526.99995040894 181 181 179
88.3920714259148 494.021505117416 2561.00010871887 186 186 184
98.3034148812294 509.253561496735 2640.00010490417 183 183 181
106.766417622566 515.418410301209 2671.99993133545 132 132 130
114.293605089188 516.567409038544 2677.99997329712 136 136 134
121.807686984539 517.522931098938 2683.00008773804 144 143 139
129.204198718071 517.899096012115 2684.99994277954 142 141 137
136.560380458832 518.082022666931 2686.00010871887 150 149 145
143.921554088593 518.264293670654 2687.00003623962 148 149 144
151.40026807785 518.831849098206 2690.00005722046 143 143 141
158.953860402107 519.591629505157 2694.00000572205 150 150 148
166.528686881065 520.350873470306 2697.99995422363 154 154 152
174.189209938049 521.302461624146 2703.00006866455 151 151 149
181.87640607357 522.253453731537 2707.99994468689 153 153 151
189.590245485306 523.20396900177 2713.00005912781 168 170 167
197.548493742943 524.732351303101 2720.99995613098 175 177 176
205.700278282166 526.645958423615 2730.99994659424 185 187 184
213.983863592148 528.75167131424 2742.00010299683 189 191 188
222.891911864281 532.206535339355 2759.99999046326 192 194 191
-31.9549292325974 516.797840595245 2717.00000762939 205 207 204
-24.6305353939533 518.321633338928 2724.99990463257 172 174 171
-16.6182406246662 500.443518161774 2631.00004196167 112 114 111
-9.21114534139633 487.510144710541 2562.99996376038 170 172 169
-2.22220062278211 485.037803649902 2549.99995231628 172 174 171
4.70707379281521 483.706295490265 2542.99998283386 189 191 188
11.584497988224 481.8035364151 2532.99999237061 170 172 169
18.4220280498266 480.280756950378 2525.00009536743 162 164 161
25.2960845828056 480.279088020325 2525.00009536743 154 156 153
32.1573168039322 480.086594820023 2523.9999294281 157 159 156
39.0284582972527 480.083882808685 2523.9999294281 157 157 155
45.86311429739 479.700326919556 2522.0000743866 159 159 157
52.749440073967 479.886740446091 2523.00000190735 159 159 157
59.6174150705338 479.882448911667 2523.00000190735 158 158 156
66.4851889014244 479.87762093544 2523.00000190735 159 159 157
73.3818262815475 480.062484741211 2523.9999294281 165 165 163
80.3790614008904 480.817496776581 2528.00011634827 174 174 172
88.5023400187492 487.658023834229 2563.99989128113 188 188 186
98.3853563666344 502.486050128937 2641.99995994568 184 184 182
106.854446232319 508.564352989197 2674.00002479553 131 131 129
114.430300891399 509.887337684631 2680.99999427795 138 138 136
121.862292289734 510.44899225235 2684.00001525879 144 143 139
129.262074828148 510.819911956787 2686.00010871887 149 148 144
136.621505022049 511.000096797943 2687.00003623962 145 144 140
144.039466977119 511.369824409485 2688.99989128113 142 143 138
151.467904448509 511.739194393158 2690.99998474121 152 152 150
158.965736627579 512.298107147217 2694.00000572205 154 154 152
166.602835059166 513.236701488495 2698.99988174438 147 147 145
174.266636371613 514.17487859726 2703.9999961853 149 149 147
181.889906525612 514.922320842743 2707.99994468689 154 154 152
189.744040369987 516.239583492279 2714.99991416931 169 171 168
197.490468621254 517.176032066345 2720.00002861023 174 176 175
205.715388059616 519.252717494965 2730.99994659424 184 186 183
214.077591896057 521.518886089325 2743.00003051758 188 190 187
222.988978028297 524.925231933594 2760.99991798401 191 193 190
-32.3925577104092 516.377329826355 2753.99994850159 213 215 212
-9.22262948006392 481.13164305687 2565.99998474121 180 182 179
-2.22411309368908 478.507071733475 2552.00004577637 192 194 191
4.71298582851887 477.381944656372 2546.0000038147 171 173 170
11.6173969581723 476.256310939789 2539.99996185303 143 145 142
18.4745062142611 474.755167961121 2532.00006484985 163 165 162
25.3380853682756 474.190980195999 2529.00004386902 146 148 145
32.1597643196583 473.251312971115 2523.9999294281 159 161 158
39.0159673988819 473.061114549637 2523.00000190735 157 157 155
45.8484068512917 472.68283367157 2520.99990844727 159 159 157
52.7116283774376 472.679138183594 2520.99990844727 159 159 157
59.6219375729561 473.049879074097 2523.00000190735 159 159 157
66.5429458022118 473.420143127441 2525.00009536743 160 160 158
73.4746158123016 473.789811134338 2526.99995040894 165 165 163
80.4487317800522 474.346488714218 2529.99997138977 173 173 171
88.5435566306114 480.902165174484 2565.00005722046 188 188 186
98.5789895057678 496.268898248672 2647.0000743866 183 183 181
106.982387602329 501.885652542114 2677.00004577637 129 129 127
114.524282515049 503.002226352692 2683.00008773804 137 137 135
