ply
format ascii 1.0
comment KinectMotionCapture
element vertex 795
property float x
property float y
property float z
property uchar red
property uchar green
property uchar blue
end_header
226.229288722409 349.023452144673 2970.11916708953 37 40 31
207.037923420275 349.693959233794 2964.98822826892 29 32 23
205.491207950032 350.280080629743 2972.10548622205 24 27 18
203.961007808619 350.864121710372 2979.20698952119 18 21 12
198.210862186678 351.470433066651 2983.41010941317 12 15 8
186.51413727888 352.112718860477 2983.59425037041 19 22 15
177.340244686959 352.742620020008 2985.52573994037 16 19 12
168.147982771976 353.374764917851 2987.47547673813 18 21 14
170.051060875234 353.933482202872 2996.83906410395 14 17 8
170.272364864995 354.500362901905 3005.03765284119 16 19 10
178.246717338331 355.007669463208 3018.29935224012 21 24 15
170.786783240959 355.625189396131 3021.36484210534 17 20 11
174.530601011416 356.156088134907 3031.73881581691 11 14 3
153.240773612389 356.885090486163 3025.84887882786 14 17 6
149.208627768677 357.478275272507 3031.18209612209 17 20 9
139.970579455928 358.115691038279 3033.1765204577 23 26 15
105.736865715318 359.540419008695 3027.28402862352 20 23 12
89.4142973561705 360.254407090763 3024.96588067102 64 67 58
79.175714919193 360.915499893645 3026.53344140914 77 80 71
84.8787829522655 319.649519341625 2560.77235472058 194 196 195
80.7581781005098 320.365761733014 2567.5921345749 176 177 179
79.7632704474713 321.105513400407 2576.97288919872 164 163 168
75.6677520352995 321.818167427784 2583.76862604831 169 168 173
71.5806359045747 322.529480407854 2590.55587967243 153 154 158
64.3619325476701 323.217617270278 2594.7886338547 144 145 149
55.5619562986984 323.895848714637 2597.75858509134 135 136 140
45.9585308129649 324.570672403383 2600.11030548631 131 132 134
32.3818107783591 325.223774372224 2599.32555429253 131 132 134
15.5955739096401 325.863331135767 2596.06192762297 131 132 134
153.979585689801 330.078226942139 2752.76002060531 176 178 175
163.157000887556 330.787822265312 2769.04789069684 106 108 105
173.211798962978 331.491346078228 2785.88265114703 134 136 133
181.724329030336 332.180270125083 2801.41690788975 148 150 147
189.493487300629 332.858417387055 2816.2740273024 119 121 120
199.762465136492 333.534984664611 2832.90008824846 165 167 164
207.663319888062 334.196573719167 2847.62887840419 157 159 156
211.546259010555 334.841992538946 2859.26468585636 148 150 145
211.382219174235 335.474936207169 2867.83616263133 115 117 112
213.702501804656 336.108209319901 2878.19168757519 0 1 0
209.482516629596 336.729570611625 2883.70726762704 13 15 10
205.267358901689 337.350131678244 2889.21817222541 7 9 4
202.708712640575 337.970905049902 2895.91826154836 12 15 8
217.546416673705 338.594394082484 2915.10023921437 27 32 25
223.350877089048 339.206572281276 2927.66701704413 28 33 26
230.870011226498 339.811763188524 2941.36628771637 22 27 20
243.449667472056 340.40657416441 2958.54371302463 17 22 15
281.17837062784 340.96885314059 2993.26322914664 9 14 7
221.956339341062 341.620458158798 2959.8694122482 9 14 7
228.798112552814 342.206504631042 2972.82689471231 8 11 4
216.343854516853 342.81918929593 2972.35074298043 17 18 12
212.288396739853 343.419013215737 2977.706128108 23 24 18
209.928161086911 344.014302027009 2984.21295937088 26 27 21
197.414279635814 344.634029715843 2983.79463577377 24 25 19
184.017403015027 345.260258035892 2982.83526932505 21 22 17
170.582688011772 345.891050094385 2981.91280243093 23 24 19
171.610519039649 346.477478261185 2990.72451810718 33 34 29
168.39190753408 347.075957656678 2996.66634839618 28 29 23
175.463761518066 347.633087244989 3009.39963115506 24 25 19
174.00285152621 348.219389183133 3016.43165631565 26 27 21
169.975990843477 348.815136234207 3021.75924666529 25 26 18
158.190306172652 349.446877322704 3022.03328448513 20 21 13
151.561739218622 350.056429623688 3025.6913014174 22 23 15
130.195928930668 350.744033979216 3019.88327300797 22 24 13
140.88917566015 351.2637729976 3034.69396065933 20 21 13
131.634622688817 351.890178358356 3036.70640169795 9 10 2
103.170759531567 352.634417793918 3026.60184816641 39 42 35
87.7170447012614 353.30900131542 3024.84398695231 46 51 44
89.740584143887 353.874690071112 3034.08692404707 121 126 119
85.9779101388312 311.003946565767 2552.45658546652 187 189 188
88.8188443256475 311.812717252831 2565.10297588883 186 187 189
86.262366891162 312.551830854968 2573.20033021821 188 189 191
82.9430713244892 313.279714977051 2580.63992462391 180 181 185
78.073776653242 313.988548828594 2586.78735019788 168 169 173
73.2093714270605 314.696487890268 2592.93039057217 160 161 165
65.9942670151481 315.379112767324 2597.1600477759 138 139 143
57.198252153615 316.046453264482 2600.12801281549 129 130 134
46.020690267782 316.692266946076 2601.21300511473 128 129 131
33.2348183466471 317.326233954406 2601.06266750992 119 120 122
20.4148293710538 317.964177631002 2600.94562089469 131 132 134
7.56091194798802 318.60609064546 2600.86201690496 187 189 188
152.431487273069 322.687848491839 2752.55544344822 127 129 126
159.191189605231 323.429628499564 2766.98865332018 115 117 114
173.267840805987 324.21377862136 2786.90262206034 123 125 122
184.205097991626 324.964914311344 2804.27095987202 128 130 127
195.220883687951 325.706223945823 2821.56276999844 124 126 123
202.253886018106 326.413579630655 2835.72967683216 170 172 169
210.97426296366 327.122665515783 2851.0545586414 172 174 171
213.232435299012 327.788579751843 2861.46693568265 29 31 26
217.162399982 328.458159096228 2873.0524751431 0 1 0
213.755797630026 329.08745821076 2879.17642798058 10 12 7
201.316013471843 329.675672479708 2878.68918234594 4 6 1
195.43362778506 330.295000434423 2883.0220325716 17 19 14
215.149371720833 331.01215393125 2905.84833252699 13 16 9
228.359908338264 331.691466796118 2923.80370427528 23 28 21
231.7000142685 332.328056609079 2934.56294871754 20 25 18
223.436551265519 332.925577400961 2937.01240121097 13 18 11
253.503945500563 333.62568955023 2966.56614127801 10 17 9
213.549976880514 334.141317630242 2946.65022985076 8 15 7
203.583096737823 334.738568728774 2947.95708412818 10 15 8
218.776195093096 335.382873926029 2966.78341120055 14 17 10
221.442687139386 335.996913230716 2976.79764998298 28 29 23
215.712327595686 336.596412475202 2980.98246667591 41 42 36
204.062456816421 337.190864726018 2981.12715056766 26 25 20
194.923663753448 337.790556912837 2983.02825065948 25 26 21
183.219416630372 338.391525095043 2983.22596801265 32 33 28
176.590934062471 338.996481931555 2986.88458035588 29 30 25
175.073246656845 339.601116157479 2993.97027682354 32 33 28
172.717102832443 340.204085795627 3000.47190961734 37 38 32
169.516635087357 340.806145280054 3006.39519374838 27 28 22
171.477006030478 341.401763316679 3015.6964345623 31 32 26
176.91198817414 341.988875147139 3027.2169052583 31 32 24
160.82873457602 342.604422642166 3024.67566368615 26 27 19
134.321346335185 343.245338466607 3015.47772930263 27 28 20
125.047907340754 343.861077857803 3017.51050086702 26 28 17
122.703159729202 344.462433915764 3024.00105553943 23 24 18
128.203705102471 345.041367208318 3035.45729192157 25 26 20
111.944649129914 345.67841398673 3033.08744712138 35 38 31
89.5167469369151 346.341094555547 3026.92052823934 36 41 34
75.7736972771967 346.982850099592 3026.30262181874 36 41 34
93.0021182175587 303.213698734177 2559.38569777828 194 196 195
93.534364160325 304.014137972694 2570.07515318692 189 190 192
88.6574910568774 304.727391624588 2576.22945101153 191 192 194
83.0061315674291 305.428262652443 2581.73774609516 184 185 189
77.3555185514643 306.128774215735 2587.2453530483 175 176 180
73.2720145386412 306.851191425237 2594.02771642767 172 173 177
66.0567863697756 307.528760584745 2598.25824375673 156 157 161
54.8996926893333 308.153787298648 2599.32598313019 132 133 137
43.716241604328 308.781782969238 2600.41945698551 137 138 140
31.715429245899 309.402681434652 2600.90838447228 158 159 161
23.6487427407486 310.076703421595 2604.56837531096 174 176 175
13.9814514163437 310.732480534026 2606.98599266151 188 190 189
142.858606428726 315.198609031083 2746.16443662283 1 3 0
150.398782207446 315.992733169122 2761.23145986096 105 107 104
166.872934708534 316.869477638998 2783.00239260125 118 120 117
184.260926423371 317.741005906041 2805.28321192148 136 138 135
199.327793250253 318.575549037541 2825.62368100171 132 134 131
203.120938376553 319.292568700178 2837.33807264619 26 28 23
211.842806134745 320.047727689059 2852.65466447183 23 25 20
216.550997850292 320.75929389535 2864.8784545045 6 8 3
235.213748229489 321.580493034003 2887.31810540953 7 9 4
219.549425872496 322.111900400474 2884.37329479625 7 9 4
193.150243355087 322.567017834178 2873.67846213309 9 11 6
195.487232541798 323.247364821318 2884.01043972151 12 15 8
216.028038870444 324.051798817997 2907.42144982208 14 17 10
231.723453873119 324.807560473123 2927.1494051399 12 17 10
230.09279549921 325.438392414203 2934.34341143822 12 17 10
230.141849041808 326.077347396861 2942.70239486818 17 22 15
219.378304412503 326.64958972091 2943.38679788391 21 28 20
214.437288185511 327.257578954946 2948.20343949569 26 31 24
212.847106383994 327.883000298887 2955.35838948516 16 21 14
218.82762040207 328.543908899728 2967.74314115271 28 31 24
218.969833769147 329.170882026659 2976.01104857086 34 35 29
213.233627456086 329.768862791711 2980.2018956228 35 36 30
210.875106659945 330.381006893302 2986.70453280298 97 96 91
205.987644558232 330.981831997121 2991.469053232 89 90 85
199.402785288637 331.576557175411 2995.08585922976 23 24 19
189.407310669267 332.161021432612 2996.42333597678 35 36 31
191.330235587297 332.783370250176 3005.75781044942 30 31 26
177.897451228109 333.360802749856 3004.84131291669 29 30 24
176.421965670573 333.971365065919 3011.88422615621 23 24 18
176.680271426411 334.583498216019 3020.03938330024 23 24 18
179.544558628859 335.197341425442 3029.85757539344 21 22 14
153.978886756367 335.762998518881 3021.15287310232 18 19 11
131.779062228183 336.344280149906 3014.77116261298 18 19 11
115.568361869671 336.940868555494 3012.35961754504 18 19 11
123.622804327824 337.560761440829 3025.52480835358 20 21 15
136.087680632969 338.175292626468 3041.39638788331 30 31 25
137.291262702364 338.778439780772 3050.03110911821 28 31 24
100.932799137714 339.382342793539 3035.03389261341 30 35 28
81.9583440093576 339.996534323758 3031.11279151645 20 25 18
95.3862548452413 295.380988512214 2562.42695180823 179 181 180
93.5980586852327 296.158330446846 2571.17298850364 185 186 188
92.6072875765764 296.947418779882 2580.54234354011 188 189 191
85.4070219706466 297.618826430668 2584.75892349128 187 188 190
80.5431564113705 298.333064387716 2590.90015915238 188 189 193
73.3349420893399 299.004974569738 2595.12489586423 179 180 184
66.1195898942668 299.677517530056 2599.35628922319 155 156 160
54.9624956405106 300.283983878099 2600.42677237993 151 152 154
46.1457765180726 300.932808894235 2603.41803363667 172 173 175
35.732580776433 301.557489409529 2605.16403184579 188 189 191
29.2610004567351 302.247880908597 2610.07145789101 185 187 186
21.9915350983904 302.92602208982 2614.35575900643 181 183 182
104.217235315033 306.480292962096 2707.88869688227 6 8 3
123.656025220482 307.506696489129 2732.36121858222 18 20 15
138.389514679371 308.450815925746 2753.01654098705 113 115 112
159.672060703639 309.470219927998 2778.49337660942 151 153 150
188.358862667447 310.569800751193 2809.35902391515 47 49 46
207.486132664374 311.523437691159 2832.73473504144 10 12 7
210.486151117749 312.257977818278 2843.81721436198 43 45 40
220.03913771469 313.06730939445 2859.71739552753 17 19 14
238.640178866886 313.97495237621 2882.20554824495 13 15 10
236.085312052555 314.621357736473 2888.89809612465 20 22 17
223.70304040335 315.154881218924 2888.36182299276 10 13 6
207.999049594019 315.656365136636 2885.46082641173 12 15 8
207.899034406321 316.330800779247 2893.96259326847 7 10 3
216.081201055931 317.087600918674 2908.39796439412 24 27 20
234.259077800028 317.936225843654 2929.89780130761 17 22 15
242.590307842139 318.674425822622 2944.18789937655 19 24 17
231.85715672278 319.224616898724 2944.84571819441 27 32 25
225.265637592255 319.815893380475 2948.46998509036 28 35 27
222.844599848258 320.444734576255 2955.03223470071 27 32 25
228.810144841391 321.143057274195 2967.4259832021 18 23 16
229.79105448432 321.793722500804 2976.27513613984 27 30 23
219.86277026457 322.354574390025 2977.54904388247 31 32 26
214.971646302517 322.95645081779 2982.31704520772 30 31 25
213.461956978302 323.582823983282 2989.39158645653 101 100 95
208.580230115091 324.183427304184 2994.15044448835 91 92 87
201.152204092518 324.766776904742 2997.18929952381 22 23 18
195.415489470861 325.36228609063 3001.38101663202 33 34 29
192.234218993941 325.973761741992 3007.28350804463 27 28 22
190.771509885816 326.594066586992 3014.31263198148 27 28 22
189.324917633968 327.212308457462 3021.32571870654 21 22 16
167.285564939772 327.720540441997 3014.79579186168 24 25 19
177.874071354671 328.400065401714 3029.68687190142 20 21 13
160.068163482028 328.938132654035 3026.03388439998 19 20 12
131.830721204849 329.437795844173 3015.74063984968 20 21 13
138.147474545332 330.092065986854 3027.79248206077 21 22 14
124.542744636793 330.663916615091 3027.04755399853 30 31 25
150.93399656011 331.381743782069 3051.74700786229 27 28 22
112.919963535528 331.87256904293 3035.57669051193 28 31 24
111.474606165929 332.490448845978 3042.58860449407 23 28 21
72.3735349951462 333.004812733357 3026.07700593383 29 34 27
93.1304897070575 287.457231975463 2561.5870218973 186 188 185
93.662015717547 288.301679006404 2572.27068787683 181 183 182
91.1164150953714 289.072841995933 2580.35250448534 171 173 172
85.4705127327731 289.773717949949 2585.85537983326 162 163 165
78.2631103281028 290.440703371024 2590.0797003347 149 150 154
71.0489471297393 291.108321668768 2594.31097870732 130 131 135
63.8276035411778 291.776578104771 2598.54895515501 114 115 117
55.8124141630563 292.429452602918 2602.1605963329 104 105 107
47.7864279856779 293.08340810724 2605.78279911982 105 106 108
38.9588366380966 293.722959866928 2608.7862272401 106 107 109
30.1165581716485 294.364083069392 2611.80400762798 127 129 128
77.7726812685668 297.655391328715 2678.77241976749 29 31 28
127.727435705406 300.093864080293 2736.49908344946 23 25 20
131.207637032551 300.910453999882 2748.50951647217 41 43 40
158.116572853184 302.117083088138 2778.2906329755 3 5 2
196.498453916444 303.491910036484 2816.49250533937 24 26 21
222.126411954882 304.629932960718 2844.7216352004 24 26 21
209.729068233913 305.142049088635 2844.20349285624 8 10 5
217.651459815437 305.975308645679 2858.88552379615 17 19 14
206.53775362762 307.913080080545 2876.72041883219 5 8 1
217.916144384651 308.771903297263 2893.63478831691 9 12 5
221.958295881347 309.517547273514 2905.09768229354 69 72 65
226.044173281686 310.257724835751 2916.51830157707 37 40 31
231.001048318251 311.00335002449 2928.48977365102 30 36 26
241.813120470791 311.818476441581 2944.55605493191 31 37 27
241.057351353502 312.476839135505 2952.29446139163 25 31 21
229.485691647846 312.998775555337 2952.37186049727 22 30 19
232.08704698694 313.695284575988 2962.43892984683 19 25 15
234.72415938735 314.387271108697 2972.47116032765 23 29 19
233.200164863134 315.026887624287 2979.55794949018 28 31 22
211.501805539895 315.440283635569 2972.70342790258 31 32 24
210.807224828018 316.090532814872 2980.38193470313 34 35 27
209.287739141551 316.729359786722 2987.46436321733 47 46 41
209.478818101301 317.383344298447 2995.68009195071 40 41 36
200.354835585048 317.94204526845 2997.57288127663 19 20 15
189.510341024017 318.486665819744 2998.34208909917 21 22 17
187.168545659518 319.113551757086 3004.8259388416 31 32 26
188.25838256385 319.769574424888 3013.56579572906 36 37 31
182.521990495922 320.362594037158 3017.75722265255 27 28 22
171.630517306657 320.912827404662 3018.57225137561 25 26 20
156.409847211462 321.431425863922 3016.60602781859 20 21 13
143.731027030409 321.975783286652 3016.36263051098 22 23 15
151.765930669338 322.679855401905 3029.53478200242 23 24 16
156.394156754123 323.351676037109 3040.42694414887 27 28 20
153.250206889757 323.964137324013 3046.29222996501 33 34 28
117.914662721744 324.362012392473 3031.72693737773 28 29 23
123.438331248512 325.036479099926 3043.14609232962 32 35 28
97.5401675819918 325.514527039715 3034.78450789975 18 23 16
94.3280622878828 326.135346230474 3040.7165756126 24 29 22
62.1500945334854 326.596124083263 3028.67410323586 69 74 67
90.8752811211078 279.516409216523 2560.74939954396 192 194 191
91.4004450780816 280.383519273519 2571.43569570933 182 184 183
91.1803419338209 281.226484422128 2581.4487124125 179 181 180
86.3133785084393 281.947452063269 2587.59202965606 178 179 181
79.8890217132096 282.628661743477 2592.45391911222 183 184 188
71.895455037974 283.271527706285 2596.04556788365 174 175 179
66.2459840615881 283.972543954433 2601.5519661824 142 143 145
59.810472840844 284.654466943502 2606.42482672124 118 119 121
54.1607296763904 285.355060496876 2611.93155778087 102 103 105
42.1852218237015 285.90917104791 2612.40522874394 109 110 112
30.1796325182364 286.46685441524 2612.90858081562 178 180 179
112.971523669706 290.739942791894 2707.18995112783 0 2 0
169.515272925082 293.498193551253 2769.66267056958 17 19 14
164.247595235803 294.149928796999 2774.79722620093 10 12 9
158.174236693249 294.785074574614 2779.31703958616 18 20 17
194.938164673416 296.27406328813 2816.27453374281 26 28 23
193.013081550802 296.976214066359 2823.75036727602 16 18 13
212.221241579582 298.08248120464 2847.02319472825 26 28 23
197.353534521119 298.527894730685 2844.71729035917 0 2 0
198.761309267601 299.281717991249 2854.54388470221 23 25 20
192.021107833349 299.882406423059 2858.31440424158 4 7 0
207.412371815217 300.879819214321 2878.30833224486 21 24 17
226.189186919808 301.922720378738 2900.60194772881 29 32 25
237.664911529036 302.823819281309 2917.41341493152 34 37 30
238.484073225081 303.533793127871 2926.41408234147 31 34 25
223.605086612926 303.979670377454 2924.11931019781 29 35 25
235.228834156019 304.86216760605 2940.78653775831 30 36 26
229.467687827562 305.4569958298 2945.00227871645 21 27 17
232.038864062158 306.182032086601 2955.09510004986 22 30 19
224.620325767305 306.749517112739 2958.12687840861 31 37 27
226.402421511763 307.455872866163 2967.589119986 28 34 24
224.858915455558 308.109167939624 2974.69326270334 33 36 27
222.490572251781 308.748260720114 2981.20167067654 29 30 22
202.427498550391 309.137962988623 2975.56060685275 22 23 15
196.662932390518 309.732634352493 2979.78010477986 26 26 18
195.130632431612 310.384207132993 2986.87337423107 23 24 18
188.520778911499 310.967195309313 2990.51707245484 13 14 8
181.903913454284 311.550977294184 2994.16727846925 12 13 7
182.103175397979 312.220397255555 3002.37260002589 27 28 22
180.616794908006 312.866077961919 3009.42114161162 25 26 20
171.436134704443 313.418492200451 3011.37080405307 24 25 19
165.671699730959 314.012748986614 3015.59023298456 16 17 11
153.019286327745 314.530101431579 3015.32460468011 16 17 11
140.333197829835 315.05158292395 3015.0921438131 25 26 20
142.308794151957 315.733277790946 3024.36554348265 24 25 19
156.445792100808 316.536242578395 3041.38298757507 24 25 19
156.775240359045 317.189383166103 3049.46143828117 26 27 21
144.074699960553 317.71253742381 3049.24274328909 25 26 20
135.701190683132 318.281001991471 3051.80576785708 22 25 18
135.179911028582 318.923246750874 3059.3133671956 24 29 22
68.0990749020385 318.973697224423 3025.31051630838 18 23 16
86.3004027024417 271.489057572848 2557.97662891976 158 160 157
89.9144177326932 272.471284517977 2571.24661119484 168 170 169
88.9129890835325 273.311368155232 2580.61901224288 179 181 180
86.3774118965508 274.103380841419 2588.68779385601 166 167 169
80.7339284344271 274.804453089621 2594.1882381878 162 163 165
74.3082982910792 275.48325815164 2599.05174749898 143 144 146
69.4493910461813 276.205627905109 2605.18685760464 109 110 112
63.0215327910451 276.884271589824 2610.05260331525 132 133 135
55.0128638252261 277.520682605172 2613.6602029229 136 138 137
41.4578401002847 278.011376569537 2612.87791080504 79 81 80
117.823248013683 283.301224703469 2711.97368800773 94 96 91
207.663148253809 286.325435790393 2790.9387330339 38 40 35
204.079039178722 287.007112838311 2797.23121123578 23 26 19
182.002309483788 287.243861991289 2789.36127818941 12 14 9
186.454241265312 288.119086895053 2801.81534944077 12 14 9
198.228007239028 289.157571307187 2819.72746096209 9 11 6
187.398135804417 289.6657336799 2820.4875363068 6 8 3
214.505633871883 291.776787999926 2858.43993549976 10 13 6
211.057756490224 292.440553767924 2864.59978089554 13 16 9
210.072289940789 293.155926187813 2872.55751644634 16 19 12
212.386988440601 293.938136156502 2882.89657371218 28 31 24
225.421684318121 294.93851648415 2900.97944212582 35 38 31
256.666213319199 296.2996928755 2932.10038359809 42 45 36
237.711986045191 296.623863483106 2926.78515159072 32 35 26
241.040082970352 297.399084485745 2937.53583152326 28 34 24
226.156162282005 297.813503008129 2935.25027073434 27 33 23
217.879120303957 298.360946273722 2937.72060878726 24 30 20
217.08899973425 299.051310635872 2945.48839691446 22 30 19
228.850515750953 299.970897670574 2962.01333648693 29 35 25
227.29238736624 300.637284424533 2969.13006444797 28 34 24
225.750713389459 301.30156735451 2976.23076388297 27 30 21
220.019243884821 301.890061419003 2980.41830934432 27 28 20
211.755259250431 302.435357363931 2982.87599863502 27 28 20
198.405921426078 302.896789613617 2981.89378224592 28 28 20
191.795009472422 303.475044589822 2985.53889323276 21 22 16
181.781404074629 303.998917304198 2986.90299167236 17 20 13
177.701776272657 304.620304451214 2992.27919095646 14 17 10
178.744234300185 305.320882038278 3001.05984841336 24 27 20
178.95941818532 306.004951775125 3009.24685617437 22 25 18
172.345317552058 306.583315595225 3012.89545532211 15 18 11
161.43088193349 307.099543998631 3013.73831199576 15 18 11
172.865181346358 307.940174377355 3029.18260509254 17 20 13
136.935657920288 308.105260561704 3013.82430162483 24 27 20
136.310168618242 308.774339817243 3021.431754399 24 27 20
151.2994526435 309.650450284661 3039.0089642366 22 25 18
161.168519546973 310.447077467201 3053.18024137135 20 21 15
151.088592908321 310.978706597317 3054.60905138867 24 27 20
141.85843389908 311.52407992294 3056.60924536173 25 28 21
114.253570549462 311.84725768352 3047.13117221425 20 25 18
119.838370693206 312.579799209548 3058.48137697596 13 18 11
89.4736581061113 312.88787772318 3047.49504078633 11 16 9
84.0458790859122 263.506013531812 2557.14422882672 148 150 147
87.6535787978083 264.521793806276 2570.41552313886 177 179 178
88.2004065956323 265.429973592074 2581.07457454403 184 186 185
87.9999574731585 266.308820260573 2591.06277124005 180 182 181
85.48432655807 267.1093308306 2599.11048992681 172 173 175
79.8531928483475 267.809008360554 2604.59887691065 158 159 161
71.8680599919805 268.435154883055 2608.18462190125 146 147 149
63.0852224194731 269.038312475277 2611.14898790336 139 141 140
51.9211963840869 269.571322478757 2612.23721123737 77 79 78
35.1954269028605 269.941655910845 2608.95333064897 94 96 95
203.334065043412 279.769552851181 2797.62344261048 2 5 0
182.060229852511 279.972190474361 2790.37851228157 25 27 22
138.938977473368 279.596890857433 2766.6545547421 20 22 17
167.571218744447 281.158515552277 2797.50609173981 10 12 7
212.933418002897 284.660324946429 2858.21916059525 8 11 4
224.985808000081 285.720884134937 2875.85133170014 20 23 16
226.487078808607 286.50705889791 2885.58030153352 25 28 21
216.541776054604 287.008199649106 2886.88027205436 19 22 13
211.505028942136 287.630969848376 2891.78979123037 25 28 19
208.116628349982 288.292690534161 2897.89053971521 18 21 12
239.417211947599 289.76599109347 2928.93924624142 17 20 11
243.576689959425 290.587304082365 2940.2747872491 14 20 10
220.40276731471 290.780337221925 2932.08393491133 14 20 10
197.14447247389 290.983667746671 2923.97534346252 17 23 13
202.139987782048 291.822768679867 2935.89496734335 17 25 14
213.866165025274 292.801121017664 2952.44631335415 19 25 15
229.857479302722 293.859328761327 2971.83573491813 20 26 16
230.83925881695 294.587176011849 2980.67227874939 23 26 17
222.595690409478 295.119711302198 2983.11158044413 24 25 17
221.082741150665 295.79153287547 2990.18264160136 23 24 16
215.360689612043 296.376466160436 2994.36136116489 20 21 13
207.941529655346 296.928299622463 2997.39607013739 19 20 12
194.568966036611 297.365976458591 2996.4404283452 15 18 9
180.307502068555 297.792041381092 2994.95194681631 19 22 13
175.38558235879 298.399259580635 2999.74973926274 20 23 14
179.012093454761 299.163971653412 3010.20564272753 17 20 13
162.117550539339 299.551100027767 3007.08687436908 15 18 11
192.394279676863 300.785721070588 3034.93683228466 19 22 15
167.754370929696 301.037329685564 3026.77615907048 23 26 19
152.513701764637 301.462711751264 3024.84323438573 20 22 17
144.143015682208 302.010328743135 3027.40653674195 17 19 14
142.688403593895 302.674397949546 3034.42081402294 20 22 17
143.854964545087 303.37874417299 3043.07734059726 20 21 15
149.400477721267 304.148951402014 3054.46099092408 20 23 16
142.782897465329 304.722636633847 3058.11339903988 25 28 21
121.298992198598 305.069633463167 3052.47264449177 27 32 25
87.4783972777209 305.241567037719 3039.27019759658 20 25 18
86.0151520254053 305.906682069305 3046.29323100653 14 19 12
105.684642454803 306.873932770598 3066.29434064248 72 77 71
81.7916804935943 255.505960236489 2556.31401994019 153 155 152
89.2691815980346 256.696884479087 2572.80188033393 199 201 198
89.8193830975216 257.626573655339 2583.45406468297 187 189 186
91.9599272724212 258.607762516344 2595.35389793425 184 186 185
87.8916903933895 259.363074448787 2602.1159011564 184 185 187
83.8322531913422 260.117146066562 2608.86968732918 186 187 189
72.7171379912424 260.625930878984 2609.91292195338 81 83 82
60.0017956574708 261.084095248804 2609.71853097889 87 89 88
42.5194606815138 261.386536289147 2605.77871841699 158 160 159
161.064796962524 269.586505723804 2747.57972877839 49 52 45
183.76484715814 271.127123952187 2774.40608304649 38 41 34
195.367862013633 272.301445326029 2792.46767630875 30 33 26
194.18383317605 273.070289098232 2800.61502194645 27 29 24
130.128906495117 271.928899102092 2760.94939527207 19 21 16
118.183603638208 274.030385179569 2779.5855432991 5 8 1
230.084832570836 278.072751388223 2871.91831560382 23 26 19
229.937519830935 278.836649497112 2880.45382711564 25 28 21
228.178393763588 279.551417271637 2887.76299805313 13 16 9
209.218211882078 279.785791919073 2882.46695086274 10 13 4
196.767453003656 280.208360524882 2882.0150856442 14 17 8
208.995576857396 281.303818008096 2899.467592479 21 24 15
222.131773861241 282.41106499712 2917.43387392785 20 23 14
227.077816785493 283.289395768806 2929.39682646424 17 23 13
208.013496135353 283.536132167981 2924.20236354905 16 22 12
193.873101663784 283.918791484297 2922.60007355004 17 23 13
188.859102575086 284.538546511653 2927.48744924326 16 24 13
208.907673256691 285.783808296562 2949.90519314562 21 27 17
220.70004080591 286.808332974649 2966.38398695236 21 27 17
222.499730225222 287.578574820291 2975.81931541401 22 25 16
217.60161190957 288.183691750521 2980.59378329092 22 23 15
211.861276660847 288.768748141082 2984.79064065391 20 21 13
212.878382445323 289.511365791361 2993.58992191797 18 19 11
218.158421460033 290.347589344569 3005.22709698568 19 20 12
210.751746652994 290.890168165452 3008.25077585192 14 17 8
193.123975286265 291.206714464738 3004.45363686688 21 24 15
170.32194971651 291.418037215337 2997.30769135722 19 22 13
167.953439537909 292.082419187804 3003.81252740735 15 18 11
175.021054402219 292.945705574245 3016.50510767567 16 19 12
183.001828118468 293.820166408792 3029.70582760223 19 22 15
172.109794527865 294.296818359514 3030.53228811337 22 25 18
165.503695140161 294.864265028331 3034.17421761419 19 21 16
131.229968592309 294.879769588258 3020.02794794542 16 18 13
122.815712843001 295.422427004439 3022.63524864805 17 19 14
141.30299280448 296.487531327308 3042.37893871467 19 20 14
144.231826037408 297.241676762453 3052.11229903775 19 22 15
143.707571169109 297.926090750591 3059.61662021392 22 25 18
118.729839344407 298.157765634001 3051.79435650649 24 29 22
85.7803060572846 298.25773084878 3039.15481658418 22 27 20
76.4115295901831 298.79418885336 3041.2936395806 19 24 17
100.458560492091 299.916890017216 3064.01003357751 7 12 6
91.6600492588948 248.913080650784 2575.82922200481 191 193 190
92.2157684522453 249.864069606329 2586.4727791042 184 186 183
94.361549788784 250.871987555498 2598.363123387 188 190 189
91.0801363754068 251.662674305381 2605.75581805351 182 183 185
87.0282783634102 252.421554648611 2612.50136725101 176 177 179
75.1361258130716 252.881024870439 2612.90659080795 115 117 116
59.2793769478965 253.196245265823 2610.1848149018 79 81 80
35.4850985628561 253.224121905542 2601.21748572555 187 189 188
145.953060395603 261.653487702836 2736.83509909223 10 12 7
187.825965715893 263.962932042678 2778.51708115034 33 36 29
194.623939805117 265.027429633998 2792.86458908386 9 12 5
210.328699706797 266.385851850352 2813.91110112878 13 15 10
93.3317625672472 264.111399649729 2743.38140866424 9 12 5
230.140925937214 271.047932568517 2872.90087921547 41 44 37
232.441339216319 271.906376817484 2883.24285452332 22 25 18
224.144381641701 272.425945368331 2885.73675108671 12 15 6
197.796144255781 272.386778219343 2875.06472204232 17 20 11
200.110657788131 273.243089390088 2885.39267301629 16 19 10
216.464759715805 274.519784406306 2905.80645807486 19 22 13
218.884053650612 275.362947015553 2916.03264175388 19 22 13
230.442867318811 276.471239902756 2932.73097711232 20 26 16
223.829873176479 277.0356638224 2936.38019996741 22 28 18
209.726625504163 277.38454078286 2934.74635350705 24 30 20
208.916650275859 278.119217038178 2942.52730832528 23 31 20
208.12666123412 278.851313043988 2950.28846008256 16 22 12
207.357205526912 279.580807458811 2958.02994429112 15 21 11
209.125446963964 280.376963263664 2967.49233315019 13 16 7
210.925618783826 281.169093736412 2976.92360960944 14 15 7
206.012828549673 281.776443592469 2981.71231689286 16 17 9
208.706402396424 282.584837212001 2991.67127540622 20 21 13
221.59951721109 283.654223688153 3008.46762751189 19 20 12
224.387523435154 284.450799354999 3018.33422212486 16 19 10
219.553602925936 285.04816220242 3023.04608668102 19 22 13
195.106479182697 285.153077405062 3014.71565633034 18 21 12
179.973358410822 285.501629440411 3012.68762778823 17 20 13
166.507787054092 285.897649849574 3011.8305008565 17 20 13
170.176143615719 286.712016098374 3022.23751228977 25 28 21
162.697220635676 287.255653704626 3025.33277817181 23 25 20
178.493716848986 288.346235174946 3043.49362497104 24 26 21
125.233127931906 287.82758327914 3017.10616851944 25 27 22
121.136834432589 288.460270539045 3022.49724693562 23 25 20
137.883320985634 289.560202433263 3041.13060445519 24 25 19
142.54448484298 290.37856387065 3051.96806239802 21 24 17
135.039500597559 290.925295264813 3055.08875024134 20 23 16
124.027527561027 291.39828591722 3056.03485353361 18 23 16
102.477670659519 291.651993710007 3050.47337801264 25 30 23
89.634333516861 292.097739909315 3050.40826101766 29 34 27
74.1172963328518 292.493494885561 3048.75415273209 17 22 16
95.6012061999547 241.212240499793 2580.13866014313 206 203 198
96.9435122222522 242.217563097896 2591.41034156455 206 201 197
97.5427154196096 243.184949342724 2602.00863273495 193 188 185
92.7067997957307 243.917172645769 2608.11945547073 176 178 177
87.0927688743031 244.615829247416 2613.59101002573 182 184 183
78.34006146448 245.184185593361 2616.53059993989 178 180 179
61.704346500369 245.431359623355 2613.17515894859 122 124 123
40.2825441269101 245.492845341236 2606.09802440928 159 161 158
125.0823253399 252.512446645004 2712.14970350033 0 1 0
147.610659304425 254.264444631976 2739.11533268832 27 30 23
172.677231089319 256.091057312863 2767.80049197462 17 20 13
185.856713393108 257.443890389659 2787.10440228195 22 25 18
203.952173281604 258.966007573682 2810.00344780735 8 11 4
238.059418586352 261.878723763239 2853.63970662965 6 9 2
201.946426066956 262.202265707361 2844.10814610455 19 22 15
216.358976429821 263.531254196532 2863.60837298048 21 24 15
226.785752836485 264.705144033982 2880.00423355588 18 21 12
218.475178256993 265.216050711197 2882.51293222756 20 23 14
200.31207723372 265.390494312843 2877.85113906203 20 23 14
219.067887159301 266.829645688383 2900.1070473911 19 22 13
218.991616774468 267.617595580223 2908.56845795112 33 36 27
220.590837574617 268.457365784899 2918.19257845396 29 32 21
225.532138033573 269.40195450368 2930.15010959087 29 35 23
237.986977780217 270.583364753754 2947.36511825312 28 34 22
235.557210811149 271.27323177267 2953.926678681 24 30 18
226.473008754868 271.749476972232 2955.79215234897 19 27 14
219.876175733406 272.306703753483 2959.42639070604 17 23 11
207.411719430464 272.682587435052 2958.99536508595 16 22 10
204.983570940422 273.371940832631 2965.55539425324 17 20 9
210.979665838624 274.315070732978 2977.88296169169 19 21 10
205.223852889828 274.897581960544 2982.09556481363 20 22 11
206.225044134804 275.68088944157 2990.90463551145 23 25 14
205.560521631702 276.411027775124 2998.54182432623 23 25 14
221.045031060752 277.605673166134 3016.99709801221 21 24 15
216.203368256035 278.204469061328 3021.71643897842 19 22 13
211.362556332908 278.80309872055 3026.43495957623 23 26 17
175.753431866549 278.542491212874 3010.82141254693 23 26 19
155.42542468102 278.724205369777 3005.47450998339 22 25 18
164.219874521867 279.709467654025 3019.26810824371 30 33 26
189.42623380112 281.126760508411 3043.62355013612 26 28 23
181.134101958225 281.633795958237 3046.11484490543 25 27 22
126.151693900231 280.918454546284 3018.63209446107 25 27 22
120.324904620698 281.509250068809 3022.91395371349 29 31 26
130.991145759647 282.522041221662 3037.67858542531 30 31 25
133.026361006276 283.30659678118 3046.87791769806 24 27 20
130.732694651206 283.978673944564 3053.30729537918 22 25 18
125.829386280949 284.584769492189 3058.08677241781 21 26 19
120.926715398751 285.190814158729 3062.86562394159 27 32 25
58.085007862164 284.410822567255 3031.86087910383 29 34 27
53.0565740649851 285.03241206118 3036.7623175426 34 39 33
85.0617634998065 286.515839847674 3064.27602462128 6 11 5
94.8918090607078 233.319181326966 2580.59278337019 218 201 194
100.11710081977 234.530416947391 2595.06305312974 190 171 164
100.723777230831 235.518885931578 2605.65080726878 176 156 149
95.8954865576813 236.253229109611 2611.75374499918 158 139 132
88.7233747621425 236.880415481483 2615.94924152815 137 118 112
79.189590752994 237.402588856844 2618.25403071504 135 117 113
64.9165291930998 237.717044819595 2616.79389936379 159 146 140
41.1366437953253 237.619626271923 2607.83079631239 174 171 164
134.702332389593 245.376681834838 2720.65582039336 32 33 28
146.074530115437 246.751435300745 2738.9169947018 39 38 33
155.12820375251 248.015916578483 2755.24606793256 11 12 6
201.962932448652 250.824783059461 2800.42920324517 14 15 9
240.343946392152 255.74440636906 2865.03098356429 16 19 12
206.876470910544 255.256073734906 2848.74131442571 16 19 12
224.556041842112 256.775340908553 2870.63719358787 16 19 12
235.001690474915 257.998655716095 2887.00700877474 14 17 10
224.256894373239 258.403421776189 2887.69754714406 19 22 15
221.684207528249 259.120167886843 2894.39739424545 26 29 22
225.698217698569 260.080366432082 2905.85685974557 31 34 27
216.576421291244 260.548670994952 2907.76050094052 31 34 25
209.91327980329 261.109644405628 2911.46036867684 32 35 26
233.863278877569 262.778388976986 2937.02623037126 29 32 23
240.530124039299 263.806876673407 2950.09202635524 29 32 23
242.263624927068 264.651802564933 2959.5820427378 29 32 23
226.527732132668 264.879506093214 2956.75318992152 28 31 22
211.577670813693 265.142206555744 2954.55573161954 29 32 23
204.117354010052 265.668992226507 2957.63501200208 29 32 23
207.555935466932 266.56722525569 2968.25779803755 30 33 24
212.716470986517 267.51699376781 2979.99719778916 32 35 26
214.551911625736 268.3488162121 2989.38758533336 32 35 26
204.589401069836 268.787997681349 2990.71380101067 33 34 26
204.76747120359 269.560142859121 2998.92464576374 28 28 20
207.516502761644 270.411078967201 3008.82224618873 85 85 77
212.853632338843 271.338688187841 3020.38956056419 78 79 71
205.446784087664 271.858379485026 3023.41679442904 30 31 23
175.807583060202 271.688690956388 3011.78062829585 33 33 25
159.76290096435 271.953921772949 3009.25286130384 25 26 18
179.727655870886 273.320805059482 3030.31895058732 22 23 15
202.386842045209 274.751192338325 3052.9511097237 23 26 19
165.664079665465 274.399332736619 3037.03966146492 19 21 16
119.291760720935 273.785949143348 3015.16234047447 19 22 15
130.774886441684 274.879048425179 3030.52117137412 27 30 23
134.518421513983 275.738910916658 3040.84680511015 35 36 30
126.989511359644 276.273459336783 3043.99305237296 31 32 24
118.577876231859 276.784886716905 3046.60236654537 25 28 21
111.899379090782 277.346511675375 3050.31704853177 28 31 24
92.07525019219 277.549955999869 3045.88348498904 29 34 27
93.2546242685373 278.330142478877 3054.51607878402 28 33 26
54.8713877110476 278.051337222057 3038.82579921207 31 36 30
63.9550607948256 279.044335456411 3052.33105114661 35 40 34
95.7328418618455 225.498321030374 2582.33045441994 163 141 130
102.51379021398 226.825369175191 2598.07297362265 156 129 118
103.904881177654 227.873810110797 2609.28983800466 154 126 115
96.7414261183084 228.49503853104 2613.47728100727 159 130 122
88.0053831219478 229.040596004787 2616.40369257587 142 115 108
80.0393311214278 229.625786211914 2619.97654332008 151 128 122
63.4080173236464 229.797560926248 2616.62821373347 123 106 99
133.967682926006 237.831021901111 2721.08367409596 19 18 14
146.135729843124 239.299495447746 2739.95761592337 20 19 14
229.059870598672 248.229960932179 2857.50878757434 21 24 17
224.799167913589 248.894504948302 2863.05841832774 23 26 19
219.729340019385 249.524040134107 2867.99978734698 19 22 15
244.849231054309 251.413809580331 2895.20541812775 20 23 16
251.302863649604 252.507550072391 2908.47329300737 26 29 22
237.316991639868 252.754724657535 2906.73792234559 29 32 25
220.002400325478 252.873635242377 2902.65900141121 32 35 28
241.342992420202 254.555386795485 2926.56305458907 35 38 31
221.52811154844 254.578416917887 2920.73006344156 31 34 25
225.64318930246 255.55594668551 2932.08626794792 28 31 22
233.11999915356 256.657491917455 2945.75420630975 27 30 21
234.004252408099 257.494519684547 2954.67145832592 26 29 20
224.916017983809 257.945207302567 2956.54437575233 25 28 19
211.632966193731 258.239789681018 2955.52099668941 24 27 18
200.823718870372 258.633252317664 2956.27754455766 23 26 17
203.415211188499 259.528771430634 2966.32499442811 24 27 18
215.29457789398 260.760159327734 2982.68682249318 25 28 19
217.135641712187 261.61335670648 2992.06846693154 25 28 19
219.853621621693 262.493033244198 3001.99265427962 25 26 18
203.128164637805 262.673138073425 2998.73657908117 29 29 21
206.721873686261 263.579338504574 3009.20414354647 69 69 61
202.697980388558 264.212923269175 3014.52319484137 64 64 56
206.353381423888 265.111390671753 3024.93064118997 34 34 26
182.699487144102 265.068512018135 3017.25161328312 34 34 26
171.809870323013 265.471382434568 3018.08624094296 30 30 22
182.357399650015 266.597058538237 3032.95240873449 26 27 19
194.696095449782 267.771086166208 3048.86659404152 21 22 14
175.204686663294 267.888123338701 3044.1154054483 19 20 12
156.512647283814 268.041192824488 3039.98201497463 17 18 10
154.218356130422 268.730552908754 3046.40945868155 20 21 13
149.332002276928 269.335587251228 3051.17225648007 20 22 11
132.264802773792 269.557639005162 3048.24933691796 20 22 11
90.7270304136847 269.027199510607 3030.06077434819 20 22 11
79.6170929028701 269.457212640143 3031.11050987071 20 23 14
109.648349040576 271.142166193558 3057.72041999576 22 25 18
97.6986551619858 271.541045074944 3058.19140047393 24 27 20
90.1178991174092 272.074450507977 3061.38963824715 18 21 14
94.3629509137382 273.710204059162 3079.60437585098 189 194 188
95.799061592591 217.640367128585 2583.42609940337 177 150 139
102.579505156132 219.011115841621 2599.16266094371 176 148 134
105.528303536105 220.167032033537 2611.65097051567 161 131 120
99.1495278155856 220.82385964156 2616.47086310845 160 130 119
92.7678595546428 221.480920924701 2621.29393134154 136 111 104
80.889535221754 221.853732769866 2621.69823134436 117 97 90
60.3265377772999 221.785839491789 2615.2043222919 114 97 90
117.30375267927 229.495667538841 2709.10570433761 8 7 3
152.584726806081 232.158481093233 2745.94539347617 23 22 17
153.943324481776 234.063504717033 2765.56971537455 14 15 9
144.614783405878 234.532532581532 2767.67888801997 12 15 8
289.872825015184 243.9761157119 2904.02497267667 29 32 25
258.149267885774 243.359171382941 2888.85673206425 29 32 25
246.647402687289 243.683183031722 2888.89441522924 31 34 27
253.880914899439 244.856560037781 2902.7933350383 33 36 29
262.809075715166 246.095542240441 2917.83356594853 36 39 32
211.960588654475 244.677147720431 2889.18383826304 36 39 32
236.493441772715 246.60179895626 2915.5503415421 32 35 28
247.164530093756 247.900226321806 2931.68485234068 31 34 27
238.921840882217 248.371293711586 2934.13236590972 22 25 16
232.319588586315 248.914772762505 2937.77435543696 20 23 14
231.51660863898 249.704585832366 2945.53987679867 18 21 12
230.734098385071 250.491790592004 2953.28579480133 16 19 10
221.638181342442 250.930385131072 2955.16812853311 17 20 11
225.888358538018 251.921016537777 2966.38824088034 15 18 9
210.926207859991 252.12136477912 2964.21234096367 15 18 9
201.792282904785 252.56448545977 2966.13174815275 19 22 13
200.209860523401 253.312584530344 2973.26052336691 21 24 15
224.77769738098 255.094074010181 2998.19653720295 20 23 14
218.218371268073 255.631581329813 3001.79678301518 20 21 13
215.88633199473 256.334514299653 3008.25936725469 26 26 18
208.474219337361 256.839774943604 3011.29429943894 44 44 36
204.45412350412 257.476065294101 3016.60917991108 41 41 33
204.702379563979 258.27275522297 3024.74703914048 33 34 26
198.992061381555 258.842674281978 3028.9159885619 31 32 24
194.99215874561 259.476405921189 3034.21153290902 29 30 22
172.968400196549 259.44831125259 3027.74538969263 26 27 19
168.076726448329 260.054591198383 3032.51328612562 22 23 15
175.25900827428 261.094788872165 3045.06551515294 18 21 12
174.717448415265 261.851277230933 3052.57636788021 15 18 9
167.266268848313 262.361048393503 3055.64908958851 18 21 12
153.727262324113 262.660123615871 3054.87921331992 16 18 7
124.488787430614 262.423066403972 3044.27232443356 21 23 12
82.0625654448319 261.752171962176 3025.56985533793 21 23 12
87.5384264243553 262.727981453604 3036.99194555909 20 23 14
109.70339690408 264.255245096968 3058.68364058396 21 24 17
99.5095508491177 264.691243976022 3060.23970837506 23 26 19
87.5338985823637 265.07234515794 3060.73943129463 16 19 12
86.9897029290412 265.829136316049 3068.252856651 30 35 29
104.137699306475 267.150916979928 3086.45471982828 161 166 160
87.6026110442547 208.26971686427 2567.44421705148 156 137 130
99.7408965463014 210.004589018677 2587.72558596583 173 145 133
104.199580067883 211.284887268682 2601.52999229355 159 130 114
107.930798927419 212.514530657874 2614.64735923316 154 125 111
101.557762900568 213.168320159871 2619.46200125603 149 120 106
95.1818128054627 213.822375535324 2624.27983553776 140 115 108
83.3094007579649 214.173228007647 2624.6815101395 122 102 95
168.916957414847 226.509624795769 2768.82139985508 16 15 10
172.456883233144 227.620311041714 2780.72905826659 14 17 10
151.109647415443 227.456835915228 2773.61112714966 10 13 6
160.319928972906 228.848672013859 2789.76586341348 16 19 12
308.560406082073 238.037133112881 2918.93698665999 39 42 35
271.19827604051 237.046153141466 2899.50417369935 40 43 36
280.889784507572 238.377706239133 2915.18995432932 34 37 30
258.832798777685 238.160928540056 2907.36744630446 33 36 29
217.06798138359 237.012510201853 2885.24495185984 33 36 29
238.250057160798 238.887864222869 2909.27779972409 34 37 30
224.224627020566 239.08138124098 2907.58964143565 27 30 23
242.279111514237 240.781815094572 2929.08644953223 22 25 18
249.710468502918 241.971070088759 2942.78622195181 18 21 12
240.650868010675 242.392409756208 2944.63538091668 18 21 12
234.061015441433 242.929296827803 2948.26569378172 16 19 10
225.801628750743 243.391869553582 2950.73104370202 15 18 9
235.027284806702 244.639608798581 2965.47456315388 17 20 11
229.285198217279 245.211809636192 2969.67505966919 17 20 11
220.191165589143 245.637031308773 2971.55749865335 17 20 11
222.826613785972 246.576646094492 2981.55478236528 22 25 16
214.563977494778 247.039304155503 2984.02334657441 25 28 19
209.658690448849 247.648155321762 2988.80438118801 27 30 21
223.342778423822 249.045804210175 3006.18333968732 26 29 20
221.02252009417 249.755877900041 3012.63350772227 34 35 27
217.017187353954 250.393625828872 3017.93385063735 28 29 21
198.553769623935 250.433312625923 3013.59019339799 26 27 19
188.55610748649 250.829542354187 3014.95732552198 30 33 24
192.209944242284 251.78310693651 3025.35818188418 26 29 20
174.489555279915 251.87117690522 3021.68644440064 17 20 11
161.863156898628 252.171400998376 3021.42741211241 15 18 9
164.689914558782 253.086793286717 3031.23796493173 15 18 9
166.690224901689 253.964025497207 3040.45826072133 16 22 12
166.993686571777 254.770370348587 3048.53987297035 16 22 12
155.193991822304 255.108589527211 3048.8708675735 21 27 17
141.628143930091 255.384542043006 3048.13106270606 21 24 13
132.37486906216 255.828926417654 3050.16913719136 23 26 15
112.638759905643 255.885526512228 3045.66953441465 22 25 14
89.3424109625833 255.821085258385 3039.05555496355 19 22 13
103.627766407673 257.14376209631 3055.84886465497 22 25 18
99.5650847854455 257.788281050253 3061.20481726112 25 28 21
88.4693001669197 258.179846114972 3062.24618135957 21 26 19
75.5838107570552 258.512082387678 3062.23936106464 28 33 27
107.727065216436 260.433078864774 3089.55129507159 74 79 73
99.2661593848054 201.074093163177 2578.18098014669 170 148 137
103.682744274465 202.395345270263 2592.02113807604 148 116 101
105.042718098602 203.521890095154 2603.25702067489 142 109 90
105.659857698139 204.597065743909 2613.82156950594 140 109 91
99.2808906753808 205.249258931327 2618.64233703001 140 111 93
94.4647518752899 205.994307908467 2624.73196330038 140 118 107
81.8055716964321 206.278112327762 2624.50757280038 99 80 73
143.127837254944 216.762819334759 2740.60743350268 17 18 12
168.177987794794 219.107022397806 2769.23239969561 17 18 12
178.935983596925 220.642973142408 2786.66275138876 11 14 7
175.297103671215 221.383727595548 2793.00088624027 21 24 17
276.328276559606 228.642884133201 2887.1498752478 15 18 11
243.814675997635 227.803215875576 2871.38216862458 21 24 17
257.451972662498 229.411407048676 2890.19372068851 24 27 20
262.226481248789 230.541702056568 2902.28976915417 26 29 22
245.836406289263 230.56938025586 2898.723183237 25 28 21
217.943661223385 230.016501733488 2886.82630514805 28 31 24
218.633780637933 230.93625698523 2895.92410785105 30 33 26
240.715353383 232.930220153082 2920.46345870881 23 26 19
242.335780636648 233.877780301542 2930.05058958323 17 20 13
248.115751275592 235.02612401716 2942.56244109375 19 22 13
260.566813969931 236.493860106759 2959.73854374874 20 23 14
251.535184482614 236.898566058614 2961.56204770614 19 22 13
238.328260552576 237.104304578999 2960.47620363625 19 22 13
230.916604659507 237.594690018602 2963.51254295351 21 24 15
222.659077813896 238.046583427967 2965.97762441846 25 28 19
