ply
format ascii 1.0
comment KinectMotionCapture
element vertex 794
property float x
property float y
property float z
property uchar red
property uchar green
property uchar blue
end_header
183.788728145585 -58.2756484705819 2899.58646340905 11 14 5
172.92253050938 -58.6666480953921 2900.51550695949 12 15 8
183.367471721043 -55.1635829854722 2916.54907852693 14 16 11
174.144358389205 -55.2553289948387 2918.63610415565 14 16 11
203.656606832701 -48.334989686617 2947.82176534266 17 20 13
197.793724782858 -47.8378861618201 2952.15331288588 18 21 14
195.241523665122 -46.7457766514704 2958.77733881073 18 21 14
176.924934174477 -48.4746619770787 2954.5492731465 19 22 15
172.696292591671 -47.6771604462067 2960.04741568878 16 19 12
185.157385388135 -43.9222101457924 2976.8758468846 13 16 9
194.355886874107 -40.7683447383517 2991.36460661151 13 16 9
180.992187624934 -41.6027699984037 2990.58817850357 13 16 9
157.509962676214 -44.1981308403097 2983.11559832394 13 16 9
139.837608949273 -45.7542392871914 2979.6395078353 13 16 9
127.171383565259 -46.4230431476193 2979.56290841588 13 16 9
108.550295762214 -48.1122590506945 2975.63135095386 13 14 8
94.1072634310114 -49.0627805211686 2974.52696620333 12 15 8
114.461034825632 -44.0256445271193 2996.08120393384 11 14 7
111.085287488175 -43.0819968674214 3002.1277188661 10 13 6
109.425665774257 -41.848521335646 3009.26175357168 9 12 5
72.7056338991385 -46.5688999512163 2993.99325908388 12 14 9
71.8567766426932 -45.1844831386701 3001.71679296023 15 17 12
89.9345933650055 -40.619940637325 3021.34987064182 14 19 13
85.7232913766346 -39.8238142164822 3026.83099795115 1 6 0
150.61603015876 -76.6230869615697 2850.21854606982 12 14 11
169.748252863071 -71.3494284728375 2872.9508417862 14 17 10
177.590392311935 -68.2339092639908 2887.37524730036 13 16 9
178.961286407993 -66.3490583146207 2897.07129927601 12 15 6
191.826153533191 -62.3319173487837 2914.87693424639 14 17 8
200.673932514702 -59.0874440726709 2929.70057480144 16 19 10
202.18551261532 -57.2202534142541 2939.25987152012 16 19 10
188.887496595543 -58.0902616556956 2938.42347814353 17 20 11
194.560152306657 -55.4686158887361 2950.82414156401 19 22 13
182.059375295641 -56.1831030213952 2950.59000143212 19 22 13
182.809960808231 -54.4755620949928 2959.51132602724 18 21 12
178.594938421763 -53.6766226480026 2964.99573198285 15 18 9
186.06379597251 -50.7697762340036 2978.40474437019 12 15 6
178.540868031411 -50.5767922995559 2981.59553428863 13 16 7
168.49294714825 -50.8326430898841 2983.10895130595 12 15 6
140.782386917047 -54.2324474814221 2972.86918254284 12 15 6
129.807288947537 -54.6268194485434 2973.90686416482 12 15 6
125.557057241561 -53.8228811035247 2979.42549466024 11 14 5
133.999006635647 -50.7828890156213 2993.26544290747 13 14 8
158.611389547538 -44.9225689919787 3017.55437247999 12 15 8
174.013160384388 -40.714476113826 3035.64642058856 11 14 5
146.075720271463 -44.0847646744897 3025.62758447499 10 13 4
133.398739787733 -44.7756822766463 3025.56493342995 10 13 4
95.8784410293028 -49.7502974022014 3009.71178251482 15 18 11
91.6520557648388 -48.9490245049905 3015.20746493532 5 8 1
84.852040654106 -48.590471324475 3019.07282998205 14 19 13
81.4905206247079 -47.6424975229763 3025.10491542721 4 9 5
174.207498074206 -79.4100904969376 2868.29719838098 13 15 10
170.635247561648 -78.431247749631 2874.53364205238 14 17 10
179.293887224552 -75.1164613175441 2889.53504633505 13 16 9
199.453473797221 -69.6325716237197 2912.63299178034 14 17 8
204.998148513571 -66.959395780741 2925.1531260978 17 20 11
209.773603980651 -64.4477058465363 2937.04406473002 17 20 11
198.967946663617 -64.8831340882479 2937.91955737874 16 19 10
194.731852706699 -64.0787372157313 2943.4240811102 19 22 13
169.839912061053 -67.1322522948681 2934.58526581778 20 23 14
180.475557119103 -63.5497693331816 2950.41738988084 20 23 14
179.561633939759 -62.1299358137782 2958.20030060668 17 20 11
177.835615546704 -60.866184710857 2965.39545563799 13 16 7
166.950103878841 -61.2907647058624 2966.34864147143 13 16 7
166.071641110789 -59.8752410747692 2974.09663864227 13 16 7
163.537477263636 -58.7678769653056 2980.70049866769 14 17 8
128.256139850958 -63.6116599659821 2965.43884558481 14 17 8
107.991101500036 -65.696051014666 2960.36434339738 13 16 7
103.690584226728 -64.8824563783907 2965.93148100889 13 16 7
156.909071698191 -53.7464585474396 3009.21267822428 13 14 8
162.074811228288 -51.2837342454309 3020.72329611151 12 15 8
167.287830372372 -48.8270292588339 3032.18785429532 11 14 5
152.961152362225 -49.8508062736763 3030.97841727943 11 14 5
93.3556920288616 -58.8621897919045 3000.81078373774 11 14 5
60.8784222725545 -63.0238074674083 2988.33180139606 13 16 9
87.4390127459823 -56.7978234052018 3013.46590571041 12 15 8
92.6602358160511 -54.3419462629376 3024.92243962947 16 21 15
66.0617146301123 -57.4354184472447 3016.36694252445 6 11 7
192.121466920605 -83.1526673935223 2882.23588361401 19 21 16
187.779182992903 -82.3321857640877 2887.84347823618 18 21 14
194.84842247922 -79.2932762808123 2901.62946056298 19 22 13
195.443339942643 -77.5277499974263 2910.69713346367 20 23 14
198.522094760194 -75.2917353329724 2921.47950912976 22 25 16
199.178728054648 -73.533946788389 2930.48670309033 20 23 16
208.91120357632 -70.0471780162519 2945.81292505201 19 22 13
184.08694466596 -73.1737963185362 2936.91770542039 20 23 14
169.913796234197 -74.2474870662452 2935.56352633349 21 24 15
168.123920917316 -72.9644669641931 2942.81924428448 20 23 14
175.483423130631 -69.9619433188481 2956.32236924345 17 20 11
163.761240610795 -70.5606609428449 2956.71520974897 11 14 5
173.696734870675 -67.0994121974606 2971.84360295125 13 16 7
183.703081247834 -63.6470790407498 2986.90329451579 13 16 7
170.315171326862 -64.5579126546124 2986.16220108417 14 17 8
173.688694343489 -62.3587043923669 2996.65730754127 14 17 8
116.485081373973 -71.3249966406274 2966.93175822688 13 16 7
126.549061396852 -67.879827629571 2981.93493974484 13 16 7
150.216067009885 -61.9715157428204 3005.73864045625 14 15 9
158.75683858576 -58.8568700622329 3019.46942304771 13 16 9
154.61569119819 -58.0604180910143 3024.88083768517 13 16 7
119.822657984095 -62.7999561458286 3010.53579327487 13 16 7
94.2838279123479 -65.8334397623811 3002.33638810394 13 16 7
82.3401184987862 -66.4028593762906 3002.9448778566 16 19 12
98.6594683868729 -61.9188763161688 3021.50188927229 18 21 14
91.0158150806706 -61.7248697761779 3024.81241012227 15 20 14
74.7490907280257 -63.0545870474391 3022.74086700448 3 8 4
212.466939337741 -86.2906530590353 2897.92141949031 15 17 12
208.173267705185 -85.4733071138776 2903.48120483754 22 25 18
190.848740555021 -87.2355320957666 2899.6901813502 21 24 15
192.250260506833 -85.2885116786874 2909.34663277817 22 25 16
196.139789504461 -82.8633287130887 2920.71318586541 23 26 17
214.022159289847 -77.7159944839038 2941.87111819946 21 24 17
209.806860598925 -76.9079962695985 2947.35479748962 20 23 14
205.596071177301 -76.1005534824279 2952.8337432586 20 23 14
173.29339198041 -80.7234229693939 2938.83265340908 20 23 14
159.914912535906 -81.6624679093942 2938.0863649966 18 21 12
163.933757216472 -79.2532793583292 2949.32653182454 16 19 10
169.660603428447 -76.5316431358853 2961.65860473094 13 16 7
168.765790483172 -75.0861496037308 2969.41874617316 14 17 8
182.104067698342 -70.9494702003275 2986.73627235505 14 17 8
192.176634550404 -67.4566000295259 3001.72421465611 15 18 9
140.16460825241 -75.6615127454165 2975.23294305908 15 18 9
148.551322587121 -72.4836171214298 2989.10735845438 14 17 8
161.219814616824 -68.5264577135546 3005.6996148859 14 17 8
157.901547626873 -67.5667472320218 3011.68701474731 17 18 12
122.380086601444 -72.5726004056765 2996.68776186235 16 19 12
136.847249609427 -68.3146005573584 3014.28360381491 17 20 11
116.490782292558 -70.4830851885731 3009.31198309502 17 20 11
102.040182531787 -71.5491160966075 3008.23218515835 17 20 11
105.51145475949 -69.3345448115567 3018.62795455579 18 21 14
96.1619730461183 -69.4607636829542 3020.84556092939 20 23 16
87.653426736896 -69.4290370590567 3023.62200889985 15 20 14
61.044774940906 -72.6549881596625 3015.09615196634 3 8 4
212.311012202153 -91.7616076267994 2907.38699372712 24 27 20
178.702290911463 -96.8432898222988 2891.91647882411 23 26 19
179.258017875156 -95.0340968812162 2901.01627671544 23 26 19
199.488086686488 -89.3067337962717 2924.00858483693 23 26 19
196.043881572161 -88.3262376582823 2930.1179710066 21 24 17
209.880195563813 -83.9257747876159 2948.31919938556 20 23 14
204.845087378559 -83.2778251213634 2953.22336956839 19 22 13
179.152178501835 -86.6899827592755 2943.81568762377 19 22 13
167.444099017753 -87.3330407498262 2944.20073925112 17 20 11
173.970992112851 -84.4101515535873 2957.12585583379 17 20 11
162.245286979692 -85.0507369334992 2957.52804454045 15 18 9
174.678557629957 -81.006531018563 2974.34135168523 15 18 9
185.521695257681 -77.295206231801 2989.94838979382 16 19 10
157.892884149533 -80.9950597281523 2979.6717900697 16 19 10
146.958510877809 -81.4683209502389 2980.68069126218 16 19 10
139.365299954355 -81.296506604 2983.94440207697 16 19 10
162.137286158192 -75.3575064301027 3007.21508741737 15 18 9
174.889481617095 -71.3539040943806 3023.71769870387 17 18 12
149.579472056598 -74.5455692551599 3015.31411270384 16 19 12
134.372708839704 -75.8123098468174 3013.59795174312 17 20 11
132.74442213127 -74.5266184874501 3020.69281500653 17 20 11
124.30502061187 -74.5142230517417 3023.40345831972 18 21 12
112.429260459716 -75.134579555844 3023.95166405946 20 23 16
84.2346317240295 -78.7608471921592 3014.22605364583 18 21 14
69.6844643423158 -79.8430880646253 3013.24752365429 15 20 14
48.2030718898017 -82.1832783674289 3008.0014389291 4 9 5
204.257610392603 -100.525102999872 2902.50927486094 15 17 12
206.476698809997 -98.3678933746685 2912.74005000325 20 23 16
192.398941885069 -99.5422563302265 2911.30568720628 19 22 15
191.37664689213 -98.0533743514903 2919.18600741291 21 24 17
183.810494283059 -97.8938606863102 2922.4246669568 24 27 20
186.102963942942 -95.7455333775369 2932.58388624304 19 22 15
209.864936938681 -89.3024975012706 2957.63082244314 17 20 11
208.974167281386 -87.8300342166712 2965.382962723 18 21 12
199.82090036501 -88.0087191716072 2967.41347936684 19 22 13
173.215153877297 -91.6415802155194 2957.52796921345 18 21 12
166.480824917608 -91.3168838422421 2961.33344880449 17 20 11
175.586798840441 -87.8732126529632 2975.87125660142 16 19 10
181.415527479635 -85.093495573266 2988.09357442615 14 17 8
166.34686462465 -86.4104637660999 2986.24736354008 15 18 9
134.43528917424 -90.9885980032947 2973.26853719805 16 19 10
147.016639261709 -86.9060534456 2989.92879499602 16 19 10
160.523997515133 -82.6711873624962 3007.06424710106 16 19 10
169.888902926494 -79.2603797346977 3021.3497893222 17 18 12
155.587059597091 -80.4041932541524 3020.13343244416 18 21 14
135.29681780913 -82.6773063127054 3015.11185067293 19 22 13
131.967599762417 -81.7042593468937 3021.10815396904 17 20 11
139.741162832914 -78.6313826881196 3034.18971223123 14 17 8
94.5418659416011 -85.5704124094651 3013.4994000544 5 8 1
84.3103609756479 -85.8804866094686 3015.20313297608 23 26 19
66.3234774124155 -87.6354299536029 3012.06842513346 15 20 14
48.2797008879889 -89.3829339719708 3008.98945115524 2 7 3
211.646600123024 -106.120476017623 2908.75208990315 13 15 10
202.477707688834 -106.311107770809 2910.79988864873 18 21 14
194.923574829383 -106.161040693216 2914.02800860509 17 20 13
196.362647001234 -104.152574860339 2923.63842635981 19 22 15
206.85855885473 -100.294015941485 2939.56850365472 22 25 18
168.906937836108 -106.374994125299 2921.47336346148 24 27 20
192.627478806718 -99.8316756313541 2946.54695838991 18 21 12
218.137086531024 -92.9702386309335 2972.63078444376 18 21 12
200.723255158089 -94.8402634572205 2968.94437413971 18 21 12
187.402943374334 -95.8662492708528 2968.15317420339 17 20 11
179.037191803007 -95.88492926703 2970.79493712266 15 18 9
187.337848160945 -92.5654655215654 2984.73388565454 17 20 11
178.981828143695 -92.5851200129524 2987.36646686872 15 18 9
156.366721509451 -95.4300526947569 2980.48695915311 15 18 9
142.069399418579 -96.6039500858215 2979.27055900146 16 19 10
158.910932844086 -89.9951735524317 3006.9143696478 16 19 10
153.895428823998 -89.3477788158352 3011.79915462318 18 19 13
143.795238580039 -89.6907564301928 3013.377353195 18 21 14
130.274615289372 -90.6900450593113 3012.78111971398 16 19 10
122.676310729149 -90.5324782079094 3016.05199435888 15 18 9
93.7326167237615 -94.4811627502836 3005.70096059147 13 16 7
103.1710360646 -91.0332584815636 3019.90801952658 14 17 10
59.5259614839847 -97.7501674232723 3000.47533090082 11 14 7
74.9921416661525 -93.1589344985242 3018.44712948777 11 16 10
69.0236080909363 -92.6625924318396 3022.88336525869 17 22 18
183.001631566317 -117.548773559804 2897.7926537244 12 15 8
181.117008625852 -116.198142442124 2905.13246458765 15 18 11
202.167033820748 -110.047204603397 2928.66484905317 18 21 14
206.112630085038 -107.508677168257 2939.9586364107 12 14 9
215.85863898191 -103.778553088157 2955.23578956449 19 22 15
211.661659630027 -102.96033514629 2960.69942916691 19 22 13
200.859455405054 -103.506617832708 2961.58787708269 18 21 12
190.859144505765 -103.879199331918 2963.07126943002 16 19 10
187.477594511181 -102.888645859658 2969.11695166996 16 19 10
193.25746060347 -100.03179989686 2981.37639111085 15 18 9
184.076281447237 -100.232602767767 2983.4378940398 17 20 11
164.009506037787 -102.631244846586 2978.21295998564 16 19 10
150.576823033611 -103.668848601758 2977.53506345904 16 19 10
142.145067803722 -103.688981871007 2980.24258378011 17 20 11
148.008817683351 -100.842430690536 2992.42024694447 16 19 10
157.298386237161 -97.3293971751494 3006.7654908373 15 18 9
142.131657336715 -98.6971122669915 3005.02449919556 17 18 12
136.242274168477 -98.2135936126323 3009.38403273703 16 19 12
132.049106523843 -97.3945129519299 3014.84409759033 13 16 7
109.128974344082 -100.255761318956 3008.26955835968 11 14 5
92.1022426403209 -101.937445222541 3005.58782497335 10 13 4
58.7716115311556 -106.780631311609 2992.64006926622 18 21 14
63.0321249521799 -104.280993366539 3003.62688708142 1 4 0
45.85713054662 -105.943396712499 3001.08953109171 2 7 1
50.1563319923939 -103.448634303379 3012.0389895705 20 25 21
176.560547036895 -126.120233914249 2894.11931590817 18 20 15
164.045634740734 -127.024291207248 2893.92756855229 11 13 8
145.767152237573 -129.14335654738 2889.71933052191 7 9 4
188.95874538397 -118.20734152901 2928.81683269602 9 11 6
203.59760134961 -113.380710501952 2947.57504688137 17 20 13
212.56030127262 -109.780267926377 2962.23195713567 17 20 11
198.455444269323 -111.038132832389 2960.83718451093 17 20 11
185.965039370676 -111.944588492837 2960.6211175827 17 20 11
188.382639174022 -109.737779332137 2970.64743719454 17 20 11
199.156410542006 -105.810860220767 2986.29183011944 17 20 11
217.510423912334 -100.343622956616 3006.93413187261 17 20 11
173.27997163371 -107.787248002045 2985.35632164177 16 19 10
143.949682362333 -112.116636102607 2974.02820334834 17 20 11
130.464071292753 -113.173808561926 2973.40575741903 17 20 11
169.12770582083 -103.611104019745 3007.28352321726 16 19 10
148.93696076395 -106.041530395496 3002.18605271882 14 17 8
117.684955844974 -110.682132811363 2989.97840517609 14 15 9
123.605141539946 -107.807152801983 3002.09582497305 12 15 8
132.124815401483 -104.428114282941 3015.80848076066 9 12 3
130.490419974492 -103.096600639104 3022.90263755828 9 12 3
75.9656819307999 -112.289016024639 2996.21832185531 9 12 3
75.0994771362747 -110.7766465146 3003.94017074061 9 12 5
55.3949797497677 -112.989391061911 2999.74492299796 10 13 6
32.1889541777072 -115.869586454872 2993.45708049431 15 20 14
8.90277781871207 -118.739307308134 2987.24761861652 20 25 21
174.193372491074 -133.847066747526 2893.36124979058 23 25 20
164.122351161708 -134.242842599501 2894.91828675547 12 14 9
167.942480595037 -131.628113998417 2906.32540203184 5 7 2
154.578130214511 -132.728701424575 2905.58895915887 13 15 10
216.007674973391 -117.770874667715 2957.15585364053 11 14 7
206.040945934638 -118.179547602546 2958.61123300234 12 15 6
200.182988864231 -117.705576299171 2962.9413089004 15 18 9
201.775137804518 -115.650261648437 2972.39245708437 18 21 12
198.418885992807 -114.651310039696 2978.41177661383 17 20 11
190.078886528924 -114.704372038582 2981.03304895472 15 18 9
203.40731678502 -110.207771678161 2998.30749499426 16 19 10
201.775631231953 -108.866058979258 3005.39745343112 16 19 10
187.593077510118 -110.14243401606 3004.08257058571 16 19 10
149.855336970304 -116.289783299873 2987.20176285258 17 20 11
165.836241006456 -111.287504245949 3006.01858992285 14 17 8
113.580455780509 -120.364028258606 2979.89819831371 13 16 7
110.151578638868 -119.354979276132 2985.98780563997 12 13 7
89.7815424648787 -121.810050225673 2981.07235417047 10 13 6
88.8492403340164 -118.578496722741 2997.10753779281 10 13 4
79.4567172520755 -118.777185661215 2999.37893376793 11 14 5
83.7293941589667 -116.218947656005 3010.34501199857 11 14 7
73.4735890915017 -116.588642304649 3012.08168715653 13 16 9
55.4635859025656 -118.5003127038 3008.99343947629 3 8 2
38.2573005101023 -120.23316220257 3006.49722996776 26 31 27
184.044452287666 -138.887759101436 2901.32791939399 17 19 14
214.669104575513 -128.577957967149 2940.24393636729 11 13 8
185.829012673185 -133.127266438907 2928.46188681677 15 17 12
219.371733151922 -124.049576544686 2960.41125864759 9 12 5
178.091992985716 -131.271788882683 2940.12135092126 11 14 5
201.910538540243 -124.3616558695 2965.04341082334 14 17 8
208.475161183517 -121.214622544412 2977.89759516057 17 20 11
194.343751856222 -122.527298113202 2976.5372903781 16 19 10
205.962087569543 -118.320871452337 2992.7186166471 13 16 7
213.489285749065 -115.012445732154 3006.01034268156 15 18 9
215.224218611694 -112.953091664677 3015.31910729587 15 18 9
222.855712716756 -109.657961525168 3028.50923101551 16 19 10
170.925081604329 -118.927247397475 3002.09444668365 15 18 9
163.386924856168 -118.808324962841 3005.31130528995 13 16 7
165.117559716668 -116.748016282118 3014.62419679249 11 14 5
103.464717100117 -127.899670100111 2982.55490934434 11 12 6
100.029025341677 -126.883806175435 2988.65027644035 11 14 7
132.277236066963 -118.493526890867 3017.73598662746 12 15 6
86.3729175096069 -126.25795915441 2996.45051836271 12 15 6
94.8934949312687 -122.791745938081 3010.14939251957 12 15 6
100.056067098873 -120.032996870349 3021.61940331349 13 16 9
88.1227868920629 -120.772428026134 3022.24232649932 7 10 3
74.4413886406714 -121.856604576665 3021.8182913287 10 15 9
47.8072038697257 -125.547370711555 3013.38682631783 37 42 38
127.105407746358 -158.853705343984 2861.62944355021 18 20 17
145.498256685931 -152.876817127378 2883.57510198054 16 18 13
212.289339494162 -136.157994532456 2939.47633857132 15 18 11
228.562377053417 -130.771051270383 2959.36312885036 11 14 7
165.177150356552 -143.03287131779 2923.51023137431 11 14 7
169.926438014591 -140.189531051714 2935.37779941153 13 16 9
212.725989666939 -129.011822966068 2973.41197313715 12 15 8
206.894392180081 -128.545715306674 2977.71703582224 13 16 9
212.679914581404 -125.547747641613 2989.95000073868 14 17 10
213.524883002067 -123.639699467473 2998.74796682719 14 17 10
213.564079001383 -121.915404136629 3006.95632611388 15 18 11
224.492925643036 -117.853449653227 3022.42643098859 15 18 11
212.038987359144 -118.835514014888 3022.18566494785 14 17 10
186.95522542765 -122.506503220466 3013.62825559215 13 16 9
164.304585373684 -125.627500542093 3006.82483532081 12 15 8
154.226969335682 -126.052209541425 3008.39269723541 12 15 8
133.981029950221 -128.619515800752 3003.37060415018 13 14 8
157.73319906699 -121.89310549054 3026.96848381173 14 17 10
106.872643608121 -130.874443282855 3002.28269641422 13 16 7
95.815629483591 -131.460264999051 3003.43001817838 13 16 7
94.9712411773227 -129.909030259016 3011.12412086232 13 16 7
91.5816234217135 -128.893002396504 3017.17404940447 13 16 9
81.3435803331202 -129.296410835945 3018.8980695384 17 20 13
87.4051001484442 -126.332942186205 3030.86206388215 14 19 13
135.329193837248 -164.35577181751 2868.44641211715 13 15 12
152.107773515326 -158.673235777017 2889.20441243308 13 15 10
167.355410142366 -153.374174989074 2908.7055206696 16 19 12
147.427795915618 -156.032458767565 2903.38043459167 18 21 14
145.520611132545 -154.622402782123 2910.73386672865 21 24 17
188.017995560245 -141.503539748956 2957.283326712 12 15 8
216.906471571296 -133.314307291561 2985.48361413246 11 14 7
208.605148325051 -133.403541042578 2988.07216442865 10 13 6
209.440352227657 -131.474890636286 2996.87678182703 8 11 4
193.626235880121 -133.20993622743 2994.41569961805 9 12 5
196.986053450522 -130.735001523676 3004.88366353822 12 15 8
146.7703241701 -139.945494234051 2979.59142321005 13 16 9
163.5201884123 -134.548474906108 2999.003228306 13 16 9
148.390338915928 -136.080720167916 2997.2495945161 12 15 8
132.371384734708 -137.788689607822 2994.98791746071 12 15 8
140.821948988053 -134.226567904658 3008.74214049623 14 15 9
165.436186737899 -127.22872243249 3032.86110242273 13 16 9
108.649040583388 -137.624603351689 3004.35019730349 12 15 6
111.216753932982 -135.33735591608 3014.21556320292 13 16 7
109.553843381793 -133.957210046528 3021.33084811867 15 18 9
95.9352616855624 -135.10256921447 3020.85347794431 17 20 13
88.2784004833925 -134.983026364314 3024.18812013107 24 27 20
50.5453238799425 -141.153165819215 3008.72329657724 16 21 15
-38.9907498334816 -158.074184271231 2961.26761210228 18 23 19
168.800620893278 -163.968401927284 2893.24887328169 16 18 13
178.310716806656 -159.914503956073 2908.71243787582 12 14 9
156.794805251844 -163.002723685682 2902.19428023438 13 16 9
158.16963118843 -160.831927332656 2911.84416522848 14 17 10
147.243415915862 -161.473246201167 2912.86980425395 16 19 12
124.752874009705 -164.728472148593 2905.92724308742 13 16 9
151.746934110401 -156.770498909307 2933.20907488749 11 14 7
172.268740579427 -150.323743691766 2955.80501951719 11 14 7
192.91159607902 -143.89254347205 2978.283059692 11 14 7
181.231419062762 -144.729188577678 2978.66935368938 10 13 6
168.687251051215 -145.747570791189 2978.52321702269 9 12 5
160.287992282703 -145.834070132209 2981.20861459564 12 15 8
171.979031052406 -141.473715814967 2997.29499521451 14 17 10
149.32308260742 -144.706467997244 2990.51336357352 14 17 10
130.794487348748 -147.005228986869 2986.58005014524 12 15 8
125.701019093938 -146.344688623195 2991.54031184028 11 14 7
172.180849982335 -134.447926804624 3030.06436600543 13 14 8
137.548781187043 -140.241021797549 3015.71553464511 12 15 8
134.206767409061 -139.219733831252 3021.71707645073 12 15 6
112.145835430105 -142.235353133833 3015.72940183594 13 16 7
116.457292959462 -139.561779642999 3026.64026164277 16 19 10
113.115787771807 -138.540378886114 3032.64128174027 17 20 13
86.6426683433308 -142.452784182456 3024.08263463461 25 28 21
55.7786674338292 -147.264913750235 3012.93195433058 14 19 13
180.280736548632 -168.513469099982 2902.35912732986 21 23 18
161.244589887954 -171.087462900422 2897.55325207628 15 17 12
156.873130079779 -170.225340301324 2903.18400210392 15 18 11
173.012322636754 -164.609575045426 2923.16988265807 11 14 7
174.453912766348 -162.425258976317 2932.75147161342 11 14 7
152.852088318589 -165.555425120371 2926.32482640644 10 13 6
131.173622661562 -168.675487156019 2919.97279367042 9 12 5
163.23829495173 -159.490155403491 2950.54016114697 13 16 9
168.090170862989 -156.56135852981 2962.29322708292 15 18 11
162.17531890204 -156.091094469945 2966.68034837733 16 19 12
162.094137132476 -154.301455879481 2974.99858686279 14 17 10
167.051307045385 -151.385962472175 2986.64906054509 14 17 10
176.244483678999 -147.536874497695 3001.04069217931 14 17 10
162.834520764488 -148.762991089143 3000.36809638268 14 17 10
151.911271588556 -149.421919225101 3001.39305483039 14 17 10
142.648943248145 -149.702992654079 3003.54734189426 14 17 10
162.957729263419 -143.440120518293 3024.96508750502 15 16 10
148.64199873412 -144.844931979836 3023.80143404562 14 17 10
132.585832993411 -146.617056416318 3021.58619069936 19 22 13
117.331345065628 -148.196508761277 3019.96330190063 21 24 15
115.681878157263 -146.795679006864 3027.06218001117 22 25 16
120.034516350054 -144.097340829138 3037.92848660054 21 24 17
103.004557460269 -146.039512429499 3035.28811998347 22 25 18
158.36984145071 -180.92052777102 2887.69113576147 22 24 19
149.078227212784 -181.212798875969 2889.87615916611 18 20 15
156.133341293041 -177.640283556995 2903.59730152047 18 21 14
190.314697648274 -167.710718707248 2936.20383889847 13 16 9
200.840629474532 -163.390958639656 2952.03627843028 11 14 7
166.940122655522 -169.468179651604 2937.00265107257 10 13 6
168.424173550256 -167.267027711355 2946.53992536805 9 12 5
160.004278497673 -167.372229713734 2949.24824147933 11 14 7
177.29701395923 -161.535513995709 2969.47322765463 13 16 9
156.430381258146 -164.514690956852 2963.71111935749 14 17 10
166.340715406567 -160.413524991304 2978.76991743671 14 17 10
175.486105471093 -156.512151716119 2993.20127409584 13 16 9
193.074471349647 -150.713370013126 3013.1379636857 13 16 9
171.307813554609 -153.874589893137 3006.87959015787 15 18 11
170.502506829719 -152.273323061135 3014.52748953243 15 18 11
182.369215405739 -147.826818464426 3030.42669446307 17 18 12
159.653276124344 -151.163842227978 3023.72004590364 17 18 12
157.192658374624 -149.94608728156 3030.23455784961 16 19 12
146.251925835089 -150.620750922896 3031.27954107865 20 23 14
132.731269377598 -151.858505305096 3030.71858566693 21 24 15
125.144646908209 -151.771139334128 3033.98823548242 20 23 14
108.996614696129 -153.565707555074 3031.86753408181 18 21 14
95.3701276567385 -154.789530622583 3031.40961096016 17 20 13
-10.1992687396542 -176.107091390923 2973.60175587113 14 19 13
155.191380071376 -188.957247176169 2886.36724340286 21 23 18
151.606401092901 -187.889214649659 2892.60348226066 15 17 12
179.123196493835 -179.381198515023 2920.70184339814 19 22 15
203.515280769254 -171.675512358171 2946.35369778243 21 24 17
176.254222144981 -176.292401621446 2935.8474518913 13 16 9
162.898263303899 -177.579666058042 2935.13026687624 12 15 8
162.720437175595 -175.744939305368 2943.53781062791 11 14 7
170.018015334771 -172.162184008213 2957.01666910331 11 14 7
163.266693425371 -171.890129147715 2960.84646549522 11 14 7
159.835917703115 -170.840828765923 2966.93234684286 9 12 5
151.411242185465 -170.955318431067 2969.64712058112 10 13 6
143.731709536789 -169.051920988044 2981.24275450993 11 14 7
167.187364780597 -161.827289013789 3005.06143988624 14 17 10
147.859627306721 -164.45237026399 3000.55300716543 15 18 11
138.587846603527 -164.758421193495 3002.72003438695 18 21 14
146.204960522705 -161.216020462839 3015.88789135836 17 18 12
157.270137410526 -156.91302637771 3031.18733057742 16 19 12
148.877322307115 -157.030854412806 3033.87095986297 19 22 13
133.660408315108 -158.678995241713 3032.2209117185 20 23 14
104.748312101048 -163.381792591501 3021.94962057881 16 19 10
86.8444394191639 -165.587032806433 3018.79937322673 13 16 9
98.0199496684224 -161.298095416705 3033.99132736029 18 21 14
-19.7211426428234 -183.765202353528 2977.10409844137 11 16 12
177.257769629015 -190.845216888695 2902.9932877843 26 28 23
174.541458473117 -189.579453564543 2909.75461144519 20 22 17
195.565836201167 -182.55824905715 2933.18383919086 20 23 16
204.412787669704 -178.527012572421 2947.89201821989 20 23 16
180.442909424542 -182.424681611111 2939.67925623749 17 20 13
154.736714806525 -186.706176459672 2930.41359273245 15 18 11
164.450915183005 -182.482278526123 2945.64901481532 12 15 8
158.505685560569 -182.015261138524 2950.06678143339 11 14 7
158.366291082772 -180.168661643743 2958.43440720189 11 14 7
129.970301065485 -185.014626590897 2947.67177508772 11 14 7
140.651665634627 -180.610941515384 2963.33746352861 10 13 6
133.022927588053 -180.534305727525 2966.6505206512 10 13 6
92.7174601704239 -188.1000340527 2948.27807367346 11 14 7
100.942732389838 -184.291385019765 2962.21957839742 12 15 8
142.889287768165 -172.670976539156 2998.20120263028 14 17 10
120.111915298164 -176.112443865531 2991.57099484825 14 17 10
132.75789290744 -171.353801855783 3008.06714965355 14 15 9
137.013366839962 -168.553097174401 3019.01447422319 14 17 10
158.29632246455 -161.868133600326 3040.8197172405 13 16 7
132.036331965776 -166.076115089097 3032.09277814719 12 15 6
96.296849537437 -172.405385304333 3017.50562419905 12 15 6
98.8940492184307 -169.998551273146 3027.32403488891 13 16 9
85.2450017306401 -171.272513728256 3026.89592520562 10 13 6
-40.4766767447673 -193.951802700977 2973.71383093954 35 40 36
170.007968858751 -199.8483160264 2898.77024169819 13 15 10
181.966535807458 -194.945549858976 2915.92770396366 23 25 20
185.82558663254 -192.065355848344 2927.25693405105 22 25 18
184.8075092885 -190.396354571344 2935.10644451636 16 19 12
187.097942461286 -187.926994857166 2945.22023761507 21 24 17
178.711882083507 -188.068069548908 2947.90025736192 19 22 15
169.485459766809 -188.407242681556 2950.02747632428 16 19 12
171.830716386661 -185.944528974271 2960.08781120653 14 17 10
152.636558348016 -188.678529857323 2955.46283040604 12 15 8
140.862938370599 -189.60893615444 2955.95543466636 12 15 8
150.73534209565 -185.356051178657 2971.02981205523 10 13 6
134.773839124155 -187.279600120367 2968.74294765551 10 13 6
115.412411089417 -189.9914100014 2964.28045077144 10 13 6
95.9862226698061 -192.694597094218 2959.88132530455 10 13 6
121.932477794259 -184.686877057063 2985.36247174499 11 14 7
136.215491164213 -179.468986638831 3002.99930560331 12 15 8
106.632656575165 -184.542449208152 2992.03194242517 13 14 8
160.814735178998 -170.055152112314 3035.27786815156 12 15 8
177.90500887314 -164.279242788858 3054.29564185369 10 13 4
121.050648632624 -175.649631157544 3025.99551309091 10 13 4
118.555568707388 -174.401703360322 3032.53978695244 13 16 7
78.4697782275878 -179.953811517368 3023.57096409656 15 18 11
36.4262140320366 -187.712895176561 3005.53614142929 14 19 13
-25.5805214191613 -199.95093164033 2975.39541315376 6 11 7
172.250719035866 -204.549585679801 2909.99086276346 19 21 16
171.177519203546 -202.85977766307 2917.89203544745 19 22 15
175.044947092068 -199.950506644059 2929.20864941787 15 18 11
174.02389293386 -198.267095511632 2937.05898613331 18 21 14
183.734417475727 -193.945170257311 2952.28356997909 17 20 13
186.908430828031 -191.255458137629 2962.90429622624 17 20 13
169.426007406004 -193.636985122423 2959.36159863656 18 21 14
162.673249412112 -193.379756786995 2963.19501243553 18 21 14
155.081900712692 -193.323638165934 2966.47397381197 15 18 11
157.483818573126 -190.843241632386 2976.47542973072 13 16 9
157.414592560078 -188.972229569382 2984.76976900952 12 15 8
126.38066628744 -194.555802256947 2972.48459889953 11 14 7
109.498677488723 -196.704279682206 2969.72812554744 10 13 6
115.281073895454 -193.421806129874 2981.92214477684 10 13 6
121.957928009834 -189.945206817656 2994.6161718952 10 13 6
115.165615841422 -189.68182571142 2998.48829203935 13 14 8
180.378621670284 -172.406185332587 3048.78940054303 16 19 12
164.39623273159 -174.360919888254 3046.52788543761 16 19 10
133.045128179164 -179.902426858466 3034.55179859555 16 19 10
113.516796600119 -182.637157155893 3030.2584270258 17 20 11
115.297237333734 -180.385211468687 3039.4938745362 16 19 12
92.2599508567994 -183.904642922845 3033.13295042734 18 21 14
49.3899053524252 -191.981882809345 3014.5489499511 15 20 14
-52.1795743305913 -213.526211416305 2959.88785689614 17 22 18
160.087522338832 -214.838104222697 2902.33474430239 16 18 13
164.712029153072 -211.684438129386 2914.28069338235 16 19 12
166.923570434849 -209.155821861959 2924.46373136039 15 18 11
173.281133944036 -205.601125946946 2937.4636139679 16 19 12
157.447254393585 -207.611496956095 2935.06284988812 16 19 12
163.862494065645 -204.0639705467 2948.0061810211 17 20 13
157.087822273268 -203.809050947855 2951.86169677617 20 23 16
127.902860830724 -209.090708204205 2940.53001076572 19 22 15
126.883990576761 -207.392977603054 2948.37606242074 16 19 12
163.398494839434 -196.491044446357 2981.35585246071 15 18 11
168.356101221299 -193.379252908626 2992.97721778693 14 17 10
147.398455988105 -196.600197919287 2987.34121949173 13 16 9
112.097696722026 -203.276848757708 2972.36974966235 12 15 8
116.202855077283 -200.366824682815 2983.45018246367 12 15 8
136.374361593067 -193.598987127752 3004.92995282034 12 15 8
124.543401534213 -194.563442975044 3005.48452913781 12 13 7
133.014597659896 -190.655947202154 3019.16721828243 13 16 9
173.814512041287 -179.058646926836 3053.45673288093 14 17 8
135.677418303847 -186.304730985337 3037.13521913843 15 18 9
88.0072682833686 -195.754043656064 3015.01811573127 16 19 10
106.827677959631 -189.436154626316 3035.07189094058 19 22 15
92.340072259427 -190.993656273576 3034.10114176744 20 23 16
70.0819514852249 -194.357512560456 3028.36074781551 17 22 16
150.373709713011 -224.578050483259 2896.41600045946 19 21 16
149.24810814616 -222.85377362475 2904.36411436071 14 16 11
160.443147000676 -217.996142963856 2920.86953300116 16 19 12
161.030976156756 -215.862953432495 2929.88956638636 18 21 14
155.879368642882 -215.193078751322 2934.90618161705 16 19 12
153.20617346374 -213.898224633221 2941.62039086901 15 18 11
140.611965131123 -215.101445920189 2941.5512641152 16 19 12
131.302774500501 -215.468809373077 2943.76483975385 18 21 14
124.469810368391 -215.211052213808 2947.6778212738 18 21 14
154.308397002113 -205.831442097131 2976.17594466227 18 21 14
167.599527698775 -200.613876388029 2993.38053351005 17 20 13
145.803189536184 -204.092233455402 2987.19850576374 16 19 12
149.937227154625 -199.260658346458 3006.46872605845 16 19 12
141.513640703897 -199.4267520534 3009.18970755 16 19 12
117.016554006022 -203.500526357356 3001.52649963601 15 16 10
116.151423822032 -201.807995132086 3009.22065359434 11 14 7
135.684253304233 -195.191477685456 3029.93975757297 7 10 1
126.395506721107 -195.560402927414 3032.13292495998 9 12 3
63.3527146012365 -208.827150816583 3000.33924073616 14 17 8
85.5661573196134 -199.715984424628 3030.78094550532 21 24 17
23.7909429759755 -212.515915734645 3000.49369900235 20 25 19
-11.55764239688 -218.966069781306 2986.95315439481 21 26 22
162.696440293449 -228.650845874812 2906.0366331856 7 9 6
147.692658035241 -230.520658863567 2904.20770512721 19 21 16
151.5032461948 -227.514058957886 2915.5663766218 12 13 7
165.220730830189 -221.974905801329 2933.71730638117 16 19 10
162.550606529379 -220.672183180529 2940.42730324429 16 19 10
153.286480926036 -221.058849595076 2942.59898161396 16 19 10
149.797909973739 -219.967812373635 2948.73574795074 16 19 10
169.549579169107 -212.983910394935 2970.60048874546 16 19 10
165.300809500413 -212.112121079395 2976.10763907244 15 18 9
143.551945258525 -215.650389980619 2969.88732396396 16 19 10
159.323911675112 -209.740631034479 2988.77716620538 17 20 13
162.631996512911 -206.985647696151 2999.25511042788 18 21 14
141.637964912946 -210.303297624515 2993.66987511937 18 21 14
149.175465793914 -206.506185706416 3006.87880497036 18 21 14
130.631330689404 -209.187110587249 3003.01740649494 18 21 14
125.548969080026 -208.524373294295 3007.96631442169 17 18 12
123.008810295744 -207.237002937456 3014.54952266356 13 16 9
118.783072511285 -206.367039271505 3020.03440966122 12 15 6
128.177452632795 -202.174246755228 3034.17510603446 11 14 5
48.0036449291128 -217.850976447651 2999.91088597031 15 18 9
44.5215220445472 -216.759159949288 3006.04113410371 14 17 8
42.7657030764608 -215.25491995217 3013.23067523501 26 31 24
-19.2191696761315 -228.20464882634 2983.17376264603 14 19 13
179.098862246935 -231.567137498413 2918.52002574814 9 11 8
155.953995359872 -235.621016630254 2910.92801239251 12 14 9
165.523784891496 -231.085733447765 2926.26115181729 24 25 19
177.62977424209 -225.916909691123 2943.23289826289 16 19 8
184.0510316341 -222.256243622598 2956.15353171879 16 19 8
161.624933944337 -226.081655157076 2949.23124967348 16 19 10
158.155972758914 -224.98741260449 2955.34840731731 16 19 10
165.480982640949 -221.122676907295 2968.75834910642 16 19 10
182.844211132514 -214.710217972154 2988.8279022228 15 18 9
161.136717984179 -218.307452442416 2982.5752200922 14 17 8
158.568425987339 -217.008663108782 2989.18467731024 15 18 11
156.849870320881 -215.499200942165 2996.33610575581 15 18 11
148.432977714033 -215.687085485798 2999.05399867957 15 18 11
130.747492404224 -218.201315107804 2995.73255793809 15 18 11
132.398393423387 -215.84539816723 3005.08093555205 15 18 11
122.249031909987 -216.449865949584 3006.74661005394 16 17 11
124.783616756213 -213.887568835298 3016.60422082455 14 17 10
123.108658123333 -212.38313101688 3023.71309936776 16 19 10
107.834641560027 -214.247329136407 3022.15168809391 14 17 8
100.191219969666 -214.214025413536 3025.48606849482 12 15 6
57.489272633878 -222.78546214886 3006.80784828867 12 15 6
31.7530967222615 -227.141652293747 2998.99990590127 11 14 5
22.2397469471938 -227.50717706375 3001.41560498986 22 27 20
2.38065517711261 -230.379959804556 2997.47142511217 13 18 12
-20.1310725728621 -233.871001765162 2992.00166462322 7 12 6
178.363024097182 -238.945235080984 2918.92429419135 0 2 0
179.757121392633 -236.535980532779 2928.51979842411 13 15 10
173.803777543179 -236.084952724374 2932.94798584238 24 25 19
183.46298607007 -231.512368360532 2948.1864799427 16 19 10
180.011811826636 -230.415001971397 2954.28551318852 16 19 8
158.402457711827 -234.079184075108 2947.94527237785 16 19 10
149.131791632258 -234.491136110925 2950.1268448989 16 19 10
158.094497549787 -230.151077784922 2964.67443431564 16 19 10
160.471397980974 -227.544577403694 2974.68209481784 15 18 9
154.548933150913 -227.096380947455 2979.080037386 14 17 8
159.484005039225 -223.851060621364 2990.70370645884 14 17 10
163.629162217935 -220.826562260355 3001.72783842968 15 18 11
143.477461719361 -224.031630915123 2996.70608789819 15 18 11
123.257089526982 -227.227613183449 2991.75152425186 14 17 10
128.263099671566 -223.991058845244 3003.30604619674 14 17 10
121.484920016866 -223.754580086998 3007.16810870114 13 14 8
118.087860445266 -222.662695875589 3013.21387769934 13 16 9
118.944478671831 -220.504995892726 3021.96371477207 14 17 8
118.126806051131 -218.777185715346 3029.60519061279 14 17 8
79.8039014299974 -226.417390581942 3013.52610286591 13 16 7
55.8624670327941 -230.423728313042 3006.718404067 14 17 8
7.8483082023908 -240.364815307514 2985.01559052376 13 16 7
-11.163869315312 -243.069334884672 2981.62279021138 20 25 18
6.76777412434992 -236.656709654827 3001.1278743033 13 18 12
-32.1214845699456 -244.222715572248 2985.60021795104 7 12 6
192.107170664474 -240.374929321702 2938.0787408601 14 16 11
173.884282964195 -243.227705603235 2933.92373852534 13 14 8
169.571595704839 -242.339307979943 2939.49190526409 16 19 10
165.263626234077 -241.451328202387 2945.05544892644 16 19 8
145.271689831131 -244.726349871828 2939.88572715326 16 19 10
146.729888343121 -242.302620724365 2949.41543859095 16 19 10
152.368022371657 -238.789938191416 2961.71868770769 16 19 10
154.731178059342 -236.157144550646 2971.73611081109 15 18 9
146.294920885828 -236.363757691668 2974.47600111433 15 18 9
157.893703630315 -231.340639254561 2990.55603708256 15 18 11
157.847934984415 -229.373487252508 2998.81287340802 15 18 11
153.629690697754 -228.496022680924 3004.28887277902 15 18 11
130.90952854393 -232.394369063015 2997.66938083222 14 17 10
130.030590513928 -230.645066186342 3005.36851751847 14 17 10
128.326815895873 -229.114882345195 3012.50220551002 13 14 8
130.027526842718 -226.721414452874 3021.7959089572 13 16 9
155.530582371024 -218.282602976946 3046.23619686221 13 16 7
96.0847172481976 -231.441969791878 3016.52281519496 12 15 6
85.0030625867704 -232.282880183622 3017.73230737136 11 14 5
-22.0511648599997 -255.243298153185 2967.31003799692 12 15 6
-35.1203033072132 -256.47828450923 2967.717218731 17 22 15
169.284727495022 -253.71207204176 2923.03648670044 14 16 11
156.747315997914 -255.042838331569 2922.92981094508 14 15 9
148.285078482282 -255.257557221167 2925.6966981382 18 19 11
145.574402860841 -253.915903840081 2932.44120911279 16 19 8
145.353229877168 -251.910363938083 2940.86655082376 16 19 10
150.12184514186 -248.57866268113 2952.64274672068 16 19 10
156.597114823398 -244.810389750045 2965.49417876933 16 19 10
155.643671060113 -243.038337802646 2973.26393844741 15 18 9
150.543254456681 -242.372616764891 2978.23033425398 15 18 9
137.089837488954 -243.912011274015 2977.64719131398 15 18 11
162.114991333038 -235.314209397304 3002.53854394431 15 18 11
152.871149379298 -235.754971642522 3004.69807569023 14 17 10
151.179265782565 -234.215466073894 3011.81857797458 13 16 9
119.99437012584 -240.360643221731 2999.76632758869 13 16 9
136.0135704343 -234.211928879849 3018.37568325954 15 16 10
133.496489673942 -232.893914612353 3024.93144552589 15 18 11
99.5700939850055 -237.691282172526 3019.65340532551 11 14 5
64.6184103550063 -244.66243956098 3005.7960733284 12 15 6
45.7718204225119 -247.474180892803 3002.2543515826 11 14 5
-5.68875871531915 -258.551771756711 2978.47422185679 20 23 14
-29.8826135744594 -262.642826725417 2971.92936363677 14 19 12
-57.6026784347219 -267.591651793508 2963.34488700805 13 18 12
-59.5489604743418 -266.018070318829 2970.71297430285 16 21 15
155.46139832388 -264.71889629706 2914.30091312059 19 21 16
152.729730487011 -263.366517784438 2921.06468450566 13 14 8
138.505357138121 -265.165334525234 2919.86820798182 14 15 7
154.717166514075 -258.643586555051 2939.64807511173 16 19 8
161.948337981643 -254.604014751786 2953.12569697547 16 19 10
155.996795494345 -254.159582666963 2957.55307045955 16 19 10
158.337312447831 -251.474948405731 2967.58497429762 16 19 10
161.545172590054 -248.571023709611 2978.14042965679 15 18 9
154.791692796753 -248.353668797749 2981.98079132983 14 17 8
141.348340697133 -249.920986052992 2981.39178079669 15 18 11
139.589050128824 -248.361778687513 2988.5763072833 14 17 10
136.167726597376 -247.24995408755 2994.64356141359 13 16 9
117.614020088269 -250.143286914676 2990.82306128613 13 16 9
122.605530820702 -246.807016443225 3002.37724336067 12 15 8
109.053941073401 -248.359568215449 3001.89353207979 14 15 9
136.118521706067 -239.265735974554 3027.52054716701 13 16 9
115.792659331792 -242.591907130613 3022.68964084949 11 14 5
77.492959271571 -248.554140386969 3014.84163874971 15 18 9
13.1314342102757 -259.086462267422 2999.54068272414 20 25 18
-43.7477743058383 -271.595060197309 2972.85070270213 9 14 8
-72.3982457180221 -276.824202641802 2963.81465500149 13 18 12
177.626044008306 -265.776440803121 2930.70665123278 19 21 18
179.865742405075 -263.054962064339 2940.83356163234 17 18 13
169.81472054428 -263.75302719652 2942.4154170529 15 18 9
171.272855738927 -261.264158998053 2951.93556384235 15 18 7
174.41416374263 -258.324836624874 2962.55187469768 15 18 9
170.147029766876 -257.432730258052 2968.07459604373 16 19 10
165.884319756858 -256.541139080082 2973.5926626291 16 19 10
169.10938520808 -253.612228241948 2984.12733992122 15 18 9
159.039837971997 -254.306955486167 2985.7270979749 15 18 9
155.630497521734 -253.191245896367 2991.78187852864 15 18 11
141.345361896466 -255.010042519868 2990.6490307034 14 17 10
123.661496839559 -257.724898403795 2987.35529565873 13 16 9
114.331668414417 -258.180635996112 2989.60208874964 13 16 9
112.571037119424 -256.609744243064 2996.78655749228 13 16 9
132.796234513301 -249.200329475649 3018.11784933952 15 16 10
112.485735890209 -252.576644492312 3013.27909783065 14 17 10
109.083744714785 -251.461183253876 3019.32661715205 13 16 7
115.048997088688 -247.88403756459 3031.29550528979 13 16 7
60.5213709762045 -260.191161348617 3005.07441002286 13 16 7
90.3820157548121 -250.354771055695 3032.06620811909 15 18 9
50.1608887921288 -258.835258774065 3015.16212017935 19 22 13
-0.520158045223429 -269.969448001521 2992.03317788669 18 23 16
-29.8936636680707 -275.511478003128 2982.34444917223 10 15 9
-72.3106853816531 -284.374906714036 2964.84369705743 14 19 13
187.325067175792 -268.099455088338 2946.9251131173 18 19 14
176.469886499265 -269.046152249182 2947.92501067507 15 18 9
169.707004284433 -268.838580214413 2951.77615499664 15 18 7
171.192936700256 -266.331279893904 2961.26597447497 15 18 9
177.676202226429 -262.450234615389 2974.092798828 16 19 10
174.260418814494 -261.328598946496 2980.15276362402 16 19 10
161.707750495446 -262.728027556775 2980.07138637936 15 18 9
168.288273473361 -258.859184156584 2992.80343607737 14 17 8
166.5706635926 -257.283471807078 2999.94413359566 13 16 9
164.032162665392 -255.938078733316 3006.51711982872 13 16 9
151.436119848452 -257.3312727042 3006.47789262469 12 15 8
125.348526726035 -262.365381383564 2997.70186162614 12 15 8
123.613008210307 -260.786716778056 3004.86024418353 12 15 8
130.343067278285 -256.936800193377 3017.44626186663 14 15 9
136.28129739024 -253.321043529198 3029.43627682471 13 16 9
125.293946445382 -254.248408483924 3030.56490196314 12 15 6
93.0111050300413 -260.836646830036 3018.25150288007 12 15 6
87.0389697253535 -260.392685072352 3022.69939485039 13 16 7
61.4070439359935 -265.147955533021 3014.84657660488 13 16 7
45.1053949945304 -267.407115083284 3012.947085283 19 22 13
19.3108717326425 -272.14086863242 3005.25288638321 16 21 14
-59.0619159152932 -290.606482475031 2965.36135684402 9 14 8
-88.607704955769 -296.200858260434 2955.85144479406 15 20 14
170.19101224908 -280.094161189204 2935.95483470474 21 22 17
167.512707880804 -278.723389269629 2942.66289683913 15 18 9
165.670297986109 -277.121300022196 2949.92362412215 15 18 7
161.367692831621 -276.218766098206 2955.48002768465 14 17 8
175.274788662119 -270.205996456575 2973.37267041466 16 19 10
169.364960145514 -269.7740337239 2977.76012643201 16 19 10
157.632522056876 -270.964095176624 2978.25055122858 15 18 9
157.53634350287 -268.9084741138 2986.54436964943 15 18 9
161.640323230893 -265.699300019546 2997.5817586028 14 17 10
164.113435157156 -262.957742435115 3007.47391827248 14 17 10
165.782840815778 -260.451576459854 3016.7817137642 13 16 9
141.411228709936 -265.09591806496 3009.0782373234 13 16 9
131.282182917555 -265.813867329361 3010.74051052748 13 16 9
141.409215785488 -261.008111644243 3025.48032336398 13 14 8
130.435002741101 -261.955766989244 3026.59890128384 12 15 8
127.922334704718 -260.60472626904 3033.14540035476 11 14 5
119.466693242106 -260.860215037959 3035.91142549809 11 14 5
68.363338275709 -272.564272313833 3011.8691583514 12 15 6
100.802443439737 -261.822486093779 3040.41741799879 11 14 5
55.4681188642969 -271.897217511199 3020.32464564964 15 18 9
3.08505681785132 -283.774329661851 2996.16147682619 15 20 13
-28.8601999043272 -290.151560413301 2984.89891148176 10 15 9
-84.2074741073922 -302.662375726909 2959.52184440452 17 22 16
167.813745733849 -287.952771888426 2935.22592893101 19 20 15
150.339734675092 -290.816574493772 2931.74615786634 15 18 9
154.221842510482 -287.549591695853 2942.99532478781 15 18 7
159.798562605351 -283.817557326912 2955.32713874297 14 17 8
169.563732547222 -278.917078484243 2970.41194893105 16 19 10
150.369971897711 -282.241702261712 2965.87386732313 16 19 10
161.039865622095 -277.115883591121 2981.44421545245 15 18 9
149.285360973468 -278.324097136736 2981.9592355407 15 18 9
146.688053618824 -276.954425494027 2988.58702906364 15 18 11
150.800285012855 -273.716394458362 2999.61195894734 15 18 11
159.151475528404 -269.316446905557 3013.34103127883 14 17 10
138.129222011921 -273.087563864643 3007.85050513772 13 16 9
120.406016042766 -275.917137434821 3004.61279142441 13 16 9
111.919514956804 -276.179186378074 3007.41076806281 14 15 9
115.273934912687 -273.18467503063 3017.80729869296 12 15 8
116.121508944304 -270.891844671615 3026.5458067324 11 14 5
93.1772842615941 -275.097477034406 3020.19422892278 11 14 5
80.3841294747603 -276.512112438292 3020.35390585313 12 15 6
78.6663079604675 -274.91319866021 3027.49138436563 15 18 9
94.9512688174288 -268.461216690198 3045.79201306017 21 26 19
