ply
format ascii 1.0
comment KinectMotionCapture
element vertex 795
property float x
property float y
property float z
property uchar red
property uchar green
property uchar blue
end_header
226.271139492254 301.217185459994 2892.12271377546 15 19 5
225.367367009288 301.908299879368 2900.00324907447 19 23 9
236.017171792075 302.795449211199 2916.21968145494 24 27 16
225.271833380211 303.310601274544 2916.8947811852 21 27 17
212.017099036032 303.787734147573 2915.81630159652 20 26 16
207.850713484813 304.417612985404 2921.27773538194 20 26 16
202.857346120687 305.033572937316 2926.14518437816 20 23 14
196.197724414465 305.623319972802 2929.83696634802 19 22 13
191.202296853136 306.239333254414 2934.70645326841 19 22 13
188.719881336262 306.892673982645 2941.32603089435 19 22 13
187.928490066405 307.56898534526 2949.09682003078 21 22 14
176.221163860633 308.086163694963 2949.30997905924 22 23 15
161.954187119407 308.571584534555 2947.81853685896 23 24 16
158.631951897712 309.212374179616 2953.8566757515 29 30 22
162.094977296109 309.94261933832 2964.4800171256 34 34 26
173.238678534273 310.767669042829 2980.21551916453 29 30 22
157.226751564187 311.236429277781 2977.62514428928 32 33 25
136.048117704011 311.647562296024 2971.67177142101 37 38 30
114.79707669867 312.067589214409 2965.78932324569 40 41 35
128.599347351759 312.911909686012 2983.13270629692 38 39 33
127.031506956117 313.567535379285 2990.26066890846 36 39 32
122.898379512628 314.19216006531 2995.6898534626 40 42 37
87.7185375942755 314.47708651899 2980.98630215365 41 43 38
85.2540500585 315.127400545595 2987.58852437451 34 39 33
43.8140035901249 315.373776727756 2969.18810553184 32 37 31
43.024104970312 316.049120285462 2976.95789332784 30 35 28
36.1623505326261 316.662698236364 2980.84687388922 40 45 38
52.8430354410503 317.499256089835 2999.58449998284 32 37 30
363.908929267905 279.799848636537 2789.78619678073 143 136 126
365.896323297668 280.62646062434 2800.44370962475 136 129 119
364.81057154606 281.357733615093 2808.49867976637 157 153 144
365.303316685904 282.131162413726 2817.81410502774 202 199 190
365.042953283832 282.878781244974 2826.46428358842 190 187 182
364.023699410752 283.601274786248 2834.45485579444 181 179 180
358.314624345149 284.190880140739 2838.6196611566 164 162 163
350.241864356406 284.716314936155 2840.89039701658 152 152 152
342.154267630995 285.243428489289 2843.17561785574 144 146 145
334.051876955323 285.772185921819 2845.47528634155 104 109 105
322.763586216964 286.219686146191 2845.28229751088 102 107 103
297.935543463859 286.322385100277 2834.49663429314 39 44 38
229.993235835659 285.343204050228 2790.16512836375 33 35 30
220.838705435058 285.882682808781 2792.09075538288 20 21 13
227.676042454268 286.819710340311 2806.4180153642 19 20 12
230.560062634842 287.651607156406 2817.60129340829 11 11 1
231.875006570039 288.439821471741 2827.51498713636 12 13 5
222.739590295126 288.976317349279 2829.42241225662 17 18 10
222.476445694526 289.721837884197 2838.07532487384 16 17 9
226.288916210315 290.557043713284 2849.75339609908 15 16 8
223.647482986494 291.240131522118 2856.52648405322 15 17 6
235.672396578473 292.247087466259 2874.19386217076 13 16 5
236.355090617517 292.993857621966 2883.32460550305 13 16 5
231.339922307078 293.613760048301 2888.21312046524 18 21 10
206.647522651845 293.816557428321 2878.69487646022 23 27 13
219.668655961054 294.818603306585 2896.79096653703 28 32 18
230.304425769637 295.759208146331 2913.01343515363 30 33 22
231.93181102367 296.507313605112 2922.62313594683 30 36 26
217.037302756164 296.923155313317 2920.34787843429 25 30 23
197.949193944753 297.263658354359 2915.16317884617 26 31 24
187.943064430873 297.787369951731 2916.51987743555 26 31 24
179.581692908501 298.34509048337 2919.07243699718 26 31 24
191.256050778482 299.275444054252 2935.68233460843 27 32 25
193.797709347755 300.028658802566 2945.80030265111 29 32 25
187.142705624289 300.612634411218 2949.48835191019 28 31 24
175.433552504828 301.108946974747 2949.70640904503 27 30 23
162.850993160603 301.594392167868 2949.37613050526 24 27 20
166.291616580943 302.354896698378 2960.01724505279 23 26 19
163.842522762993 303.012307074914 2966.60313224687 30 31 23
163.10377021309 303.695678000434 2974.32060695593 34 35 27
138.559681344397 303.99724220267 2966.05739977197 36 37 29
128.426179024967 304.5357892672 2967.53872660661 36 37 31
115.705615729531 305.037894940833 2967.34302561872 38 41 34
119.228893574666 305.78786163012 2977.9036205889 43 46 39
120.215702194708 306.495128676388 2986.73821218894 43 46 39
106.600514836741 306.988955076258 2986.01520047545 42 45 38
84.322411020465 307.366226826006 2979.74171288972 39 42 35
68.8833262384567 307.847905295365 2977.99749726185 38 41 34
76.7910799785674 308.649459071566 2991.28184057752 40 43 36
57.8398647515224 309.090315676636 2987.36328074125 28 33 26
26.64442882676 309.382339316721 2975.78732869185 60 65 58
7.54419501302506 309.841539816252 2972.01403529547 40 45 38
4.99094130249267 310.511299865329 2978.70152952644 46 53 46
35.7392562628633 311.576594651754 3006.10788425337 39 46 39
369.727957589934 272.270727427862 2786.53752578016 159 151 140
356.233585360452 272.60709250057 2784.30090625578 157 149 138
357.425814566811 273.435175309289 2794.33056497772 122 114 101
357.872783293611 274.233731469436 2803.68773308089 94 86 73
359.126938572778 275.053743857291 2813.65742894378 157 149 136
359.631690670057 275.844735403523 2822.9583353525 200 193 183
358.598410396953 276.582779454284 2830.96019978059 178 173 170
352.09094642137 277.147301989718 2834.5049528867 154 149 146
344.002550805317 277.66422619549 2836.79247301716 134 133 131
336.68813910291 278.206716933817 2839.72454627517 125 125 123
329.362802242022 278.750393313279 2842.66729313981 113 115 110
316.477592420825 279.13118680134 2841.23610915626 121 126 120
280.509031275744 278.843822092553 2821.73237696987 12 17 11
244.389687216701 278.575008957509 2802.37563253153 28 30 25
232.87463993713 279.028910130248 2802.40720808298 16 17 9
223.730668662123 279.553789757284 2804.32450747956 21 22 14
219.382731217745 280.214220339134 2809.9613716023 21 21 11
219.866070796868 281.005863811088 2819.28378244574 13 14 6
223.602438568503 281.880883419572 2831.03120251973 18 19 13
222.53278367081 282.621316480945 2839.06883439303 17 18 12
227.155036170237 283.507989099315 2851.35208268648 16 17 9
235.073255390707 284.472759154586 2866.01881964839 14 15 7
226.772808307686 285.013776962143 2868.51334899644 11 14 5
216.009604543827 285.494826955451 2869.21122955639 13 16 7
215.035617685789 286.222713047504 2877.15571608866 17 20 9
206.702861739005 286.7673468923 2879.6817941673 24 27 16
209.039465052104 287.571473865103 2889.9958603061 26 29 18
222.120896678489 288.625740352554 2908.02401723735 26 29 18
216.297117059466 289.224131993332 2912.30176514943 25 30 23
206.331945102647 289.72723040731 2913.62083889869 18 23 17
187.218868739621 290.025416039734 2908.46718695292 18 23 17
187.997651447354 290.778706841135 2917.50154906817 17 22 16
184.637122033759 291.436502844521 2923.57553896903 17 22 16
190.474795627559 292.292782238329 2936.07325757158 18 23 17
181.291284488633 292.820199287176 2938.0294456077 17 19 14
174.607369636101 293.402823699278 2941.74674159358 19 21 16
166.233874756623 293.951368026408 2944.31235822505 26 28 23
168.807111599527 294.725191832216 2954.39592256551 28 30 25
161.274815918768 295.291022490195 2957.54090820501 35 38 31
161.355109574481 296.00861025949 2965.85724784931 42 45 38
138.537644296288 296.278122653217 2958.71837163652 49 52 45
123.297695364939 296.70369402394 2956.78470376986 43 46 39
123.36315241861 297.422945791773 2965.11553044105 36 39 32
126.871766407755 298.202196339628 2975.6863586955 33 36 29
132.989989174341 299.023137536877 2987.91071079221 31 34 27
117.69353804147 299.455492837132 2986.03214778509 31 34 27
110.096664188547 300.028874911552 2989.24014440813 35 38 31
88.6891595553889 300.366535071187 2983.52490285718 41 44 37
89.6842498730086 301.092101557267 2992.34890380188 48 51 44
83.77611249063 301.699489745274 2996.70875269226 47 50 43
57.0262618079806 301.968879831808 2987.80683628152 40 45 38
31.0505667507859 302.263916295046 2979.54895284304 28 33 26
18.065599871341 302.774633265438 2979.61487361877 60 65 58
4.17243025844538 303.276127467804 2979.16676909589 53 60 53
354.359727586195 264.762145098522 2774.56795714085 162 150 134
353.97150590673 265.559479986106 2783.33775284966 161 148 131
357.48317263235 266.495185875325 2795.29933497825 146 131 112
354.044280014832 267.172620146487 2801.44823817162 136 119 99
356.846426249543 268.071492774422 2812.70291925853 121 104 84
353.439873475171 268.744524061655 2818.8200214267 99 83 67
353.173852693619 269.52573121624 2827.47085350931 81 68 60
346.65268086494 270.086895783082 2831.02971502247 101 88 82
340.124264331826 270.648765564842 2834.59532856179 153 146 140
330.433632702713 271.104840870272 2835.64872970209 124 119 113
321.51130257955 271.589942820766 2837.35215312365 115 115 107
309.399358447842 271.972614205672 2836.56973664485 163 166 159
285.869604419042 272.775906059576 2835.72725643275 25 28 21
250.499753326313 272.433436016201 2817.05405017592 18 19 11
226.189717574751 272.46154221785 2807.18193244205 24 25 17
216.230605195034 272.949812660736 2808.49718050933 19 19 11
223.659292075953 274.765746467492 2832.02636028058 18 19 13
237.137853762563 275.955994603629 2851.05731032279 17 18 12
229.641898169662 276.511583008771 2854.16772351834 15 16 8
221.323092611311 277.044625133627 2856.68166190619 13 14 6
204.034799881423 277.320938196301 2852.55302422916 11 12 4
200.561412548732 277.999522015573 2858.73601128191 13 16 7
206.093975048413 278.930059588484 2871.52573438485 18 21 12
214.137542410774 279.922428575059 2886.06391967889 22 25 14
218.134864708481 280.794212038855 2897.55268635165 22 25 14
213.938184989512 281.437579121131 2903.04187129484 25 28 19
204.792156391667 281.947948119664 2904.96369614996 25 30 23
190.661581363317 282.329590672237 2903.35180557592 20 25 19
188.103525268569 283.018354412013 2910.04125990823 20 25 19
191.378530488966 283.854799889918 2920.83561173772 16 21 15
186.358727943345 284.475271793025 2925.72864439554 14 19 13
179.669180400598 285.053859304697 2929.45213037819 14 19 13
165.436570798869 285.447642568382 2927.93976725205 16 18 13
171.304660382771 286.335557292476 2940.4026066388 16 18 13
166.28843210527 286.955269015955 2945.29220234975 20 22 17
166.331923307118 287.694213981633 2953.64193079048 20 22 17
172.314999996068 288.567691722892 2965.99272006185 25 27 22
156.327147977415 288.92986766838 2963.39419151536 32 35 28
141.138973912875 289.31724743895 2961.4150929844 42 45 38
123.352365082413 289.653373753868 2957.77245018914 47 50 43
137.915429714301 290.707271616875 2975.74662528561 45 48 41
149.149295281072 291.676190110821 2991.37132906912 41 44 37
134.757234650999 292.089028013532 2990.01448690393 32 35 28
122.899409903397 292.560991528132 2990.38377594208 31 34 27
110.150924126607 293.018823040346 2990.22234609267 27 30 23
99.0934603277904 293.515887831194 2991.21006423722 28 31 24
100.111420628786 294.257940747682 3000.00858042114 40 43 36
90.7613481815677 294.792145713105 3002.12950088952 44 47 40
66.6320623222827 295.043066383269 2994.87878259494 38 43 36
47.6397895707863 295.403756307548 2991.0128420878 32 37 30
27.7145491745925 295.755590386023 2986.65775181607 56 61 54
15.5910428079631 296.260162757811 2987.28604705456 51 58 51
50.0739648358639 298.326054249269 3025.00610070293 77 84 77
353.646751095853 257.743366714976 2774.89641639762 162 149 132
357.122300144526 258.713817850418 2786.88872858112 157 142 123
361.416657161689 259.709685281444 2799.48144299002 151 133 111
357.210096071114 260.360858349565 2804.97928655999 146 128 106
355.345272283541 261.102926613068 2812.38938189581 140 120 96
348.810899711198 261.661008352868 2815.96180758307 125 107 87
344.618118621276 262.309957740133 2821.44629606775 107 90 80
336.505614679442 262.809090445481 2823.76038569809 79 65 56
332.312347604039 263.457776770393 2829.24539565404 91 82 73
321.813574755996 263.87106799267 2829.69070712235 139 132 124
307.334538291045 264.14205501646 2827.02428942716 169 166 157
213.080481412508 262.354974557051 2770.68089232801 13 16 9
254.860400774158 264.676244449912 2812.45346300606 25 28 21
241.773686572655 265.02827789976 2811.22662657202 19 20 12
227.047912977295 265.329146456181 2808.8008060173 20 21 13
221.905152963259 265.967212495236 2813.81333685329 18 18 10
218.372033299535 266.659842579268 2820.05356296197 11 12 7
230.166575249595 267.867277650113 2837.92007279808 16 17 11
239.619060586449 268.983623608692 2853.87501445093 15 16 10
244.281192239295 269.930943652315 2866.10936065055 13 14 8
214.882695714226 269.761930248171 2852.8171622874 12 13 7
217.930212885932 270.654990690795 2863.82904544508 12 15 8
209.593775009545 271.179597034119 2866.36173979022 14 17 10
212.693525716837 272.065939929765 2877.32274712542 15 18 9
217.472749853957 272.998190723181 2889.44338382781 15 18 9
214.081244235517 273.672081869957 2895.54541686083 16 19 10
206.580006440717 274.219846373863 2898.66256957212 22 25 16
197.416391986316 274.719295338647 2900.603133577 20 25 18
188.234283781478 275.220943054668 2902.56173717498 24 29 22
186.500015228175 275.943252206467 2909.84544746328 29 34 27
196.422703590037 276.99996608527 2925.34194631477 32 35 28
196.415083565481 277.762263744154 2933.73897744102 29 32 25
189.748521309148 278.333057478358 2937.44045276939 21 24 17
191.448371856586 279.137777777004 2946.9698268064 19 22 15
178.912763268223 279.54617293439 2946.60431343364 18 21 14
177.278585508669 280.255552760624 2953.79020519081 19 20 14
169.759012763531 280.80468347083 2956.92502501214 18 19 13
179.129875263353 281.802238672713 2971.56166725301 21 22 16
169.086555605518 282.282726507143 2972.9616846584 20 23 16
152.229470864531 282.590859742176 2969.8170573841 26 29 22
146.380337865594 283.186904509651 2974.12032844407 29 32 25
137.117157228376 283.697639248348 2976.15843294988 38 41 34
132.963720269925 284.337574575869 2981.60518440449 49 52 45
125.388369865036 284.893206226919 2984.79443143028 45 48 41
117.802305945048 285.450100033538 2987.99413058889 39 42 35
105.9030082491 285.906063094722 2988.40696773786 40 41 35
107.772699116392 286.689046289557 2997.77056271902 43 44 38
98.437327986256 287.208483747368 2999.87906719338 42 43 37
94.2811716800849 287.848570243191 3005.32849665786 39 40 34
76.2377928253288 288.176142134001 3001.94209463263 38 41 34
65.9690532464281 288.684105934329 3003.56223425819 12 17 10
48.7008406830656 289.042638369883 3000.81841400927 37 42 35
28.7573917511339 289.351435638251 2996.48776590443 19 26 19
36.7802214119761 290.261505980408 3009.64179842863 36 43 36
345.657749623451 249.53985522214 2759.95294076368 163 151 137
356.790187357969 250.889595196377 2778.45589727096 160 143 125
360.27313624867 251.889172823451 2790.43655641918 158 140 118
363.024546711122 252.849385705711 2801.73255281516 151 129 106
361.153154202422 253.603620522072 2809.14771061896 147 125 101
356.960767589102 254.255881402403 2814.63131794531 151 127 103
351.992029601626 254.874412179593 2819.47392963957 144 122 99
345.458133117472 255.427139744439 2823.04633606695 115 95 84
335.777673212816 255.850561326691 2824.09446274052 106 88 78
321.353919145269 256.082929312571 2821.37919452642 146 136 126
194.864065732909 254.375292891257 2757.35817664979 33 34 26
200.753553282641 255.464009333013 2771.18699845169 30 33 26
219.474000890735 257.038940118201 2794.87486326504 15 16 8
219.101782045678 257.865054063863 2803.6245143905 11 12 4
219.556044184365 258.718372087959 2812.96634624827 14 14 6
226.472988989455 259.808928575613 2827.19186300873 11 12 7
231.836445718189 260.832269577834 2840.13579433574 16 17 12
232.402083157847 261.671370069082 2849.36913021836 14 15 10
207.071348250025 261.566654801223 2839.11296563084 14 15 10
245.798763406256 263.775849575481 2876.84839833217 14 15 10
235.081429219903 264.195951642535 2877.50973780047 14 17 10
236.577142035801 265.049049070929 2887.23433566197 14 17 10
225.836341072863 265.47181465391 2887.91858431983 15 18 11
215.069308641303 265.897710223832 2888.6284186031 15 18 11
205.919395273847 266.38263571356 2890.55752378937 16 19 12
205.812088039577 267.174424582393 2899.04918700057 19 22 15
204.077505015585 267.90821162626 2906.33117529348 18 21 14
197.393953922388 268.476563951329 2910.0502194692 21 24 17
198.16925058467 269.288452229267 2919.07938259767 26 29 22
203.129979874536 270.230475401844 2931.01833764687 30 33 26
223.139414796293 271.643483801037 2953.45015106095 29 32 25
227.394351168719 272.543027573646 2964.67900018776 31 32 26
204.062418507496 272.57851370317 2956.66833951148 29 30 24
192.395382713397 272.985264997785 2956.85781063606 28 29 23
173.968880797058 273.191366535575 2952.45289942199 26 27 21
172.343252692666 273.910902103372 2959.62880023104 23 24 18
176.649251601121 274.803789203161 2970.80826520005 23 24 18
171.682079907332 275.41821583939 2975.64992813177 24 27 20
160.773500881292 275.860392932728 2976.49791387375 25 28 21
150.689467366091 276.330121297059 2977.93995098635 27 30 23
138.877521707309 276.754342999186 2978.27039978812 32 35 28
109.941747425256 276.704961428714 2967.33518634202 44 47 40
116.020349015228 277.63745417428 2979.5823955827 48 51 44
99.8274803264483 277.955523958206 2977.19397049176 55 58 51
91.3296549341855 278.488003855447 2979.88576131809 56 57 51
80.2297581657641 278.953546033291 2980.91993721517 55 56 50
84.6624592707728 279.830342370337 2991.97596323771 48 49 41
59.6844045167839 279.93912270311 2984.17218396476 43 44 36
77.1613656688639 281.146161214278 3003.4812484156 43 46 39
72.9855804136945 281.791847598817 3008.9493420555 18 23 16
57.4773373200657 282.154665516146 3007.29136919111 26 31 24
55.9080452250922 282.866732183945 3014.41276925215 20 27 20
-4.33383863484194 282.153899292685 2985.06716299762 37 44 37
24.7256183545157 283.612874696638 3011.25857419688 47 54 47
358.794620598314 243.134101244708 2771.94374893854 170 151 136
361.476157199141 244.130720248268 2783.30375030321 161 140 121
364.197320730078 245.122240452196 2794.62515514084 156 134 111
364.632722359769 245.999341827144 2803.98220059399 149 127 104
363.541874906675 246.800398161085 2812.03191689486 148 126 103
357.797271946881 247.383088349733 2816.23336188165 150 128 105
353.611257778392 248.037435354637 2821.71033294778 144 123 102
345.515461305683 248.513704791109 2824.01121099546 137 118 103
335.05027263179 248.885995131293 2824.42923279484 109 92 76
319.051028867987 249.016564533943 2820.45933844785 143 134 119
195.718608592609 247.086957520617 2759.00372506018 24 26 15
210.371450052604 248.585201858808 2779.65723270165 20 21 13
208.354503948412 249.366953966853 2787.21252249177 17 18 10
210.35605473393 250.312991693482 2797.83832639599 16 17 9
220.416900785561 251.584934918294 2814.58306897556 13 12 7
220.900919178042 252.453755015637 2823.89306123378 12 13 8
220.60680345016 253.286416156134 2832.56418713677 15 17 12
217.104045846389 253.986612641496 2838.77280711828 11 13 8
232.242816131077 255.42356844583 2858.95283867202 9 11 6
262.096371749617 257.421458638811 2889.94402193598 12 15 8
266.883942619059 258.418702279652 2902.04676429532 10 13 6
254.58412930166 258.751346527432 2901.45829868415 15 18 11
237.342981744024 258.901360817191 2897.30151205762 19 25 15
222.504154818822 259.151042591291 2894.99585835674 18 24 14
215.015367126108 259.682036642683 2898.10278875618 17 23 13
214.929144678055 260.487870359291 2906.5714386406 21 27 17
209.91327980329 261.109644405628 2911.46036867684 21 26 19
211.518807854116 261.970568922498 2921.07476154643 17 22 15
213.156223905224 262.827458708047 2930.65808549188 19 24 17
221.477295187784 263.915813679738 2944.90651860422 19 24 17
229.027906157807 264.967101258001 2958.50859942324 18 23 16
216.58966829497 265.315957773853 2958.05519526584 19 24 17
202.442951990986 265.611552210435 2956.47238893307 20 25 18
190.771987808151 265.997641970074 2956.66847692959 22 25 18
180.75348216016 266.443882510406 2958.04925323349 22 25 18
170.712446352286 266.892814209017 2959.45166672519 20 25 18
176.704242522687 267.871896812609 2971.77818907005 23 26 19
170.043003307411 268.431788401513 2975.47598987228 23 26 19
165.072766608965 269.047014212066 2980.32057828131 23 26 19
157.550954126839 269.580962701962 2983.45986612011 23 26 19
143.196550140674 269.901795969681 2982.07956643772 25 28 21
121.962960185186 270.015194634943 2976.22477079183 32 37 30
112.64929840063 270.506094718914 2978.31559753451 35 40 33
117.912536260235 271.442680093896 2989.95496080617 26 31 24
97.4087811795177 271.598018721314 2984.78647679232 48 51 44
84.5978096961972 271.992301558619 2984.69648863961 48 51 44
73.48170938686 272.441475138488 2985.74951200598 54 57 48
77.9321647695097 273.346208859388 2996.78344079324 60 63 54
65.0619689097813 273.747736737276 2996.75119250796 56 59 52
67.8203144171459 274.59720382992 3006.63976116344 48 53 46
52.3007126866828 274.92958103319 3004.99756671757 38 43 36
27.9958267853262 275.025896267956 2997.94441031845 42 47 41
9.73808749882066 275.300131928949 2994.77875444225 35 42 35
16.881060742691 276.268625599666 3007.380615293 48 55 48
41.6747363108732 277.69948522926 3030.72728157192 49 56 49
368.488948478621 235.754678708098 2771.90994506336 166 152 141
365.776973758535 236.500807518311 2778.74376433361 173 150 134
364.61960585416 237.32447604149 2786.85619435427 166 140 123
365.801861239618 238.263616163718 2796.87934300538 158 133 111
366.241059410998 239.159538177024 2806.23017459637 153 128 106
363.599713789334 239.896156932362 2812.99492586776 151 129 106
357.076086835686 240.437817481019 2816.55910804168 151 130 109
352.887982852071 241.095464834889 2822.03766653499 149 128 109
347.9217275408 241.714183866321 2826.87778507118 143 126 108
340.601672295933 242.218908903569 2829.8210442044 128 112 96
329.336924468554 242.536394537576 2829.62423085677 134 125 110
227.561121029248 241.235538992027 2784.92924124953 23 25 14
224.767919480224 241.989620988346 2791.84220664224 19 20 12
229.173362404969 243.068178408861 2804.31238955843 15 16 8
225.622500480293 243.780721092537 2810.56729092098 14 15 7
223.684811270352 244.563582491306 2818.04371349079 13 12 7
222.567750448405 245.379751944407 2826.11722634203 11 12 7
215.827689395233 245.946427150485 2829.89263362082 12 14 9
227.668093923515 247.319488150991 2847.68912179872 13 15 10
248.502051042526 249.064889664084 2872.08720140261 13 15 10
259.716641052647 250.380053742087 2889.09678047042 14 17 10
275.893635158112 251.891201624478 2909.65178418334 17 20 13
255.456145667565 251.856666075856 2903.02831361946 18 21 14
242.306503014251 252.13549155171 2901.8747861749 23 29 19
233.218111540011 252.586819845347 2903.74810270465 26 32 22
221.645737480228 252.940313414786 2903.85110695423 27 33 23
217.45638275334 253.595405878701 2909.33128506571 26 32 22
217.399940522674 254.414114534787 2917.76845984361 24 29 22
219.022844756166 255.29497826417 2927.36298874204 22 27 20
217.359634055217 256.042249557753 2934.57211029688 25 30 23
219.869981172896 256.948130992443 2944.69860700429 27 32 25
215.749039374295 257.594289333372 2950.11217052613 27 32 25
199.938762063384 257.796534377637 2947.36094538718 26 31 24
185.753495235942 258.067681213483 2945.82003363879 26 31 24
190.827488691269 259.061056237886 2957.63858807407 26 31 24
185.014509838073 259.646292505218 2961.90755502447 25 30 23
180.884536509875 260.293220858792 2967.32997318118 26 31 24
175.914421708561 260.909050474952 2972.17435130236 28 33 26
177.720620221007 261.766497461708 2981.59032725653 32 35 28
171.069970359995 262.320115455032 2985.27853990812 33 36 29
166.964828396124 262.963765998512 2990.67678461188 33 36 29
150.073729291385 263.164236671785 2987.58218442521 34 37 30
134.838762284606 263.429788958076 2985.66755802659 33 38 31
128.980424925393 264.020225704281 2989.98046017348 35 40 33
122.260897785404 264.582189406579 2993.73617333114 33 38 31
115.534231022222 265.144977756494 2997.49851651562 37 42 35
106.213755500782 265.623691671703 2999.59824835216 45 50 43
102.060572518329 266.273029993751 3005.04335784636 45 52 44
84.9183741014405 266.50438913038 3002.1935376872 45 50 43
65.118215461903 266.659566086435 2997.74296737687 51 54 47
56.5648396351897 267.178291971677 3000.49195344276 47 48 42
53.2291773566245 267.86147924738 3006.53749709197 51 54 47
41.1620960385513 268.274891321002 3007.12289703339 50 55 48
25.5615333119992 268.585515544591 3005.56465097635 44 49 42
21.3271445844141 269.244870008019 3011.08891859459 37 44 36
14.4580064724096 269.825221095652 3014.9901421696 37 44 37
373.151738368265 229.034813178702 2776.7747127131 174 158 145
370.451262071436 229.787910229942 2783.5960839761 169 146 128
366.991982861013 230.496971444318 2789.7605569092 167 140 121
366.633640072594 231.373184433242 2798.48902428857 154 127 106
365.524128650714 232.204412200899 2806.55281486163 155 128 107
363.657812621488 232.991352213438 2813.95775999056 150 128 105
358.691934041021 233.610672409057 2818.7974155757 150 128 107
352.165038407277 234.147526285633 2822.36555402131 152 131 112
347.979522841767 234.80773680077 2827.84116334306 131 115 99
341.444360583323 235.345308488196 2831.41740457707 123 110 94
334.115300220693 235.843252198669 2834.37060820249 178 168 156
217.292026093614 233.510359451532 2777.84720998976 22 24 13
241.553517449516 235.608399173037 2805.87446208555 21 22 14
242.805656396962 236.558955669355 2815.82652799143 20 21 13
239.287648898872 237.273253413172 2822.04854502558 20 21 13
231.766721139607 237.794014032422 2825.18890348302 27 27 19
230.668877727242 238.621765921982 2833.24162128341 43 44 39
233.622550713254 239.636753418672 2844.32901018141 15 17 12
243.08064527461 240.948550342366 2860.24915638212 15 17 12
242.888841383938 241.801527641629 2868.81568239892 14 16 11
253.277357304775 243.135667905648 2885.22585125929 14 17 10
250.717266611644 243.868236617234 2891.91085162217 19 22 15
250.6171764237 244.709473336221 2900.38770198702 17 20 13
246.452404502311 245.364977096371 2905.84374606184 19 25 15
241.472476303513 245.983488583461 2910.69747265243 26 32 22
229.097953876854 246.277373570308 2910.188922893 27 33 23
221.631372329925 246.79026577371 2913.27647770664 23 29 19
221.584493140566 247.624427549969 2921.70187227873 22 27 20
224.871763016013 248.59684217658 2932.46394894366 19 24 17
220.733507703168 249.248500157569 2937.8938921967 22 27 20
215.768656412852 249.864609725758 2942.73300219686 23 28 21
206.638085573218 250.307545146448 2944.64944392292 23 28 21
188.300823945647 250.374714276331 2940.17644993211 22 27 20
179.111818555673 250.82471975215 2942.14953523743 22 27 20
187.526672525605 251.98849630473 2956.29369347813 27 32 25
185.070289922337 252.707032720305 2962.87778414191 25 30 23
180.940287245469 253.357178574789 2968.29975589706 26 31 24
165.830692192472 253.57555431854 2966.26760596738 30 35 28
165.919595708511 254.39214151888 2974.56076382042 31 34 27
164.33490067878 255.140305959789 2981.69178614628 34 37 30
159.363549783575 255.756630475977 2986.53731858096 35 38 31
152.687563089283 256.308415487264 2990.25096199649 32 35 28
141.731658058129 256.701172305254 2991.15324745627 32 35 28
129.036381116783 257.033724430461 2990.95749668538 32 35 28
130.043209342306 257.874140214885 2999.75252919588 37 40 33
121.613223597463 258.367418799078 3002.38274818641 45 48 41
113.168655007236 258.862476813818 3005.02718515893 48 51 44
102.980803332508 259.297778974822 3006.57740341646 30 35 28
92.7705881731748 259.735841439577 3008.14942097311 39 42 35
70.3838684870055 259.752648741541 3002.03706703978 44 45 39
72.2833195141575 260.620261428341 3011.3589393823 45 46 40
56.7738650585876 260.887746784811 3009.71625952908 48 51 44
48.210676839167 261.39740487564 3012.47632966203 45 50 43
34.3774999139614 261.732931036345 3011.9931815175 43 48 41
21.3842277778813 262.102224627227 3012.08791400758 38 45 37
-3.07974091162233 262.100684902315 3005.20685424707 37 44 37
381.281366713069 221.630942133092 2775.46447345071 169 155 142
374.745635904504 222.164780301689 2779.04149323385 172 154 140
371.279734346866 222.880529024185 2785.21155384486 162 136 119
367.050975585764 223.55003874716 2790.72872988022 166 139 120
365.919164245517 224.398009159114 2798.81219004636 154 126 105
363.2574861545 225.154220098227 2805.59457388617 155 129 106
361.385304418088 225.953075873275 2813.00392044655 149 127 104
359.529219491019 226.749738521167 2820.39726893853 148 126 103
354.565890189654 227.368928988334 2825.23441222564 150 129 108
350.38604378578 228.031505936752 2830.70404222827 132 116 100
340.717430899797 228.38992458794 2831.750012042 118 105 89
239.997399767435 226.545370079857 2787.50389271372 21 23 12
220.530274738148 226.430563743292 2781.34594704229 22 23 15
230.462681419877 227.874125875894 2798.19286661523 20 23 14
238.074346985939 229.183323035658 2813.11277187005 19 20 12
239.346627077345 230.153322755117 2823.04230146434 20 21 13
235.836967471422 230.872242159736 2829.25500799673 26 26 18
234.748857961553 231.712729510187 2837.29651543448 44 45 40
229.650085565994 232.347181440066 2842.26590007882 16 19 12
227.78453627653 233.143179703186 2849.66874501835 17 20 13
242.946592759749 234.781173082989 2869.79593976686 15 18 11
237.094846890517 235.368023778805 2874.10316432544 15 18 11
248.332571300411 236.78912785181 2891.07411270729 17 20 13
240.067738941351 237.253048785616 2893.54433315023 17 20 13
245.691273014375 238.385614582501 2906.21386045276 17 23 13
239.069951665138 238.926853795502 2909.87511687892 19 25 15
238.193351440278 239.740115131685 2917.710278621 19 25 15
231.571882761898 240.281210753593 2921.37170256988 18 24 14
234.850291565143 241.282266158911 2932.13834531591 16 21 14
234.858130951185 242.126216262896 2940.50761898119 15 20 13
223.278192535182 242.438074909 2940.62462621379 18 23 16
206.679770879883 242.52832120359 2937.2556841083 19 24 17
190.027970283746 242.625149339763 2933.93877528683 19 24 17
181.675264256197 243.09913093348 2936.49476862046 18 23 16
185.866193472881 244.127248326312 2947.76851251619 19 24 17
183.387431865477 244.857230161819 2954.37313423383 19 24 17
176.715802665939 245.403866273188 2958.08321159781 15 20 13
167.508274129573 245.842997868798 2960.07629781607 16 21 14
165.041886360313 246.571272363329 2966.66888447376 23 28 21
175.291328202869 247.83226796072 2981.81105738182 21 26 19
171.181323103232 248.482959181822 2987.21309064221 24 29 22
172.180574828615 249.343878270452 2996.01261634995 25 30 23
164.68099396172 249.852276887188 2999.13360412627 28 31 24
161.443902526974 250.535244288882 3005.08129796771 30 31 25
155.645677824377 251.113888312772 3009.33658815915 31 32 26
138.684090551482 251.248456221172 3006.32138632335 31 32 26
119.948694193256 251.321753808664 3002.24317806422 27 28 22
106.326214124772 251.604771999093 3001.55856548137 34 33 28
92.6657699001763 251.892456532675 3000.91062434128 28 29 23
78.1015405972174 252.151627446594 2999.74779796921 31 30 25
85.1990786692189 253.240528567958 3012.37698044866 28 29 23
91.4814386515364 254.289891468598 3024.40458123576 38 39 33
47.3936276354721 254.272288706719 3012.92351349788 39 44 37
42.317301617274 254.90187648956 3017.87132747649 36 43 35
33.7306953811725 255.404196733267 3020.65573657678 30 37 29
27.7685289746401 256.003021721046 3025.07084056609 35 42 35
80.8737617179047 258.699943670059 3065.46072733548 30 37 30
382.525998699797 213.810779469965 2768.29912984266 162 152 142
376.749182246941 214.388958088115 2772.5332301124 164 146 132
373.270592075098 215.112105766053 2778.7144593005 165 144 127
371.339088553457 215.930049482426 2786.17989208116 157 130 111
367.881248974211 216.650337972044 2792.34093821085 157 129 108
365.205143327344 217.416910842553 2799.13611733796 155 127 105
362.541326013117 218.181838749136 2805.91933709406 153 125 103
362.99777322238 219.133152859696 2815.24451536567 153 128 106
361.145391668028 219.940508489024 2822.63260593581 149 127 106
356.185864622858 220.559551321032 2827.46599534672 144 123 104
349.661528684401 221.085821931538 2831.03315617918 121 107 94
339.20628700059 221.382587058619 2831.45246306388 90 78 64
252.738232116288 220.07691475438 2798.48033101287 20 21 13
238.863926119372 220.223782762169 2796.64899891944 17 20 11
227.33684661593 220.509531027623 2796.71703773133 13 16 9
219.771393386533 221.020705574839 2799.90302745608 15 16 10
241.806891744692 223.165237804527 2825.88312397929 16 16 8
243.116516609345 224.152479063295 2835.77268352771 16 16 8
233.19933696177 224.524867184947 2837.06341912856 14 15 9
217.616715474912 224.596234361204 2834.10547208268 17 20 13
214.91386527157 225.363989590327 2840.92703419765 19 22 15
229.234297645816 227.030998212434 2860.46877636999 19 22 15
240.400733614768 228.515554408504 2877.50113703146 18 21 12
241.064830444223 229.438818724781 2886.62426190794 17 20 11
254.810673403779 231.033325912706 2905.33004838366 18 21 12
213.854613865345 229.806829317663 2883.83255684072 18 24 14
233.389026497636 231.686755853315 2906.6674019557 17 23 13
229.212041722115 232.349878693716 2912.13410963648 17 23 13
222.569043879397 232.888681725428 2915.81691336564 18 24 14
232.430302495738 234.247676050093 2931.33007378663 16 21 14
224.984907759909 234.742476971187 2934.39926366727 16 21 14
218.358217130606 235.279017828645 2938.06620844081 20 25 18
203.411166572056 235.413894065051 2935.88499061602 22 27 20
195.084701621552 235.874380689279 2938.41692072282 23 28 21
197.60198166519 236.853593015514 2948.52569465852 20 25 18
193.457442257585 237.512102253419 2953.96086549777 22 27 20
190.156943854387 238.209240095555 2959.96942901129 22 27 20
165.838847051082 237.929135216973 2951.56777880174 19 24 17
161.664186326439 238.591213221295 2957.03233309196 19 24 17
164.253768271704 239.561148579728 2967.07068130232 26 31 24
170.266373808552 240.679914352536 2979.35589452727 26 31 24
172.935207190751 241.639917776916 2989.31701282471 28 33 26
171.385934951226 242.406238528334 2996.41017630149 27 32 25
169.853031748756 243.170503073641 3003.48738898886 29 32 25
172.609535031738 244.119505911733 3013.36307566068 32 33 27
165.123374355326 244.618568866088 3016.47211679629 34 35 29
152.475682504019 244.897644858181 3016.23701707668 34 35 29
125.167475588083 244.55798624576 3006.56232663163 36 35 30
108.107545367091 244.667508344854 3003.64882039873 20 19 14
89.2657829865304 244.711291420676 2999.6802595621 30 29 24
75.560169914878 244.978165421927 2999.08058538444 25 22 17
79.1791487819569 245.963382735032 3009.51137788565 26 27 21
86.3179580611395 247.08546400419 3022.09501127691 35 36 30
61.2481968661491 246.898187136568 3014.42605498046 41 44 37
50.0728218779582 247.281253174004 3015.54737180308 39 44 37
49.3816014587325 248.084281450518 3023.2002989415 35 42 34
47.8325866781031 248.850311756535 3030.29324968549 31 38 30
22.5478199365252 248.689734343676 3022.83385090742 30 37 30
70.3502686752406 251.362584463299 3059.99090679845 26 33 26
371.899617805916 206.125284858369 2760.14911408821 159 147 135
371.452243828318 207.062800919225 2768.9569301873 155 137 123
370.261556237857 207.946196439499 2777.09361952471 156 135 118
370.629377477443 208.92835673648 2786.50224564146 153 126 107
368.711920905236 209.755549411128 2793.95236260167 153 122 102
365.264383296747 210.480119098847 2800.1025459629 153 125 103
362.6004252675 211.253489915877 2806.88465759262 150 122 100
360.725725847042 212.074899999393 2814.29283289153 153 128 106
360.425181098184 212.993154050408 2822.9576923126 150 125 105
354.682834908312 213.563552210057 2827.15871305 141 120 101
350.50278416079 214.232236079469 2832.62764336864 105 93 79
342.40378909148 214.656441236506 2834.9393927478 91 81 69
263.101092367318 213.5511817233 2807.57553058277 18 21 12
240.513050323874 213.142554822397 2798.89181523826 15 18 9
201.912413558302 211.79837673284 2777.90724165523 13 16 9
202.268208575012 212.780217721579 2787.3278571827 17 18 12
213.055913955124 214.367050348442 2804.72118650574 19 20 14
234.351251605955 216.549453972595 2830.01342901763 20 20 12
233.258659914553 217.418352697256 2838.05485029722 16 17 11
221.706967640771 217.685460743024 2838.15042281222 21 24 17
220.629683740408 218.552252770915 2846.17695459787 18 21 14
226.86303713767 219.826884589336 2859.63717216042 16 19 12
231.527470078282 221.003789746899 2871.8353005677 17 20 11
246.820066614866 222.761315963746 2891.81520021237 16 19 10
219.787605300869 222.172722607934 2880.48657343696 15 18 9
237.628288135559 224.052158972592 2902.16889540652 16 22 12
216.232697639217 223.786756202664 2895.11404606149 19 25 15
220.23155468153 224.899714669702 2906.565980992 21 27 17
223.450341761913 225.963215802404 2917.38259953897 20 26 16
213.500301018794 226.322940471743 2918.70783834619 25 28 21
208.492748571766 226.945959017614 2923.58833008232 21 24 17
194.362565994372 227.093689100789 2922.0106219595 23 26 19
198.480409042885 228.191455842449 2933.3466473573 23 26 19
206.808117684879 229.497284036255 2947.55634702634 22 25 18
215.198520389019 230.795214314165 2961.70462003142 24 27 20
205.234747519811 231.156288543118 2963.04363342051 27 30 23
196.926532844646 231.60402220566 2965.55932561628 29 32 25
184.398884438484 231.84481388288 2965.21101722808 25 28 21
175.208939844429 232.255782459513 2967.1908048136 24 27 20
176.139384748089 233.164162486934 2976.05164200643 30 33 26
188.106621807613 234.602348001343 2992.29564891344 23 28 21
189.118356049464 235.500577744691 3001.07760264132 28 33 26
185.904287753628 236.192552712555 3007.00076500913 29 34 27
176.730540956016 236.601333581805 3008.96512912752 30 33 26
163.265428323797 236.812045593065 3008.13493517584 32 33 27
153.188547478865 237.186684291561 3009.58392379221 39 38 33
143.947628451841 237.603680965842 3011.613438793 27 26 21
132.107328940014 237.90493172434 3011.99055628375 32 29 24
113.338531134553 237.897051529942 3007.95717635421 45 40 36
96.2371899435119 237.974466872642 3005.08953719131 96 91 87
87.7441394795371 238.444676459713 3007.78545212592 43 38 34
76.6323209103792 238.801562135298 3008.84786377294 26 25 20
82.0248387632385 239.886409594353 3020.33693702891 26 27 21
64.7935677068503 239.979924559154 3017.5959406259 33 36 29
57.9956095363357 240.53199736459 3021.43066098454 34 39 32
51.1909735197174 241.084921094034 3025.27222461887 35 42 34
30.3351675631647 241.043788823256 3020.48203279995 36 43 35
7.65148787632652 240.937291001922 3014.68278898053 32 39 32
54.5382205604721 243.73992062522 3051.31307377883 23 30 23
362.037315129289 198.417631939362 2752.66054167475 147 135 121
364.625332754243 199.590430841808 2764.08736945281 147 128 113
368.787360248373 200.865472871817 2776.77022715046 158 135 117
371.458436682282 202.027631356267 2788.11614895253 152 125 106
369.542592704347 202.86571254397 2795.56271742333 145 117 96
363.777921184125 203.437016050487 2799.78577373393 151 123 102
361.109722456623 204.219308086184 2806.57044004549 145 116 98
358.454085501117 204.999959246393 2813.34321269443 145 119 102
356.589826509873 205.83114099159 2820.73991408746 141 118 100
351.618430918527 206.452365555034 2825.58476668122 132 113 98
347.430486764329 207.125081408342 2831.06093934392 91 81 69
346.385993397596 208.002960996784 2839.05327090834 151 143 132
246.927232199075 204.431136472883 2786.72509721418 3 4 0
263.161231921737 206.438947509276 2808.56699622698 19 22 15
231.040468300364 205.368213009942 2792.44334820417 19 22 15
210.733970069596 205.063870708615 2785.72967870313 20 23 16
207.917673779839 205.86335290774 2792.65920522663 22 23 17
216.317607743338 207.354471910825 2808.18670750077 22 23 17
252.861970301792 210.561946125072 2845.10824196045 20 20 12
246.184786495656 211.095985012491 2848.82569699509 16 17 9
239.500925651179 211.630786268847 2852.55000759171 16 19 10
236.850236033031 212.409133127018 2859.31820803635 16 19 10
237.451988446263 213.379065806499 2868.49634427606 16 19 10
228.338639981483 213.768577087575 2870.40324215181 15 18 9
219.206964710795 214.160326747001 2872.3283458274 14 17 8
227.188651429631 215.553575598151 2886.86872964631 15 18 9
225.420267180374 216.370782101988 2894.17195369584 17 23 13
225.307790122316 217.28005469672 2902.6513865751 19 25 15
221.932798870373 217.998810502178 2908.73038962111 19 25 15
218.566755230379 218.716403167758 2914.80101730973 18 24 14
210.256267996424 219.154599346031 2917.32071366798 23 26 19
199.448626283483 219.456124484981 2918.08891762136 22 25 18
191.103149249078 219.898532663776 2920.64273683686 25 28 21
198.538208108809 221.210103150429 2934.32109290939 23 26 19
206.865454008169 222.559678209615 2948.52478632112 23 26 19
221.101991751841 224.217560568421 2966.73393879984 22 25 18
209.477378201035 224.471341074921 2966.90355518339 27 30 23
203.696259151331 225.041666417099 2971.14308870617 30 33 26
193.707144961584 225.390041519129 2972.50880548459 26 29 22
190.439319919305 226.094817274743 2978.48379498745 24 27 20
182.110601268045 226.534668822567 2981.0210129077 28 31 24
178.848431747723 227.238650527639 2986.99050375397 25 30 23
180.687170457411 228.202420099881 2996.35811453755 27 32 25
174.051196852757 228.729769156925 3000.03597382892 27 32 25
170.818580282577 229.429920343312 3005.97634646582 27 30 23
156.485672346221 229.573053699813 3004.60096485747 30 31 25
136.972183705168 229.466212962023 2999.9047909436 32 33 27
138.85403554967 230.424466356446 3009.23040503566 33 32 27
128.723044079263 230.790176215589 3010.73478382357 42 39 34
116.84497272589 231.075009830777 3011.15149791597 37 32 28
104.072631934719 231.321998197363 3011.04491897333 122 117 113
99.0616812117744 231.945106079157 3015.92877204387 25 22 17
72.3499520178961 231.541050193947 3007.08853545176 26 25 20
73.3823899549764 232.455810958543 3015.8471489845 26 27 21
57.8759257693702 232.595671987529 3014.22036256887 28 31 24
47.5671340498267 232.983367164916 3015.89771237012 28 33 26
36.3602462812933 233.333706869948 3017.05549662909 34 41 33
26.0050661648106 233.727207519528 3018.77839058998 37 44 36
10.3492840895987 233.885634452447 3017.29713501356 31 38 31
41.3719030263273 236.137998671234 3044.25565349332 22 29 22
355.228895524874 190.866492377051 2747.784260733 132 120 106
357.033875585411 192.012264104009 2758.57574167496 133 114 99
360.408747809732 193.266192004048 2770.62612969131 153 130 112
365.365424910097 194.626790737007 2783.92415265728 141 114 95
366.518210597722 195.701472498794 2793.95687000083 142 113 95
362.291585770633 196.382632279533 2799.47020513473 152 123 105
358.844621986357 197.118504944296 2805.61848594695 144 115 97
353.852260524104 197.742910679444 2810.48368778467 146 120 105
351.975976615293 198.586714904959 2817.89012665954 142 119 103
347.773569144393 199.264401550264 2823.37992692864 131 112 98
345.924008949838 200.104652549392 2830.76035392551 85 75 65
212.20530312427 194.893548898386 2760.26573542261 25 26 18
227.129435777258 197.89914239471 2790.34576441776 18 23 16
221.148153639279 198.493861168849 2794.78045750755 19 22 15
206.38230237464 198.511697321623 2792.43626673654 18 19 13
230.783020093201 201.094299238574 2820.25398475718 14 13 8
243.295254700355 202.878966990738 2838.73940975487 13 13 5
256.698139900486 204.70451779485 2857.75161020998 17 19 8
242.784761920762 204.767710785113 2855.97144430411 18 21 10
240.949626282832 205.604912365429 2863.33799820579 20 23 12
240.750982200844 206.542001220277 2871.8988849825 20 23 12
221.902770264487 206.308207684201 2866.56084503442 19 22 13
221.707805262607 207.244685310478 2875.11816876951 16 19 10
215.826448359765 207.826001766423 2879.45527763843 15 18 9
220.572656005421 209.058268786754 2891.5643579376 15 21 11
231.103919732467 210.633198116641 2907.79718759742 18 24 14
231.029024453025 211.554398995612 2916.23753821976 21 26 19
224.389860633532 212.077932254537 2919.91879157293 21 26 19
223.522168799285 212.945825571972 2927.73703256848 25 28 21
218.537779046669 213.566926562222 2932.59480682053 25 28 21
201.943377003397 213.507489732058 2929.24399628134 26 29 22
203.584183747888 214.518481580919 2938.80151484247 23 26 19
202.756948668706 215.381090403964 2946.58036272814 22 25 18
216.148137751902 217.054961053811 2964.20968654311 22 25 18
205.34925228891 217.336727770144 2964.97245353908 25 28 21
198.719297606737 217.858643062577 2968.64480121749 27 30 23
191.241568565282 218.334242292414 2971.74893754319 24 27 20
188.810750112534 219.092544215122 2978.30176530301 23 26 19
178.788659581667 219.429250750116 2979.70195268475 27 30 23
167.897494068454 219.72227490678 2980.55469128998 23 28 21
168.013568693257 220.618951357632 2988.80903067411 24 29 22
174.958900318631 221.880138335804 3001.5638926307 24 29 22
175.138665438497 222.768807701063 3009.75616985547 25 28 21
152.27042170736 222.426919872791 3002.7580820829 27 28 22
145.59436087369 222.954242167535 3006.47541469875 28 29 23
138.911412462979 223.482410637494 3010.19946171609 31 32 26
133.082103462505 224.056128007069 3014.48634723219 32 31 26
119.489415165025 224.229703592131 3013.78832654961 39 38 33
105.858972307742 224.407965028319 3013.12710413627 80 79 74
102.584208866755 225.119158549025 3019.10803502873 26 25 20
81.0888575656814 224.909878543095 3013.56086403524 27 28 22
67.3508057431897 225.101492037187 3013.00452548679 28 29 23
49.2153002623397 225.081299811167 3009.76100594775 27 30 23
38.8873489305244 225.455732025374 3011.45934178738 25 30 23
33.7917431878791 226.08988057268 3016.42562673837 32 39 31
27.8192391045726 226.681355113589 3020.85208258637 35 42 34
13.9269374025872 226.892156267306 3020.44608052077 30 37 30
7.93096405209859 227.486567368945 3024.89540767563 26 33 26
346.894715307756 183.147064880619 2741.61413688228 126 114 100
347.147498945706 184.201575913936 2751.12630363078 103 86 70
352.031051665195 185.606914483854 2764.49032765958 106 85 68
356.196892907078 186.946894272237 2777.15980047701 109 82 65
358.096817102601 188.105056574523 2787.85483132579 126 97 81
356.940752824184 189.025300819075 2795.95203081915 125 98 81
354.254922610949 189.826719227888 2802.75171642908 123 95 81
352.358276557812 190.684338728888 2810.17633332258 122 99 85
348.141405770209 191.366996166189 2815.67976119809 119 97 84
343.929358767164 192.048973482063 2821.17883734787 125 107 93
338.156235069314 192.61601150788 2825.41057939 98 90 79
194.876624429258 186.352601902311 2747.56134788395 33 34 28
201.471453022219 187.852540851027 2762.04588641385 15 20 13
224.013424759638 190.458280345782 2788.87179046975 16 21 14
230.765712845686 191.938392841072 2803.20323757848 15 20 13
227.997541202873 192.748907419163 2810.08300719338 15 18 11
220.440891380283 193.228170020635 2813.26530941867 15 16 10
237.740308293215 195.404117253501 2835.44129227309 15 15 7
239.871535675039 196.531758164081 2845.91148452893 16 18 7
211.408503992184 195.595005420321 2833.22073660558 19 22 11
245.857298525932 198.881302888838 2867.96048525427 22 25 14
237.570740349851 199.296418285938 2870.45983103369 22 25 14
239.011896672721 200.355029919145 2880.20822938954 21 24 15
230.71934499148 200.770746099634 2882.71343801265 20 23 14
233.017071905152 201.87713911004 2893.02143420243 19 22 13
237.803500564358 203.137231162303 2905.08612407101 17 23 13
234.441174689684 203.866266847441 2911.15136869042 20 26 16
222.050080354022 204.019167871486 2910.68011244974 24 29 22
221.154387640149 204.904642171919 2918.52389811306 24 29 22
221.104319598883 205.839312907684 2926.93760408192 25 28 21
222.733191917432 206.873957741715 2936.50313996157 25 28 21
211.124774974082 207.083778648264 2936.66350792615 27 30 23
196.99222583161 207.144098316284 2935.10106905862 23 26 19
194.483095981352 207.921014763492 2941.72890997523 22 25 18
199.502857812792 209.151516259701 2953.56660786774 22 25 18
193.68770443959 209.721685689547 2957.83962317865 24 27 20
187.030857183474 210.242105881033 2961.5392343978 25 28 21
182.889858270033 210.912869194395 2966.969078327 23 26 19
