ply
format ascii 1.0
comment KinectMotionCapture
element vertex 795
property float x
property float y
property float z
property uchar red
property uchar green
property uchar blue
end_header
110.323592398506 315.393617921529 3003.74816221484 45 48 39
105.328301139391 316.008655776651 3008.61765795273 41 47 37
15.2374961009514 315.7705774049 2959.24709862584 41 47 37
-4.73979234315802 316.264763432001 2954.92265327926 58 65 58
81.8586318176555 318.435783433049 3025.89668301416 130 135 129
379.917831484766 286.988732048213 2881.9363942258 159 155 146
383.011704491338 287.795470895349 2892.91500364831 202 198 189
386.145183304071 288.597098863654 2903.85503930548 191 188 181
386.92847870645 289.332881972785 2912.8875078775 190 187 182
385.344155945046 290.00503459694 2920.02973289072 203 203 201
380.573975772736 290.595909893796 2924.67926120722 200 200 200
377.40931405582 291.225606507779 2930.5625668253 183 183 183
371.840278903071 291.796217769607 2934.59145564443 174 174 174
366.268098827179 292.367078076901 2938.62343060992 160 160 162
354.226475799575 292.787690875297 2937.76557651086 142 142 142
343.771278708802 293.249504126036 2938.16044507342 144 144 142
327.604549734215 293.586202393818 2934.32640026038 80 81 76
313.012387669148 293.965520717438 2931.75630663961 22 23 17
296.742559576803 294.314670805546 2928.02280040098 14 15 9
265.695380618933 294.353325705623 2913.50291830351 13 16 7
269.781706845179 295.153991224515 2924.9138139607 15 18 7
252.543214701179 295.503797916357 2920.72519908139 11 14 3
223.714083781372 295.624085648641 2908.24176299154 15 18 7
226.151636002149 296.390763727117 2918.46112030294 12 15 6
236.901585089848 297.317033423323 2934.57232593545 14 17 10
236.111654097185 298.00756553496 2942.33990101654 15 18 11
221.205306821636 298.424678605145 2940.07621190725 17 20 11
224.590293314649 299.192550867338 2950.77148579856 18 19 11
223.002527483994 299.862719823195 2957.91742301575 23 24 16
221.430857789546 300.530769447789 2965.04735192599 24 25 17
203.928776818626 300.912167610288 2961.11547760081 25 27 16
198.988172031229 301.5216086809 2965.93149606617 26 26 16
183.930490841195 301.956872740882 2963.81573890472 27 27 17
182.348769070824 302.625835776409 2970.95551467321 31 31 23
174.007108692116 303.180584912372 2973.48893994878 28 29 23
154.613978625518 303.55784367116 2968.60136065508 31 32 27
144.516274134408 304.092054757106 2970.04778057274 31 32 27
154.864369611171 304.948292189491 2985.15147420169 31 32 27
146.477814348665 305.508347225949 2987.72869655075 35 38 31
128.652722761346 305.92899178841 2984.11177594186 39 42 35
123.650240987346 306.545496326037 2988.98819519229 40 43 36
117.788082097543 307.149551847289 2993.30321716854 46 49 40
109.335373508764 307.717578006492 2995.94495262006 50 53 44
110.376816133455 308.418016537201 3004.72630109746 49 52 43
109.713277775615 309.091758096642 3012.37051021804 47 50 41
77.8109670792095 309.352541307553 3000.08420327047 49 56 49
25.7742503777485 309.371169933636 2975.23617026754 40 47 40
24.9875858416231 310.060050206871 2983.000408008 62 69 62
81.9118893689179 311.451818954484 3026.87602437836 103 108 102
372.974221337848 279.307084473985 2868.7118547701 180 173 163
376.018396757243 280.147479511546 2879.73484026109 135 127 116
379.894866886385 281.006252243568 2891.34553790423 115 107 96
380.63625507138 281.766660198414 2900.41598142118 192 185 175
382.20238858567 282.546399271377 2910.08183066305 204 197 189
380.605998322232 283.231187115403 2917.23383356221 183 180 173
376.624486355269 283.846367444787 2922.51351973667 190 187 182
374.252564879371 284.505282582833 2929.02255125118 178 177 175
369.47998194934 285.096519754305 2933.67441205671 170 169 167
363.901892136118 285.665781067039 2937.71249180942 163 161 162
349.429722931692 285.998674679312 2935.03010505628 146 146 144
333.291501504761 286.29455504603 2931.17378469495 137 138 133
300.856915425175 286.176286627836 2915.22099294145 105 106 101
282.944590783455 286.448360807352 2910.29574536511 10 11 5
273.947226195264 286.95393276846 2912.07031581904 9 10 4
294.378256734593 288.192891060056 2935.52645024215 16 19 10
281.314199189834 288.593828165766 2934.26988747406 16 19 10
256.706275438839 288.72169829063 2924.67849402094 13 16 7
223.768537733911 288.664928900493 2909.21624973987 17 20 11
226.205842926751 289.456360801268 2919.43219374954 15 18 11
230.334116875357 290.2815026584 2930.79781710622 15 18 11
221.232297063163 290.799210905756 2932.67431940391 15 18 11
222.090731054321 291.54268323467 2941.63137562519 15 18 11
217.976013394211 292.172268020755 2947.04120804967 15 18 9
207.18297349288 292.655885214532 2947.76833690408 15 16 8
211.435781667057 293.465165389491 2959.01264028353 15 16 8
202.303713026007 293.986172709423 2960.91903035593 15 16 8
202.406307226024 294.701198053983 2969.21326611334 17 19 8
183.140709996163 295.017579410665 2964.20838032291 19 21 10
195.078408600676 295.969428284209 2980.55359969554 25 26 18
191.001043713766 296.593863597818 2985.92743919583 27 28 22
179.287581974465 297.069297200823 2986.15252291312 38 40 35
162.438785093686 297.450923920356 2982.9891412082 47 49 44
157.476262444041 298.063157570179 2987.82651169279 51 53 48
147.385975561201 298.580598714534 2989.26770656384 41 43 38
146.697136028401 299.27159565851 2996.93482762886 34 36 31
138.300559719266 299.822460078333 2999.5230215525 35 38 31
139.355852577093 300.540628726326 3008.28833388206 34 37 30
125.776535980435 301.003500270301 3007.5342770865 39 42 35
113.023709155704 301.48562873545 3007.37356688284 45 48 41
92.4396337325053 301.842857937692 3002.25466497564 50 53 46
92.625966651708 302.546915608657 3010.46770580638 48 53 47
85.0041792273162 303.123276270349 3013.70000174028 46 53 46
45.9742311352151 303.210540757194 2997.18090201639 64 71 64
48.750402893659 303.958722423567 3007.0667388828 66 71 65
377.762131485311 272.702372789302 2873.43569430824 178 166 152
377.654493458316 273.463198794996 2881.93192445716 158 142 127
379.949207409501 274.299304723652 2892.28286087587 157 141 125
379.895756525487 275.053124376791 2900.72665576861 144 128 112
378.273157874391 275.752479250374 2907.90253098354 111 98 82
375.069950497577 276.398815884639 2913.82199146598 102 90 76
370.274274963854 276.993598160617 2918.49625960344 153 141 129
367.886630168605 277.662928015087 2925.01936531597 184 181 176
363.902669279363 278.281203347087 2930.30102586641 172 171 167
359.117180373626 278.874288654963 2934.96542934284 151 150 146
343.017160136257 279.128158567442 2931.07738376235 140 141 136
317.951521923013 279.124796901941 2920.5429942201 113 114 109
281.41999467483 278.800932329353 2901.60369036019 64 65 59
257.76290254462 278.871529985001 2892.49381905741 14 15 9
267.473659404499 279.906313619532 2908.20434814581 13 14 8
283.798578122825 281.116323090792 2928.65696865709 14 17 8
269.069633471594 281.448240456754 2926.22970800724 13 16 7
258.404176610453 281.898348492879 2926.83509765559 14 17 8
234.532297914205 281.994917742498 2917.93467399777 19 22 13
232.865903914215 282.697759291174 2925.15352331251 13 16 9
222.111952308532 283.158507518741 2925.84521693473 13 16 9
218.79800780442 283.816607738656 2931.87290236875 14 17 10
209.671925030016 284.324165700789 2933.7749983543 15 18 11
206.361724189505 284.981558097117 2939.79907089104 16 19 10
188.858395310359 285.28326978722 2935.88021338299 17 20 11
195.580308606551 286.189826058659 2948.90934730677 14 15 7
207.3929144558 287.211784635247 2965.36842345108 13 14 6
204.98354246484 287.881627474768 2971.91302877117 13 15 4
186.567103336788 288.171773587913 2967.48570330805 14 16 5
187.526341765824 288.921570104463 2976.34172452018 20 21 13
199.524469467308 289.920332352443 2992.62000312995 15 18 11
181.039028498278 290.218793946665 2988.25996849048 24 26 21
151.431157461527 290.278510163475 2976.55878529218 32 34 29
139.621119841224 290.744685226679 2976.88147653709 40 42 37
138.892360153725 291.454585452592 2984.58510716705 47 49 44
149.320849093783 292.398887554123 2999.59629082086 47 49 44
145.223223047934 293.028676423714 3004.98912085627 39 42 35
145.433126929859 293.746583458054 3013.17670844271 32 35 28
136.179738518977 294.26887826208 3015.20304270842 29 32 25
113.941938038559 294.534306075606 3008.90606379931 35 38 31
83.8305087709617 294.655867423691 2997.69578068481 42 45 38
85.7339866025022 295.412582824642 3007.03004492146 49 54 48
85.9286279030824 296.13229601222 3015.23252152814 38 45 38
60.8555323901503 296.375742386286 3007.50321555169 73 80 73
48.8051566334411 296.871255942672 3008.05989206043 52 57 51
50.7407766258012 297.624007766774 3017.36282447116 98 103 97
362.212294602611 264.58152640542 2853.23482475396 183 173 161
380.972402805427 266.070846956663 2876.89595916565 171 158 142
380.081582165976 266.818219531465 2884.7549803198 159 142 124
381.589234039967 267.64948405325 2894.47128725617 152 133 116
381.539415996637 268.419401227133 2902.90909547788 148 130 110
378.32733517976 269.072736935655 2908.83599511536 134 117 99
371.131352809083 269.584243511944 2911.65504574187 103 87 71
363.924466134622 270.096977326921 2914.48474311789 102 86 71
359.916472646834 270.721468370758 2919.78968755646 123 119 108
355.108700174977 271.317864111239 2924.47572966296 154 154 146
347.882876281751 271.832528255137 2927.32394667538 163 163 155
329.331216809339 271.971573581471 2921.63632032572 143 142 137
299.372051313372 271.745028883428 2907.49213047928 65 64 59
267.669233119514 271.480344479874 2892.25123193415 14 15 9
248.863860876237 271.650460315495 2886.81095390881 12 13 7
229.993376169204 271.828504509841 2881.43416171456 11 12 6
252.771709522342 273.326010671053 2906.77190443498 12 15 8
264.204798619279 274.450300560212 2923.59272180133 14 17 10
253.527775711118 274.883394695445 2924.21211135247 11 14 7
232.93955819368 275.019690795563 2917.71306710438 9 12 5
226.315228894023 275.585737044879 2921.37364400063 9 14 7
227.132452416744 276.373174907261 2930.36478689763 12 15 8
219.682197294822 276.914289397773 2933.43195808818 14 17 10
209.726625504163 277.38454078286 2934.74635350705 19 22 15
202.249076657897 277.928845463493 2937.84015626064 21 24 17
188.913216118651 278.309501490935 2936.85649541857 24 27 18
193.960300615937 279.207733612313 2948.71617076848 24 27 18
211.643179180238 280.446202223222 2969.23302014767 22 23 15
215.131602741376 281.283296112371 2979.81534857501 20 21 13
189.150579727 281.324452716489 2970.18336989135 18 19 11
191.805463771183 282.137635347151 2980.18004013685 19 22 13
190.26097554455 282.835752609272 2987.27853346404 19 22 15
175.999276131641 283.203543490452 2985.79923645521 18 23 16
155.739875093592 283.424977932279 2980.37833633227 18 23 16
143.086628270884 283.847466147968 2980.12755651736 19 24 17
142.365563978804 284.570386601096 2987.82162112201 33 35 30
151.944548783902 285.541894623861 3002.25510675683 39 41 36
153.863002222086 286.318953359226 3011.57149325876 49 51 46
133.439451095434 286.560416424364 3006.31029853662 52 54 49
136.233579492782 287.355971380775 3016.17130244357 50 52 47
118.318171051684 287.667810311453 3012.66048707246 48 50 45
83.8853339923893 287.611778245481 2998.68245173372 46 48 43
67.5553339785386 287.981204851359 2996.4226095599 43 48 42
60.7479630920449 288.568572078518 3000.26179822652 34 41 34
58.2941318398196 289.251833083859 3006.84856905123 36 43 36
47.9862805455236 289.764563668802 3008.50650481767 44 49 43
56.9274707728304 290.687925939438 3022.16353649999 30 35 29
347.550841210268 256.338348730976 2833.58676709007 179 175 164
382.725667559025 258.600582737517 2870.59106802362 181 169 155
384.182715722636 259.460367751102 2880.35307203424 169 156 140
383.299485262734 260.220655879599 2888.2026471147 156 138 118
381.644045861751 260.946737616361 2895.40752130302 159 138 117
381.594012587395 261.733266905982 2903.84308798887 154 133 112
377.585288380187 262.361327525077 2909.14789261897 147 126 105
369.588874359259 262.834532721031 2911.3505353163 121 102 85
359.976813124913 263.248255382998 2912.33217459532 114 95 80
351.947026234351 263.725328688689 2914.56738534061 106 93 77
343.902341282343 264.20410152097 2916.81680104986 94 91 82
332.618128047475 264.565127608734 2916.63288187957 107 107 97
293.824912488762 263.922637197005 2895.73549491064 89 89 81
278.363432612458 264.15220409369 2892.63387060509 31 31 23
257.979836835409 264.212949424783 2885.94280031459 7 7 0
231.011237857903 264.051450919532 2874.48763286259 11 12 6
212.098375766995 264.189269295802 2869.15886739533 12 13 7
237.286872938234 265.869674705304 2896.32731518174 14 17 10
252.781939625689 267.193914278506 2916.17019855024 15 17 12
248.65195206447 267.835419294342 2921.5934324075 13 15 10
228.876305263709 267.949961596606 2915.70795578728 10 12 7
226.370428656762 268.649572571072 2922.3439919003 9 14 7
223.049342986172 269.320306140662 2928.37656357264 9 14 7
228.032498863239 270.259634765439 2940.29364694221 9 14 7
218.927784731005 270.738478876008 2942.17876744492 15 18 11
208.137948442932 271.166526866258 2942.91092816803 17 20 13
195.65129791624 271.545237966796 2942.50152384892 24 27 18
194.852381274268 272.292317112693 2950.26932634365 25 28 19
203.305250586868 273.320390432504 2964.39579166564 26 27 19
184.903939680516 273.523360469836 2959.96632824067 24 25 17
194.263624524214 274.568687328403 2974.60667158731 23 24 16
196.929846791848 275.405236987377 2984.58862917273 22 25 16
190.315118221899 275.964262778458 2988.24037218113 20 23 14
175.204693168934 276.278287397998 2986.19490959162 19 24 17
159.197788723701 276.573547349059 2983.62519054113 20 25 18
150.816371260852 277.091794443351 2986.20349017478 22 27 20
153.531237354002 277.922033164424 2996.13773863425 27 32 25
156.281984666589 278.747823902988 3006.03735176426 29 34 27
144.472886013949 279.171585203605 3006.36537933598 44 46 41
143.819890937755 279.899973773405 3013.99104201776 51 53 48
122.694292546515 280.827789162539 3016.41077030635 52 54 51
94.3361310096358 280.836336809234 3006.31032627033 52 54 51
53.7191430865018 280.546975096593 2988.58868926979 53 58 52
48.6211103234084 281.177161739574 2993.55796985569 41 48 41
40.0356173863354 281.72038393748 2996.33522814263 26 33 26
46.2937242473411 282.630483066716 3008.40749576231 48 53 47
70.9978091316032 283.980291843288 3031.85510619543 40 45 41
376.647250764602 250.752925538658 2857.94848640473 184 175 158
383.568168275729 251.88517339894 2872.16389624269 174 159 140
386.604433437099 252.836203440848 2883.17838493151 167 150 130
384.936202530818 253.575144349457 2890.39372285172 160 139 118
380.906359524064 254.209184325288 2895.71861501564 159 137 114
377.675865996821 254.876504038252 2901.66206975895 153 129 105
374.45398327032 255.542620285309 2907.59715172157 146 124 100
369.643606751155 256.140494199447 2912.28556121212 143 123 99
363.233129794736 256.671530013812 2915.73861625523 139 119 95
354.408617894469 257.104185174533 2917.35231850606 117 104 87
335.914185651977 257.145322044105 2911.62233549826 84 72 58
295.586266457006 256.315135214651 2889.44285474035 36 27 12
279.333510808045 256.475703105082 2885.72026767953 28 22 10
247.635032735496 256.033181783461 2870.5013435486 27 23 11
234.48652619555 256.338768561255 2869.34273261794 15 13 1
225.369975810199 256.806942499138 2871.24118374184 12 13 5
259.479802137684 258.939511697884 2905.07114404692 11 14 5
281.508502078413 260.581941557485 2929.71495485044 8 13 6
254.476881527407 260.355397553672 2918.33164460684 11 14 7
246.242037157029 260.846380425562 2920.76842463309 14 15 9
230.579225831008 261.065475304009 2917.86827319305 14 17 10
223.949055723008 261.62236585938 2921.53600330591 13 16 9
220.622049372874 262.299683738525 2927.57348114248 14 17 8
217.30388427449 262.975859257288 2933.60268616772 13 16 7
213.162796761752 263.621417195576 2939.03634342076 14 17 8
208.193150187642 264.237128815431 2943.88027402521 15 18 9
208.236416156013 265.026373099943 2952.22279190875 19 22 13
202.442951990986 265.611552210435 2956.47238893307 20 23 14
191.611322382536 266.026131568173 2957.24804169913 21 24 15
205.146201135145 267.262824182375 2974.798956429 21 24 15
212.865881299622 268.292827386691 2988.23629485981 24 27 18
217.264378161918 269.204391406594 2999.32080971066 25 28 19
201.379767631954 269.450047089313 2996.63698248366 20 25 18
174.410336711196 269.347104164049 2986.59089599218 21 26 19
160.954176325134 269.689116844505 2985.73240614617 21 26 19
161.956765420555 270.49144245729 2994.53727788627 21 26 19
168.970272017418 271.476185449266 3007.26563723078 22 27 20
154.623227161526 271.795971339733 3005.87784678314 24 29 22
141.093132406089 272.146980293671 3005.09144521357 36 39 32
120.641587313723 272.295854960128 2999.87207128009 39 41 36
88.1754885809789 272.872719044922 2995.18378200239 43 45 40
71.8683123063957 273.170304313242 2992.9118936364 50 52 49
67.6666052941508 273.822413379357 2998.40477869474 59 66 59
44.3267135787346 273.931640476958 2991.80836975377 58 65 58
34.8594424318489 274.441345257951 2994.048953538 50 57 50
54.2156605112289 275.751087193617 3014.31086503566 50 57 50
71.053082455808 276.975537350693 3032.8355186223 44 49 45
382.19744841714 244.22925560753 2863.32029456359 183 172 154
385.197599548968 245.212303127624 2874.36591284831 174 157 139
389.026284270012 246.227708056743 2886.00124977976 168 150 130
387.363690997711 246.977127586834 2893.2094407104 161 139 118
384.132314400562 247.650470249646 2899.15288216583 160 135 113
380.114774443143 248.285907671945 2904.46535067791 152 128 104
376.101933977532 248.920605226564 2909.77326187727 148 124 100
372.892286742603 249.59086948725 2915.69558074128 145 123 99
367.290064871829 250.15192472563 2919.75883683809 141 119 95
360.080010794155 250.64176515565 2922.59506312462 116 99 81
335.165224878962 250.351520266747 2911.95327623553 87 74 57
291.611263143607 249.261920682412 2887.34733154691 51 38 22
268.075616394176 249.070983883155 2878.15551786395 28 19 4
254.17266763163 249.308412301312 2876.3392436711 17 13 1
236.979774805185 249.412732710577 2872.14163076073 13 11 0
259.614148166659 251.205069050016 2897.57875210942 14 15 7
268.510822721336 252.401715325184 2912.65650657392 13 16 7
267.660173956105 253.184065134413 2920.47080468514 10 15 8
253.712909704088 253.426415120567 2918.69747118085 13 16 9
252.87178653155 254.207372428796 2926.50251604875 16 17 11
233.93006062613 254.257457350881 2921.2153797422 17 18 12
228.958684837421 254.874183044869 2926.06087760259 17 20 11
221.50551310715 255.392844284359 2929.13426360903 17 20 11
225.654541078059 256.366064603283 2940.45739198279 17 20 11
218.207046868771 256.883847936768 2943.5252698811 17 20 11
216.582357382669 257.62618930811 2950.6968679405 19 22 13
208.291788959012 258.113140427369 2953.18957866668 25 28 19
201.660905805152 258.664679294961 2956.85846997973 27 30 21
205.093454253719 259.59112286943 2967.48307737537 28 31 22
216.135612631216 260.791101228392 2983.26399868464 28 31 22
230.624432091378 262.10456360576 3001.27353681231 30 33 24
221.543638814541 262.553961040246 3003.13959359986 31 34 25
212.444205562806 263.00557395559 3005.02349486893 28 33 26
188.047065758875 262.919733399239 2996.67162334549 30 35 28
172.920556916061 263.171951881385 2994.65126711717 30 35 28
170.538980765287 263.872299179969 3001.16342436934 30 35 28
169.879561786483 264.629568450466 3008.79153536841 32 37 30
152.108316363739 264.803849248518 3005.15755717889 33 38 31
142.865390246797 265.272993219973 3007.18169574388 35 38 31
125.859753428923 265.487519894544 3004.19875572869 36 39 32
117.424617566475 265.991647635578 3006.83214751949 43 46 39
99.4675744408342 266.188822171143 3003.37962335313 49 52 45
96.179657580175 266.866137800341 3009.37862292334 47 50 43
88.5592789412173 267.404448133437 3012.61514373443 44 51 44
50.4740766058216 266.986850936699 2996.64942516229 44 54 46
39.2764279560271 267.427729800291 2997.78465319168 45 55 47
47.2798994394874 268.462982456317 3010.93906893887 45 55 47
42.2035404626468 269.091527697448 3015.8870697331 47 57 49
16.0601122144 269.086508101047 3007.84043382945 54 64 56
42.6105248237274 270.662139454409 3032.25505569505 35 41 37
379.293795668973 236.442927515664 2853.18437385476 181 170 152
387.747791421362 237.742911066178 2868.68677955176 179 164 145
389.187697417974 238.670887465742 2878.45572733055 174 156 136
392.236897591781 239.675083625811 2889.44951343176 171 150 131
389.000747874371 240.354910156715 2895.39673635328 164 139 119
385.772914192457 241.033539192845 2901.33554047584 158 131 110
380.170221145164 241.592707859238 2905.39954329241 153 127 104
376.157224856436 242.230520921227 2910.70714875581 151 125 102
372.947503723801 242.906558700681 2916.62868767778 153 128 106
368.945776500342 243.542729984836 2921.92534544682 147 125 102
362.542064505627 244.062801518842 2925.37364114079 139 122 104
333.612236186338 243.513559107219 2911.67190816037 100 87 71
287.6370185297 242.181117992997 2885.25547031323 68 56 42
261.667618174005 241.816447539856 2874.2550219018 48 39 24
257.470022767982 242.476397103829 2879.74266525222 26 22 10
263.833526699558 243.619949125199 2893.09301494697 25 22 13
274.321747797964 244.941533005245 2909.40569307817 13 16 7
275.91000702272 245.849334606801 2919.03064357668 13 16 7
262.809075715166 246.095542240441 2917.83356594853 10 15 8
254.58868664405 246.564091483022 2920.25896948754 12 15 8
246.353882749093 247.034341709833 2922.69877359698 15 16 10
229.867891719498 247.148316550824 2919.21467914934 16 17 11
223.23554013325 247.695558906839 2922.88566366 19 22 13
219.079084354316 248.349572018895 2928.33366999956 17 20 11
229.857592669343 249.634413160746 2944.36351919408 16 19 10
232.396773550176 250.561485517389 2954.45825153942 16 19 10
216.638086550371 250.722774246332 2951.66184978441 19 22 13
204.171220741287 251.027594662188 2951.24371995918 22 25 16
201.716667884214 251.746016642538 2957.82567272942 24 27 18
205.988144261603 252.73389094221 2969.02538001546 31 34 25
210.30301198044 253.716293369534 2980.18246995635 31 34 25
212.975379058471 254.62644280992 2990.14744763866 31 34 25
205.543838512582 255.134165685825 2993.20097024461 31 34 25
207.417354237962 256.00531158493 3002.54773667595 27 32 25
201.683435506985 256.578310767824 3006.740004392 30 35 28
194.244881111548 257.086755686637 3009.8003851366 30 35 28
170.594205024873 256.984662962138 3002.12657548823 31 36 29
163.097571226733 257.500254510324 3005.24391151159 32 37 30
147.024396549797 257.699906835997 3002.75413054611 34 39 32
140.345264932364 258.25194089275 3006.47086010799 31 34 27
125.915503371859 258.523629682162 3005.17265514334 32 35 28
120.929996283706 259.141517678305 3010.03201380522 38 41 34
110.759533721169 259.574671892036 3011.56528188296 49 52 45
109.228964644268 260.315835990086 3018.64359098515 49 52 45
92.9560496273147 260.540093813303 3016.34851844822 27 32 25
78.373952872838 260.830574092637 3015.1988072091 38 45 37
65.4940716983723 261.185823568612 3015.18301651213 47 54 47
41.2189608421851 261.160843868148 3008.11788254945 46 53 46
24.7426477983108 261.410300978322 3006.02106281642 43 50 43
11.7283697370998 261.782229661927 3006.13660287712 49 56 49
381.116066594596 228.85911739859 2846.82774059794 179 170 155
393.442040785111 230.428746408114 2865.53024541702 183 170 153
394.867331929935 231.380634325277 2875.31017184783 179 162 144
393.177576802665 232.1560336149 2882.54149510487 176 155 136
393.081569211053 233.014993471636 2891.01200976119 169 144 124
389.05665542407 233.657745562081 2896.33105733227 166 139 118
387.413884444738 234.426926909176 2903.51664364505 158 131 110
384.198328906177 235.109683839794 2909.44264528875 156 128 107
378.602205714075 235.665591807457 2913.50060607185 153 126 105
374.599620192066 236.305070352618 2918.7976273323 155 130 108
369.001139451936 236.861039651364 2922.85792013074 150 128 107
362.597366802865 237.376121223772 2926.30701356952 134 118 102
335.27666851114 236.827978239179 2913.84138466701 111 98 82
284.469359516623 235.113442528708 2883.77762677399 93 81 67
260.108780372137 234.760729509169 2874.01164644905 71 64 48
260.767713458913 235.665511117364 2883.14296857651 20 18 5
272.010411164208 237.08612090732 2900.10905145733 17 17 7
273.56435182566 238.020272061473 2909.76384850216 13 16 7
269.439135938613 238.674074962754 2915.18052639433 12 15 6
250.598172540364 238.621013732145 2909.80857638494 9 14 7
242.348921613637 239.082809918851 2912.26397611392 11 14 7
240.658440072297 239.856369555443 2919.49629261079 14 15 9
228.277205983634 240.127159310377 2918.99782109614 14 15 9
219.989926289634 240.593440041111 2921.49032113955 15 18 9
216.653062428955 241.289633999504 2927.53513559554 15 18 9
224.10757095049 242.475867179666 2941.21236482354 14 17 8
242.42929540141 244.142788096857 2962.44875288941 14 17 8
215.860869765994 243.781589134593 2952.04263235112 16 19 10
203.392034735417 244.062803207499 2951.62960915712 19 22 13
192.563672246703 244.421834840123 2952.4102275545 21 24 15
197.65266580281 245.479144520337 2964.20477499575 23 26 17
190.172916361187 245.985352657148 2967.3063936256 23 26 17
186.89739011984 246.673370063514 2973.29116956768 22 25 16
181.09580440803 247.252673671326 2977.54969980474 21 24 15
200.697564484609 248.900942912335 2998.93465959923 18 23 16
203.436223477158 249.827502110682 3008.83138307539 22 27 20
197.702880787312 250.398156670322 3013.02308746638 23 28 21
168.944503132436 250.02679082893 3001.95930568171 24 29 22
158.025457477382 250.396605858475 3002.82838002245 27 30 23
145.367046803063 250.700804936698 3002.60021107139 28 31 24
143.834970593457 251.45355475849 3009.67830441372 25 28 21
119.948694193256 251.321753808664 3002.24317806422 36 39 32
131.33402064347 252.58218009862 3017.67405638453 32 33 27
128.965423944411 253.297949568436 3024.17138330109 37 38 32
121.411891635991 253.812840035291 3027.34498616379 31 32 26
100.825695624488 253.834260191362 3022.27816030449 31 32 26
86.2611691053301 254.093424347485 3021.1156300713 32 33 27
71.6548092344005 254.357757362561 3019.99353917774 44 47 40
58.7547371137775 254.691758306635 3020.0009389125 47 49 44
30.9313171528052 254.485529738987 3010.81847957707 43 48 42
8.27472660704753 254.482356143728 3004.97672672262 39 44 38
58.5588358108451 257.107216346814 3043.92795361199 29 34 28
396.790922106998 222.97942378321 2860.47160691209 178 162 147
395.064540946901 223.770806607539 2867.73693800171 180 161 144
397.27831516723 224.790292976515 2878.14114522067 175 154 135
396.381053577131 225.621956984773 2885.99444193897 175 149 132
393.13782754599 226.31429075198 2891.94650533858 171 143 122
389.903379529376 227.005431162036 2897.89036625967 169 138 118
385.09224199702 227.605258532013 2902.57924272765 162 131 111
382.665360140739 228.339373458148 2909.13173621651 157 129 108
377.065304191664 228.893440572568 2913.19387436273 156 128 107
371.461893251942 229.447788881607 2917.25896466181 156 131 111
367.456280288402 230.090650827221 2922.55882999335 151 125 108
362.652992017566 230.688957953625 2927.24013671995 133 117 102
343.374791646877 230.501764757947 2920.90494697388 90 78 64
280.495892360836 227.980279001579 2881.69239457986 39 29 17
249.661491345398 227.219153854707 2867.07942798177 18 10 0
255.96515533634 228.446746961563 2880.47677838643 25 23 11
257.451972662498 229.411407048676 2890.19372068851 20 20 10
267.923811626861 230.838629233926 2906.5073910676 14 17 8
247.467988440547 230.653727276105 2899.92435022424 11 16 9
244.112976516248 231.358452410781 2905.98592507155 9 14 7
228.470604102438 231.436592917143 2903.08631048419 11 14 7
225.103585687059 232.1426088234 2909.15927933716 14 15 9
229.158011869742 233.218384620385 2920.56152887222 14 15 9
228.302458907617 234.042820804483 2928.37413873363 13 16 7
219.192531764501 234.457369639833 2930.27427648881 14 17 8
221.675884694959 235.440967880018 2940.41575447127 14 17 8
217.544308010523 236.098110024714 2945.83859303256 15 18 9
218.417210825041 236.994586649275 2954.75832968828 16 19 10
201.778272742768 237.052429138519 2951.434410262 21 24 15
196.806292761209 237.670211357357 2956.28035194091 23 26 17
196.869743891791 238.523521937759 2964.59301884744 25 28 19
196.116551287321 239.33473871919 2972.30627502447 25 28 19
181.052820638958 239.483703457912 2970.23850213723 24 27 18
179.462430917972 240.255297878734 2977.37205427688 25 28 19
190.590823036324 241.599675691394 2993.04566418852 22 27 20
191.608392016243 242.477745311779 3001.82446575062 26 31 24
182.445325632908 242.898204484653 3003.77649801157 27 32 25
170.70564207412 243.208101272232 3004.05208665226 27 32 25
164.91819386707 243.78323438546 3008.29719453539 29 32 25
161.697332382361 244.47008211113 3014.22819828632 32 35 28
146.466515174234 244.639469479619 3012.32332636716 27 30 23
130.329814790849 244.77784922996 3009.90568342714 32 35 28
128.803205473471 245.54117290898 3016.97678525319 36 37 31
130.750041160719 246.44711970846 3026.24593816265 37 38 32
118.869417409168 246.774327238378 3026.65892397807 32 33 27
90.4646842353749 246.427274444677 3016.65728385576 31 30 25
75.8772949456472 246.660131247197 3015.52134490709 23 22 17
68.2239184078575 247.179824780528 3018.79338467439 44 45 39
71.0467915070652 248.120401679886 3028.60441048764 42 43 38
68.6501407061728 248.848228810426 3035.12781342504 50 52 47
34.6661527891889 248.333031555132 3022.18917582695 43 48 42
30.465178321466 248.997947703163 3027.67944057663 24 29 23
383.013236698646 214.428245341977 2841.40872411414 169 163 151
395.286714613693 216.124184316704 2860.14468995311 175 158 142
395.121718282358 217.025223322863 2868.67715432592 178 157 138
397.335203361477 218.069424596565 2879.07799581425 173 151 130
395.650898988607 218.86647854612 2886.30070584231 174 147 128
392.40581048445 219.564842499143 2892.25406528833 172 141 121
389.169247746727 220.262013706185 2898.19913480957 168 137 117
383.563474088318 220.814662304459 2902.26682253975 162 131 111
381.132560726212 221.557762234769 2908.8219913938 157 129 108
375.528508042493 222.110018674656 2912.8883659735 155 127 106
371.517936797167 222.756666189496 2918.19225760468 156 129 110
367.512253044818 223.402632922555 2923.49173434432 150 124 107
362.708876172061 224.001341887115 2928.17306966243 126 110 95
334.585137995222 223.256209519926 2915.11707686395 90 78 64
278.135307297594 220.911767297423 2880.83014759128 40 30 18
261.84093494959 220.890517774227 2877.17575906215 19 11 0
264.123224429446 221.924769959087 2887.50974723442 24 22 10
259.945611766736 222.591546939751 2892.97653833612 14 14 4
257.400592594383 223.347911312805 2899.64305546769 11 16 9
250.788929044195 223.878201446114 2903.29600198383 10 15 8
234.357253537576 223.873605139525 2899.77549618277 8 13 6
217.872178100795 223.875563836143 2896.30704847515 10 13 6
214.479851183553 224.590608195017 2902.40381464325 12 13 7
234.156971803346 226.534112750537 2925.08755181346 13 14 8
230.836265368934 227.24009135403 2931.11453769805 13 16 7
230.006836470312 228.075218872105 2938.89996364572 15 18 9
216.756596111573 228.259874773578 2937.86024943173 17 20 11
218.432524040331 229.222269683778 2947.38973690201 18 21 12
216.807316235629 230.009794920777 2954.55517150383 18 21 12
217.704170635376 230.922623326943 2963.44870709517 22 25 16
206.908945688752 231.240732495852 2964.20246774566 23 26 17
211.191202168704 232.317816538677 2975.37828506942 24 27 18
202.90131252163 232.763225298049 2977.87612386107 24 27 18
200.497755325807 233.50094531986 2984.40492278573 27 30 21
190.502588950962 233.865665908384 2985.77423361766 29 32 23
193.187606839058 234.848499121203 2995.71590622874 22 27 20
183.176837611006 235.215083501846 2997.10043545689 26 31 24
176.546644362279 235.746576152468 3000.77194234806 27 32 25
170.761897044368 236.319207338139 3005.01440015015 27 30 23
173.520129606636 237.292795935738 3014.88473585756 27 30 23
158.327609933255 237.425624395996 3012.94757515291 25 28 21
152.531979368196 237.999502279141 3017.20065591896 31 34 27
135.548748340945 238.062300689825 3014.2178919936 35 36 30
121.961486953793 238.28807979286 3013.50676665167 33 34 28
111.793281550281 238.67398078554 3015.04477734257 31 32 26
103.335176659097 239.139889827642 3017.70696426746 84 83 78
91.3901174372134 239.45406711023 3018.18619916432 90 87 82
84.6349307160699 240.000836348102 3021.97923070642 38 33 29
72.6410230139098 240.321044744746 3022.50574362829 33 30 25
76.3473744554863 241.322920182665 3032.84764964984 33 32 27
67.8313654013736 241.795950353787 3035.56594592274 42 43 38
48.767759101028 241.824638395116 3031.81991041742 46 48 43
376.840383496536 207.188150097451 2837.27225344289 166 158 145
389.097689974022 208.945958984404 2856.01513341241 169 150 133
390.482685708488 209.968966197163 2865.82490022254 171 149 128
393.468872853908 211.090802910156 2876.86387197009 169 142 123
392.561284252529 211.95147507532 2884.72279832833 168 140 119
390.096829921667 212.707560248418 2891.30935464697 163 132 112
388.435278289435 213.512721426318 2898.50827262243 160 129 109
384.412747230641 214.164291190809 2903.82365086082 158 125 106
380.394684337575 214.815155916754 2909.13435850699 155 126 108
374.788633292771 215.365342384266 2913.2030234298 155 126 108
369.977768150423 215.965570310249 2917.89157020848 152 125 108
365.967892434766 216.615115439364 2923.19434290229 149 123 108
357.149413817318 216.968316109982 2924.81379735303 128 112 99
312.929595320775 215.166094849046 2899.55747412632 78 66 54
278.19348280241 213.972950013121 2881.79793261931 43 33 23
265.939656021053 214.157049844931 2881.18609433984 21 17 6
269.04128760642 215.263197802023 2892.11274684322 20 20 8
255.132090443723 215.354859949994 2890.32388375318 13 15 4
257.45850015188 216.408206419607 2900.61123775958 8 13 6
254.110183136085 217.123896062192 2906.6645439143 8 13 6
245.046092342665 217.507028095745 2908.52347104423 9 14 7
224.487969662786 217.232947575921 2902.05519566276 12 15 8
222.754365388059 218.045666315892 2909.32454597298 14 15 7
234.21451133088 219.602164427426 2926.05495314686 14 15 7
239.97419225717 220.824173313049 2938.57572712003 13 16 7
234.201233135401 221.393838521821 2942.80725528117 14 17 8
225.107849543273 221.780215445089 2944.69512884196 16 19 10
210.176605780736 221.849248782529 2942.50760834478 19 22 13
209.365248078683 222.69591158674 2950.27338441686 20 23 14
216.925925917592 223.991703069594 2963.82899327395 24 27 18
222.871489795006 225.19022119114 2976.16899249547 23 26 17
217.121344020949 225.756693457501 2980.37833858058 23 26 17
208.845299653396 226.190112670094 2982.86453869677 24 27 18
208.140918773924 227.023169704077 2990.52575828752 27 30 21
197.318461757164 227.326070387854 2991.30880859368 27 30 21
187.316508800429 227.675909227293 2992.68705811777 25 28 21
180.687170457411 228.202420099881 2996.35811453755 29 32 25
175.752449962855 228.816249649787 3001.16764119781 29 32 25
173.376430652087 229.558930625815 3007.66836136866 27 30 23
166.740287719264 230.086219947229 3011.34639763431 27 30 23
154.958175428907 230.359192273103 3011.66957605197 29 30 24
150.871932696264 231.01643515336 3017.0473824403 26 27 21
139.907557996075 231.336725581088 3017.96878890747 38 39 33
130.641417957289 231.743847540684 3020.02480822429 32 33 27
110.986435390765 231.65449791859 3015.46655469082 32 33 27
100.794053485411 232.027753664529 3017.03044196738 94 93 88
95.787864818365 232.650246471305 3021.90965715384 112 107 101
93.392502154523 233.395152222344 3028.42925673946 28 23 17
77.05856163411 233.488895092864 3026.2140734826 24 21 16
60.6752169209557 233.588785064743 3024.04704078057 28 27 22
41.6150608602224 233.574440542518 3020.30393933041 36 37 31
13.7167641582039 233.168863172266 3011.22495952968 41 44 37
389.360683350492 201.221952203831 2848.39345034046 166 156 144
392.278931837939 202.379877363923 2859.49455232298 168 147 130
392.888740775359 203.369516266219 2868.66211358594 167 142 122
395.095634316885 204.463866855921 2879.06175067954 163 136 115
393.40519490852 205.284021296108 2886.28713864612 162 134 113
390.153984881471 205.994692741038 2892.24475781293 157 124 105
386.911364194648 206.704185538811 2898.19402184146 153 120 101
383.677038082803 207.41250566056 2904.13488471343 153 122 102
380.451489716231 208.119661943515 2910.06754101144 152 123 105
374.845417358014 208.667529200378 2914.1365698771 152 123 107
370.832684970246 209.320640888343 2919.44165215271 144 118 103
365.224318435852 209.868605713881 2923.51294474863 139 116 102
355.601807069543 210.15694388623 2924.52349293598 101 87 76
321.028825263481 208.843967183703 2906.61967131769 51 41 31
266.160962679999 206.261229693762 2873.63120073578 25 16 7
268.422138927383 207.347690389204 2883.97810042295 19 16 7
273.959188578062 208.633657090897 2896.71083544861 17 17 7
264.121607592513 208.94845388217 2897.93137821685 11 12 4
260.772069955158 209.670207324055 2903.98466239794 9 14 7
255.799772496047 210.290204041459 2908.83059203483 9 14 7
242.651117269193 210.409563896265 2907.69965301035 9 14 7
236.841547928337 210.981839464764 2911.96714985022 12 15 8
235.136943386811 211.802209600056 2919.20657212378 14 15 7
242.507850569532 213.163035036911 2932.94135189979 14 15 7
238.380928548851 213.829289054941 2938.35788373827 15 18 9
235.086156842983 214.543718228078 2944.35786706352 17 20 11
223.506692286514 214.771036921623 2944.48689871467 18 21 12
215.222278686212 215.195471766277 2946.98273748835 22 25 16
196.091168241285 214.996177447955 2941.92052097197 23 26 17
211.137069326133 216.767717773482 2960.72607440819 24 27 18
222.091378131723 218.289381889238 2976.54668662664 24 27 18
221.373454723322 219.138202868187 2984.21902424464 24 27 18
206.379322111205 219.182946956108 2982.09788108722 24 27 18
196.397048020178 219.514729820546 2983.45925787197 25 28 19
191.461514045361 220.129281095243 2988.26948565955 25 28 19
184.833197821836 220.650820298553 2991.94026191012 23 26 19
180.744248601058 221.311741780147 2997.3198743435 27 30 23
185.166834508833 222.431489662755 3008.35003677409 27 30 23
166.612757195497 222.311765479388 3004.11996671445 24 27 20
152.27042170736 222.426919872791 3002.7580820829 24 25 19
149.020149790388 223.135127338891 3008.71479602554 28 29 23
141.486620686276 223.617355642569 3011.87336286411 25 26 20
135.663051366994 224.190364176337 3016.15465355757 31 32 26
129.836548498698 224.763727788363 3020.43880482815 35 34 29
115.364966611082 224.894827597909 3019.20256921436 39 38 33
111.24540467504 225.559366756565 3024.61238367745 59 58 53
107.130352614118 226.223284071783 3030.01747383406 66 61 55
103.019934788378 226.886631910229 3035.41804629506 36 31 25
77.1165403373404 226.466897604366 3027.19434793537 31 28 21
59.8597587145764 226.489165695767 3024.48921415866 32 31 26
39.0464100810677 226.346805064046 3019.67182309786 31 34 27
46.2511341919662 227.57552170634 3032.17424142525 37 40 33
57.9085466464444 229.009106934851 3047.30934150566 49 54 47
385.525179094141 194.132216938796 2846.16513811155 162 150 136
388.433398701227 195.318775305199 2857.27196694513 161 140 121
392.163901669081 196.55740631024 2868.97146925036 162 137 117
393.584125859779 197.619874707647 2878.74042133682 161 134 113
391.889630308861 198.451715081671 2885.968109937 162 131 111
388.634267794076 199.168620914429 2891.92859330372 154 121 102
386.178035194759 199.940549434208 2898.50464368168 152 119 100
382.941867733848 200.654911820969 2904.44677983835 154 123 103
380.508553226918 201.423803728982 2911.00052102167 149 120 104
376.495005461634 202.080173040455 2916.30593150386 145 118 101
371.687874491689 202.680733664935 2920.99072102145 140 117 101
365.281247205014 203.171223925067 2924.44628374279 138 116 102
350.043638835439 203.060910642104 2921.17258586375 91 79 67
306.612545018924 201.050996559687 2896.58065359631 44 36 25
258.159580315413 198.738964182528 2868.51837256025 22 15 5
261.209221872473 199.906610512848 2879.48756249759 22 19 10
260.24883852838 200.800606945982 2887.39398950354 17 19 8
264.180199371016 202.012886374239 2898.89826956342 11 12 4
252.692400390775 202.208133680585 2898.94067823733 9 14 7
248.516339621596 202.884024723891 2904.40458123134 9 14 7
241.074470039926 203.348249877257 2907.4751275089 10 15 8
235.260757403398 203.91876839879 2911.7466605514 12 15 8
237.660122314651 205.012267242504 2921.95563445929 13 14 6
245.036270219073 206.413398891017 2935.67891503871 14 15 7
245.042451699689 207.341052191814 2944.03780157464 17 20 11
239.28109776657 207.904816977965 2948.25867769179 18 21 12
230.199285400087 208.26369135209 2950.13878787721 20 23 14
220.267956330884 208.573765823075 2951.45312183525 23 26 17
199.482409470969 208.225919512067 2945.22158457823 24 27 18
196.162306967291 208.9492121175 2951.24574959074 24 27 18
212.103639673316 210.829058978555 2970.56302784928 24 27 18
222.269802012339 212.346040505261 2985.75006392688 24 27 18
210.641471868123 212.557986785518 2985.929554023 24 27 18
200.668928369168 212.872886730781 2987.28376347406 24 27 18
193.208510039747 213.338637722868 2990.37216557205 24 27 18
194.205256672801 214.296988608597 2999.16011633843 21 24 17
195.229769929698 215.251800510384 3007.92067965516 25 28 21
175.016383868617 214.98691747524 3002.52562564858 25 28 21
158.144630254891 214.924203933494 2999.45071361541 23 26 19
152.32813769829 215.49424904885 3003.72541497085 24 25 19
148.221430821807 216.16047554408 3009.12187694016 29 30 24
147.552914425761 217.016807720646 3016.74404251279 28 29 23
136.58105199219 217.301311888348 3017.6781736035 30 31 25
124.720878874831 217.541868190822 3018.08399649243 31 30 25
126.65708879854 218.537510247713 3027.35010618029 36 35 30
124.294646226717 219.295595361957 3033.83506772376 42 41 36
115.000551807134 219.680282093868 3035.92249991281 38 35 28
94.3782432286779 219.466132047083 3030.92601369744 35 32 25
71.9435991423665 219.168559120285 3024.90771466242 28 28 20
57.2969424386276 219.29232826542 3023.84675224012 31 32 26
51.3661666659955 219.8764636386 3028.23285598455 32 35 28
47.1875654357783 220.551517684166 3033.69940540182 34 39 32
54.4485323671795 221.811479429293 3046.14101792248 37 42 35
368.732305277571 185.007445891139 2824.5128457575 163 153 141
380.911228670351 186.954681545802 2843.30556409531 152 138 125
382.245879599095 188.049990449389 2853.15430004143 117 95 74
384.39521841091 189.201051163682 2863.6030459428 127 102 80
386.580335879184 190.347549812106 2874.01693738074 151 124 103
388.014457238407 191.430149352035 2883.76877615735 150 122 100
386.326553910366 192.272290741914 2890.98873393911 140 109 89
382.283362656117 192.935714082676 2896.32253826161 142 111 91
377.452437886002 193.539871353103 2901.0304237918 152 121 103
376.594004208054 194.435691277595 2908.83534376095 148 121 104
375.756018763015 195.328927710614 2916.62067801345 143 117 100
372.543503793909 196.04587350796 2922.53894506916 136 114 100
363.7379473051 196.358208756019 2924.15160754675 125 106 92
341.277426843336 195.697003883807 2915.37859230037 59 49 37
305.866978079792 194.131885703364 2896.9267448335 28 22 10
269.503600137319 192.528089411163 2878.00963957651 21 14 4
264.500467038566 193.153145456328 2882.88544169296 20 17 8
261.118080366842 193.890894479364 2888.96931915286 16 17 9
261.803549754471 194.908394453615 2898.05729277403 11 14 7
269.027323358097 196.369851318136 2911.92296724606 10 15 8
257.548537560671 196.542779522958 2911.96006229165 10 15 8
239.497991017242 196.275760469531 2907.2517488514 10 15 8
229.582430138302 196.568454541579 2908.55265573679 13 14 6
222.930728250917 197.083764855781 2912.24757492436 14 14 6
231.095189862616 198.585030244365 2926.59049577569 13 14 6
242.624274909698 200.296341595737 2943.22922622871 19 22 13
232.720320243801 200.587397318033 2944.51918796235 19 22 13
232.745464584772 201.529213842712 2952.85681293733 21 24 15
221.988622661407 201.769082774896 2953.58402255114 22 25 16
211.205633495966 202.012159529166 2954.33672264815 23 26 17
197.055981081441 202.045336905028 2952.79561704352 22 25 16
197.931613018579 203.03836263333 2961.69837372477 23 26 17
209.742267919402 204.714177630676 2978.06274749628 24 27 18
212.381077269266 205.802102812239 2988.03477332183 24 27 18
199.88389267409 205.943861909591 2987.67051304904 24 27 18
189.887173346428 206.246042812221 2989.05060932434 24 27 18
193.416034349582 207.3802688972 2999.5488667652 19 22 15
192.741220869491 208.251578628332 3007.17540960135 24 27 20
176.775482549949 208.196076869764 3004.61665440699 25 28 21
161.612869898486 208.197797560729 3002.66883541652 25 26 20
152.386281485987 208.561236821301 3004.6923735096 24 25 19
145.710266988936 209.078823418208 3008.41109904438 23 24 18
134.735808281613 209.345330324641 3009.35046826066 25 26 20
136.639120707971 210.367218201517 3018.64536652898 29 28 23
134.26337640981 211.135619142801 3025.14201220861 27 26 21
142.269803539078 212.498374943342 3038.24542597607 33 32 27
134.745596806011 212.964243541205 3041.39715351976 41 40 35
117.662706973685 212.890465994509 3038.53353812792 34 34 26
90.9570219707758 212.284990264386 3029.71673148795 43 43 35
72.0024956866827 212.129743003233 3025.88956347137 31 32 24
58.2298929051706 212.272802415142 3025.37471080812 31 32 24
44.4194076085127 212.420608035601 3024.89677455487 27 32 25
34.0817502218602 212.765003003105 3026.60918814238 29 36 28
40.4339284162871 214.019178782668 3038.53718715869 36 43 35
80.3347817780113 217.071794823721 3070.73165528532 70 77 69
374.740398142204 179.618265425941 2839.18165890421 148 134 121
372.93632170408 180.486424190371 2846.51279510305 107 85 64
372.713997244781 181.47752848126 2855.08921338663 110 86 62
374.084885857573 182.590116999191 2864.89941085735 125 99 76
377.06082551313 183.822750681882 2875.93218277009 125 97 75
378.499569658906 184.926705553861 2885.67661258456 124 93 73
376.017611227139 185.718777459179 2892.27489406885 130 99 79
372.755934151764 186.447920999268 2898.24017700179 136 107 89
371.091403052557 187.298045590245 2905.43540805918 134 107 90
371.832089872631 188.328560219737 2914.46662639331 131 105 88
367.01319597626 188.931362971639 2919.16276528527 129 107 93
357.394175344601 189.17194767357 2920.17724290558 115 96 82
319.678212368957 187.31161656868 2899.80703383725 91 75 62
294.668818798179 186.428809037766 2889.34677424842 26 19 9
280.84733545739 186.392634779326 2887.4900420436 24 17 7
269.407813421784 186.539752940728 2887.49196230642 18 15 6
261.177609018739 186.927110217838 2889.93945059417 18 19 11
264.298369573321 188.14066873263 2900.83123251481 14 19 12
250.369494188824 188.11762583271 2899.0788635459 11 16 9
254.344756293987 189.384644321029 2910.53145859394 11 16 9
242.010345786678 189.482914800318 2910.01198884442 11 16 9
221.445981373221 189.006186069934 2903.57986291368 14 15 7
214.774830537966 189.519002222725 2907.29446382996 14 14 6
219.625665038902 190.836712098888 2919.2870196984 13 14 6
227.825527060227 192.377210603771 2933.5889887822 19 22 13
223.678004149467 193.055518816877 2939.02419600429 19 22 13
225.340462399126 194.130165305893 2948.5508061727 20 23 14
217.891213042479 194.579640756117 2951.63052283359 21 24 15
212.930748129319 195.19907455211 2956.46478577698 21 24 15
207.135999851358 195.76235950004 2960.71855605009 21 24 15
202.175429318447 196.381732900048 2965.55293280195 22 25 16
212.317480877871 197.999914956407 2980.74895384603 24 27 18
211.598047414705 198.890904735103 2988.41655844055 24 27 18
205.841987834629 199.449240351191 2992.63297961582 24 27 18
192.47986692104 199.514944788461 2991.72194542115 24 27 18
189.240567869979 200.239734033525 2997.66565020804 22 25 18
180.069244052122 200.583364147561 2999.63689968288 26 27 21
176.833686981825 201.307630058769 3005.57696597606 27 28 22
171.048996703373 201.869352191914 3009.82097949033 25 26 20
166.115915933942 202.484994710721 3014.62860992329 24 25 19
147.481670155841 202.247320562653 3010.49591912953 28 29 23
138.227695076922 202.601141677218 3012.54773630299 28 29 23
137.558027040013 203.485675159909 3020.16721517328 29 28 23
141.219375586695 204.630685929128 3030.53231655328 26 25 20
141.463609658939 205.561305530162 3038.65403708679 27 26 21
