ply
format ascii 1.0
comment KinectMotionCapture
element vertex 798
property float x
property float y
property float z
property uchar red
property uchar green
property uchar blue
end_header
95.8266258239746 -69.0160691738129 2767.99988746643 13 16 9
104.61463034153 -69.8376074433327 2801.00011825562 11 14 7
112.460151314735 -69.9608996510506 2805.99999427795 13 16 9
122.087605297565 -71.1063072085381 2851.99999809265 18 21 14
128.960236907005 -70.6060975790024 2832.00001716614 8 10 5
147.475838661194 -72.0984935760498 2891.99995994568 6 8 3
155.63528239727 -72.2212493419647 2897.0000743866 8 11 4
163.651987910271 -72.2691118717194 2898.9999294281 11 14 7
170.377030968666 -71.7684626579285 2878.99994850159 12 15 8
179.839983582497 -72.41440564394 2904.99997138977 17 20 13
187.698915600777 -72.3872035741806 2904.00004386902 13 16 7
195.282205939293 -72.2601935267448 2898.9999294281 18 21 12
-2.45692487806082 -77.7706131339073 2811.00010871887 23 26 17
5.25015220046043 -78.2409161329269 2828.00006866455 19 22 13
12.9628917202353 -78.185461461544 2825.99997520447 13 16 7
20.8622273057699 -78.8768753409386 2851.0000705719 11 14 5
28.5865124315023 -78.7105336785316 2845.00002861023 13 16 7
35.9967909753323 -77.9354125261307 2816.99991226196 13 16 7
43.4246137738228 -77.4645432829857 2799.99995231628 14 15 9
51.1424392461777 -77.5745362043381 2803.99990081787 13 14 8
59.2174045741558 -78.1270712614059 2823.99988174438 12 13 7
66.2163645029068 -77.2962346673012 2793.99991035461 14 15 9
73.8969817757607 -77.3505792021751 2796.0000038147 15 16 10
81.6173776984215 -77.4324834346771 2799.00002479553 16 17 11
90.2785956859589 -78.3165320754051 2831.00008964539 13 16 9
97.6947769522667 -78.0662447214127 2822.00002670288 10 13 6
104.127697646618 -77.1242827177048 2788.00010681152 18 21 14
111.296392977238 -76.8184810876846 2776.99995040894 26 29 22
120.54493278265 -77.8956934809685 2815.99998474121 3 5 0
133.648753166199 -81.1856389045715 2934.99994277954 4 6 1
144.891738891602 -83.036981523037 3002.00009346008 6 8 3
178.245544433594 -83.3046287298203 3012.00008392334 8 11 4
181.075736880302 -80.8959752321243 2924.99995231628 5 8 1
188.859850168228 -80.8104574680328 2921.99993133545 10 13 6
199.994966387749 -82.1076110005379 2969.00010108948 11 14 5
-9.90519765764475 -83.5297778248787 2747.99990653992 24 27 20
-2.46999855153263 -85.9008058905602 2825.99997520447 18 21 14
5.31505048274994 -87.0254561305046 2862.99991607666 12 15 8
13.0590256303549 -86.5389704704285 2846.99988365173 12 15 8
21.0375376045704 -87.389811873436 2875 12 15 8
28.4856129437685 -86.1735716462135 2835.00003814697 11 14 7
35.6895811855793 -84.8964303731918 2792.99998283386 9 12 5
43.1913435459137 -84.6526622772217 2785.00008583069 12 15 6
51.0869696736336 -85.1382613182068 2801.00011825562 9 12 3
59.0907260775566 -85.6541395187378 2818.00007820129 11 14 5
66.4049834012985 -85.1668417453766 2802.00004577637 15 18 9
73.7901851534843 -84.8618224263191 2792.00005531311 14 17 10
81.761971116066 -85.2253511548042 2803.99990081787 13 16 9
88.7466073036194 -84.5857635140419 2782.99999237061 8 11 4
95.8931818604469 -84.1892287135124 2769.99998092651 9 12 5
102.669596672058 -83.5494473576546 2749.00007247925 22 24 19
111.134454607964 -84.2772275209427 2773.00000190735 18 20 15
138.382509350777 -92.3575460910797 3039.00003433228 5 7 2
146.916717290878 -92.5073176622391 3043.99991035461 5 7 4
148.491606116295 -88.4936228394508 2911.99994087219 7 9 6
168.163433670998 -90.5248448252678 2979.00009155273 9 11 6
176.053360104561 -90.4006808996201 2974.99990463257 10 12 7
200.396209955215 -90.3921574354172 2974.99990463257 10 13 6
207.527741789818 -89.9637341499329 2960.99996566772 16 19 12
-25.6456714123487 -93.7143191695213 2828.9999961853 22 25 18
-17.5349432975054 -91.6939750313759 2767.99988746643 14 17 10
-9.97352134436369 -91.6610881686211 2766.99995994568 12 15 8
-2.43412447161973 -92.2574698925018 2785.00008583069 12 15 8
5.28340553864837 -94.2781642079353 2845.99995613098 11 14 7
13.0037721246481 -93.9136147499084 2835.00003814697 10 13 6
20.5688923597336 -93.1183099746704 2811.00010871887 9 12 5
28.4550115466118 -93.8135534524918 2832.00001716614 10 13 6
35.599559545517 -92.2892019152641 2786.00001335144 11 14 7
43.2992056012154 -92.4872979521751 2792.00005531311 8 11 2
51.1043854057789 -92.8177610039711 2802.00004577637 11 14 5
59.0687952935696 -93.3137014508247 2816.99991226196 11 14 5
66.6171982884407 -93.113899230957 2811.00010871887 10 13 4
73.6039951443672 -92.2514945268631 2785.00008583069 9 12 5
80.7109475135803 -91.6870832443237 2767.99988746643 12 15 8
88.9365077018738 -92.3812538385391 2789.00003433228 16 19 12
95.1300486922264 -91.0216569900513 2747.99990653992 23 26 19
103.489600121975 -91.7818173766136 2770.99990844727 18 20 15
111.57351732254 -92.2106131911278 2783.99991989136 10 12 7
142.570659518242 -97.8347733616829 2953.9999961853 7 9 6
149.203151464462 -96.905030310154 2926.00011825562 8 10 7
157.831028103828 -97.2999036312103 2937.99996376038 9 11 8
165.620565414429 -97.1647575497627 2934.00001525879 9 11 8
173.150956630707 -96.8970432877541 2926.00011825562 9 11 6
195.446625351906 -100.13622045517 3023.9999294281 8 10 5
198.170214891434 -97.4177047610283 2941.99991226196 8 10 5
202.898800373077 -95.8581492304802 2894.99998092651 9 12 5
-25.4820492118597 -100.79150646925 2811.00010871887 19 22 15
-17.6866725087166 -100.1106351614 2792.00005531311 11 14 7
-10.0310165435076 -99.788174033165 2782.99999237061 11 14 7
-2.48389970511198 -101.903811097145 2842.00000762939 19 22 15
12.9255698993802 -101.043075323105 2818.00007820129 9 12 5
20.6124354153872 -101.006910204887 2816.99991226196 8 11 4
35.9822697937489 -100.970029830933 2815.99998474121 11 14 7
43.9807996153831 -101.686410605907 2835.99996566772 10 13 4
51.6688711941242 -101.577967405319 2832.99994468689 13 16 7
59.2774488031864 -101.361833512783 2826.99990272522 12 15 6
66.4501488208771 -100.536033511162 2803.99990081787 10 13 4
73.3119919896126 -99.4591265916824 2773.9999294281 12 15 8
80.5929079651833 -99.0991964936256 2763.99993896484 17 20 13
87.4362364411354 -98.3089134097099 2742.00010299683 20 23 16
95.7515090703964 -99.167712032795 2766.00003242493 21 24 17
104.458816349506 -100.277319550514 2796.99993133545 14 16 11
113.535299897194 -101.566001772881 2832.99994468689 8 10 5
123.621121048927 -103.535659611225 2888.00001144409 7 9 4
133.824497461319 -105.361685156822 2938.99989128113 9 11 8
142.47165620327 -105.825237929821 2951.99990272522 9 11 8
150.628328323364 -105.894304811954 2953.9999961853 10 12 9
159.117564558983 -106.178306043148 2961.99989318848 10 12 9
163.75495493412 -103.988796472549 2901.00002288818 10 12 7
170.248374342918 -103.125542402267 2877.00009346008 9 11 6
182.429060339928 -105.631493031979 2947.00002670288 8 10 5
204.647496342659 -104.653477668762 2920.00007629395 7 10 3
-10.0164106115699 -107.230499386787 2779.00004386902 19 22 15
-2.43753148242831 -107.616476714611 2789.00003433228 10 13 6
5.25722419843078 -109.275653958321 2832.00001716614 10 13 6
12.9253249615431 -108.735263347626 2818.00007820129 9 12 5
20.648630335927 -108.889274299145 2822.00002670288 10 13 6
28.3032637089491 -108.69587212801 2816.99991226196 11 14 7
36.2626984715462 -109.505541622639 2838.00005912781 13 16 9
44.2125834524632 -110.006354749203 2851.0000705719 16 19 10
51.8685206770897 -109.73533987999 2844.00010108948 16 19 10
58.9827783405781 -108.538113534451 2812.99996376038 16 19 10
65.5720755457878 -106.762036681175 2766.99995994568 18 21 12
73.0199068784714 -106.606341898441 2763.00001144409 22 25 18
79.6000435948372 -105.331607162952 2730.00001907349 24 27 20
86.7011845111847 -104.90557551384 2719.00010108948 22 25 18
94.8150679469109 -105.675458908081 2739.00008201599 11 14 7
115.015961229801 -110.725492238998 2869.99988555908 8 10 5
124.346479773521 -112.073481082916 2904.99997138977 9 11 6
134.459480643272 -113.922782242298 2953.00006866455 8 10 7
142.855107784271 -114.190153777599 2960.00003814697 8 10 7
152.257218956947 -115.19031971693 2986.00006103516 8 10 7
160.296440124512 -115.110158920288 2983.99996757507 9 11 6
165.840461850166 -113.332562148571 2937.99996376038 9 11 6
179.825782775879 -112.052999436855 2904.99997138977 8 10 5
202.002540230751 -115.671426057816 2999.00007247925 9 11 6
209.339320659637 -115.204691886902 2986.99998855591 9 12 5
212.314039468765 -112.462356686592 2915.99988937378 9 12 5
-9.90447588264942 -113.53500187397 2747.99990653992 19 22 15
-2.40864139050245 -113.865651190281 2756.00004196167 11 14 7
5.19771501421928 -115.683510899544 2799.99995231628 11 14 7
12.9021285101771 -116.220414638519 2812.99996376038 12 15 8
20.3701704740524 -115.021921694279 2783.99991989136 14 17 10
28.121842071414 -115.64114689827 2799.00002479553 14 17 10
36.4152900874615 -117.74754524231 2849.99990463257 15 18 11
44.4132909178734 -118.325106799603 2864.00008201599 17 20 11
51.4480024576187 -116.547584533691 2821.00009918213 17 20 11
58.6461089551449 -115.55489897728 2796.99993133545 19 22 13
65.8788159489632 -114.851258695126 2779.99997138977 22 25 16
72.6484581828117 -113.569110631943 2749.00007247925 22 25 18
79.6567499637604 -112.865209579468 2732.00011253357 19 22 15
86.8588760495186 -112.532965838909 2723.99997711182 20 23 16
118.299759924412 -121.945418417454 2951.99990272522 8 10 5
126.3557523489 -121.942885220051 2951.99990272522 9 11 6
133.363991975784 -120.990104973316 2928.99990081787 8 10 5
138.026177883148 -118.137113749981 2859.99989509583 9 11 6
152.764081954956 -123.751774430275 2996.00005149841 9 11 6
157.661095261574 -121.228955686092 2934.99994277954 10 12 7
166.232272982597 -121.638663113117 2944.9999332428 10 12 7
176.100015640259 -122.915551066399 2976.0000705719 9 11 6
183.412492275238 -122.374944388866 2963.00005912781 9 11 6
191.041111946106 -122.082032263279 2956.00008964539 11 13 8
197.755187749863 -121.252089738846 2936.00010871887 11 13 8
204.709812998772 -120.628528296947 2921.0000038147 10 13 6
211.654633283615 -120.04616856575 2907.00006484985 11 14 7
219.051003456116 -119.752749800682 2900.00009536743 6 7 2
-25.0725988298655 -121.827259659767 2766.00003242493 16 19 12
-10.1853860542178 -124.470710754395 2825.99997520447 10 13 6
-2.4330597370863 -122.620970010757 2783.99991989136 14 17 10
5.136345513165 -121.872186660767 2766.99995994568 14 17 10
12.718390673399 -122.136250138283 2773.00000190735 14 17 10
20.1721787452698 -121.431171894073 2756.99996948242 14 17 10
27.900205925107 -122.311525046825 2776.99995040894 16 19 12
35.660658031702 -122.927442193031 2790.99988937378 18 21 14
43.2493016123772 -122.838474810123 2789.00003433228 24 27 18
51.2462854385376 -123.762339353561 2809.99994277954 20 23 14
58.5609748959541 -123.012378811836 2792.99998283386 21 24 15
65.3797686100006 -121.513560414314 2759.0000629425 23 26 17
72.4090561270714 -120.675221085548 2740.00000953674 22 25 18
79.9757540225983 -120.805650949478 2743.00003051758 21 24 17
88.1005525588989 -121.684603393078 2763.00001144409 17 20 13
101.422637701035 -129.037261009216 2930.0000667572 12 15 8
117.936581373215 -129.604935646057 2943.00007820129 7 9 4
125.53982436657 -129.161864519119 2933.00008773804 8 10 5
131.81309401989 -127.485617995262 2894.99998092651 10 12 7
140.677526593208 -128.363341093063 2914.99996185303 10 12 7
149.344593286514 -128.97664308548 2928.99990081787 12 14 9
158.033758401871 -129.545718431473 2941.99991226196 12 14 9
165.551424026489 -129.145890474319 2933.00008773804 12 14 9
176.747187972069 -131.519854068756 2986.99998855591 12 14 9
184.832319617271 -131.471872329712 2986.00006103516 10 12 7
189.162895083427 -128.870129585266 2927.00004577637 11 13 8
195.258945226669 -127.633199095726 2898.9999294281 11 13 8
203.7243694067 -127.981096506119 2907.00006484985 10 13 6
211.868613958359 -128.10868024826 2910.00008583069 11 14 7
-17.84354634583 -131.762012839317 2816.99991226196 22 25 18
-10.0481985136867 -130.405902862549 2788.00010681152 13 16 9
-2.45397817343473 -131.341516971588 2808.00008773804 16 19 12
5.18820248544216 -130.73343038559 2795.00007629395 16 19 12
12.718097306788 -129.704177379608 2773.00000190735 16 19 12
20.2887803316116 -129.703789949417 2773.00000190735 17 20 13
27.7086738497019 -129.001602530479 2757.99989700317 18 21 14
35.2382101118565 -129.000872373581 2757.99989700317 19 22 15
43.4964150190353 -131.198287010193 2805.0000667572 18 21 12
51.0809831321239 -131.010085344315 2801.00011825562 17 20 11
58.5806034505367 -130.681380629539 2793.99991035461 18 21 12
65.4019638895988 -129.089683294296 2759.99999046326 21 24 15
72.565957903862 -128.433257341385 2746.00005149841 22 25 18
80.3237929940224 -128.852382302284 2755.00011444092 19 22 15
101.420320570469 -137.032821774483 2930.0000667572 11 14 7
109.454184770584 -137.077108025551 2930.99999427795 8 11 4
117.132447659969 -136.700332164764 2923.00009727478 8 10 5
124.595329165459 -136.136293411255 2911.00001335144 9 11 6
132.62964785099 -136.226832866669 2913.00010681152 9 12 5
141.687780618668 -137.299224734306 2936.00010871887 10 13 6
150.666907429695 -138.184323906898 2954.99992370605 12 15 8
159.749060869217 -139.069184660912 2973.99997711182 13 16 9
164.983257651329 -136.680632829666 2923.00009727478 12 15 8
174.139693379402 -137.611895799637 2943.00007820129 11 14 7
182.785540819168 -138.075351715088 2953.00006866455 10 13 6
188.641682267189 -136.48134469986 2918.99991035461 9 12 5
197.342485189438 -136.99121773243 2930.0000667572 9 12 5
204.490706324577 -136.42555475235 2917.99998283386 11 13 8
212.30074763298 -136.327296495438 2915.99988937378 12 14 9
223.422408103943 -138.285845518112 2957.99994468689 8 10 9
-25.6605800241232 -140.14196395874 2831.00008964539 15 18 11
-10.0515577942133 -138.063743710518 2789.00003433228 12 15 8
-2.41284491494298 -136.677801609039 2760.99991798401 11 14 7
5.08969742804766 -135.737210512161 2742.00010299683 15 18 11
12.9746226593852 -140.043765306473 2828.9999961853 16 19 12
20.756533369422 -140.439346432686 2836.99989318848 17 20 13
28.4916255623102 -140.389248728752 2835.99996566772 17 20 13
36.1828058958054 -140.190407633781 2832.00001716614 16 19 12
43.8830181956291 -140.090420842171 2829.99992370605 13 16 7
50.9885586798191 -138.406172394753 2796.0000038147 14 17 8
57.8663423657417 -136.622786521912 2759.99999046326 14 17 8
66.2297308444977 -138.353750109673 2795.00007629395 16 19 10
73.1984078884125 -137.114524841309 2769.99998092651 19 22 15
81.2256634235382 -137.904599308968 2786.00001335144 16 19 12
90.3602093458176 -140.278398990631 2834.00011062622 13 16 9
101.590931415558 -145.275309681892 2934.99994277954 9 12 5
109.824985265732 -145.569682121277 2940.99998474121 7 10 3
118.331775069237 -146.160826086998 2953.00006866455 9 11 6
124.97752904892 -144.524469971657 2920.00007629395 10 12 7
133.719176054001 -145.362675189972 2937.00003623962 10 13 6
142.842561006546 -146.497622132301 2960.00003814697 11 14 5
149.082735180855 -144.712314009666 2924.00002479553 12 15 6
156.7372828722 -144.411608576775 2917.99998283386 12 15 8
167.406320571899 -146.783143281937 2966.00008010864 12 15 8
176.088154315948 -147.273823618889 2976.0000705719 10 13 6
182.224124670029 -145.685881376266 2944.00000572205 10 13 6
190.058931708336 -145.532891154289 2940.99998474121 9 12 5
197.741955518723 -145.280778408051 2936.00010871887 9 12 5
214.26148712635 -145.617172122002 2943.00007820129 11 13 8
-34.4262681901455 -152.462601661682 2918.99991035461 22 25 18
13.2723897695541 -151.158466935158 2894.00005340576 9 12 5
20.8511129021645 -148.859813809395 2849.99990463257 10 13 6
28.6114513874054 -148.754730820656 2848.00004959106 10 13 6
36.5523882210255 -149.432852864265 2861.00006103516 8 11 4
44.1610030829906 -148.752808570862 2848.00004959106 10 13 4
51.2607954442501 -146.819040179253 2811.00010871887 11 14 5
58.8921681046486 -146.713122725487 2809.00001525879 10 13 4
66.7019411921501 -147.024855017662 2815.00005722046 10 13 4
74.94056224823 -148.119792342186 2835.99996566772 12 15 8
82.2148323059082 -147.282093763351 2819.9999332428 15 18 11
110.793076455593 -154.951825737953 2967.00000762939 7 10 3
117.166720330715 -152.703210711479 2924.00002479553 10 12 7
126.5579611063 -154.423430562019 2957.00001716614 11 13 8
133.579209446907 -153.218924999237 2934.00001525879 11 14 7
142.16336607933 -153.842002153397 2946.00009918213 11 14 5
148.620098829269 -152.219399809837 2914.99996185303 11 14 5
174.900367856026 -154.347807168961 2956.00008964539 10 13 6
180.981665849686 -152.672380208969 2924.00002479553 11 14 7
188.826367259026 -152.563214302063 2921.99993133545 11 14 7
198.275819420815 -153.706908226013 2944.00000572205 11 14 7
206.793323159218 -154.067203402519 2950.99997520447 12 14 9
214.984178543091 -154.166251420975 2953.00006866455 12 14 9
13.0014549940825 -155.812218785286 2835.00003814697 8 11 4
21.1651381105185 -158.999428153038 2892.99988746643 9 12 5
28.2088443636894 -154.327169060707 2808.00008773804 9 12 5
35.8742885291576 -154.326274991035 2808.00008773804 9 12 5
44.1443063318729 -156.468585133553 2846.99988365173 9 12 3
51.6423583030701 -155.642881989479 2832.00001716614 11 14 5
58.785755187273 -154.102504253387 2803.99990081787 11 14 5
66.676452755928 -154.65036034584 2813.99989128113 13 16 7
74.462927877903 -154.868274927139 2818.00007820129 15 18 11
83.3496078848839 -157.119318842888 2858.99996757507 16 19 12
101.170293986797 -160.631388425827 2923.00009727478 8 11 4
109.819263219833 -161.617666482925 2940.99998474121 8 11 4
118.045128881931 -161.889314651489 2946.00009918213 10 12 7
125.698611140251 -161.391407251358 2937.00003623962 11 13 8
135.078027844429 -163.036376237869 2967.00000762939 10 13 4
141.870066523552 -161.548972129822 2940.00005722046 10 13 4
150.09468793869 -161.764785647392 2944.00000572205 10 13 4
157.803416252136 -161.430940032005 2937.99996376038 10 13 4
166.381806135178 -161.975994706154 2947.99995422363 10 13 4
176.197424530983 -163.61965239048 2977.9999256134 11 14 7
182.029083371162 -161.581963300705 2940.99998474121 10 13 6
189.338386058807 -160.972625017166 2930.0000667572 10 13 6
195.778772234917 -159.703865647316 2907.00006484985 11 14 7
203.214168548584 -159.313976764679 2900.00009536743 10 12 7
215.997785329819 -162.988990545273 2967.00000762939 10 12 7
-50.9125627577305 -170.234575867653 2950.99997520447 50 50 50
-42.7265428006649 -169.716730713844 2941.99991226196 13 16 9
-34.8489247262478 -170.467793941498 2954.99992370605 8 11 4
-26.4470241963863 -168.334230780602 2917.99998283386 8 11 4
-18.2026829570532 -165.79657793045 2874.00007247925 3 6 0
-10.2921929210424 -164.758592844009 2855.99994659424 10 13 6
5.34356432035565 -166.085571050644 2878.99994850159 8 11 4
13.1203224882483 -165.04693031311 2861.00006103516 7 10 3
21.1572255939245 -166.834771633148 2891.99995994568 8 11 4
28.2582733780146 -162.276670336723 2812.99996376038 10 13 6
35.4261361062527 -159.968242049217 2773.00000190735 12 15 8
44.0810397267342 -164.005219936371 2842.99993515015 15 18 9
52.16970667243 -165.042206645012 2861.00006103516 14 17 8
58.8469915091991 -161.92552447319 2806.99992179871 16 19 10
66.1059245467186 -160.943061113358 2789.99996185303 17 20 11
74.0644857287407 -161.690950393677 2802.99997329712 14 17 10
81.5106406807899 -161.284908652306 2796.0000038147 10 13 6
91.1181196570396 -164.85883295536 2858.00004005432 9 12 5
100.959792733192 -168.259367346764 2917.00005531311 9 12 5
109.778836369514 -169.583007693291 2940.00005722046 9 12 5
117.200382053852 -168.714538216591 2924.99995231628 11 13 8
125.951886177063 -169.749289751053 2943.00007820129 11 13 8
133.890599012375 -169.630229473114 2940.99998474121 9 12 3
142.300382256508 -170.087695121765 2948.99988174438 9 12 3
149.937570095062 -169.622123241425 2940.99998474121 9 12 3
158.873230218887 -170.598208904266 2957.99994468689 10 13 4
167.449504137039 -171.112626791 2967.00000762939 11 14 5
175.127595663071 -170.704081654549 2960.00003814697 12 15 8
183.695152401924 -171.160355210304 2967.99993515015 11 14 7
190.496295690536 -170.001730322838 2947.99995422363 12 15 8
195.301979780197 -167.2283411026 2900.00009536743 12 15 8
207.833349704742 -171.028509736061 2966.00008010864 12 14 9
214.317500591278 -169.754013419151 2944.00000572205 11 13 8
-41.7087040841579 -173.513546586037 2871.99997901917 13 16 9
-33.5860587656498 -172.064706683159 2848.00004959106 13 16 7
-26.4915581792593 -176.596835255623 2923.00009727478 13 16 7
-18.3921474963427 -175.449579954147 2904.00004386902 12 15 6
-10.3711681440473 -173.879191279411 2878.00002098084 10 13 4
-2.50607565976679 -173.275217413902 2868.00003051758 9 12 3
5.31742256134748 -173.093929886818 2865.00000953674 11 14 5
13.3033664897084 -175.268650054932 2901.00002288818 10 13 4
21.3175434619188 -176.053538918495 2914.00003433228 10 13 4
28.287572786212 -170.131981372833 2815.99998474121 11 14 5
36.1788123846054 -171.097666025162 2832.00001716614 13 16 7
43.4440486133099 -169.284000992775 2802.00004577637 13 16 9
50.7458932697773 -168.134689331055 2782.99999237061 14 17 10
58.2792386412621 -167.951792478561 2779.99997138977 16 19 12
65.9618079662323 -168.191567063332 2783.99991989136 16 19 12
92.7413552999496 -175.735980272293 2908.99991989136 8 11 4
101.060658693314 -176.3975918293 2920.00007629395 9 12 5
109.290212392807 -176.817297935486 2927.00004577637 10 13 6
118.59929561615 -178.807377815247 2960.00003814697 11 14 7
125.819802284241 -177.595570683479 2940.00005722046 9 12 5
133.750110864639 -177.47089266777 2937.99996376038 10 13 6
141.234695911407 -176.802322268486 2927.00004577637 9 12 5
151.411637663841 -179.39530313015 2970.00002861023 9 12 5
159.029752016068 -178.847089409828 2960.99996566772 11 14 7
167.557522654533 -179.325446486473 2969.00010108948 12 15 8
174.116745591164 -177.750021219254 2943.00007820129 12 14 9
182.885259389877 -178.469493985176 2954.99992370605 11 13 8
191.524684429169 -179.007530212402 2963.99998664856 11 13 8
198.596179485321 -178.095892071724 2948.99988174438 10 12 7
207.967504858971 -179.237365722656 2967.99993515015 13 15 10
-41.257232427597 -179.390341043472 2841.00008010864 13 16 9
-33.8208712637424 -181.096419692039 2868.00003051758 13 16 7
-26.345731690526 -183.559954166412 2907.00006484985 14 17 8
-18.4865761548281 -184.318408370018 2918.99991035461 13 16 7
-2.47978512197733 -179.204359650612 2838.00005912781 14 17 8
5.2430210635066 -178.383439779282 2825.00004768372 14 17 8
13.3029539138079 -183.182120323181 2901.00002288818 13 16 7
20.6438712775707 -178.193181753159 2822.00002670288 14 17 8
28.798995539546 -181.03389441967 2867.00010299683 15 18 9
35.6922633945942 -176.423370838165 2793.99991035461 16 19 10
43.4892177581787 -177.116706967354 2805.0000667572 15 18 11
51.1272363364697 -177.052050828934 2803.99990081787 18 21 14
58.822475373745 -177.176624536514 2805.99999427795 18 21 14
67.8077936172485 -180.710569024086 2861.99998855591 16 19 12
93.4717357158661 -185.122773051262 2931.99992179871 8 11 4
101.265214383602 -184.74093079567 2926.00011825562 7 10 3
110.033616423607 -186.063498258591 2947.00002670288 8 11 4
117.714211344719 -185.491696000099 2937.99996376038 10 13 6
126.971423625946 -187.318801879883 2967.00000762939 9 12 5
133.700519800186 -185.420751571655 2937.00003623962 11 13 8
141.326889395714 -184.911400079727 2928.99990081787 10 12 7
152.222692966461 -188.505291938782 2986.00006103516 8 10 5
160.099044442177 -188.184797763824 2980.99994659424 10 12 7
166.367337107658 -186.09656393528 2947.99995422363 10 12 7
171.508386731148 -182.998165488243 2898.9999294281 10 12 7
182.322770357132 -185.959532856941 2946.00009918213 10 12 7
190.032765269279 -185.638204216957 2940.99998474121 10 12 7
199.196308851242 -186.705261468887 2957.99994468689 10 12 7
206.630006432533 -186.131000518799 2948.99988174438 14 16 11
216.63436293602 -187.82864511013 2976.0000705719 11 13 8
-33.7372422218323 -188.45796585083 2861.00006103516 15 18 9
-26.1001959443092 -189.710512757301 2880.00011444092 15 18 9
-17.9793424904346 -187.010496854782 2838.99998664856 15 18 9
-10.1218800991774 -185.034781694412 2809.00001525879 14 17 8
-2.41766893304884 -182.268351316452 2766.99995994568 14 17 8
5.15562621876597 -182.992920279503 2778.00011634827 14 17 8
12.8898313269019 -185.166388750076 2811.00010871887 15 18 9
20.8699740469456 -187.932446599007 2852.9999256134 15 18 9
28.165252879262 -184.703931212425 2803.99990081787 16 19 10
35.9338261187077 -185.295701026917 2812.99996376038 16 19 10
43.2862713932991 -183.911129832268 2792.00005531311 15 18 11
50.8703328669071 -183.777868747711 2789.99996185303 18 21 14
58.9254088699818 -185.15932559967 2811.00010871887 17 20 13
67.7582323551178 -188.384830951691 2859.99989509583 14 17 10
76.6997337341309 -191.214829683304 2903.00011634827 12 15 8
92.735543847084 -191.604495048523 2908.99991989136 9 12 5
99.4623824954033 -189.296066761017 2874.00007247925 8 11 4
108.200624585152 -190.87341427803 2898.00000190735 9 12 5
115.947619080544 -190.606340765953 2894.00005340576 10 13 6
127.609297633171 -196.398243308067 2982.00011253357 11 14 7
133.969396352768 -193.825423717499 2943.00007820129 12 14 9
152.574717998505 -197.109073400497 2993.00003051758 10 12 7
158.912479877472 -194.864943623543 2959.00011062622 10 12 7
167.264997959137 -195.188954472542 2963.99998664856 10 12 7
182.317033410072 -193.992406129837 2946.00009918213 9 11 6
189.316064119339 -192.93287396431 2930.0000667572 10 12 7
198.247343301773 -193.848550319672 2944.00000572205 10 12 7
208.305135369301 -195.751562714577 2973.00004959106 14 16 11
216.19088947773 -195.54728269577 2970.00002861023 12 14 9
-49.043096601963 -195.023164153099 2842.99993515015 11 14 7
-41.5885113179684 -196.465253829956 2864.00008201599 18 21 14
-33.7950699031353 -196.60373032093 2865.9999370575 18 21 12
-25.7277712225914 -194.752603769302 2838.99998664856 18 21 12
-10.2332420647144 -194.822400808334 2839.99991416931 17 20 11
-2.41933530196548 -189.952075481415 2769.00005340576 14 17 8
5.21298358216882 -192.695990204811 2809.00001525879 14 17 8
28.3049326390028 -193.311676383018 2818.00007820129 16 19 10
43.40885207057 -192.074462771416 2799.99995231628 15 18 11
51.0144904255867 -191.935658454895 2798.00009727478 13 16 9
58.7976686656475 -192.413970828056 2805.0000667572 11 14 7
67.1637058258057 -194.469720125198 2835.00003814697 9 12 5
76.961375772953 -199.81774687767 2913.00010681152 11 14 7
84.7067981958389 -199.334815144539 2905.99989891052 12 15 8
90.5328914523125 -194.804668426514 2839.99991416931 12 15 8
99.1822183132172 -196.584850549698 2865.9999370575 9 12 5
107.188992202282 -196.924328804016 2871.00005149841 10 13 6
116.264283657074 -199.046835303307 2901.99995040894 11 14 7
123.454250395298 -197.876796126366 2884.99999046326 12 15 8
134.283617138863 -202.330633997917 2950.00004768372 14 16 11
141.703739762306 -201.434373855591 2937.00003623962 12 14 9
147.778004407883 -198.823317885399 2898.9999294281 11 13 8
159.390568733215 -203.550353646278 2967.99993515015 11 13 8
170.08101940155 -206.699535250664 3013.99993896484 11 13 8
176.644071936607 -204.773545265198 2986.00006103516 10 12 7
185.095861554146 -205.110415816307 2990.9999370575 9 11 6
193.703442811966 -205.584138631821 2997.99990653992 10 12 7
196.490123867989 -200.091853737831 2917.99998283386 10 12 7
206.406638026237 -202.00514793396 2946.00009918213 14 16 11
217.494070529938 -204.877987504005 2987.99991607666 12 14 9
-41.6161082684994 -204.418078064919 2865.9999370575 15 18 11
-25.7721841335297 -202.85128057003 2844.00010108948 15 18 9
-18.3580685406923 -206.775009632111 2898.9999294281 14 17 8
-10.1896496489644 -201.711356639862 2828.00006866455 13 16 7
-2.47516739182174 -202.06817984581 2832.99994468689 14 17 8
5.285176448524 -203.138053417206 2848.00004959106 15 18 9
12.8155900165439 -199.357435107231 2795.00007629395 16 19 10
28.5349618643522 -202.63697206974 2841.00008010864 17 20 11
36.0718816518784 -201.423272490501 2823.99988174438 16 19 10
43.5468666255474 -200.351983308792 2809.00001525879 15 18 11
50.7757104933262 -198.638528585434 2785.00008583069 10 13 6
67.3508942127228 -202.77114212513 2842.99993515015 10 13 6
76.0604590177536 -205.336213111877 2878.99994850159 11 14 7
85.6074616312981 -209.47003364563 2937.00003623962 12 15 8
90.9760370850563 -203.547328710556 2854.00009155273 11 14 7
100.043930113316 -206.182777881622 2891.00003242493 10 13 6
109.313324093819 -208.817884325981 2927.99997329712 10 13 6
117.181703448296 -208.599954843521 2924.99995231628 12 15 8
127.60066986084 -212.660670280457 2982.00011253357 12 15 8
131.638929247856 -206.237867474556 2891.99995994568 13 15 10
137.935668230057 -203.879848122597 2858.99996757507 12 14 9
148.231714963913 -207.369104027748 2907.99999237061 11 13 8
159.277737140656 -211.49967610836 2966.00008010864 11 13 8
168.720945715904 -213.205337524414 2990.00000953674 12 14 9
176.401451230049 -212.628945708275 2982.00011253357 11 13 8
185.027703642845 -213.193103671074 2990.00000953674 11 13 8
194.08455491066 -214.184790849686 3003.99994850159 11 13 8
197.089493274689 -208.68806540966 2927.00004577637 10 12 7
205.068573355675 -208.681166172028 2927.00004577637 14 16 11
215.230390429497 -210.812747478485 2957.00001716614 11 13 8
-42.427733540535 -216.379776597023 2921.99993133545 16 19 12
-33.4271639585495 -209.938645362854 2835.00003814697 14 17 8
-25.7712583988905 -210.606202483177 2844.00010108948 14 17 8
-18.0977825075388 -211.643740534782 2858.00004005432 15 18 9
-10.2181062102318 -210.015058517456 2835.99996566772 12 15 6
-2.4794468190521 -210.163429379463 2838.00005912781 15 18 9
13.2644576951861 -214.235931634903 2892.99988746643 16 19 10
20.5605998635292 -208.163008093834 2811.00010871887 18 21 12
36.1088998615742 -209.345728158951 2826.99990272522 17 20 11
43.3127731084824 -206.900596618652 2793.99991035461 16 19 12
61.1201003193855 -215.930998325348 2915.99988937378 8 11 4
69.575272500515 -217.483669519424 2937.00003623962 9 12 5
76.1105716228485 -213.334232568741 2881.00004196167 12 15 8
83.0103158950806 -210.887745022774 2848.00004959106 12 15 8
91.8971672654152 -213.476195931435 2882.99989700317 10 13 6
100.870847702026 -215.842172503471 2914.99996185303 10 13 6
111.176043748856 -220.503151416779 2977.9999256134 10 13 6
119.581170380116 -221.017256379128 2984.99989509583 12 15 8
126.483634114265 -218.865603208542 2956.00008964539 12 15 8
131.861835718155 -214.492529630661 2897.0000743866 12 14 9
138.413220643997 -212.414547801018 2868.99995803833 11 13 8
147.156044840813 -213.742077350616 2887.00008392334 10 12 7
158.735126256943 -218.845009803772 2956.00008964539 11 13 8
168.432861566544 -220.986068248749 2984.99989509583 11 13 8
176.868453621864 -221.35004401207 2990.00000953674 11 13 8
184.711799025536 -220.973402261734 2984.99989509583 11 13 8
190.97663462162 -218.819931149483 2956.00008964539 11 13 8
-50.7971718907356 -226.110547780991 2944.9999332428 7 10 3
-42.3680767416954 -224.039301276207 2917.99998283386 16 19 12
-33.1901088356972 -216.132536530495 2815.00005722046 15 18 9
-26.0149501264095 -220.433279871941 2871.00005149841 14 17 8
-18.261743709445 -221.432268619537 2884.0000629425 15 18 9
-10.3294150903821 -220.127552747726 2867.00010299683 16 19 10
-2.47236504219472 -217.286929488182 2829.99992370605 16 19 10
5.32375695183873 -220.281302928925 2868.99995803833 17 20 11
13.1906066089869 -220.895186066628 2877.00009346008 19 22 13
20.5964036285877 -216.21099114418 2815.99998474121 19 22 13
27.990534901619 -213.983461260796 2786.99994087219 15 18 9
35.5328060686588 -213.598370552063 2782.00006484985 13 16 7
43.3111563324928 -214.518204331398 2793.99991035461 13 16 9
51.2459874153137 -215.821653604507 2811.00010871887 10 13 6
60.1746551692486 -220.426186919212 2871.00005149841 10 13 6
68.8620358705521 -223.187699913979 2907.00006484985 12 15 8
76.8738463521004 -223.415270447731 2910.00008583069 14 17 10
103.047095239162 -228.625684976578 2977.9999256134 8 11 4
110.499985516071 -227.239817380905 2960.00003814697 7 10 3
118.415050208569 -226.928427815437 2956.00008964539 9 12 5
126.350596547127 -226.693540811539 2953.00006866455 12 15 8
134.542390704155 -226.91898047924 2956.00008964539 13 15 10
156.796187162399 -224.139183759689 2920.00007629395 11 13 8
167.072534561157 -227.280288934708 2960.99996566772 13 15 10
175.205767154694 -227.350696921349 2961.99989318848 14 16 11
184.828847646713 -229.262888431549 2986.99998855591 10 12 7
189.548403024673 -225.188091397285 2934.00001525879 9 11 6
205.222427845001 -233.930364251137 3048.00009727478 12 14 9
211.35900914669 -231.543496251106 3016.99995994568 13 15 10
-33.8726490736008 -228.417918086052 2872.99990653992 15 18 9
-18.5776334255934 -233.269810676575 2934.00001525879 15 18 9
-2.46440758928657 -224.286437034607 2821.00009918213 18 21 12
5.25860767811537 -225.319981575012 2834.00011062622 18 21 12
13.0571434274316 -226.43269598484 2848.00004959106 18 21 12
20.624864846468 -224.205896258354 2819.9999332428 17 20 11
28.2204449176788 -223.409876227379 2809.99994277954 15 18 9
35.531435161829 -221.182495355606 2782.00006484985 13 16 7
43.1079752743244 -221.10141813755 2780.99989891052 12 15 8
51.4080859720707 -224.200263619423 2819.9999332428 10 13 6
60.2771379053593 -228.650256991386 2875.99992752075 10 13 6
69.1910162568092 -232.225343585014 2921.0000038147 12 15 8
77.4256363511086 -233.01750421524 2930.99999427795 14 17 10
85.5396538972855 -233.332335948944 2934.99994277954 14 17 10
100.067436695099 -229.906663298607 2891.99995994568 8 11 4
109.189219772816 -232.5259745121 2924.99995231628 8 11 4
117.369033396244 -232.919082045555 2930.0000667572 10 13 6
143.323451280594 -236.163124442101 2970.99995613098 13 15 10
165.881365537643 -233.681231737137 2940.00005722046 14 16 11
173.661321401596 -233.356788754463 2936.00010871887 14 16 11
181.04749917984 -232.555195689201 2926.00011825562 14 16 11
190.251931548119 -234.058186411858 2944.9999332428 11 13 8
198.549270629883 -234.368696808815 2948.99988174438 11 13 8
211.491256952286 -239.924013614655 3019.00005340576 12 14 9
-42.2776527702808 -239.454686641693 2911.99994087219 16 19 12
-26.7015192657709 -242.335572838783 2947.00002670288 16 19 10
-18.4882506728172 -240.116238594055 2920.00007629395 16 19 10
-10.4186702519655 -237.814337015152 2891.99995994568 17 20 11
-2.44334409944713 -230.00256717205 2796.99993133545 19 22 13
5.26582123711705 -233.374029397964 2838.00005912781 18 21 12
12.9970265552402 -233.126938343048 2835.00003814697 17 20 11
20.7118056714535 -232.87957906723 2832.00001716614 14 17 8
28.3599123358727 -232.220709323883 2823.99988174438 13 16 7
36.1558198928833 -232.795059680939 2831.00008964539 11 14 5
52.0622953772545 -234.847262501717 2855.99994659424 11 14 7
60.4004971683025 -236.982926726341 2881.99996948242 11 14 7
68.4539899230003 -237.638160586357 2890.00010490417 12 15 8
77.3697420954704 -240.84210395813 2928.99990081787 14 17 10
93.9264222979546 -242.31530725956 2947.00002670288 9 12 5
102.035686373711 -242.475807666779 2948.99988174438 8 11 4
108.587674796581 -239.182710647583 2908.99991989136 9 12 5
116.042576730251 -238.191574811935 2897.0000743866 10 13 6
144.041433930397 -245.493412017822 2986.00006103516 12 14 9
149.177953600883 -240.636929869652 2927.00004577637 11 13 8
158.072784543037 -242.028430104256 2944.00000572205 11 13 8
165.479972958565 -241.117760539055 2933.00008773804 12 14 9
173.77282679081 -241.522043943405 2937.99996376038 12 14 9
180.854871869087 -240.282014012337 2923.00009727478 11 13 8
188.952580094337 -240.439131855965 2924.99995231628 11 13 8
197.531759738922 -241.171345114708 2934.00001525879 10 12 7
-34.7423069179058 -250.366449356079 2947.00002670288 16 19 10
-26.727607473731 -250.622600317001 2950.00004768372 16 19 10
-18.3038860559464 -245.611041784286 2891.00003242493 16 19 10
-2.48866714537144 -242.043703794479 2848.99997711182 17 20 11
5.31941186636686 -243.572890758514 2867.00010299683 17 20 11
13.1019316613674 -242.807865142822 2858.00004005432 16 19 10
20.842595025897 -242.127522826195 2849.99990463257 13 16 7
28.599763289094 -241.956576704979 2848.00004959106 12 15 6
36.1671149730682 -240.595936775208 2832.00001716614 10 13 4
44.1274829208851 -241.868615150452 2846.99988365173 9 12 5
51.8961064517498 -241.86660349369 2846.99988365173 12 15 8
60.4399442672729 -245.00760436058 2884.0000629425 12 15 8
68.5459449887276 -245.854467153549 2894.00005340576 12 15 8
76.5213370323181 -246.106311678886 2897.0000743866 13 16 9
85.3870660066605 -248.9063590765 2930.0000667572 15 18 11
94.2094326019287 -251.11135840416 2956.00008964539 9 12 5
101.062774658203 -248.134091496468 2921.0000038147 8 11 4
108.807221055031 -247.620105743408 2914.99996185303 9 12 5
117.680087685585 -249.569192528725 2937.99996376038 10 13 6
127.276912331581 -252.707093954086 2974.99990463257 11 14 7
142.540261149406 -250.997185707092 2954.99992370605 12 14 9
148.764237761497 -247.93341755867 2918.99991035461 11 13 8
156.777858734131 -248.012155294418 2920.00007629395 11 13 8
175.007924437523 -251.311004161835 2959.00011062622 11 13 8
181.899428367615 -249.690100550652 2940.00005722046 14 16 11
188.880443572998 -248.323768377304 2924.00002479553 11 13 8
207.271829247475 -251.280099153519 2959.00011062622 15 17 12
-43.1306585669518 -260.500222444534 2970.99995613098 14 17 10
-34.6701107919216 -257.871448993683 2940.99998474121 14 17 8
-26.2281913310289 -253.839403390884 2894.99998092651 15 18 9
-18.0118829011917 -249.456226825714 2845.00002861023 16 19 10
-10.1296212524176 -246.563300490379 2812.00003623962 15 18 9
5.23013202473521 -247.177302837372 2819.00000572205 15 18 9
13.1563879549503 -251.64869427681 2869.99988555908 15 18 9
21.2073624134064 -254.2784512043 2900.00009536743 14 17 8
29.2110946029425 -255.066514015198 2908.99991989136 12 15 6
36.8168763816357 -252.785384654999 2882.99989700317 9 12 3
43.5056611895561 -246.119901537895 2806.99992179871 10 13 6
52.2584766149521 -251.378685235977 2867.00010299683 13 16 9
60.6469623744488 -253.74361872673 2894.00005340576 13 16 9
68.2825297117233 -252.776384353638 2882.99989700317 12 15 8
76.1483386158943 -252.773314714432 2882.99989700317 12 15 8
85.4126214981079 -256.978362798691 2930.99999427795 13 16 9
93.1856706738472 -256.360858678818 2924.00002479553 8 11 4
102.580823004246 -259.951323270798 2964.99991416931 8 11 4
110.930204391479 -260.560482740402 2971.99988365173 9 12 5
118.476241827011 -259.328246116638 2957.99994468689 10 13 6
126.287654042244 -258.797019720078 2951.99990272522 11 14 7
142.389640212059 -258.78569483757 2951.99990272522 13 15 10
150.592714548111 -259.042501449585 2954.99992370605 13 15 10
167.553827166557 -260.344058275223 2970.00002861023 12 14 9
176.597535610199 -261.739373207092 2986.00006103516 11 13 8
189.906194806099 -257.692039012909 2940.00005722046 13 15 10
196.977242827415 -256.456881761551 2926.00011825562 9 11 6
205.302089452744 -256.886780261993 2930.99999427795 14 16 11
-42.9691076278687 -267.60122179985 2960.00003814697 16 19 12
-34.4799980521202 -264.438718557358 2924.99995231628 15 18 11
-26.19987167418 -261.4566385746 2891.99995994568 17 20 13
-18.0111024528742 -257.208496332169 2845.00002861023 13 16 9
-10.0679453462362 -252.688735723495 2795.00007629395 12 15 8
-2.46225064620376 -254.858791828156 2819.00000572205 15 18 11
5.35977119579911 -261.187225580215 2888.99993896484 15 18 11
13.2199926301837 -260.73482632637 2884.0000629425 15 18 11
21.126002073288 -261.186093091965 2888.99993896484 13 16 9
28.9487559348345 -260.642528533936 2882.99989700317 11 14 7
36.2534075975418 -256.663233041763 2838.99998664856 8 11 4
44.3096905946732 -258.469581604004 2858.99996757507 10 13 6
52.5660663843155 -260.72758436203 2884.0000629425 12 15 8
60.7491098344326 -262.081176042557 2898.9999294281 12 15 8
68.6822012066841 -262.168735265732 2900.00009536743 12 15 8
76.2507021427155 -260.990351438522 2887.00008392334 13 16 9
93.5003310441971 -265.231728553772 2934.00001525879 10 13 6
101.573124527931 -265.408277511597 2936.00010871887 9 12 5
110.888108611107 -268.567562103271 2970.99995613098 10 13 6
118.350982666016 -267.116218805313 2954.99992370605 10 13 6
126.025587320328 -266.297370195389 2946.00009918213 11 14 7
133.559569716454 -265.297412872314 2934.99994277954 14 15 10
143.444687128067 -268.816620111465 2973.99997711182 14 15 10
151.96219086647 -269.533306360245 2982.00011253357 13 16 9
161.059603095055 -271.153509616852 3000 12 15 8
167.321085929871 -268.073409795761 2966.00008010864 12 15 8
176.057770848274 -269.060164690018 2976.99999809265 11 14 7
184.730052947998 -269.865840673447 2986.00006103516 14 17 10
190.35030901432 -266.333132982254 2947.00002670288 8 13 7
197.103574872017 -264.607757329941 2927.99997329712 11 16 10
206.554219126701 -266.496926546097 2948.99988174438 12 17 13
-42.6478423178196 -273.616850376129 2937.99996376038 16 18 13
-34.1837778687477 -270.079642534256 2900.00009536743 14 17 10
-26.3074152171612 -270.45351266861 2904.00004386902 16 19 12
-18.3331556618214 -269.709467887878 2895.99990844727 13 16 9
-10.4384990409017 -269.896388053894 2898.00000190735 12 15 8
-2.43419175967574 -259.559005498886 2786.99994087219 17 20 13
5.22225117310882 -262.166649103165 2815.00005722046 16 19 12
12.8802098333836 -261.700600385666 2809.99994277954 12 15 8
21.0738759487867 -268.405318260193 2881.99996948242 11 14 7
28.5157151520252 -264.49266076088 2839.99991416931 10 13 6
36.3539457321167 -265.143126249313 2846.99988365173 10 13 6
44.2147292196751 -265.700072050095 2852.9999256134 11 14 7
52.4725988507271 -268.119305372238 2878.99994850159 14 17 10
60.9140433371067 -270.724326372147 2907.00006484985 14 17 10
76.0360285639763 -268.110603094101 2878.99994850159 14 17 10
84.0939208865166 -268.758893013 2885.99991798401 15 18 11
93.4005826711655 -272.945493459702 2930.99999427795 10 13 6
100.807569921017 -271.358072757721 2914.00003433228 9 12 5
109.539620578289 -273.308902978897 2934.99994277954 10 13 6
118.826374411583 -276.283651590347 2967.00000762939 10 13 6
126.276671886444 -274.881362915039 2951.99990272522 11 14 7
134.19072329998 -274.596184492111 2948.99988174438 15 16 11
142.521992325783 -275.148719549179 2954.99992370605 15 16 11
153.02562713623 -279.611527919769 3003.00002098084 13 16 9
160.891503095627 -279.045909643173 2996.99997901917 13 16 9
168.724030256271 -278.479963541031 2990.9999370575 13 16 9
175.695300102234 -276.610285043716 2970.99995613098 12 15 6
182.433098554611 -274.554133415222 2948.99988174438 16 19 12
189.760759472847 -273.521840572357 2937.99996376038 9 14 8
202.74943113327 -280.402392148972 3012.00008392334 10 15 9
-34.535825252533 -280.85532784462 2930.0000667572 14 17 10
-26.2518581002951 -277.789324522018 2898.00000190735 15 18 11
-18.4905733913183 -279.995083808899 2921.0000038147 15 18 11
-10.5172619223595 -279.899895191193 2920.00007629395 12 15 8
-2.48735607601702 -272.998541593552 2848.00004959106 17 20 13
5.19233103841543 -268.301516771317 2799.00002479553 16 19 12
12.8842042759061 -269.451379776001 2811.00010871887 11 14 7
20.502582192421 -268.77960562706 2803.99990081787 10 13 6
28.9361048489809 -276.255160570145 2881.99996948242 10 13 6
36.6970375180244 -275.48685669899 2874.00007247925 12 15 8
44.1817194223404 -273.280322551727 2851.0000705719 10 13 6
52.1603785455227 -274.332493543625 2861.99998855591 12 15 8
60.261707752943 -275.671809911728 2875.99992752075 12 15 8
68.5812830924988 -277.5858938694 2895.99990844727 12 15 8
75.1610547304153 -272.790014743805 2845.99995613098 13 16 9
93.4919342398643 -281.216979026794 2934.00001525879 10 13 6
109.460018575191 -281.111806631088 2933.00008773804 10 13 6
117.939926683903 -282.256692647934 2944.9999332428 9 12 5
126.484841108322 -283.401191234589 2957.00001716614 10 13 6
133.911669254303 -282.053500413895 2943.00007820129 15 16 11
143.576577305794 -285.305619239807 2976.99999809265 15 16 11
151.642963290215 -285.203069448471 2976.0000705719 15 18 11
165.049940347672 -280.397057533264 2926.00011825562 14 17 8
174.445614218712 -282.689243555069 2950.00004768372 13 16 7
181.125894188881 -280.573040246964 2927.99997329712 12 15 8
189.687728881836 -281.427055597305 2937.00003623962 10 15 9
-42.8761281073093 -291.200011968613 2953.9999961853 15 17 12
-34.3691930174828 -287.455856800079 2915.99988937378 13 16 9
-26.5495516359806 -288.936018943787 2930.99999427795 15 18 11
-18.1288998574018 -282.332271337509 2864.00008201599 13 16 9
-10.3510925546288 -283.318728208542 2874.00007247925 13 16 9
-2.49335262924433 -281.445980072021 2855.00001907349 17 20 13
5.21434750407934 -277.108430862427 2811.00010871887 16 19 12
12.9340151324868 -278.19237112999 2822.00002670288 11 14 7
20.8379533141851 -280.951797962189 2849.99990463257 10 13 6
28.8243107497692 -283.020794391632 2871.00005149841 10 13 6
36.6697832942009 -283.117800951004 2871.99997901917 12 15 8
44.2261397838593 -281.34149312973 2854.00009155273 10 13 6
51.6841076314449 -279.564827680588 2835.99996566772 12 15 8
60.1960346102715 -283.209472894669 2872.99990653992 12 15 8
67.3940628767014 -280.54490685463 2845.99995613098 12 15 8
75.8177563548088 -283.005923032761 2871.00005149841 13 16 9
84.4940766692162 -285.860747098923 2900.00009536743 14 17 10
94.793975353241 -293.249398469925 2974.99990463257 9 12 5
101.386345922947 -288.907706737518 2930.99999427795 8 11 4
111.022286117077 -293.239682912827 2974.99990463257 9 12 5
116.893254220486 -287.714570760727 2918.99991035461 9 12 5
123.827069997787 -285.343378782272 2894.99998092651 13 16 9
133.905470371246 -290.068358182907 2943.00007820129 14 15 10
142.798334360123 -291.835963726044 2960.99996566772 15 16 11
150.769770145416 -291.632026433945 2959.00011062622 16 19 12
155.723661184311 -285.908579826355 2901.00002288818 16 19 12
165.662840008736 -289.449065923691 2937.00003623962 14 17 8
172.781929373741 -287.962913513184 2921.99993133545 14 17 8
181.859910488129 -289.728581905365 2940.00005722046 10 13 6
189.549893140793 -289.227217435837 2934.99994277954 10 15 9
199.433103203773 -291.97746515274 2963.00005912781 13 18 12
212.339490652084 -298.76720905304 3032.00006484985 9 14 10
-42.8740717470646 -299.244940280914 2953.9999961853 15 17 12
-34.897904843092 -299.955904483795 2960.99996566772 12 15 8
-26.4576952904463 -295.905321836472 2921.0000038147 13 16 9
-18.1470159441233 -290.436059236526 2867.00010299683 12 15 8
-10.1885292679071 -286.587208509445 2828.9999961853 13 16 9
-2.50458531081676 -290.538370609283 2868.00003051758 16 19 12
5.33095421269536 -291.146099567413 2874.00007247925 15 18 11
13.1533797830343 -290.740430355072 2869.99988555908 13 16 9
21.0051070898771 -291.043490171433 2872.99990653992 11 14 7
28.9032403379679 -291.650116443634 2878.99994850159 11 14 7
36.5658849477768 -290.129035711288 2864.00008201599 12 15 8
43.8676252961159 -286.784142255783 2831.00008964539 11 14 7
51.4447167515755 -285.971373319626 2822.99995422363 14 17 10
59.7531720995903 -288.906395435333 2851.99999809265 14 17 10
68.077526986599 -291.233152151108 2875 13 16 9
77.0288482308388 -295.484185218811 2917.00005531311 14 17 10
85.9467536211014 -298.822999000549 2950.00004768372 15 18 11
92.2086387872696 -293.146163225174 2894.00005340576 9 12 5
102.695904672146 -300.738513469696 2969.00010108948 8 11 4
110.419936478138 -299.72043633461 2959.00011062622 9 12 5
116.407193243504 -294.447869062424 2907.00006484985 8 11 4
125.745862722397 -297.784566879272 2940.00005722046 10 13 6
132.898166775703 -295.853912830353 2921.0000038147 13 14 9
142.261117696762 -298.784554004669 2950.00004768372 14 15 10
150.762647390366 -299.689084291458 2959.00011062622 16 19 12
157.004565000534 -296.238243579865 2924.99995231628 16 19 12
167.854726314545 -301.3955950737 2976.0000705719 14 17 8
178.450152277946 -305.64084649086 3017.99988746643 13 16 7
185.31522154808 -303.404271602631 2996.00005149841 15 18 11
189.799338579178 -297.623097896576 2938.99989128113 9 14 8
198.818042874336 -299.132883548737 2953.9999961853 13 18 12
-44.0475381910801 -315.714746713638 3035.00008583069 15 17 12
-35.0258275866508 -309.163123369217 2971.99988365173 12 15 8
-26.42922103405 -303.547263145447 2917.99998283386 13 16 9
