ply
format ascii 1.0
comment KinectMotionCapture
element vertex 761
property float x
property float y
property float z
property uchar red
property uchar green
property uchar blue
end_header
159.662485122681 838.583111763 2714.99991416931 109 83 58
167.270809412003 839.807152748108 2719.00010108948 104 79 57
175.093203783035 841.957092285156 2726.0000705719 97 75 54
183.421850204468 846.268653869629 2740.00000953674 68 51 35
192.731618881226 854.594588279724 2766.99995994568 158 144 131
-60.1121298968792 815.461277961731 2663.00010681152 203 208 204
-52.2320866584778 805.36013841629 2630.00011444092 201 206 202
-44.9082292616367 801.995158195496 2618.99995803833 199 204 200
-37.687286734581 799.548506736755 2611.00006103516 183 185 182
-30.5448286235332 798.019826412201 2605.99994659424 185 187 184
-23.4474614262581 797.103106975555 2602.9999256134 187 189 186
-16.3726266473532 796.492278575897 2601.0000705719 159 161 158
-9.30860824882984 795.880734920502 2598.99997711182 154 156 153
-2.25716177374125 795.881152153015 2598.99997711182 155 157 154
4.79982374235988 796.799778938293 2601.99999809265 172 172 170
11.8685197085142 797.411561012268 2604.00009155273 165 165 163
18.9407765865326 797.716677188873 2605.00001907349 149 149 147
26.0184165090322 798.021197319031 2605.99994659424 155 155 153
33.1268310546875 798.937678337097 2608.99996757507 158 158 156
40.3131023049355 801.07855796814 2615.9999370575 154 156 153
47.5553944706917 803.52520942688 2624.00007247925 172 174 171
54.8410005867481 805.971086025238 2631.99996948242 169 171 168
62.1699169278145 808.416545391083 2640.00010490417 169 171 170
69.5421099662781 810.86140871048 2648.00000190735 179 181 180
76.9575759768486 813.305735588074 2655.99989891052 167 167 165
84.2578560113907 814.218521118164 2658.99991989136 172 172 170
91.5398597717285 814.824461936951 2661.00001335144 154 149 145
99.0180894732475 816.96093082428 2667.99998283386 150 143 137
106.693424284458 820.32173871994 2678.99990081787 166 153 144
114.428229629993 823.681950569153 2690.00005722046 98 85 76
121.950969099998 825.204312801361 2694.9999332428 113 97 84
129.452645778656 826.4200091362 2698.99988174438 114 92 69
136.925116181374 827.32892036438 2701.99990272522 115 90 68
144.466996192932 828.543663024902 2706.00008964539 114 88 65
152.030289173126 829.757809638977 2710.00003814697 113 87 64
159.73262488842 831.583797931671 2716.00008010864 112 86 63
167.528718709946 833.715438842773 2723.00004959106 107 82 60
175.105527043343 834.621787071228 2726.0000705719 97 76 55
183.367773890495 838.589251041412 2739.00008201599 70 54 39
193.232655525208 849.291622638702 2773.9999294281 162 150 138
-59.4393350183964 799.1903424263 2632.99989700317 202 204 201
-52.096925675869 796.159207820892 2622.99990653992 203 205 202
-44.8258258402348 793.431043624878 2614.00008201599 190 190 188
-37.6323461532593 791.309416294098 2607.00011253357 184 185 180
-30.5002126842737 789.794206619263 2601.99999809265 174 175 170
-23.4311912208796 789.492666721344 2601.0000705719 184 185 180
-16.3675490766764 789.190649986267 2599.99990463257 163 164 159
-9.30930115282536 788.888037204742 2598.99997711182 148 149 144
-2.25646118633449 788.585007190704 2598.00004959106 147 148 143
4.79280157014728 788.584887981415 2598.00004959106 147 148 143
11.8511691689491 789.191246032715 2599.99990463257 158 159 154
18.9130995422602 789.49373960495 2601.0000705719 156 157 152
26.0003861039877 790.40265083313 2604.00009155273 155 156 151
33.1165976822376 791.614592075348 2608.00004005432 152 153 148
40.2852706611156 793.433010578156 2614.00008201599 149 148 146
47.486424446106 795.250952243805 2619.99988555908 160 159 157
54.7200366854668 797.068297863007 2625.99992752075 169 168 166
61.9861036539078 798.885107040405 2631.99996948242 166 165 163
69.3896636366844 801.91558599472 2641.99995994568 171 170 168
76.8763273954391 805.248916149139 2653.00011634827 171 170 166
84.2323824763298 806.760549545288 2657.99999237061 173 172 168
91.5121883153915 807.361125946045 2660.00008583069 166 163 158
98.8768935203552 808.568120002747 2664.00003433228 157 154 149
106.382615864277 810.685276985168 2671.0000038147 153 149 140
114.053703844547 813.712179660797 2680.99999427795 162 152 143
121.597826480865 815.524697303772 2687.00003623962 98 86 74
129.270181059837 817.943453788757 2694.9999332428 116 95 74
136.833682656288 819.45139169693 2700.00004768372 117 95 74
144.530802965164 821.565628051758 2707.00001716614 114 89 67
152.097314596176 822.768867015839 2710.99996566772 114 88 65
159.626439213753 823.66818189621 2713.99998664856 114 88 65
167.356103658676 825.477361679077 2720.00002861023 116 91 69
175.053730607033 826.982378959656 2724.99990463257 108 87 68
183.4477186203 831.521809101105 2740.00000953674 113 100 84
193.17664206028 841.522991657257 2773.00000190735 118 106 94
203.518435359001 853.344202041626 2812.00003623962 252 243 234
-66.8661668896675 795.409917831421 2644.00005340576 208 210 207
-59.3534633517265 790.901958942413 2628.99994850159 205 207 204
-52.0412288606167 788.19864988327 2619.99988555908 204 206 203
-44.7605773806572 785.193920135498 2609.99989509583 190 190 188
-37.6062877476215 783.69277715683 2605.00001907349 182 183 178
-30.4907783865929 782.49204158783 2601.0000705719 172 173 168
-23.3969110995531 781.290650367737 2596.99988365173 183 184 179
-16.3435954600573 780.99125623703 2595.99995613098 163 164 159
-9.29925311356783 780.992209911346 2595.99995613098 147 148 143
-2.2557619959116 781.293511390686 2596.99988365173 147 148 143
4.79131611064076 781.293392181396 2596.99988365173 146 147 142
11.8429427966475 781.593680381775 2598.00004959106 155 156 151
18.9145188778639 782.495081424713 2601.0000705719 155 156 151
26.0023344308138 783.395886421204 2604.00009155273 156 157 152
33.1190750002861 784.596979618073 2608.00004005432 153 154 149
40.2882918715477 786.399364471436 2614.00008201599 150 149 147
47.4537201225758 787.599325180054 2618.00003051758 160 156 155
54.6199344098568 788.498044013977 2621.00005149841 170 166 165
61.8729777634144 790.298759937286 2627.00009346008 169 165 162
69.2635029554367 793.302178382874 2637.00008392334 171 167 164
76.76612585783 796.906650066376 2648.9999294281 173 169 166
84.0801820158958 798.104107379913 2653.00011634827 175 172 167
91.381348669529 799.000024795532 2655.99989891052 170 167 162
98.6243784427643 799.293756484985 2657.00006484985 162 159 154
106.071814894676 801.091134548187 2663.00010681152 154 151 144
113.679200410843 803.790271282196 2671.99993133545 153 150 143
121.335208415985 806.489050388336 2680.99999427795 153 149 138
128.943875432014 808.585524559021 2687.99996376038 105 89 73
136.539578437805 810.380637645721 2694.00000572205 131 114 96
144.381150603294 813.378393650055 2703.9999961853 117 95 74
152.220577001572 816.074848175049 2713.00005912781 125 100 78
159.873262047768 817.567467689514 2717.99993515015 116 90 67
167.67580807209 819.661140441895 2724.99990463257 122 97 75
175.451770424843 821.453452110291 2730.99994659424 117 95 74
183.929532766342 826.253116130829 2746.99997901917 111 93 79
193.678066134453 836.165308952332 2779.99997138977 129 115 104
202.809080481529 842.768371105194 2802.00004577637 173 163 154
211.533322930336 847.265183925629 2816.99991226196 245 240 236
221.349999308586 855.671286582947 2845.00002861023 246 245 241
-66.6941553354263 786.207735538483 2637.00008392334 203 205 202
-59.2450462281704 782.3366522789 2624.00007247925 208 210 207
-51.925964653492 779.35928106308 2614.00008201599 202 204 201
-44.72965747118 777.574062347412 2608.00004005432 185 185 183
-37.5802554190159 776.086449623108 2602.9999256134 177 178 173
-30.4930824786425 775.4927277565 2601.0000705719 165 166 161
-23.3716536313295 773.407697677612 2594.00010108948 180 181 176
-16.3259450346231 773.111045360565 2592.99993515015 150 151 146
-9.28920973092318 773.111999034882 2592.99993515015 147 148 143
-2.25419574417174 773.708760738373 2595.00002861023 147 148 143
4.78983391076326 774.006843566895 2595.99995613098 145 146 141
11.8301631882787 773.707985877991 2595.00002861023 151 152 147
18.901402130723 774.899423122406 2598.99997711182 154 155 150
25.9943138808012 776.090383529663 2602.9999256134 158 159 154
33.1088826060295 777.280747890472 2607.00011253357 159 160 155
40.2450896799564 778.470516204834 2611.00006103516 153 152 150
47.3847985267639 779.361724853516 2614.00008201599 155 154 152
54.5615293085575 780.550479888916 2618.00003051758 168 167 165
61.8069656193256 782.334923744202 2624.00007247925 168 167 163
69.2424476146698 785.907745361328 2635.99991798401 166 165 161
76.6559690237045 788.585543632507 2644.99998092651 172 171 167
83.9913785457611 790.070235729218 2650.00009536743 171 170 165
91.2161394953728 790.361762046814 2651.00002288818 171 170 165
98.4832569956779 790.950953960419 2653.00011634827 165 164 159
105.88052123785 792.433857917786 2657.99999237061 155 155 147
113.432347774506 794.810652732849 2665.99988937378 152 152 144
120.936863124371 796.590745449066 2671.99993133545 161 151 139
128.56961786747 798.966526985168 2680.0000667572 132 119 103
136.296197772026 801.6397356987 2688.99989128113 109 93 77
144.338354468346 805.803060531616 2703.00006866455 111 90 71
152.287825942039 809.071362018585 2713.99998664856 127 105 84
160.002589225769 810.848593711853 2720.00002861023 121 96 74
167.811080813408 812.923312187195 2726.99999809265 122 97 77
175.657242536545 814.997494220734 2733.99996757507 128 105 87
184.277608990669 820.350110530853 2752.00009346008 115 97 83
192.995265126228 825.70207118988 2769.99998092651 139 125 114
201.73779129982 830.755233764648 2786.99994087219 150 140 131
209.971338510513 833.42319726944 2796.0000038147 243 236 230
219.731718301773 841.753959655762 2823.99988174438 244 243 239
229.563027620316 849.785983562469 2851.0000705719 244 246 243
-74.1912797093391 782.650887966156 2648.9999294281 209 211 208
-66.5221512317657 777.042627334595 2630.00011444092 202 204 201
-59.1817982494831 774.388313293457 2621.00005149841 208 210 207
-51.8901832401752 771.733462810516 2611.99998855591 199 201 198
-44.6987524628639 769.964337348938 2605.99994659424 183 183 181
-37.5686809420586 768.785715103149 2601.99999809265 174 175 170
-30.4719563573599 767.90189743042 2598.99997711182 162 163 158
-23.3734361827374 766.426682472229 2594.00010108948 179 180 175
-16.3334850221872 766.428172588348 2594.00010108948 151 152 147
-9.3006668612361 767.020046710968 2595.99995613098 147 148 143
-2.25697387941182 767.611503601074 2598.00004959106 148 149 144
4.79573523625731 767.906844615936 2598.99997711182 145 146 141
11.849301867187 767.906129360199 2598.99997711182 147 148 143
18.9101174473763 768.2004570961 2599.99990463257 149 150 145
25.9763225913048 768.494248390198 2601.0000705719 157 158 153
33.0733023583889 769.378304481506 2604.00009155273 157 158 153
40.217325091362 770.852863788605 2608.99996757507 159 158 154
47.3521426320076 771.735846996307 2611.99998855591 152 151 147
54.5448362827301 773.209273815155 2617.00010299683 167 166 162
61.7880932986736 774.977505207062 2622.99990653992 171 170 166
69.1163390874863 777.336180210114 2631.00004196167 165 164 160
76.4298960566521 779.103398323059 2637.00008392334 172 171 167
83.7758481502533 780.870079994202 2642.99988746643 172 171 166
91.0853743553162 782.045185565948 2647.0000743866 170 169 164
98.4164178371429 783.219873905182 2651.00002288818 169 168 163
105.729125440121 784.098446369171 2654.00004386902 167 166 161
113.27064037323 786.453723907471 2661.99994087219 159 158 153
120.764836668968 788.217484951019 2667.99998283386 152 145 135
128.435254096985 790.86709022522 2677.00004577637 163 155 144
136.002197861671 792.629837989807 2683.00008773804 165 153 141
143.975213170052 796.459853649139 2696.00009918213 118 102 86
152.130722999573 800.880193710327 2710.99996566772 126 109 91
160.190835595131 804.413735866547 2723.00004959106 129 108 89
168.069556355476 806.764900684357 2730.99994659424 125 102 84
175.798580050468 808.229327201843 2736.00006103516 130 109 92
184.023141860962 811.76096200943 2747.99990653992 132 114 100
192.45183467865 815.882802009583 2762.00008392334 149 135 122
200.811296701431 819.413185119629 2773.9999294281 157 144 135
209.31051671505 823.238372802734 2786.99994087219 245 238 230
218.658044934273 830.016851425171 2809.99994277954 235 234 230
228.049367666245 836.499094963074 2832.00001716614 235 237 234
237.143352627754 841.503798961639 2848.99997711182 238 240 237
-74.0008652210236 773.471653461456 2641.99995994568 208 210 207
-66.5019378066063 769.671142101288 2628.99994850159 204 206 203
-59.1185837984085 766.45565032959 2618.00003051758 206 208 205
-51.8544167280197 764.117658138275 2609.99989509583 196 198 195
-44.6850284934044 762.657642364502 2605.00001907349 180 180 178
-37.5426784157753 761.196911334991 2599.99990463257 172 173 168
-30.4625723510981 760.614097118378 2598.00004959106 159 160 155
-23.39325286448 760.030508041382 2595.99995613098 179 180 175
-16.3599289953709 760.617613792419 2598.00004959106 151 152 147
-9.31213144212961 760.911405086517 2598.99997711182 148 149 144
-2.25801602937281 760.911881923676 2598.99997711182 150 151 146
4.79794945567846 761.204540729523 2599.99990463257 146 147 142
11.8638919666409 761.789381504059 2601.99999809265 150 151 146
18.933393061161 762.0809674263 2602.9999256134 147 148 143
25.9783156216145 761.493682861328 2601.0000705719 155 156 151
33.0631360411644 762.0769739151 2602.9999256134 157 158 153
40.1895754039288 763.245284557343 2607.00011253357 160 159 155
47.3195090889931 764.120161533356 2609.99989509583 153 152 148
54.4864758849144 765.287399291992 2614.00008201599 165 164 160
61.7456994950771 767.332196235657 2621.00005149841 170 169 165
69.0428018569946 769.376516342163 2628.00002098084 166 165 161
76.2907788157463 770.542025566101 2631.99996948242 171 170 166
83.5603252053261 771.706938743591 2635.99991798401 172 171 166
90.8858105540276 773.164093494415 2641.00003242493 172 171 166
98.163977265358 774.035096168518 2644.00005340576 172 171 166
105.49808293581 775.198400020599 2648.00000190735 173 172 167
113.023862242699 777.532041072845 2655.99989891052 166 165 160
120.592847466469 779.865205287933 2664.00003433228 160 156 147
128.300949931145 782.783210277557 2674.00002479553 162 155 145
135.758906602859 783.944249153137 2677.99997329712 161 151 141
143.61210167408 787.153780460358 2688.99989128113 123 109 96
151.693075895309 791.240990161896 2703.00006866455 123 107 91
160.026222467422 796.205759048462 2720.00002861023 128 109 92
167.95888543129 798.828065395355 2729.00009155273 126 107 90
175.811514258385 800.864219665527 2736.00006103516 129 110 95
184.170603752136 804.94898557663 2750 140 124 109
192.32651591301 807.862162590027 2759.99999046326 154 140 129
200.60870051384 811.067461967468 2770.99990844727 179 166 158
208.799943327904 813.686847686768 2779.99997138977 239 232 224
218.051254749298 820.110559463501 2802.00004577637 238 234 231
227.260425686836 825.948178768158 2822.00002670288 235 237 234
236.16136610508 830.321609973907 2836.99989318848 228 230 227
245.916843414307 837.328553199768 2861.00006103516 225 227 224
-73.9225149154663 765.489757061005 2638.99993896484 199 201 198
-66.3552656769753 760.854065418243 2622.99990653992 203 205 202
-59.0328089892864 758.248269557953 2614.00008201599 195 197 194
-51.8385395407677 756.802082061768 2608.99996757507 186 188 185
-44.671319425106 755.355596542358 2604.00009155273 172 172 170
-37.5600233674049 754.488527774811 2601.0000705719 170 171 166
-30.453197658062 753.330767154694 2596.99988365173 157 158 153
-23.3950614929199 753.042817115784 2595.99995613098 179 180 175
-16.3486003875732 753.044366836548 2595.99995613098 153 154 149
-9.31643508374691 754.205703735352 2599.99990463257 149 150 145
-2.25905957631767 754.20606136322 2599.99990463257 151 152 147
4.80385730043054 755.076229572296 2602.9999256134 149 150 145
11.8739306926727 755.36572933197 2604.00009155273 156 157 152
18.9421325922012 755.36447763443 2604.00009155273 143 144 139
25.9703360497952 754.202425479889 2599.99990463257 150 151 146
33.0656915903091 755.070328712463 2602.9999256134 158 159 154
40.1926822960377 756.227910518646 2607.00011253357 159 158 154
47.3412945866585 757.384836673737 2611.00006103516 153 152 148
54.4489771127701 757.670938968658 2611.99998855591 159 158 154
61.7268905043602 759.986937046051 2619.99988555908 167 166 162
68.9430087804794 761.142313480377 2624.00007247925 167 166 162
76.2386694550514 762.87704706192 2630.00011444092 166 165 161
83.4399089217186 763.451039791107 2631.99996948242 171 170 165
90.8239260315895 765.474736690521 2638.99993896484 176 175 170
98.0972200632095 766.337752342224 2641.99995994568 174 173 168
105.466268956661 767.780303955078 2647.0000743866 170 169 164
113.032452762127 770.382344722748 2655.99989891052 172 171 166
120.601989328861 772.693932056427 2664.00003433228 159 158 153
128.262668848038 775.294899940491 2673.00009727478 173 170 165
135.566338896751 775.57498216629 2674.00002479553 167 162 156
143.355846405029 778.46485376358 2684.00001525879 171 163 152
151.143208146095 781.06415271759 2693.00007820129 168 158 146
159.567460417747 786.563038825989 2711.99989318848 125 111 98
167.725175619125 790.321171283722 2724.99990463257 135 119 106
176.081627607346 794.658780097961 2740.00000953674 145 129 116
184.519097208977 798.995673656464 2755.00011444092 153 139 128
192.480057477951 801.011681556702 2762.00008392334 175 161 152
200.189024209976 801.867306232452 2765.00010490417 184 174 165
208.289384841919 804.172277450562 2773.00000190735 220 213 205
216.899737715721 808.216750621796 2786.99994087219 237 233 230
226.068794727325 814.000487327576 2806.99992179871 233 235 232
235.096126794815 818.913459777832 2823.99988174438 236 238 235
244.559094309807 824.985802173615 2845.00002861023 230 232 229
-81.6134735941887 763.264656066895 2655.99989891052 209 211 208
-73.8722011446953 757.810652256012 2637.00008392334 201 203 200
-66.3350969552994 753.505349159241 2621.99997901917 208 210 207
-58.9922107756138 750.636518001556 2611.99998855591 190 192 189
-51.8226958811283 749.491274356842 2608.00004005432 184 186 183
-44.6576289832592 748.058080673218 2602.9999256134 167 167 165
-37.5773832201958 747.773945331573 2601.99999809265 169 168 164
-30.4790232330561 746.914505958557 2598.99997711182 164 163 159
-23.3968794345856 746.054351329803 2595.99995613098 181 180 176
-16.3372773677111 745.481193065643 2594.00010108948 155 154 150
-9.30282566696405 746.056914329529 2595.99995613098 148 147 143
-2.25836667232215 746.919512748718 2598.99997711182 149 148 144
4.80238581076264 747.78163433075 2601.99999809265 148 147 143
11.8611734360456 747.493624687195 2601.0000705719 153 152 148
18.9290568232536 747.779786586761 2601.99999809265 147 146 142
25.9823463857174 747.490644454956 2601.0000705719 151 150 146
33.1063717603683 748.92520904541 2605.99994659424 145 144 140
40.2112193405628 749.49711561203 2608.00004005432 158 159 153
47.3630987107754 750.643253326416 2611.99998855591 153 154 148
54.4532015919685 750.639319419861 2611.99998855591 156 157 151
61.6845600306988 752.359092235565 2618.00003051758 163 164 158
68.8695162534714 753.216147422791 2621.00005149841 166 167 161
76.1575847864151 754.934787750244 2627.00009346008 165 166 160
83.3829492330551 755.790829658508 2630.00011444092 169 170 165
90.6932428479195 757.220864295959 2634.99999046326 170 171 166
97.9190841317177 757.788360118866 2637.00008392334 171 172 167
105.354815721512 759.79208946228 2644.00005340576 172 173 168
112.95598000288 762.657344341278 2654.00004386902 172 173 168
120.520643889904 764.947175979614 2661.99994087219 168 169 164
128.032490611076 766.661882400513 2667.99998283386 170 169 165
135.272428393364 766.65186882019 2667.99998283386 168 167 162
142.992809414864 769.22744512558 2677.00004577637 173 166 158
150.649458169937 771.227717399597 2684.00001525879 173 164 155
158.814504742622 775.526106357574 2698.99988174438 146 134 122
167.122200131416 780.111193656921 2714.99991416931 144 130 119
175.837695598602 786.132276058197 2736.00006103516 141 127 116
184.197917580605 790.141463279724 2750 148 135 126
191.797390580177 790.701985359192 2752.00009346008 168 155 146
199.334919452667 790.974795818329 2753.00002098084 187 176 170
207.328155636787 792.970895767212 2759.99999046326 207 200 194
216.059476137161 797.552287578583 2776.00002288818 226 222 219
225.36039352417 803.856730461121 2798.00009727478 235 237 234
234.280616044998 808.436572551727 2813.99989128113 234 236 233
244.146898388863 815.888702869415 2839.99991416931 227 229 226
253.976345062256 822.765469551086 2864.00008201599 213 215 212
-81.1895951628685 752.12824344635 2641.99995994568 209 211 208
-73.6258029937744 748.148679733276 2628.00002098084 208 210 207
-66.1884546279907 744.737923145294 2615.9999370575 203 205 202
-58.9064620435238 742.465436458588 2608.00004005432 187 189 186
-51.7671294510365 741.615653038025 2605.00001907349 178 180 177
-44.62680965662 740.480720996857 2601.0000705719 168 168 166
-37.580318748951 740.768551826477 2601.99999809265 166 165 161
-30.4931346327066 740.201830863953 2599.99990463257 164 163 159
-23.4077274799347 739.349842071533 2596.99988365173 181 180 176
-16.3322575390339 738.212645053864 2592.99993515015 154 153 149
-9.29280370473862 738.213658332825 2592.99993515015 148 147 143
-2.25506769493222 738.783478736877 2595.00002861023 149 148 144
4.79906983673573 740.206837654114 2599.99990463257 148 147 143
11.8575412780046 740.206182003021 2599.99990463257 153 152 148
18.9378149807453 741.059124469757 2602.9999256134 147 146 142
25.9843803942204 740.487992763519 2601.0000705719 150 149 145
33.1089682877064 741.909086704254 2605.99994659424 145 144 140
40.1835255324841 741.906225681305 2605.99994659424 150 151 145
47.3486669361591 743.326306343079 2611.00006103516 159 160 154
54.4366054236889 743.322312831879 2611.00006103516 147 148 142
61.5951083600521 744.171798229218 2614.00008201599 163 164 158
68.7172114849091 744.451463222504 2615.00000953674 158 159 153
75.9895518422127 746.153891086578 2621.00005149841 162 163 157
83.2308754324913 747.286438941956 2625 166 167 162
90.5281528830528 748.703062534332 2630.00011444092 167 168 163
97.8152453899384 749.834418296814 2634.0000629425 169 170 165
105.283245444298 752.103924751282 2641.99995994568 171 172 167
112.836979329586 754.657566547394 2651.00002288818 171 172 167
120.484620332718 757.495284080505 2661.00001335144 172 172 170
127.946317195892 758.909046649933 2665.99988937378 174 174 172
135.232046246529 759.183585643768 2667.00005531311 173 172 168
142.790004611015 760.880887508392 2673.00009727478 172 167 161
150.380209088326 762.577533721924 2678.99990081787 177 170 162
158.296927809715 765.697062015533 2690.00005722046 166 158 147
166.396096348763 769.385099411011 2703.00006866455 142 132 122
174.95109140873 774.7802734375 2721.99988365173 148 138 128
183.340892195702 779.036283493042 2736.99998855591 156 146 137
190.835908055305 779.306888580322 2737.99991607666 166 156 147
198.191151022911 779.007732868195 2736.99998855591 197 186 180
206.291779875755 781.554281711578 2746.00005149841 210 203 197
215.063527226448 786.377131938934 2763.00001144409 223 222 218
224.088132381439 791.768372058868 2782.00006484985 231 233 230
233.04882645607 796.589851379395 2799.00002479553 235 237 234
242.531195282936 802.833676338196 2821.00009918213 221 223 220
252.66444683075 810.784041881561 2848.99997711182 213 215 212
-81.1344683170319 744.450330734253 2640.00010490417 209 211 208
-73.6035406589508 740.790486335754 2627.00009346008 210 212 209
-66.2442520260811 738.258063793182 2618.00003051758 199 201 198
-58.9336641132832 735.725045204163 2608.99996757507 185 187 184
-51.7711900174618 734.601378440857 2605.00001907349 175 177 174
-44.6131527423859 733.195185661316 2599.99990463257 170 170 168
-37.5832766294479 733.762443065643 2601.99999809265 164 163 159
-30.495535582304 733.201086521149 2599.99990463257 164 163 159
-23.4185829758644 732.639193534851 2598.00004959106 182 181 177
-16.3461416959763 731.794714927673 2595.00002861023 154 153 149
-9.29712038487196 731.513857841492 2594.00010108948 148 147 143
-2.25524534471333 731.796264648438 2595.00002861023 149 148 144
4.79391030967236 732.360124588013 2596.99988365173 148 147 143
11.8584763258696 733.205556869507 2599.99990463257 153 152 148
18.9465824514627 734.332382678986 2604.00009155273 148 147 143
26.026388630271 734.61252450943 2605.00001907349 150 149 145
33.1369824707508 735.456168651581 2608.00004005432 145 144 140
40.2021035552025 735.171318054199 2607.00011253357 147 148 142
47.3523885011673 736.295878887177 2611.00006103516 161 162 156
54.4408746063709 736.291885375977 2611.00006103516 144 145 139
61.5528076887131 736.569285392761 2611.99998855591 163 164 158
68.6437487602234 736.564159393311 2611.99998855591 155 156 150
75.8795067667961 737.968444824219 2617.00010299683 160 161 155
83.0788165330887 738.808214664459 2619.99988555908 164 165 160
90.3286784887314 739.929378032684 2624.00007247925 167 168 163
97.5628793239594 740.768015384674 2627.00009346008 169 170 165
105.012439191341 743.015885353088 2634.99999046326 172 173 168
112.505182623863 745.263338088989 2642.99988746643 173 174 169
120.176963508129 748.35604429245 2654.00004386902 168 170 167
127.76418030262 750.602185726166 2661.99994087219 173 175 174
135.191723704338 751.719892024994 2665.99988937378 177 177 175
142.587244510651 752.555131912231 2668.99991035461 172 171 167
150.223299860954 754.517674446106 2676.00011825562 174 171 166
157.897040247917 756.479620933533 2683.00008773804 172 167 161
165.854647755623 759.568631649017 2694.00000572205 179 174 168
174.128726124763 763.784945011139 2709.00011062622 164 157 151
182.416841387749 767.718613147736 2723.00004959106 158 151 145
190.153211355209 769.114196300507 2727.9999256134 162 155 149
197.771474719048 769.945442676544 2730.99994659424 202 194 191
205.706104636192 771.903812885284 2737.99991607666 193 188 184
214.456737041473 776.680827140808 2755.00011444092 212 211 207
223.218575119972 781.175136566162 2770.99990844727 226 228 225
232.066750526428 785.668849945068 2786.99994087219 231 233 230
241.603121161461 792.135119438171 2809.99994277954 232 234 231
252.150684595108 801.419615745544 2842.99993515015 219 221 218
-81.0486376285553 736.503064632416 2637.00008392334 210 212 209
-73.4692215919495 732.319533824921 2621.99997901917 202 204 201
-66.1229342222214 729.811429977417 2612.99991607666 190 192 189
-58.8705390691757 727.861225605011 2605.99994659424 177 179 176
-51.7355240881443 727.027714252472 2602.9999256134 171 173 170
-44.6166768670082 726.19354724884 2599.99990463257 171 171 169
-37.5718027353287 726.47625207901 2601.0000705719 159 158 154
-30.4979458451271 726.199507713318 2599.99990463257 163 162 158
-23.4294533729553 725.922405719757 2598.99997711182 182 181 177
-16.3663346320391 725.644648075104 2598.00004959106 154 153 149
-9.30860918015242 725.366294384003 2596.99988365173 147 146 142
-2.25716223940253 725.366830825806 2596.99988365173 149 148 144
4.79798251762986 725.925326347351 2598.99997711182 149 148 144
11.8685383349657 726.762652397156 2601.99999809265 153 152 148
18.9553573727608 727.599263191223 2605.00001907349 149 148 144
26.0484348982573 728.156208992004 2607.00011253357 149 148 144
33.165019005537 728.991746902466 2609.99989509583 145 144 140
40.2361266314983 728.70945930481 2608.99996757507 145 146 140
47.3742596805096 729.54398393631 2611.99998855591 159 160 152
54.4868670403957 729.819238185883 2612.99991607666 144 145 137
61.5576505661011 729.535341262817 2611.99998855591 162 163 157
68.6491429805756 729.530215263367 2611.99998855591 152 153 147
75.8274719119072 730.362415313721 2615.00000953674 160 161 155
83.0536261200905 731.473326683044 2618.99995803833 164 165 160
90.2324616909027 732.02508687973 2621.00005149841 166 167 162
97.5705161690712 733.693599700928 2627.00009346008 169 170 165
104.940913617611 735.361337661743 2632.99989700317 174 174 172
112.386226654053 737.307846546173 2640.00010490417 175 175 173
119.86930668354 739.253699779511 2647.0000743866 175 177 174
127.58207321167 742.316126823425 2657.99999237061 177 179 176
135.202169418335 744.540214538574 2665.99988937378 180 180 178
142.705097794533 745.925784111023 2671.0000038147 180 179 175
150.347113609314 747.869312763214 2677.99997329712 178 177 173
157.909125089645 749.253809452057 2683.00008773804 173 170 165
165.682598948479 751.47545337677 2690.99998474121 170 167 162
173.499122262001 753.696501255035 2698.99988174438 190 185 181
181.492745876312 756.475508213043 2709.00011062622 162 157 153
189.400762319565 758.695363998413 2717.00000762939 152 147 143
197.206974029541 760.356187820435 2723.00004959106 203 198 195
205.496087670326 763.69172334671 2734.99989509583 188 184 181
214.161321520805 768.143653869629 2750.99992752075 217 217 215
222.83236682415 772.315740585327 2766.00003242493 225 227 224
231.667563319206 776.766240596771 2782.00006484985 224 226 223
240.847080945969 782.053709030151 2801.00011825562 236 238 235
251.548290252686 791.807591915131 2835.99996566772 224 226 223
-89.3518775701523 738.798558712006 2671.0000038147 210 212 209
-80.8398649096489 727.464616298676 2630.00011444092 210 212 209
-73.39096814394 724.428057670593 2618.99995803833 194 196 193
-66.0775527358055 722.220659255981 2611.00006103516 185 187 184
-58.8751994073391 720.842599868774 2605.99994659424 172 174 171
-51.7396256327629 720.017194747925 2602.9999256134 168 170 167
-44.6545369923115 719.744384288788 2601.99999809265 170 170 168
-37.5603400170803 719.19447183609 2599.99990463257 157 156 152
-30.4886400699615 718.920588493347 2598.99997711182 165 161 158
-23.4313141554594 718.922674655914 2598.99997711182 185 181 178
-16.3676366209984 718.647599220276 2598.00004959106 155 151 148
-9.3165198341012 718.92523765564 2598.99997711182 149 145 142
-2.26081884466112 719.479024410248 2601.0000705719 151 147 144
4.80390340089798 719.755530357361 2601.99999809265 151 147 144
11.8603585287929 719.201564788818 2599.99990463257 156 152 149
18.9204774796963 719.200372695923 2599.99990463257 152 148 145
26.0505042970181 721.134841442108 2607.00011253357 150 146 143
33.2184843719006 723.06889295578 2614.00008201599 145 144 139
40.3164401650429 723.065912723541 2614.00008201599 144 145 139
47.4142916500568 723.0623960495 2614.00008201599 144 145 137
54.512046277523 723.058462142944 2614.00008201599 148 149 141
61.7039427161217 724.160194396973 2618.00003051758 156 157 151
68.7860026955605 723.878443241119 2617.00010299683 150 151 145
75.9204551577568 724.149286746979 2618.00003051758 157 158 152
83.0918848514557 724.696218967438 2619.99988555908 161 162 157
90.3428494930267 725.795745849609 2624.00007247925 164 165 160
97.6524576544762 727.171301841736 2628.99994850159 168 169 164
104.949146509171 728.269755840302 2632.99989700317 174 174 172
112.309865653515 729.644179344177 2638.00001144409 176 176 174
119.878649711609 732.124388217926 2647.0000743866 179 181 178
127.448007464409 734.327435493469 2654.99997138977 178 180 177
135.009795427322 736.253261566162 2661.99994087219 179 179 177
142.448976635933 737.348735332489 2665.99988937378 183 183 181
150.24645626545 740.103244781494 2676.00011825562 183 183 181
157.921269536018 742.027223110199 2683.00008773804 184 183 179
165.75688123703 744.503855705261 2691.99991226196 192 191 187
173.255249857903 745.320439338684 2694.9999332428 175 174 172
181.037545204163 747.24280834198 2701.99990272522 186 185 183
188.92714381218 749.441146850586 2710.00003814697 194 193 191
197.294309735298 753.298044204712 2723.99997711182 187 186 184
205.511584877968 756.324768066406 2734.99989509583 192 192 190
214.177399873734 760.733425617218 2750.99992752075 208 208 206
222.526729106903 763.758838176727 2762.00008392334 217 219 216
231.268405914307 767.889797687531 2776.99995040894 219 221 218
240.090936422348 772.019863128662 2792.00005531311 227 229 226
250.502347946167 780.849993228912 2823.99988174438 225 227 224
-88.3887335658073 723.660588264465 2641.99995994568 210 212 209
-80.8155164122581 720.106422901154 2628.99994850159 210 212 209
-73.3407363295555 716.825664043427 2617.00010299683 188 190 187
-66.0827979445457 715.187728404999 2611.00006103516 182 184 181
-58.8798820972443 713.823080062866 2605.99994659424 168 170 167
-51.7437420785427 713.005721569061 2602.9999256134 167 167 165
-44.6237735450268 712.187886238098 2599.99990463257 169 168 166
-37.5344417989254 711.643397808075 2598.00004959106 156 155 151
-30.4676089435816 711.372077465057 2596.99988365173 165 161 158
-23.4241709113121 711.648225784302 2598.00004959106 185 181 178
-16.3626428693533 711.375772953033 2596.99988365173 155 151 148
-9.31726489216089 711.92479133606 2598.99997711182 149 145 142
-2.26099952124059 712.473094463348 2601.0000705719 151 147 144
4.80428710579872 712.746918201447 2601.99999809265 152 148 145
11.8658700957894 712.472319602966 2601.0000705719 156 152 149
18.9365465193987 712.744951248169 2601.99999809265 152 148 145
26.0825622826815 714.934527873993 2609.99989509583 150 146 143
33.2592613995075 716.849625110626 2617.00010299683 145 144 139
40.3813496232033 717.12052822113 2618.00003051758 145 144 139
47.4724918603897 716.84318780899 2617.00010299683 138 139 131
54.5789524912834 716.839075088501 2617.00010299683 149 150 144
61.7559850215912 717.656135559082 2619.99988555908 154 155 149
68.8440352678299 717.377126216888 2618.99995803833 149 150 144
75.9844779968262 717.645227909088 2619.99988555908 156 157 151
83.1936150789261 718.460619449615 2622.99990653992 159 160 155
90.4877185821533 719.82330083847 2628.00002098084 163 164 159
97.7716073393822 720.91144323349 2631.99996948242 167 168 163
104.997277259827 721.451282501221 2634.0000629425 174 174 172
112.318694591522 722.53829240799 2638.00001144409 176 176 174
119.706884026527 723.898589611053 2642.99988746643 176 178 175
127.265959978104 726.080060005188 2651.00002288818 177 179 176
134.716004133224 727.439284324646 2655.99989891052 185 185 183
142.246335744858 729.071795940399 2661.99994087219 185 185 183
150.033488869667 731.799125671387 2671.99993133545 183 183 181
157.933503389359 734.799921512604 2683.00008773804 183 184 179
165.646508336067 736.704468727112 2690.00005722046 182 181 179
173.20428788662 737.786829471588 2694.00000572205 179 178 176
180.984392762184 739.690184593201 2700.99997520447 174 174 172
189.01127576828 742.414593696594 2710.99996566772 180 179 177
197.164446115494 745.412170886993 2721.99988365173 194 194 194
205.301716923714 748.135387897491 2732.00011253357 186 186 186
213.570669293404 751.13171339035 2743.00003051758 203 203 201
222.301736474037 755.496621131897 2759.0000629425 212 214 211
230.952516198158 759.31316614151 2773.00000190735 221 223 220
239.850804209709 763.676643371582 2789.00003433228 220 222 219
249.6337890625 770.5038189888 2813.99989128113 222 224 221
261.380344629288 782.806158065796 2858.99996757507 226 228 225
-88.2619321346283 715.45821428299 2638.00001144409 214 216 213
-80.8834359049797 713.566482067108 2631.00004196167 201 203 200
-73.4306573867798 710.589170455933 2619.99988555908 189 189 187
-66.2146210670471 709.509968757629 2615.9999370575 184 185 180
-58.9523762464523 707.61638879776 2608.99996757507 169 168 164
-51.8075227737427 706.807196140289 2605.99994659424 171 170 166
-44.627346098423 705.183684825897 2599.99990463257 167 166 162
-37.5374481081963 704.644501209259 2598.00004959106 155 154 152
-30.4583199322224 704.104840755463 2595.99995613098 164 163 161
-23.4170313924551 704.378187656403 2596.99988365173 180 179 177
-16.3576547056437 704.108536243439 2595.99995613098 150 149 147
-9.31801181286573 704.923212528229 2598.99997711182 150 149 145
-2.2620502859354 705.737471580505 2601.99999809265 149 148 144
4.80836629867554 706.279873847961 2604.00009155273 153 152 148
11.8713835254312 705.736696720123 2601.99999809265 150 149 145
18.9599022269249 706.549167633057 2605.00001907349 152 151 146
26.0946489870548 708.174645900726 2611.00006103516 146 145 140
33.2619287073612 709.799706935883 2617.00010299683 143 142 137
40.4000096023083 710.3391289711 2618.99995803833 142 141 137
47.5125759840012 710.335612297058 2618.99995803833 135 134 130
54.6041652560234 710.060298442841 2618.00003051758 149 148 144
61.7373436689377 710.326910018921 2618.99995803833 142 141 137
68.8495188951492 710.321664810181 2618.99995803833 149 148 144
76.0775357484818 711.400628089905 2622.99990653992 151 150 146
83.2636654376984 711.936771869659 2625 158 157 153
90.5293300747871 713.014721870422 2628.99994850159 161 160 156
97.7050513029099 713.278532028198 2630.00011444092 165 164 160
105.005577206612 714.35534954071 2634.0000629425 172 171 167
112.28496581316 715.160250663757 2637.00008392334 175 174 170
119.761608541012 717.049598693848 2644.00005340576 175 176 171
127.131909132004 718.124568462372 2648.00000190735 176 178 173
134.523659944534 719.199180603027 2651.99995040894 183 185 180
141.829922795296 719.730734825134 2654.00004386902 185 187 182
149.708241224289 722.97340631485 2665.99988937378 185 187 182
157.651394605637 726.215660572052 2677.99997329712 187 189 186
165.474578738213 728.643715381622 2687.00003623962 188 190 187
173.15337061882 730.25768995285 2693.00007820129 185 187 184
181.132346391678 732.955574989319 2703.00006866455 182 184 181
189.2349421978 735.924065113068 2713.99998664856 181 183 180
197.107061743736 737.807393074036 2720.99995613098 185 187 186
204.941540956497 739.418864250183 2726.99999809265 188 190 189
213.275372982025 742.656767368317 2739.00008201599 199 199 197
222.157344222069 747.520864009857 2756.99996948242 206 208 205
230.803281068802 751.299560070038 2770.99990844727 214 216 213
239.180684089661 753.993093967438 2780.99989891052 219 221 218
248.765185475349 760.210633277893 2803.99990081787 219 221 218
260.393977165222 772.120714187622 2848.00004959106 219 221 218
-88.3358865976334 708.887696266174 2640.00010490417 210 212 209
-80.8898881077766 706.477701663971 2631.00004196167 195 197 194
-73.4084993600845 703.261613845825 2618.99995803833 187 187 185
-66.1946162581444 702.193140983582 2615.00000953674 182 183 178
-58.9119121432304 700.049996376038 2607.00011253357 167 166 162
-51.7917983233929 699.517369270325 2605.00001907349 171 170 166
-44.6137599647045 697.910010814667 2598.99997711182 166 165 161
-37.5404618680477 697.644829750061 2598.00004959106 154 153 151
-30.4725002497435 697.378993034363 2596.99988365173 165 164 162
-23.4189126640558 697.381138801575 2596.99988365173 180 179 177
-16.3652747869492 697.382807731628 2596.99988365173 148 147 145
-9.32234711945057 698.189377784729 2599.99990463257 149 148 144
-2.26310174912214 698.995471000671 2602.9999256134 150 149 145
4.80875326320529 699.263989925385 2604.00009155273 152 151 147
11.886028572917 699.531853199005 2605.00001907349 149 148 144
18.9832653850317 700.336217880249 2608.00004005432 152 151 146
26.1267349123955 701.945602893829 2614.00008201599 146 145 140
33.2646034657955 702.748775482178 2617.00010299683 142 141 136
40.4186807572842 703.551352024078 2619.99988555908 140 139 135
47.5526712834835 703.816413879395 2621.00005149841 140 139 135
54.6711273491383 703.81224155426 2621.00005149841 146 145 141
61.742290854454 703.270554542542 2618.99995803833 140 139 135
68.8813179731369 703.53376865387 2619.99988555908 149 148 144
76.1706382036209 705.139100551605 2625.99992752075 150 149 145
83.397202193737 705.938279628754 2628.99994850159 155 154 150
90.6054154038429 706.468462944031 2631.00004196167 159 158 154
97.7499783039093 706.461012363434 2631.00004196167 163 162 158
104.974031448364 706.989824771881 2632.99989700317 170 169 165
112.293869256973 708.055257797241 2637.00008392334 174 173 169
119.499266147614 708.314657211304 2638.00001144409 174 175 170
126.901850104332 709.647357463837 2642.99988746643 176 178 173
134.28059220314 710.711061954498 2647.0000743866 182 184 179
141.787588596344 712.311267852783 2653.00011634827 184 186 181
149.551495909691 714.984655380249 2663.00010681152 185 187 182
157.310456037521 717.389047145844 2671.99993133545 187 189 186
165.179505944252 720.061242580414 2681.99992179871 188 190 187
172.909542918205 721.927404403687 2688.99989128113 186 188 185
180.94527721405 724.86686706543 2700.00004768372 184 186 183
189.110025763512 728.074193000793 2711.99989318848 182 184 181
196.759968996048 729.133367538452 2716.00008010864 185 187 186
204.656600952148 730.997025966644 2723.00004959106 188 190 189
212.98012137413 734.202444553375 2734.99989509583 197 197 195
222.013026475906 739.554882049561 2755.00011444092 203 205 202
230.654120445251 743.295848369598 2769.00005340576 209 211 208
238.94065618515 745.693981647491 2778.00011634827 216 218 215
248.074024915695 750.507414340973 2796.0000038147 217 219 216
259.407520294189 761.493504047394 2836.99989318848 218 220 217
-96.0190966725349 705.487847328186 2654.00004386902 208 213 209
-88.1756246089935 700.444579124451 2634.99999046326 197 199 196
-80.6811451911926 697.527348995209 2624.00007247925 189 189 187
-73.3863636851311 695.938527584076 2618.00003051758 185 185 183
-66.1746188998222 694.880843162537 2614.00008201599 179 180 175
-59.007041156292 694.088339805603 2611.00006103516 168 167 163
-51.8556162714958 693.295300006866 2608.00004005432 175 174 170
-44.6688644587994 691.704213619232 2601.99999809265 164 163 159
-37.5868417322636 691.441714763641 2601.0000705719 153 152 150
-30.4984319955111 690.912783145905 2598.99997711182 164 163 161
-23.44786003232 691.18070602417 2599.99990463257 179 178 176
-16.3855012506247 691.182315349579 2599.99990463257 146 145 143
-9.33744478970766 692.246854305267 2604.00009155273 148 147 143
-2.26676254533231 693.044722080231 2607.00011253357 150 149 145
4.81652887538075 693.310499191284 2608.00004005432 152 151 147
11.9006773456931 693.309843540192 2608.00004005432 148 147 143
19.0139152109623 694.371938705444 2611.99998855591 152 151 146
26.1688251048326 695.965111255646 2618.00003051758 146 145 140
33.3181321620941 696.760237216949 2621.00005149841 140 139 134
40.4990799725056 697.820603847504 2625 133 132 128
47.5927926599979 697.285294532776 2622.99990653992 142 141 137
54.738100618124 697.547018527985 2624.00007247925 139 138 134
61.7708303034306 696.479022502899 2619.99988555908 142 141 137
68.9657256007195 697.271227836609 2622.99990653992 148 147 143
76.2347728013992 698.594629764557 2628.00002098084 143 142 138
83.4356024861336 699.119865894318 2630.00011444092 150 149 145
90.5782207846642 699.112892150879 2630.00011444092 154 153 149
97.7577641606331 699.371159076691 2631.00004196167 158 157 153
105.022266507149 700.160562992096 2634.0000629425 168 167 163
112.34538257122 701.215147972107 2638.00001144409 172 171 167
119.463451206684 700.940132141113 2637.00008392334 173 174 169
126.863867044449 702.259361743927 2641.99995994568 175 177 172
134.138986468315 702.780663967133 2644.00005340576 181 183 178
141.58496260643 704.09882068634 2648.9999294281 183 185 180
149.338573217392 706.745326519012 2658.99991989136 184 186 181
157.028391957283 708.859622478485 2667.00005531311 187 189 186
164.946004748344 711.77065372467 2677.99997329712 188 190 187
172.794386744499 714.149534702301 2687.00003623962 187 189 186
180.758237838745 716.793537139893 2697.00002670288 185 187 184
188.845694065094 719.70272064209 2707.99994468689 183 185 182
196.412846446037 720.485150814056 2710.99996566772 185 187 186
204.59708571434 723.393023014069 2721.99988365173 187 189 188
212.762758135796 726.034641265869 2732.00011253357 195 195 193
221.465721726418 730.269968509674 2747.99990653992 201 203 200
230.088457465172 733.973324298859 2762.00008392334 206 208 205
238.700613379478 737.410128116608 2775.00009536743 213 215 212
247.826427221298 742.174863815308 2792.99998283386 215 217 214
258.238136768341 750.393271446228 2823.99988174438 216 218 215
-95.592588186264 695.177674293518 2641.99995994568 205 210 206
-88.0488306283951 692.290663719177 2631.00004196167 190 192 189
-80.6568711996078 690.192401409149 2622.99990653992 187 187 185
-73.4483227133751 689.409196376801 2619.99988555908 183 183 181
-66.2559047341347 688.625454902649 2617.00010299683 178 179 174
-59.0118020772934 687.051713466644 2611.00006103516 169 168 164
-51.8200322985649 685.74047088623 2605.99994659424 178 177 173
-44.6381308138371 684.165477752686 2599.99990463257 162 161 157
-37.5754274427891 684.168815612793 2599.99990463257 155 154 152
-30.5008981376886 683.908522129059 2598.99997711182 164 163 161
-23.4677977859974 684.700131416321 2601.99999809265 179 178 176
-16.4057370275259 684.964835643768 2602.9999256134 148 147 145
-9.34895966202021 686.018586158752 2607.00011253357 150 149 145
-2.26868526078761 686.545193195343 2608.99996757507 151 150 146
4.82061225920916 686.808288097382 2609.99989509583 153 152 148
11.9198951870203 687.333881855011 2611.99998855591 147 146 142
19.0445724874735 688.385188579559 2615.9999370575 151 150 145
26.2209251523018 690.225422382355 2622.99990653992 145 144 139
33.3971045911312 691.275537014008 2627.00009346008 137 136 131
40.5640713870525 691.798806190491 2628.99994850159 120 119 115
47.6692169904709 691.268920898438 2627.00009346008 135 134 130
54.7842457890511 691.001713275909 2625.99992752075 137 136 132
61.8701241910458 690.470695495605 2624.00007247925 144 143 139
69.0764635801315 691.254854202271 2627.00009346008 147 146 142
76.2989223003387 692.038476467133 2630.00011444092 144 143 139
83.5057497024536 692.558169364929 2631.99996948242 149 148 144
90.6199216842651 692.288100719452 2631.00004196167 153 152 148
97.8399068117142 692.806780338287 2632.99989700317 156 155 151
104.990765452385 692.798614501953 2632.99989700317 163 162 158
112.269148230553 693.579316139221 2635.99991798401 167 166 162
119.382321834564 693.306982517242 2634.99999046326 172 173 168
126.681849360466 694.086492061615 2638.00001144409 173 175 170
134.09885764122 695.391774177551 2642.99988746643 179 181 176
141.596138477325 696.959435939789 2648.9999294281 181 183 178
149.237990379333 699.052810668945 2657.00006484985 183 185 180
156.805172562599 700.619399547577 2663.00010681152 187 189 186
164.650946855545 703.237652778625 2673.00009727478 187 189 186
172.679230570793 706.381499767303 2684.99994277954 187 189 186
180.705264210701 709.26159620285 2696.00009918213 186 188 185
188.860341906548 712.404191493988 2707.99994468689 184 186 183
196.428000926971 713.17845582962 2710.99996566772 184 186 185
204.387322068214 715.267479419708 2719.00010108948 184 186 185
212.467521429062 717.619061470032 2727.9999256134 193 193 191
220.67666053772 720.232963562012 2737.99991607666 197 199 196
229.272842407227 723.898530006409 2752.00009346008 203 205 202
237.944424152374 727.563321590424 2766.00003242493 210 212 209
247.312664985657 733.068645000458 2786.99994087219 213 215 212
257.983177900314 741.992652416229 2821.00009918213 212 214 211
-95.455527305603 687.014698982239 2638.00001144409 199 204 200
-87.955504655838 684.41766500473 2628.00002098084 181 183 180
-80.6018635630608 682.601451873779 2621.00005149841 182 182 180
-73.5103264451027 682.868123054504 2621.99997901917 180 180 178
-66.3372054696083 682.352840900421 2619.99988555908 176 177 172
-59.1069869697094 681.055784225464 2615.00000953674 170 169 165
-51.8640018999577 679.237127304077 2608.00004005432 179 178 174
-44.6932576596737 677.938759326935 2602.9999256134 157 156 152
-37.5784710049629 677.160739898682 2599.99990463257 156 155 153
-30.4916352033615 676.642715930939 2598.00004959106 161 160 158
-23.4606824815273 677.426218986511 2601.0000705719 178 177 175
-16.4070688188076 677.948713302612 2602.9999256134 149 148 146
-9.35330428183079 679.251968860626 2608.00004005432 150 149 145
-2.26973905228078 679.773390293121 2609.99989509583 150 149 145
4.82469843700528 680.294215679169 2611.99998855591 152 151 147
