ply
format ascii 1.0
comment KinectMotionCapture
element vertex 770
property float x
property float y
property float z
property uchar red
property uchar green
property uchar blue
end_header
127.882759937197 862.082344925392 3357.53813720091 203 203 203
134.244095955891 860.130752160791 3367.09669707571 197 193 192
134.75322206445 859.562392664875 3373.76035288151 205 200 197
129.374385161076 860.381917697691 3377.56324483872 130 119 113
121.031421509651 861.898966504745 3379.95573681222 134 119 112
122.552185068165 861.099979634181 3387.06581761844 189 169 158
139.935734315388 856.583551996961 3401.645592156 207 185 172
161.371381372221 851.127391137038 3418.0084409404 218 192 177
167.002722650197 849.383893350293 3426.84423071947 224 196 182
175.658922082802 846.937738252157 3437.03120987429 220 192 178
184.363964032454 844.486487217549 3447.17044086485 212 180 165
185.118692063097 843.89891353128 3453.5927123383 203 170 155
185.890878191965 843.31065912591 3459.99808611412 161 125 111
186.680274372072 842.721545472218 3466.38615920918 143 105 92
185.475508544328 842.600571845132 3471.85145513024 133 93 83
182.26454972803 842.949385916496 3476.40533945182 133 93 83
169.968026775395 845.414148815519 3476.915727414 130 90 82
160.672338466661 847.179708768091 3478.80031205758 142 108 99
146.286390606317 850.127582575146 3478.47996978183 150 117 108
143.029864901047 850.489911924079 3483.07744298763 187 158 150
143.844575945288 849.909695538955 3489.43906303598 195 168 159
146.71515452895 848.856495567924 3496.66323947123 204 184 173
145.524672774631 848.747873724773 3502.11252550796 206 188 176
144.343017356141 848.640026184194 3507.55293242114 216 203 194
140.093778864656 849.244349927689 3511.68317027311 220 211 202
128.649576663724 851.513076184631 3512.79307457703 224 224 216
163.318219681242 896.918238881953 2710.72036448671 143 129 120
162.159236360753 896.517608629927 2719.01534946375 114 96 84
182.176633275133 890.720850718044 2743.9221039733 101 82 68
196.604705433331 886.363094212578 2764.24707806171 120 94 79
202.132727473658 884.280926633795 2777.48658641362 125 98 81
198.696713233061 884.48217857894 2783.70301087598 123 95 74
199.375976065765 883.640363067762 2793.07195371469 122 94 73
198.435804586867 883.212442950459 2801.15368872857 126 95 75
199.991470429255 882.155384349566 2811.10141041741 111 80 60
198.269216180807 881.930980625593 2818.51277623099 75 44 24
197.39188451732 881.4951975199 2826.53327252547 78 45 26
193.209949423844 881.895289136536 2832.04410968715 84 53 33
186.532730809101 882.924331483817 2835.68843799206 88 57 37
179.013121534104 884.164198148172 2838.72120361572 84 53 35
173.993070128307 884.77470620797 2843.61595604705 110 81 63
170.651018260002 884.964171671913 2849.74081652149 114 85 67
162.272158119075 886.41722402547 2852.17841288759 85 58 41
152.192508707494 888.294250951688 2853.40809840763 89 63 46
142.089922906741 890.173992467726 2854.66015888599 129 106 90
130.271093926794 892.479538829495 2854.71938396435 141 118 104
116.724539146557 895.212383534753 2853.59729315889 139 117 103
79.5102310868865 870.970161556671 3280.97892563467 141 142 137
88.4384784691719 868.400696603611 3292.33122945626 149 151 148
99.3528585293442 865.372713297233 3304.6128616161 182 184 181
109.359322829456 862.564771327043 3316.34629837403 237 239 238
117.481675696995 860.204668157728 3327.05067662216 227 228 230
123.708057835396 858.293852911138 3336.73722079573 215 219 220
125.103684767998 857.516243539126 3343.96840453639 201 205 208
124.568219109549 857.19264460273 3350.21593274521 190 191 193
126.981934493963 856.184584036924 3357.88744734861 173 173 175
131.381359835673 854.718071446358 3366.48836241272 166 164 165
133.849773554165 853.705722952695 3374.10585667367 174 170 169
130.438872494804 854.063749330864 3378.85726286537 162 151 147
121.112856730577 855.797279494584 3380.77669710939 118 105 97
117.694021929085 856.159385463897 3385.53504082053 154 136 124
127.147856065173 853.538757968869 3396.37299102736 178 156 143
147.566076261073 848.384847898176 3412.28424003063 196 170 155
163.110384185623 844.369820211216 3425.78214521948 213 186 169
173.751354737066 841.497738222571 3436.89532559882 213 186 169
179.459566880118 839.772500865607 3445.65208258897 207 175 160
179.205633586734 839.429154977899 3451.62296358825 212 176 164
177.963503233102 839.316665747893 3457.12410904569 190 150 140
180.745733299397 838.279026173263 3464.43371704493 148 108 98
182.547462987369 837.471155029629 3471.26610742283 120 77 70
176.308845832804 838.517672225642 3474.47231521905 111 68 61
164.002201229704 840.960713277204 3474.99596460933 106 63 57
155.707969726198 842.480110133704 3477.33971779888 116 77 72
145.36813293416 844.469486760358 3478.81116799733 121 84 78
132.971080142521 846.930411771526 3479.42195081389 152 121 116
128.67978631185 847.531368841265 3483.59444783227 162 133 127
135.599841031539 845.565125216579 3492.60035716833 178 156 143
135.410322742483 845.232116036752 3498.50574535517 180 161 147
137.280450071033 844.430954178615 3505.26922423541 197 183 170
140.196658591014 843.39429204549 3512.44564518414 208 198 188
142.110166854593 842.590845647828 3519.16638380855 220 217 210
138.897352775459 842.961476195044 3523.71888596795 218 219 213
136.232592109367 895.865953648889 2699.51306604827 148 134 123
170.019891584205 886.678394090186 2735.33607253049 111 95 82
189.312171587757 881.158181761914 2759.50475837549 116 93 77
195.639943691088 878.907361938595 2773.39193913817 118 93 73
196.285957712459 878.08812320434 2782.79089954226 124 96 75
196.959249477715 877.265399746127 2792.16294994212 122 94 72
197.659921213265 876.43934254526 2801.50830435244 118 90 68
199.21329212171 875.403697135045 2811.45480224239 103 75 53
196.661820223524 875.396240945955 2818.24061937162 74 43 23
193.293129179122 875.593959113922 2824.39071319567 79 47 26
189.101312093528 875.997550365998 2829.91050823502 106 74 53
186.57981478906 875.986315403093 2836.6671186507 118 86 65
180.730324324765 876.803125552274 2840.93811565205 117 84 65
175.71412395247 877.41279431515 2845.82916799791 124 93 73
170.698155809001 878.022610708372 2850.71996791741 129 98 78
162.319441040202 879.464381689604 2853.15908730874 116 87 69
151.397110207121 881.533176726101 2853.77997753479 108 81 64
138.758984210108 884.022327889857 2853.20906847726 135 109 94
126.086125226076 886.515752798768 2852.67168028962 140 117 103
113.378657817027 889.013481680731 2852.1680226543 153 130 116
64.7604494355645 869.002099102145 3260.49145779063 139 140 135
86.0787984287197 863.58087597446 3278.38253082239 136 137 132
92.0971041821912 861.719289904716 3288.26842187129 186 186 184
100.086311457327 859.406576673863 3299.09801144873 229 229 229
107.158100911756 857.312436029822 3309.38939623346 231 232 234
112.337923275098 855.661653454281 3318.65984770172 233 234 236
118.525576982854 853.783141046057 3328.38007543402 212 213 217
123.782207380557 852.124916412761 3337.57535532162 205 206 210
126.152886472337 851.137508250602 3345.28621534157 193 194 199
125.620562966913 850.822994139044 3351.52961845484 179 180 185
126.080043212704 850.282901703157 3358.23805763514 175 176 181
129.498325175468 849.065154559425 3366.35992367839 162 162 164
130.98139985973 848.296524478914 3373.50260553157 164 162 163
128.549713407463 848.430723462974 3378.7316280518 167 159 156
123.165660084848 849.244524437151 3382.54088384579 134 125 118
116.787612612673 850.287154387316 3385.8861225418 128 114 103
118.319868013815 849.517972265426 3392.98038664956 149 131 119
129.793339736231 846.476352520148 3404.70884798361 177 156 139
146.296622212442 842.291469836359 3418.69649107848 177 154 138
164.87187648647 837.641951882467 3433.52946491619 200 174 159
176.550169470982 834.577400635124 3445.05792497516 202 173 157
181.290511936782 833.103278282095 3453.32176685693 204 172 157
182.056696856961 832.540029650029 3459.72906623732 204 166 153
180.832986074329 832.433473976131 3465.21104381146 202 160 148
175.596081855023 833.242994923742 3468.87481095666 149 100 93
166.322086624252 834.972207888055 3470.74322612213 133 84 77
157.026217893019 836.706052319194 3472.63301531013 103 54 49
146.696509438133 838.674515488799 3474.09749891988 99 56 50
137.354260928797 840.418157739286 3476.03189579973 99 60 53
116.819059703817 844.700571444713 3473.11847701328 105 76 68
101.3053353319 847.840831801063 3472.47235167744 105 78 69
108.173337299524 845.910090908752 3481.52504071944 113 86 75
121.210091369703 842.588585460491 3493.15941587499 128 102 89
125.100366615208 841.343074330361 3500.81635127419 155 133 120
129.019539227452 840.095204504265 3508.44527761728 180 161 147
140.158256460184 837.221360442064 3519.06411077576 202 185 175
136.943177366293 837.59326596252 3523.6190115298 202 187 180
133.728635137096 837.967121780662 3528.17275307413 224 210 207
151.354112280479 884.172370929667 2721.65057723722 97 81 68
181.204180639833 876.1072724686 2754.13252872946 112 91 74
188.329993720508 873.693310014624 2768.6686025737 120 95 75
189.77762570041 872.691810672222 2778.71505400889 120 92 71
192.078056105347 871.483528073923 2789.36247363598 122 94 72
194.413734308139 870.270683992988 2799.97556586387 122 94 73
197.609846293113 868.849989198323 2811.18186418895 118 90 69
194.227038748465 869.054512363609 2817.3446322888 117 89 68
191.681598055906 869.05396179266 2824.12343969433 123 95 74
186.654878996007 869.664484852632 2829.02481098774 104 73 53
185.793611112781 869.252845773242 2837.0261250764 94 63 43
179.942046502707 870.066864060387 2841.29925652917 90 59 39
174.087078069343 870.881298415633 2845.5760443761 93 62 42
168.228558915096 871.696239364491 2849.85628326703 120 89 69
161.525552900953 872.716974733222 2853.52744660856 139 108 88
151.444313040329 874.561179617983 2854.7635625514 127 98 80
135.427733775386 877.849250996598 2851.76111451793 143 116 99
121.054298804474 880.731347194216 2850.02115934223 155 129 114
107.487068601076 883.412252200588 2848.92727620241 170 142 128
76.1484937784003 860.454316563879 3260.36536084616 130 130 128
89.7590641490247 856.868659009486 3274.30312597615 194 194 192
97.6775307824886 854.596588989185 3285.19695500774 233 233 231
103.719770313002 852.760290723264 3295.05534193587 243 243 243
107.874339405575 851.361606569801 3303.88971570362 230 230 232
113.995512289651 849.517657284696 3313.67085146211 220 221 225
116.283962053313 848.554708985445 3321.4597512634 209 210 214
120.539223589264 847.146692172667 3330.19551530934 188 189 193
123.855452756816 845.957332244597 3338.41418782678 187 188 193
125.252633288116 845.209601118288 3345.63941282929 180 181 186
121.789969249176 845.571925265016 3350.44124737461 175 176 181
121.264689001732 845.267432471775 3356.67617528211 162 165 170
120.752961253248 844.962659460445 3362.89734893192 156 157 161
123.20153649333 843.988193218096 3370.528944115 155 155 155
124.691643882048 843.235115818122 3377.6626815513 160 156 153
125.217078365842 842.70422254403 3384.30426756619 149 144 138
120.820203282343 843.291776929909 3388.58358924022 115 105 95
113.45151757624 844.553541645906 3391.46324900644 115 103 91
115.98854969055 843.574633417347 3399.00799957139 133 117 104
132.464879222578 839.448697214981 3413.01369507406 144 126 114
155.992230812427 833.739057518482 3430.17107087487 171 148 134
177.631196767158 828.466853328095 3446.30449443063 187 161 144
194.371449878261 824.309873142511 3460.05303604694 191 164 147
201.174406745589 822.400908086616 3469.16675953396 197 163 151
180.919161380698 826.589649769348 3465.98918512398 203 163 153
171.661091576393 828.299976958327 3467.84491525689 190 146 137
165.403506999347 829.335440406886 3471.07159172307 153 104 99
159.135826712062 830.373991575845 3474.30817485703 134 87 81
147.799906730919 832.551182356578 3475.32374437742 89 48 42
136.433991395844 834.734146430471 3476.36858427945 87 50 44
113.868166539876 839.426789773383 3472.57715438 85 58 49
60.7059537817909 850.968129960197 3455.64549761101 82 60 49
82.7867565542455 845.654069854752 3471.34669480318 94 72 61
94.7534979741618 842.612359800656 3482.58534538335 105 77 65
107.803690446565 839.335391788228 3494.19979339326 129 106 92
122.96858173927 835.593355467032 3506.61720758399 155 133 120
128.959962576631 833.906426074018 3515.08711197434 173 153 144
131.899928831543 832.905039669297 3522.23472740384 185 165 156
131.770621683714 832.591624547409 3528.07742904415 218 199 195
131.654220606072 832.278397406018 3533.90762482454 224 209 206
100.494255534726 838.877434957039 3527.03225090457 229 218 216
148.962130076592 877.554579905591 2720.75289175376 94 80 67
173.096406064965 871.002379421796 2748.76806299698 109 88 71
181.01989199854 868.430994790349 2763.95221215332 117 92 72
183.269491943831 867.252530803265 2774.64570000053 118 91 70
187.196925606383 865.669156652138 2786.56673834441 120 92 70
189.520779607466 864.481567636779 2797.18783949173 118 90 69
193.53022778347 862.887972190728 2809.02894691428 116 88 67
190.965053439595 862.897516338698 2815.82585813224 122 95 74
189.24087956416 862.70431324811 2823.2345187238 119 92 73
184.20831601108 863.315396192833 2828.14161093461 108 80 59
181.675072050016 863.320915008697 2834.90740975275 109 81 60
178.318852739863 863.527144585722 2841.04386097778 119 88 67
174.133710822524 863.934552864068 2846.55646332157 128 97 76
167.436450814325 864.948948781024 2850.22319560445 152 121 100
160.731605560576 865.964137070136 2853.89700519404 147 116 96
147.277843021335 868.603965827292 2852.69651803805 144 113 93
131.251934928507 871.857890925829 2849.70838047385 154 125 109
112.636320081881 875.728303140549 2844.94967767739 174 147 130
98.2015949106101 878.588051840278 2843.27388752711 175 146 132
77.8009830288293 854.611873815967 3248.2516370111 139 141 136
86.550469975057 852.169378247955 3259.76268656861 136 138 135
90.5686883667109 850.80658942277 3268.72681544218 201 201 199
98.4559450802696 848.571299545128 3279.64620029657 243 243 241
102.54956652775 847.201173775321 3288.53687506024 255 255 253
107.639533739468 845.610073307095 3297.88773303297 221 221 221
111.802480740675 844.233389796283 3306.71053572823 212 212 214
117.931938396506 842.416995964902 3316.47937190187 210 211 215
118.292097634817 841.907868724932 3323.28219951039 197 198 202
117.699599115554 841.616639375764 3329.58157798225 185 186 190
118.093749459907 841.105703707493 3336.35091920491 187 188 193
119.4798251584 840.374481579297 3343.58439360586 175 176 181
118.935590287884 840.080810859658 3349.83654423652 171 172 177
117.426624700443 840.006632025913 3355.59666092385 162 165 170
116.908173509684 839.712364460947 3361.82329619284 156 157 161
117.385559789758 839.197258282757 3368.51026145843 152 153 155
118.864773557503 838.460532278726 3375.65239969221 152 151 149
120.3655731154 837.722500294697 3382.77329594055 144 141 136
119.911915108575 837.425325782841 3388.93568242356 123 116 106
115.512274256021 838.013464713162 3393.21766415174 118 109 100
111.110662536158 838.603503229765 3397.50132222227 110 97 88
122.608483753066 835.644023798074 3409.19346384586 113 99 88
204.868305092833 816.900489328879 3453.5584259741 106 89 79
121.159208138068 833.319238081936 3452.06962906113 158 121 115
130.958570756873 830.777306646644 3462.55249529152 154 116 113
115.523534406137 833.838758500383 3461.84021729169 137 106 103
65.585538466161 844.54569341032 3446.08125609031 105 76 72
-15.9915025516613 861.49653249545 3429.64345601022 94 75 68
86.6819249906552 838.433855980335 3479.88216748981 81 54 43
96.647136746467 835.881454108375 3490.20189060142 87 63 53
107.689736270498 833.097389155078 3500.90290075244 123 103 92
122.897570691461 829.401065142786 3513.27091552269 151 128 120
109.359294708766 832.047993141629 3513.57021151829 167 144 136
120.531066948988 829.251404881971 3524.14514003381 198 177 174
128.659366209877 827.131043840813 3533.39127032589 211 193 191
127.515552474513 827.055517146652 3538.78932288134 222 214 212
169.882233859821 864.662154471867 2747.22889087672 103 84 67
172.892511962147 863.31748718411 2758.60848816207 106 84 63
175.122464549356 862.165264495766 2769.31760767381 111 84 63
182.315791512551 859.822588704285 2783.77576525508 115 87 66
187.921041727017 857.868495434532 2796.91965556149 116 88 67
190.275991516551 856.70086867567 2807.50692771841 117 89 68
188.530082170775 856.520725231116 2814.93524174335 129 102 83
186.799988667857 856.338646917092 2822.3481363754 126 101 81
182.5927776148 856.751183075809 2827.8822336407 127 102 80
180.88853454164 856.565845904367 2835.26994007156 130 103 82
176.695293363201 856.9765750075 2840.79009428489 128 100 78
172.506491699409 857.386849339013 2846.3062450516 142 112 88
163.28882773205 858.995327923878 2848.13656692833 148 116 93
152.370759925593 861.006195832056 2848.76212335218 143 111 90
136.369958130234 864.222046337598 2845.75468227167 153 120 101
116.096088467049 868.44632320972 2839.75619350231 151 120 100
99.1391357734099 871.876312147362 2836.24966551383 181 152 136
87.219147890675 874.107029450943 2836.42074042218 185 156 142
78.6700326201144 875.536787829535 2839.03084548817 189 175 166
74.8759267568104 849.32060306263 3240.6023584103 189 191 190
79.7724655634631 847.774467438755 3250.1386478643 248 250 249
88.526084848545 845.368083602924 3261.639918808 235 237 236
93.5057247668878 843.813653610078 3271.09491353374 235 235 235
100.440515937203 841.826121548681 3281.50658293784 242 242 242
102.617243369106 840.908452133752 3289.3997324668 228 228 228
108.670479706467 839.128013238198 3299.23928125461 192 192 192
111.871367712628 837.989577662156 3307.56496265337 190 190 192
118.001457590963 836.201645041099 3317.32896446626 192 193 197
117.393659846874 835.920894882154 3323.64198647479 184 185 189
115.829699357335 835.855581963016 3329.45574137657 179 180 184
115.248493360519 835.573825206951 3335.74284400357 178 179 184
115.65531942396 835.074926399708 3342.49748116499 172 173 178
116.08024403548 834.574971290351 3349.23464016362 169 170 175
114.566620062013 834.508383972625 3354.99859851637 159 162 167
114.042981486945 834.224395316501 3361.22852787444 135 136 140
112.551229615048 834.15770427003 3366.97078223807 125 126 128
111.069415448574 834.090998763244 3372.70317045054 118 118 118
108.611326604108 834.242691744622 3377.95548748936 112 112 110
110.111168630931 833.521173806361 3385.07489381146 120 115 109
112.622339667564 832.579563828348 3392.6394743017 122 118 109
162.767851193621 821.124540789121 3422.47304326043 103 94 87
66.354417781568 836.890006422674 3471.95531168627 84 57 48
101.862068212773 828.797214087632 3493.15531857635 91 66 59
100.612782880512 828.733509543473 3498.65635867807 129 109 100
111.698676731686 825.984308291724 3509.30956192436 133 113 104
114.299201027478 824.441053726484 3528.21028634035 173 152 149
115.199229841316 823.925843584976 3534.47791452983 200 186 185
103.670748369694 826.113203213821 3535.68353534753 215 207 205
153.619070781401 861.408908510128 2735.51906715337 107 88 71
159.042886661485 859.511771902802 2748.83470626607 107 86 67
165.336735739285 857.413594183291 2762.7330126583 112 85 64
174.149272231769 854.723568171588 2778.46876592896 115 87 66
180.558085540516 852.611133259366 2792.25501834723 115 87 66
182.895408613808 851.469375127583 2802.85597072216 116 88 67
183.613478082269 850.714717761492 2812.17349606212 126 101 81
181.871893292221 850.544394613524 2819.59640214573 121 99 78
179.314786121039 850.568384636642 2826.38282960593 129 104 82
175.936877627253 850.78725524274 2832.53895017235 126 101 79
170.062328478764 851.595017890147 2836.83616803435 114 86 64
163.347254950023 852.600173601158 2840.52161726287 123 91 68
150.753348691382 854.986051856702 2839.92172320019 120 88 65
135.603022900809 857.968050348834 2837.52155725975 140 108 87
113.665251470159 862.536453246049 2830.29066723081 153 120 101
98.4070440827822 865.531711152578 2827.99533173313 179 148 130
89.8749529560616 866.948119290304 2830.5905047324 136 107 93
82.1760321158518 868.168192440358 2833.80425486379 174 145 131
77.8672731632226 868.595666241008 2839.43664507558 211 201 192
71.8581157815277 869.420280457396 2843.8650402485 220 215 209
71.8251075106373 868.852493541409 2852.48386819796 255 255 250
46.0650034465573 873.123976611683 2860.42844582496 167 167 165
64.2359139367645 867.775023180933 2889.93642197849 127 127 125
66.0577056388068 866.792622983456 2899.60884227522 130 131 126
68.7781427262388 865.606059441431 2909.83564114872 222 221 217
81.2971921089671 861.612222585927 2934.8366723858 210 206 203
84.1380649191317 860.411878421333 2944.94625141826 241 237 234
80.8851872469689 860.618642972949 2950.98000380008 255 254 251
87.2919754745309 858.604899216919 2963.3367713264 254 253 251
91.1109455486994 857.191482905833 2973.92348660467 156 155 151
71.8889478424001 844.447318393117 3225.86756947555 146 148 147
77.6729851177418 842.72223503865 3235.96591754465 188 190 189
83.4989752187023 840.992852296051 3246.02357912742 254 255 255
87.4605779852327 839.681591258429 3255.03665021116 245 246 248
94.3203588110695 837.732835987489 3265.5167369615 236 237 239
96.4418413065751 836.837757813616 3273.46140655341 242 242 242
102.424384390943 835.092766897788 3283.36591559056 224 224 224
101.723554241923 834.828934208439 3289.76881975784 199 199 199
106.812708506635 833.28971085475 3299.11281758409 193 193 195
110.974976060839 831.959580434295 3307.92941445385 195 195 197
116.137282423156 830.413316942944 3317.20181169506 178 179 181
115.5264196245 830.142683039198 3323.51638216999 179 180 182
112.018592674652 830.511762127332 3328.36206577607 178 179 183
112.402652865991 830.026865390297 3335.13757812717 173 174 178
112.804347741601 829.541114842024 3341.89536732703 167 168 172
114.200423654354 828.839990405702 3349.11480078367 163 164 168
111.705735320809 828.995163888607 3354.40328508157 145 148 153
111.177117880727 828.721591722724 3360.63661897349 125 129 132
107.716245435939 829.092358428035 3365.43542663285 116 120 121
104.257485386167 829.46433305305 3370.23195812273 109 111 110
101.786982287812 829.621882734809 3375.49607492342 106 108 105
104.261863499716 828.701299968412 3383.09358393339 109 110 105
157.245252996743 816.761611661845 3414.4317972254 107 108 103
94.7971565566554 824.38888711846 3490.90338818228 78 55 49
100.711527119802 822.787441036181 3499.43713051736 122 102 93
103.580828512898 821.846324907974 3506.64600927871 182 162 153
62.7488449581177 829.66746249686 3507.77755752189 144 123 120
92.532396348965 822.955269918944 3525.95549574531 157 138 134
60.2216401493441 829.578454805027 3518.80239614424 200 190 188
143.880714882433 856.515283975619 2728.90841090885 111 94 78
145.193691596307 855.614659671257 2739.07400556921 113 92 73
155.551192143689 852.597388625419 2756.15777200316 111 86 66
164.340312446392 849.955412710853 2771.91001395506 110 83 62
172.372032676511 847.497946036142 2786.96950998868 112 85 64
172.214123189669 846.960647109644 2795.70786058043 107 80 59
172.906854488433 846.227582296313 2805.04735572759 118 93 73
169.48174977449 846.457297148477 2811.24874006349 113 90 72
168.557826666448 846.105449323028 2819.30343459539 106 81 59
165.154535165058 846.332486279888 2825.48321603853 103 78 56
156.750134410995 847.722241597285 2827.95552988534 103 75 53
146.656908831812 849.502325168443 2829.21302492604 110 78 55
131.508178444637 852.451702717973 2826.81575824552 115 83 60
115.472774522174 855.601329686145 2823.85246539865 141 109 88
102.758047263314 857.977482497021 2823.37432363371 172 141 121
92.5423346094272 859.772476790747 2824.751246352 160 131 113
90.7686649499557 859.616413095269 2832.20356780241 131 105 92
84.7687634086483 860.436617180449 2836.62342360446 194 167 156
79.6155698161813 861.06155117536 2841.64825604846 227 218 211
71.9057113470964 862.274865489271 2844.87386636004 246 243 238
66.7472876061543 862.900517796328 2849.90378625256 255 254 251
64.1575557113945 862.936863282035 2856.72112225557 255 251 248
65.0120954519031 862.184697257774 2865.90276237874 255 255 253
65.8938865342273 861.429331644177 2875.05781441455 250 250 250
69.3889269018357 860.07910100487 2885.95685786531 254 254 254
71.1950958606931 859.119368360502 2895.64144152251 254 254 254
74.7639390074055 857.760600302955 2906.4684595493 254 254 252
76.6360044671295 856.79339895908 2916.08837303555 255 254 252
81.1482745493972 855.227993409758 2927.42600441768 255 254 252
82.2169045332033 854.451419499031 2936.39899508138 255 255 253
79.8181368362338 854.466475486065 2943.02950954962 255 255 253
78.3069279403472 854.281439220951 2950.22582355705 255 254 252
82.075619996143 852.900130630137 2960.85772014378 255 253 254
83.2449604910033 852.112524724318 2969.73199646329 255 254 252
83.5601051713128 851.521663592657 2978.00851374457 255 254 252
82.1320466632853 851.327868033826 2985.12321496545 251 251 249
81.6044738420789 850.932730472277 2992.79038816549 239 239 237
80.2094826129491 850.735696720837 2999.87306953505 215 215 213
80.6076054584697 850.136333882166 3008.06810697822 151 151 149
66.166280256144 840.1227117558 3209.51719966416 210 212 211
70.9339794503179 838.640760068184 3219.1719424002 253 255 254
72.8983281621458 837.778405277495 3227.26781166042 241 242 244
83.4298770830859 835.041517546601 3239.88657700187 237 238 242
88.3168088924111 833.547601072294 3249.42468837873 233 234 239
90.3829167460262 832.675366366221 3257.42096955405 223 224 229
93.429987961855 831.592161849238 3265.89156801503 211 212 216
97.4637669606997 830.297040508433 3274.83058159298 209 209 211
101.53104061935 828.998948016817 3283.7364357714 180 180 182
102.750403367092 828.326056934275 3291.12717513584 186 186 188
106.87947513073 827.022283649437 3299.97284034321 186 186 188
112.006860783467 825.505248344344 3309.2755944521 186 186 188
112.339310243178 825.035893228453 3316.09972213584 151 152 154
113.658335329458 824.354860786554 3323.39269861418 163 164 166
111.117988957372 824.515200502429 3328.72575845233 177 178 182
113.44530761682 823.620945256711 3336.4659080622 165 166 170
111.901433433508 823.569729348583 3342.25763343289 151 152 156
111.343839169131 823.306945399829 3348.5181472459 145 146 150
109.822222434316 823.255282339721 3354.28783673007 131 134 139
109.290668029637 822.991751312435 3360.52260299535 123 127 130
105.827013902148 823.364565751107 3365.32420809465 120 124 125
104.333211735767 823.313419140802 3371.06586312815 111 113 112
105.807323733963 822.623862699979 3378.20609585367 108 110 107
138.91514045039 815.114846761094 3400.28598188446 111 113 110
81.5928294781729 821.251529769128 3486.05800771481 78 59 55
97.7337685992992 817.497822332485 3498.92482628676 125 108 101
92.3815573192739 818.321938536079 3502.70093787534 215 201 192
32.8953850943039 830.019931192728 3496.27697897079 112 91 88
51.2365232675895 825.81850491478 3509.85929648567 120 101 97
56.1807201744964 824.464690284701 3517.90292646499 183 172 168
142.297979429427 849.667482257687 2728.65837407872 99 83 67
144.424010321209 848.599548961772 2739.45789359288 101 83 63
149.043644468694 846.958838175714 2752.11728811193 108 83 63
152.888682493559 845.501960923271 2764.10145035568 111 84 63
155.130335796748 844.41949751615 2774.78864049218 110 83 64
155.756702026034 843.71296147288 2784.19011619376 108 81 62
154.756449524393 843.383591384492 2792.31728474214 106 81 61
150.459446539947 843.81424169585 2797.93753161684 101 79 58
148.659768436136 843.671776322672 2805.41367001086 96 74 53
143.544227014766 844.291609850189 2810.40186713921 98 73 51
135.089588266587 845.676494387962 2812.92478795593 106 78 56
124.946175313012 847.446157728386 2814.23365990686 119 89 65
116.457396905528 848.835169206191 2816.78987195002 123 93 69
107.953568502468 850.22596003742 2819.3607658736 121 93 72
101.119640216305 851.234246545006 2823.16377690287 94 68 51
95.1230840924429 852.050844570531 2827.58084362998 96 73 57
94.2015731188079 851.711855743429 2835.63090448043 139 121 111
88.2094791421064 852.52812711971 2840.04358850807 188 171 163
83.0641119370599 853.151720661171 2845.06084735209 255 254 250
76.2143656540082 854.162178185082 2848.87924501084 255 255 251
72.7741821218513 854.399160125084 2855.09452876372 246 246 244
71.0541512903244 854.247597448915 2862.49292081637 248 248 248
71.0661329944999 853.705981998009 2871.06320492441 255 255 255
71.9614465860725 852.967309931119 2880.20236160972 254 254 255
77.1939140964521 851.25264401643 2892.2641340758 253 253 255
80.7451286296685 849.922280484679 2903.10445939988 254 254 255
85.2009750675253 848.392293068981 2914.49288551032 254 254 254
87.0965284224443 847.443110567027 2924.08714983445 254 254 254
92.5015598959815 845.70841335673 2935.9801865089 254 254 254
89.2372455979342 845.925877782518 2942.02371419256 255 255 255
89.4749250254274 845.35864005107 2950.37366408679 254 254 255
86.2339077322689 845.573711276564 2956.39407337217 253 253 255
87.3880735143966 844.805931869742 2965.28082589985 253 253 255
84.1723033332218 845.018704828008 2971.2765041127 254 254 255
80.964563750701 845.230747207936 2977.26465364353 254 254 254
77.7643478473662 845.442325897078 2983.24506274101 255 255 255
72.8017989953802 846.048120505829 2988.08341093237 254 254 254
71.3877094364852 845.863696009297 2995.18319358335 255 255 255
70.8777413347939 845.480019860869 3002.83119104481 251 251 251
73.9509668871499 844.301981664359 3012.70674355712 251 251 251
75.2730853935026 843.51687515962 3021.42893964235 255 254 255
81.0963384048256 841.735986981049 3032.91384099425 255 253 254
78.8948572291144 841.739380884456 3039.35017068132 227 225 226
66.8200442490345 843.931296182239 3039.68072411958 186 184 185
53.0870066554221 837.76228899771 3181.76057035789 146 148 143
61.5008274596334 835.501040035603 3193.57815318728 148 150 147
63.3791961791412 834.664620408691 3201.75556864501 196 198 195
67.1703496038871 833.416538179251 3210.92856064459 254 255 255
73.8304953975182 831.550680557316 3221.59463569674 239 241 240
80.5364194836318 829.680159224019 3232.21627936422 235 236 238
87.2877468022835 827.804752693315 3242.79322113866 229 230 234
92.1832408066909 826.335631095185 3252.31950329935 226 227 232
92.3518253595765 825.892005073582 3259.30254850904 218 219 224
95.4031753883577 824.828854302591 3267.76559626861 206 207 211
99.441374969448 823.556586301266 3276.69684242944 200 199 204
102.554736766003 822.487609863812 3285.09951045986 178 178 180
103.776429024652 821.829652104547 3292.48539160488 185 185 187
105.020430645168 821.169930296705 3299.84971779137 182 182 184
110.144474525238 819.67938049646 3309.15187578386 180 180 182
108.540970828434 819.637922651387 3315.00137190547 150 151 153
108.884644983577 819.180820214117 3321.81288020216 157 158 160
107.305651067427 819.138749212461 3327.63812837354 179 180 184
108.653473388391 818.471554232109 3334.90012575937 165 166 170
105.152564027126 818.845527155371 3339.73855463303 141 142 146
102.629704838108 819.011872038751 3345.05302403676 135 136 140
102.069712034016 818.760345627856 3351.31459361798 133 134 138
104.4635753001 817.880404375316 3358.98654784782 120 124 125
104.918911057865 817.417552861249 3365.68768639149 112 116 117
110.311770929294 815.904613455146 3374.7262153047 105 109 108
67.3655310895089 818.260428965084 3480.7899269094 77 59 57
83.4792422636967 814.563225987619 3493.67543190077 123 110 104
143.976884499818 842.063640633472 2730.9488596318 105 89 73
141.202089615903 842.138058456113 2737.94433884399 101 83 63
140.897358270982 841.650640173417 2746.82111337387 105 83 62
138.973670759397 841.534009763498 2754.41657654672 109 82 61
140.358921564257 840.666731716644 2764.50547340402 106 79 60
140.124984270552 840.170342788005 2773.31293641008 108 81 62
138.260711492513 840.046268137778 2780.85083797166 107 80 61
133.095981493279 840.671889885324 2785.88702458858 106 81 61
130.424612279513 840.732974414744 2792.78177123632 104 79 59
125.266494774774 841.357644614637 2797.81153218677 114 87 66
120.108696687199 841.982215578095 2802.84099061836 121 93 71
114.114402628779 842.795534062088 2807.25595795387 121 91 67
108.955413522378 843.42031414122 2812.28656817756 120 89 68
104.637619609379 843.855636350494 2817.92710808918 96 69 50
102.851644083259 843.721763094307 2825.38836970986 97 74 58
99.3923318732284 843.96565117682 2831.6212899558 103 84 70
98.4807334868294 843.638431783334 2839.66010578543 170 155 148
92.4983603466729 844.450529252387 2844.06375378034 228 217 211
86.5122470708828 845.263229200527 2848.47068889709 245 244 240
81.3749183005203 845.885514525439 2853.48015881048 240 241 236
79.654666755697 845.744181280669 2860.8772581292 245 245 243
79.6624671641859 845.218660718713 2869.44931550811 252 252 252
79.6937779434286 844.690353207439 2877.99843865121 253 253 255
80.6084797960067 843.967812122524 2887.11595835464 252 252 254
87.5841007523723 841.898780336192 2900.33328527881 254 254 255
90.2945405491606 840.783944859147 2910.55941023303 254 254 255
97.3692178587062 838.703368946779 2923.68007895095 254 254 255
97.5560857394235 838.157174125041 2932.0770374874 254 254 254
100.375525221478 837.029881782008 2942.19710310419 254 254 254
95.3854941575978 837.636251487745 2947.06265653914 253 252 255
95.6368053614947 837.083039930952 2955.3969968154 253 252 255
94.1604440354205 836.914321671962 2962.55595703469 252 252 254
91.8223689225637 836.937811846123 2969.12529414253 253 253 255
89.495982796068 836.960182250781 2975.68318941555 254 254 255
85.4186672562491 837.369977852926 2981.08836572708 255 255 255
83.9948425930674 837.19622867112 2988.19589983167 253 253 255
78.1609786165567 837.994616550633 2992.45410230307 252 252 252
76.7584894871711 837.819062218182 2999.54071670768 255 255 255
72.7046689429685 838.227475023214 3004.92310436004 255 255 255
73.1090088114565 837.658876752181 3013.10742121784 255 255 255
70.8580195756161 837.674867528569 3019.59138917015 253 251 252
72.1978646459931 836.906206388856 3028.29388973949 255 254 255
74.461192609014 835.938742253167 3037.52531261655 249 247 248
76.7552981451116 834.967928834795 3046.72666793109 239 237 238
79.0803472564274 833.993909075102 3055.89810755585 255 254 255
77.8259480427308 833.804049348885 3062.83978081597 249 247 248
79.3001632090937 833.02164607806 3071.41054313262 206 204 205
86.2395212498441 831.052509361072 3083.23186806072 175 173 174
86.8707231766761 830.460723617022 3091.19467248133 133 131 132
82.3070831877897 826.612117112768 3169.97994680712 144 144 144
62.691213536886 830.408015391276 3166.22552494502 176 176 176
57.0145612280299 831.202387887587 3170.3282073783 209 209 211
52.2686576402047 831.7972642522 3174.95303733146 229 230 232
55.9577969923839 830.582635675895 3184.22204853582 253 255 254
60.6205382905589 829.163272506546 3193.97176545849 238 239 241
66.2624103803005 827.53830083884 3204.19682703689 234 235 237
70.0596030286129 826.312821962506 3213.36014339048 237 238 240
75.7812189903859 824.679802252753 3223.50720762222 220 221 223
81.544326068002 823.042449498888 3233.61337314262 218 219 223
87.3491338577725 821.400783208882 3243.67876677815 210 211 215
90.3432532462167 820.363468380721 3252.19516471052 207 208 213
92.4143903100641 819.526511678114 3260.18123773224 205 206 211
97.3758727005158 818.077094425899 3269.63874231439 194 195 199
100.461801139647 817.03127198709 3278.06522992338 180 179 184
101.660149790247 816.39040957889 3285.47176493085 176 176 178
102.880679712744 815.747858238715 3292.85686107282 183 183 185
104.123436952261 815.103507262102 3300.2201511459 176 176 178
107.317068615567 814.048247976315 3308.540744781 169 169 171
104.742223574216 814.219482337352 3313.90645208392 152 153 155
103.142129277455 814.186027225417 3319.75137982043 149 150 152
100.581973631151 814.357768507862 3325.10242541415 160 161 163
101.916944388018 813.7074076286 3332.37469652032 156 157 159
98.4031781524424 814.084829398778 3337.22538272217 126 127 129
94.8916144896836 814.463165914093 3342.07340869572 124 125 127
92.3606228936729 814.636183986025 3347.39530524745 127 128 130
98.65575133013 812.949923884962 3356.98039417835 123 124 126
117.757593704463 808.570067584864 3372.66751169111 117 118 120
28.5843833399708 820.29375720933 3465.15304671166 81 70 68
54.874424281997 814.532344030851 3482.40883972116 114 106 103
142.067144908636 834.73548726575 2739.59633225725 111 93 73
136.028693000827 835.552177663808 2744.05498846454 106 84 63
129.986821154642 836.369004355307 2748.51702057708 105 78 59
125.587819492297 836.817171757999 2754.2359646283 101 74 55
126.144123175392 836.156087853168 2763.70029566775 102 75 56
125.90094205519 835.676477956845 2772.51479583851 102 75 58
126.510307146737 835.008704818368 2781.92742478079 103 76 57
124.654317921671 834.893977446039 2789.45538128624 99 72 53
121.981263050043 834.962940426858 2796.35063738548 99 71 49
115.980954953142 835.77417353438 2800.77222280982 102 71 50
110.813891895504 836.399499712743 2805.81076987322 99 68 47
107.324706754705 836.652035127529 2812.07241415108 97 69 48
105.524733341801 836.530305040849 2819.5457811251 100 77 61
104.583129375249 836.219854507245 2827.61157666723 89 71 57
102.816995550619 836.094022271344 2835.05228456772 121 107 98
99.3735384445986 836.340982885146 2841.26900634221 216 211 207
94.2414419767426 836.962313751057 2846.27342157049 212 211 209
89.960020427343 837.395776249894 2851.87778020977 240 242 239
89.944041286087 836.88858537291 2860.47074191367 243 245 242
91.6599330779593 836.002209836517 2870.23412998371 254 255 255
89.9825269274968 835.866089637769 2877.58791270654 255 255 255
88.3208919487068 835.72827607637 2884.92628470101 253 252 255
89.2548986435053 835.021699583214 2894.02227485105 254 253 255
92.8019774295947 833.74433968367 2904.85887311948 254 253 255
95.5241865172933 832.651889837315 2915.07034024939 253 252 255
100.878641317307 830.986416351466 2927.00370691406 252 251 255
102.808803708076 830.075046579471 2936.557677407 251 251 253
103.900490372599 829.350361085494 2945.49976551858 251 251 253
99.7901736850855 829.764893657028 2950.9373501776 245 244 250
99.1776180276078 829.416735360598 2958.68196907546 245 244 250
97.7091115549973 829.257523323634 2965.83172429368 243 242 248
95.3789176824826 829.287626920838 2972.39225775231 243 242 247
92.1812099444139 829.507957577263 2978.36922050966 246 245 250
88.9911119968541 829.727695749548 2984.33837635943 254 253 255
87.5753544759856 829.56317711417 2991.43687324372 253 253 255
83.519694143904 829.973368081097 2996.8204871791 252 252 254
80.3550076949464 830.191128037657 3002.76503925653 254 254 255
78.086826184049 830.215903719965 3009.26444314486 252 252 254
76.7214342586695 830.046922703447 3016.31358578627 250 250 250
75.3712621558948 829.876448806151 3023.34749772398 255 253 254
75.8261281620705 829.318097083793 3031.48046478671 244 242 243
77.2006668888734 828.564004288638 3040.14602300539 255 254 255
75.9063472485115 828.388140428137 3047.12526925648 255 254 255
75.5279988854092 828.016989082681 3054.64105305341 253 251 252
72.4611947365119 828.22649130697 3060.48928920714 247 245 246
73.019690100752 827.658082867575 3068.52083716378 255 254 255
72.6949397138741 827.281943710373 3075.98413457439 255 253 254
75.1138674123339 826.31957169395 3085.06029200097 251 249 250
77.5635716068552 825.353968468271 3094.10636548332 245 243 244
82.7806746338728 823.798997992811 3104.74288287461 240 238 239
85.2973729392401 822.826364346803 3113.72346930759 232 232 232
86.9286974817483 822.046504127986 3122.13784382925 224 224 222
83.0792401541727 822.44029881057 3127.31945633857 215 215 215
81.0729155256227 822.441780090583 3133.56261321626 216 216 216
76.3122310713045 823.032210153843 3138.20277794975 209 209 209
74.3220939282598 823.033196971498 3144.42959565436 206 206 206
70.492167566234 823.427477906864 3149.59174175822 204 204 206
68.5206795402413 823.427574889744 3155.8005099731 207 207 209
64.7009882621314 823.822111757552 3160.95211681864 240 240 242
60.8845627272796 824.21712145893 3166.10041084825 255 255 255
59.8718849607254 824.018535362567 3172.80367873374 255 254 255
60.7445182841087 823.422449582834 3180.52703590996 254 255 255
63.514444105043 822.42743249685 3189.25980978124 253 254 255
66.314550940294 821.429567153587 3197.96269658833 243 244 248
71.9684466188215 819.831974446442 3208.17177196691 236 237 241
78.6070229666667 818.030812232504 3218.84970384453 224 225 229
84.346489521383 816.424201021546 3228.97513900902 236 237 241
86.3396408949173 815.61205373627 3237.034986153 211 212 216
88.358973142304 814.797667374726 3245.06916623673 204 205 209
91.3552874646371 813.78072796745 3253.580035247 200 201 205
94.3818618566743 812.761022198542 3262.06160226977 199 200 204
98.3928618151038 811.537779082617 3271.01227435935 189 190 194
99.567906385349 810.914052973304 3278.43975576761 176 175 180
99.8065108594845 810.489891826858 3285.35073110235 177 176 181
100.063265070311 810.064281219195 3292.243559868 179 178 183
104.188339847126 808.830889877435 3301.08279172193 175 175 177
104.489501569855 808.401908774788 3307.93235917148 164 164 166
101.909302870086 808.578371687082 3313.30227211676 142 143 145
96.4309451085121 809.362311305078 3317.20958710812 136 137 139
93.8578263102037 809.540122498706 3322.5722703312 132 133 135
94.2079688466388 809.109507185856 3329.37344064422 125 126 128
92.6276745696426 809.08428829324 3335.19748935878 117 118 120
85.2010329965602 810.279412358743 3338.14454961669 113 114 116
77.7611562028424 811.477561217115 3341.10430558128 107 107 109
85.9878084397479 809.415723827686 3351.6610294618 114 114 114
10.8957435871333 817.501352220839 3464.70967121185 85 77 74
135.575549379367 828.968319724154 2735.5590171995 114 96 76
132.798806965886 829.058373927552 2742.5541192871 108 86 65
128.391533819793 829.510119741738 2748.28074815631 105 78 59
123.988723600954 829.961171957467 2754.00338562832 102 75 56
119.590084129704 830.411534515623 2759.72164557542 98 71 52
120.158273411611 829.76735051607 2769.17167624092 96 69 52
120.753885180966 829.119827413902 2778.59496948893 101 74 55
122.207993666406 828.285926573497 2788.61021867298 96 67 49
119.529063581702 828.3634730722 2795.51004030546 91 60 39
115.19262533312 828.805863202339 2801.16804968232 92 61 40
110.023629898997 829.431197112157 2806.20851448142 101 70 49
106.532253781199 829.689093091394 2812.47120430075 105 77 56
108.09294655173 828.842155352175 2822.38287840405 104 83 66
107.999745413414 828.359854523333 2831.04884395433 130 114 101
106.241129294474 828.243525081375 2838.48034431115 205 200 194
101.95900539179 828.679493844889 2844.0850299728 212 211 207
97.6810492472349 829.114819258615 2849.68567207585 219 221 220
96.808750024286 828.809122584228 2857.68228220674 246 250 249
97.6603255503945 828.130510559954 2866.85599458955 249 253 252
100.24772069494 827.077464307301 2877.195510124 252 254 253
98.5896490295772 826.949403140608 2884.52890229588 251 252 254
96.0894290324306 827.005599769717 2891.254417671 253 252 255
93.601027188631 827.060483439294 2897.96839149999 253 252 255
96.2958534887206 825.994955221351 2908.20307113787 252 251 255
99.0255866693359 824.925275349686 2918.40336349799 251 250 255
103.522043757499 823.477606048 2929.73963389303 249 248 253
104.590393251111 822.773966004958 2938.70178565185 248 247 252
102.207548038516 822.817016804608 2945.31268907865 246 247 249
99.8364763080826 822.858996151543 2951.91205962386 240 241 246
100.097453029421 822.335891587468 2960.23201425605 238 238 246
99.5065839798475 821.998372235228 2967.95386344236 235 236 241
97.1804862439347 822.035684365597 2974.50926395874 234 235 240
93.1073411298273 822.449199974822 2979.90974916047 236 235 241
89.9195764573029 822.67358434423 2985.87623916973 237 236 241
88.505767971939 822.519152584501 2992.97097195514 241 240 245
87.9925624433016 822.173801520608 3000.61651979866 245 245 247
87.4989505637394 821.82643907862 3008.24324598179 240 240 242
83.468687487473 822.236494696882 3013.60166007118 234 234 236
83.0058919285879 821.886190869246 3021.19821992785 234 234 236
81.6694431235732 821.724365445673 3028.21722618737 245 243 246
83.0326797266445 820.989506048395 3036.89116489419 249 244 248
81.7329571267416 820.823994204337 3043.87424634046 246 241 245
79.5499694143977 820.848218423735 3050.28947087541 254 249 253
79.1796674887291 820.488848932334 3057.79552308813 254 249 253
77.9259748116017 820.319303349919 3064.73349232541 251 246 250
75.7831082146136 820.340120792369 3071.10937951985 251 246 250
75.4642372642422 819.976167649684 3078.56469963348 254 249 253
74.2564864861217 819.802645356624 3085.45797348399 255 253 255
76.7044705083761 818.858016012912 3094.50265519223 255 253 255
76.4469730299577 818.48837663992 3101.8982088053 254 249 253
77.1222637524156 817.924068383378 3109.81283339744 254 254 255
75.9888092655103 817.743774490655 3116.63333077194 251 251 253
74.8701887157761 817.562390177105 3123.43892114928 254 254 255
73.7666122380309 817.379875913984 3130.22973954679 255 255 255
73.6001563474931 817.002061556531 3137.53609577637 255 254 255
74.3759662136654 816.428796300808 3145.35222721343 255 254 255
71.4720938899975 816.630777452389 3151.04011910939 250 249 254
68.5755711104221 816.83248073425 3156.72075386844 253 252 255
68.4744794360843 816.449682502116 3163.96260123759 255 254 255
66.529439722637 816.455467485405 3170.14426520316 251 250 255
69.2624562458368 815.484209302644 3178.91017899719 249 248 254
69.2195468612695 815.096670896771 3186.09495108811 237 238 243
71.0699723813248 814.316020334412 3194.29187191259 237 238 243
70.1292058842999 814.121001046679 3200.92286582965 216 217 222
78.6147552212739 811.962219614171 3212.65407650953 221 222 227
83.3812122528386 810.583855842536 3222.29474248266 213 214 219
86.2954753683303 809.595127848046 3230.88291991978 207 208 213
85.4521248012712 809.391483801707 3237.41845311387 197 198 202
89.3679941027186 808.200741530364 3246.45912558348 195 196 200
91.415979581174 807.401730935889 3254.46258005352 186 187 191
95.395734394641 806.204880851931 3263.44071599733 192 193 197
99.4094517981958 805.004692745072 3272.38561994545 182 183 187
98.6736243966342 804.792447076674 3278.81565236269 173 172 177
97.9522431343645 804.579441681754 3285.23145183732 179 178 183
96.2848387475042 804.564378839039 3291.14050111896 173 172 177
101.365110536303 803.156242556139 3300.47394476328 171 171 173
101.661098015538 802.740474109139 3307.32669748838 153 153 155
100.042389207983 802.722456731541 3313.18782801888 126 127 129
93.5925424838486 803.702962744696 3316.61354632423 128 129 131
91.0147034210382 803.885837595569 3321.98050627541 127 128 130
91.359504096316 803.468469107147 3328.78468541867 119 120 122
88.8001809724317 803.65136848277 3334.13325514402 119 120 122
82.3426795200612 804.63767493982 3337.56571740459 112 113 115
135.150215407448 822.343333825003 2727.04150923582 163 149 138
133.170881382443 822.265384802107 2734.686513127 132 114 100
133.665451573511 821.649174776708 2744.20551409684 117 91 76
130.081378044525 821.924227800479 2750.5580558541 116 87 71
124.859021966348 822.556465573825 2755.65048817355 107 74 55
118.812039213714 823.367921755989 2760.11838925068 101 69 48
117.723833000408 823.101899048654 2768.32319657769 98 66 45
118.313494960893 822.473465319468 2777.74957667287 86 54 31
118.09980792857 822.021803484546 2786.53065806709 109 77 54
117.076781051173 821.747504917436 2794.67196451847 100 72 51
112.734517132226 822.193047187777 2800.33529298718 113 86 67
110.069866581064 822.276459471827 2807.22006787125 97 75 61
108.255842482665 822.177316693057 2814.70404898944 99 81 69
108.979535463727 821.532457974673 2823.99976190607 152 139 133
109.730694526408 820.884136720284 2833.26871235893 178 168 166
107.975894131281 820.777822696823 2840.69494337112 207 203 204
104.544160642837 821.033552900247 2846.89906512053 235 233 236
103.665618862461 820.741793247719 2854.89981431749 253 252 255
104.507206527064 820.08266171947 2864.08056558562 250 249 254
105.376130029284 819.420378918674 2873.23463771961 254 255 255
