ply
format ascii 1.0
comment KinectMotionCapture
element vertex 758
property float x
property float y
property float z
property uchar red
property uchar green
property uchar blue
end_header
-31.0048032552004 630.615413188934 2640.00010490417 128 127 123
-23.5121082514524 622.257053852081 2605.00001907349 133 132 128
-16.1402709782124 611.270725727081 2559.00001525879 152 151 147
-9.11538302898407 606.73314332962 2539.99996185303 159 158 154
-2.19899602234364 603.628277778625 2526.99995040894 171 172 167
4.65410808101296 601.478338241577 2517.99988746643 163 164 159
11.4719662815332 600.04448890686 2512.00008392334 158 159 154
18.3227397501469 600.759923458099 2515.00010490417 159 160 155
25.1197442412376 599.802613258362 2510.99991798401 155 156 151
31.9585427641869 600.039184093475 2512.00008392334 157 158 153
38.725484162569 599.080741405487 2507.99989700317 158 158 156
45.5613657832146 599.316239356995 2509.0000629425 157 157 155
52.3816868662834 599.312245845795 2509.0000629425 159 159 157
59.2962391674519 600.263118743896 2513.00001144409 160 160 158
66.1797523498535 600.735723972321 2515.00010490417 168 168 166
73.1320083141327 601.685523986816 2519.00005340576 191 191 189
80.1375582814217 602.873563766479 2523.9999294281 185 185 183
87.6181796193123 607.166230678558 2542.00005531311 182 182 180
95.7541614770889 615.040898323059 2575.00004768372 174 174 172
104.268804192543 624.109148979187 2612.99991607666 138 138 136
112.17987537384 628.638446331024 2631.99996948242 147 147 145
119.468510150909 629.345655441284 2634.99999046326 150 149 147
126.821160316467 630.291104316711 2638.99993896484 151 150 148
134.347543120384 631.952464580536 2645.99990844727 151 150 148
141.91161096096 633.613288402557 2653.00011634827 153 153 151
149.400904774666 634.795844554901 2657.99999237061 156 156 154
157.329469919205 637.649536132813 2670.00007629395 163 163 161
165.754273533821 642.174243927002 2688.99989128113 177 179 176
-85.8000442385674 658.408880233765 2788.00010681152 216 218 215
-77.1271958947182 649.205207824707 2749.00007247925 143 145 142
-68.7674954533577 640.945434570313 2713.99998664856 180 182 179
-60.7788749039173 634.574353694916 2687.00003623962 167 169 166
-53.0761703848839 629.855632781982 2667.00005531311 157 159 156
-45.6710793077946 627.734124660492 2657.99999237061 149 149 147
-38.3003242313862 625.375866889954 2648.00000190735 147 146 142
-31.0425627976656 624.197781085968 2642.99988746643 128 127 123
-23.6133225262165 617.823481559753 2615.9999370575 125 124 120
-16.2235889583826 607.433557510376 2572.00002670288 152 151 147
-9.13766119629145 601.294100284576 2546.0000038147 158 157 153
-2.20265681855381 597.751975059509 2530.99989891052 167 168 163
4.65633673593402 594.917833805084 2519.00005340576 161 162 157
11.4820376038551 593.736290931702 2513.99993896484 158 159 154
18.3242373168468 593.971312046051 2515.00010490417 159 160 155
25.1418054103851 593.497157096863 2513.00001144409 156 157 152
31.935703009367 592.786252498627 2509.99999046326 157 158 153
38.713201880455 592.074871063232 2506.99996948242 158 158 156
45.5469191074371 592.307686805725 2507.99989700317 157 157 155
52.365068346262 592.30363368988 2507.99989700317 158 158 156
59.2302642762661 592.771410942078 2509.99999046326 159 159 157
66.0272315144539 592.530250549316 2509.0000629425 166 166 164
72.9637369513512 593.469202518463 2513.00001144409 194 194 192
80.1123008131981 595.824599266052 2523.00000190735 188 188 186
87.5218436121941 599.596261978149 2539.00003433228 189 189 187
95.6875160336494 607.618093490601 2572.99995422363 178 178 176
104.237303137779 616.81991815567 2611.99998855591 139 139 137
112.274169921875 622.006475925446 2634.0000629425 147 147 145
119.568794965744 622.705519199371 2637.00008392334 153 152 150
127.023577690125 624.112486839294 2642.99988746643 153 152 150
134.561419487 625.754952430725 2650.00009536743 150 149 147
142.136931419373 627.396821975708 2657.00006484985 157 157 155
149.693876504898 628.802001476288 2663.00010681152 154 154 152
157.459810376167 630.914866924286 2671.99993133545 169 169 167
165.767386555672 634.916007518768 2688.99989128113 178 180 177
-77.3579105734825 643.651485443115 2756.99996948242 145 147 144
-68.8491016626358 634.318888187408 2717.00000762939 181 183 180
-60.7385598123074 626.853287220001 2684.99994277954 168 170 167
-53.1800054013729 623.822867870331 2671.99993133545 162 164 161
-45.812264084816 622.426092624664 2665.99988937378 153 153 151
-38.4625643491745 620.795249938965 2658.99991989136 143 142 138
-31.1508104205132 619.163811206818 2651.99995040894 135 134 130
-23.7326007336378 613.796174526215 2628.99994850159 132 131 127
-16.2816867232323 602.591216564178 2581.00008964539 155 154 150
-9.14558675140142 594.887673854828 2548.00009727478 151 150 146
-2.20196624286473 590.685546398163 2529.99997138977 161 162 157
4.65486804023385 587.883770465851 2517.99988746643 159 160 155
11.4692719653249 586.248874664307 2510.99991798401 158 159 154
18.3111578226089 586.714565753937 2513.00001144409 158 159 154
25.1338500529528 586.479425430298 2512.00008392334 157 158 153
31.9510288536549 586.243510246277 2510.99991798401 157 158 153
38.7163572013378 585.306823253632 2506.99996948242 159 159 157
45.5324687063694 585.303425788879 2506.99996948242 158 158 156
52.3484498262405 585.299372673035 2506.99996948242 159 159 157
59.1878779232502 585.528314113617 2507.99989700317 160 160 158
66.0589039325714 585.990190505981 2509.99999046326 163 163 161
72.9986876249313 586.918354034424 2513.99993896484 193 193 191
80.0870358943939 588.779866695404 2522.0000743866 194 194 192
87.3910337686539 591.808080673218 2535.00008583069 189 189 187
95.5092832446098 599.504590034485 2568.00007820129 185 185 183
104.205787181854 609.534919261932 2611.00006103516 146 146 144
112.368442118168 615.362346172333 2635.99991798401 150 150 148
119.850471615791 616.98716878891 2642.99988746643 152 151 149
127.226009964943 617.911100387573 2647.0000743866 152 151 149
134.724527597427 619.301199913025 2653.00011634827 155 154 152
142.255246639252 620.690703392029 2658.99991989136 157 157 155
149.874404072762 622.31308221817 2665.99988937378 163 163 161
157.649099826813 624.401688575745 2674.99995231628 177 177 175
166.088774800301 628.823816776276 2694.00000572205 180 182 179
175.596758723259 636.746406555176 2727.9999256134 200 205 201
-77.6167213916779 638.283967971802 2766.00003242493 146 148 145
-69.1841319203377 629.982471466064 2730.00001907349 180 182 179
-60.9697289764881 621.910989284515 2694.9999332428 167 169 166
-53.2639473676682 617.53112077713 2676.00011825562 163 165 162
-45.8675473928452 615.919709205627 2668.99991035461 154 154 152
-38.4801588952541 613.846302032471 2660.00008583069 145 144 140
-31.1885885894299 612.695217132568 2654.99997138977 140 139 135
-23.7977281212807 608.312845230103 2635.99991798401 129 128 124
-16.3524113595486 598.160564899445 2592.00000762939 152 151 147
-9.16069094091654 588.930726051331 2552.00004577637 151 150 146
-2.20301607623696 584.084868431091 2530.99989891052 162 163 158
4.65155020356178 580.623269081116 2516.00003242493 162 163 158
11.4656388759613 579.237937927246 2509.99999046326 159 160 155
18.3053649961948 579.698383808136 2512.00008392334 159 160 155
25.1358970999718 579.696536064148 2512.00008392334 157 158 153
31.9409072399139 579.232692718506 2509.99999046326 156 157 152
38.6886186897755 578.07594537735 2505.00011444092 159 159 157
45.4998426139355 578.072488307953 2505.00011444092 159 159 157
52.3527041077614 578.530132770538 2506.99996948242 159 159 157
59.2162907123566 578.987121582031 2509.0000629425 161 161 159
66.0642609000206 579.212784767151 2509.99999046326 162 162 160
72.9755610227585 579.899430274963 2513.00001144409 187 187 185
80.0299867987633 581.50851726532 2519.99998092651 196 196 194
87.3291343450546 584.501683712006 2532.99999237061 191 191 189
95.4797863960266 592.339873313904 2566.99991226196 189 189 187
104.134351015091 602.023363113403 2608.99996757507 151 151 149
112.462744116783 608.70635509491 2638.00001144409 151 151 149
120.086833834648 611.004412174225 2648.00000190735 150 149 147
127.524599432945 612.148284912109 2653.00011634827 150 149 147
134.887605905533 612.829864025116 2655.99989891052 159 158 156
142.320081591606 613.741874694824 2660.00008583069 155 155 153
149.998769164085 615.576088428497 2667.99998283386 171 171 169
157.897353172302 618.101835250854 2678.99990081787 180 180 178
166.410177946091 622.703373432159 2698.99988174438 181 183 180
175.739347934723 629.841983318329 2730.00001907349 200 205 201
-77.9878348112106 633.778870105743 2779.00004386902 218 220 217
-69.569893181324 626.030683517456 2744.99988555908 173 175 172
-61.2235479056835 617.141544818878 2706.00008964539 169 171 168
-53.407609462738 611.900746822357 2683.00008773804 158 160 157
-45.9056459367275 609.167873859406 2671.0000038147 153 153 151
-38.512222468853 607.118725776672 2661.99994087219 149 148 144
-31.1911255121231 605.525076389313 2654.99997138977 146 145 141
-23.8448102027178 602.334320545197 2641.00003242493 135 134 130
-16.442071646452 594.353437423706 2605.99994659424 145 144 140
-9.19015426188707 583.863198757172 2559.99994277954 157 156 152
-2.20493646338582 577.705800533295 2532.99999237061 166 167 162
4.65562660247087 574.284553527832 2517.99988746643 174 175 170
11.4665729925036 572.459399700165 2509.99999046326 160 161 156
18.3068513870239 572.914302349091 2512.00008392334 159 160 155
25.1379422843456 572.912573814392 2512.00008392334 158 159 154
31.9562293589115 572.68214225769 2510.99991798401 158 159 154
38.7226529419422 571.767032146454 2506.99996948242 159 159 157
45.5216988921165 571.535468101501 2506.00004196167 160 160 158
52.3569472134113 571.759641170502 2506.99996948242 160 160 158
59.2210851609707 572.21120595932 2509.0000629425 161 161 159
66.0959333181381 572.66229391098 2510.99991798401 163 163 161
73.0395466089249 573.568940162659 2515.00010490417 182 182 180
80.0364464521408 574.702978134155 2519.99998092651 194 194 192
87.3016938567162 577.432990074158 2532.00006484985 198 198 196
95.4874604940414 585.407376289368 2566.99991226196 196 196 194
104.302383959293 595.889687538147 2612.99991607666 166 166 164
112.642303109169 602.494359016418 2641.99995994568 142 142 140
120.323210954666 604.993522167206 2653.00011634827 154 153 151
127.775147557259 606.123805046082 2657.99999237061 148 147 145
135.101541876793 606.569349765778 2660.00008583069 162 161 159
142.545431852341 607.470512390137 2664.00003433228 153 153 151
150.179341435432 609.055042266846 2671.0000038147 176 176 174
158.027723431587 611.322999000549 2680.99999427795 181 181 179
166.361644864082 615.18657207489 2697.99995422363 182 184 181
175.173759460449 620.417356491089 2720.99995613098 199 204 200
-78.1905874609947 627.85005569458 2786.00001335144 215 217 214
-69.7529464960098 620.193779468536 2752.00009346008 177 179 176
-61.3642558455467 611.184477806091 2711.99989318848 165 167 164
-53.4318424761295 604.879021644592 2684.00001525879 161 163 160
-45.9093675017357 601.953268051147 2671.0000038147 150 150 148
-38.5008789598942 599.703013896942 2661.00001335144 149 148 144
-31.205402687192 598.578929901123 2655.99989891052 144 143 139
-23.9099506288767 596.778273582459 2648.00000190735 133 132 128
-16.5506731718779 591.145634651184 2622.99990653992 141 140 136
-9.25911497324705 581.230401992798 2578.9999961853 153 152 148
-2.21120961941779 572.441458702087 2539.99996185303 169 170 165
4.66155167669058 568.159222602844 2520.99990844727 175 176 171
11.4812096580863 566.35570526123 2513.00001144409 160 161 156
18.3083396404982 566.129148006439 2512.00008392334 159 160 155
25.1399800181389 566.127300262451 2512.00008392334 157 158 153
31.9588221609592 565.899610519409 2510.99991798401 157 158 153
38.7257896363735 564.995288848877 2506.99996948242 158 158 156
45.507226139307 564.541220664978 2505.00011444092 158 158 156
52.3402988910675 564.762532711029 2506.00004196167 158 158 156
59.2258721590042 565.434157848358 2509.0000629425 159 159 157
66.1012679338455 565.879762172699 2510.99991798401 162 162 160
73.0454474687576 566.775679588318 2515.00010490417 179 179 177
80.0111442804337 567.670881748199 2519.00005340576 192 192 190
87.2742235660553 570.368409156799 2530.99989891052 198 198 196
95.3835397958755 577.797710895538 2563.99989128113 195 195 193
104.510344564915 589.958488941193 2618.00003051758 165 165 163
112.821869552135 596.259474754334 2645.99990844727 142 142 140
120.468877255917 598.503530025482 2655.99989891052 154 153 151
127.881482243538 599.395036697388 2660.00008583069 157 156 154
135.315462946892 600.285887718201 2664.00003433228 158 157 155
142.770782113075 601.176142692566 2667.99998283386 158 158 156
150.359928607941 602.516531944275 2674.00002479553 176 176 174
158.217057585716 604.757606983185 2684.00001525879 186 186 184
166.18974506855 607.223212718964 2694.9999332428 178 180 177
174.929991364479 612.16676235199 2717.00000762939 200 205 201
-69.6825236082077 612.09100484848 2749.00007247925 182 184 181
-61.4144690334797 604.303121566772 2713.99998664856 162 164 161
-53.4958802163601 598.295867443085 2687.00003623962 163 165 162
-45.9818355739117 595.627963542938 2674.99995231628 149 149 147
-38.6197455227375 594.295382499695 2668.99991035461 148 147 143
-31.2666781246662 592.516899108887 2661.00001335144 140 139 135
-23.9750985056162 591.183066368103 2654.99997138977 132 131 127
-16.6403576731682 587.17668056488 2637.00008392334 137 136 132
-9.3173123896122 577.825665473938 2595.00002861023 147 146 142
-2.2174830082804 567.137956619263 2546.99993133545 173 174 169
4.66562854126096 561.793863773346 2523.00000190735 177 178 173
11.4867081865668 559.789180755615 2513.99993896484 160 161 156
18.3098223060369 559.342682361603 2512.00008392334 158 159 154
25.1420140266418 559.34089422226 2512.00008392334 156 157 152
31.9614112377167 559.115946292877 2510.99991798401 156 157 152
38.7598238885403 558.667778968811 2509.0000629425 157 157 155
45.5472320318222 558.218955993652 2506.99996948242 157 157 155
52.3236431181431 557.769775390625 2505.00011444092 157 157 155
59.1362304985523 557.765305042267 2505.00011444092 159 159 157
65.9749656915665 557.982861995697 2506.00004196167 163 163 161
72.9641765356064 559.313178062439 2512.00008392334 176 176 174
79.9222737550735 560.197710990906 2516.00003242493 190 190 188
87.1088206768036 562.417507171631 2526.00002288818 197 197 195
95.242366194725 569.980323314667 2559.99994277954 195 195 193
104.558631777763 583.108484745026 2618.99995803833 165 165 163
112.788237631321 588.888585567474 2644.99998092651 143 143 141
120.433136820793 591.105699539185 2654.99997138977 157 156 154
127.939730882645 592.431604862213 2661.00001335144 157 156 154
135.427802801132 593.534350395203 2665.99988937378 157 156 154
142.996177077293 594.859063625336 2671.99993133545 160 160 158
150.596752762794 596.183300018311 2677.99997329712 178 178 176
158.229529857635 597.506821155548 2684.00001525879 186 186 184
166.141137480736 599.720180034637 2694.00000572205 176 178 175
174.686148762703 603.936433792114 2713.00005912781 200 205 201
-69.7895288467407 605.542838573456 2753.00002098084 182 184 181
-61.3515228033066 596.309840679169 2710.99996566772 164 166 163
-53.5997413098812 592.1351313591 2691.99991226196 160 162 159
-46.0886918008327 589.719653129578 2680.99999427795 152 152 150
-38.7241579592228 588.623225688934 2676.00011825562 146 145 141
-31.3514620065689 586.86637878418 2667.99998283386 140 139 135
-24.040250107646 585.54881811142 2661.99994087219 135 134 130
-16.7174339294434 582.690894603729 2648.9999294281 139 138 134
-9.38629079610109 574.993133544922 2614.00008201599 146 145 141
-2.22114520147443 561.135709285736 2551.00011825562 181 182 177
4.66230604797602 554.536521434784 2520.99990844727 180 181 176
11.478497646749 552.556216716766 2512.00008392334 159 160 155
18.3185897767544 552.774965763092 2513.00001144409 158 159 154
25.1440461724997 552.553236484528 2512.00008392334 155 156 151
31.9639891386032 552.330911159515 2510.99991798401 158 159 154
38.7165993452072 551.22834444046 2506.00004196167 158 158 156
45.5327332019806 551.224946975708 2506.00004196167 157 157 155
52.3278564214706 551.001071929932 2505.00011444092 157 157 155
59.1645874083042 551.21648311615 2506.00004196167 160 160 158
65.9802705049515 551.211535930634 2506.00004196167 164 164 162
72.9409903287888 552.305698394775 2510.99991798401 170 170 168
79.8651352524757 552.959382534027 2513.99993896484 186 186 184
87.0812982320786 555.37223815918 2525.00009536743 198 198 196
95.2127724885941 562.843143939972 2559.00001525879 198 198 196
104.447193443775 575.371980667114 2615.9999370575 169 169 167
112.754583358765 581.521809101105 2644.00005340576 147 147 145
120.488077402115 584.151744842529 2655.99989891052 160 159 157
128.046065568924 585.681557655334 2663.00010681152 158 157 155
135.540127754211 586.770713329315 2667.99998283386 158 157 155
143.168017268181 588.299155235291 2674.99995231628 163 163 161
150.777325034142 589.607119560242 2680.99999427795 175 175 173
158.477798104286 591.134428977966 2687.99996376038 177 177 175
166.400879621506 593.320846557617 2697.99995422363 174 176 173
174.892991781235 597.265839576721 2716.00008010864 198 203 199
185.093134641647 606.48775100708 2757.99989700317 200 205 201
-69.7444155812263 597.668170928955 2750.99992752075 186 188 185
-61.5148767828941 590.503990650177 2717.99993515015 166 168 165
-53.7036098539829 585.946202278137 2697.00002670288 160 162 159
-46.143963932991 583.125829696655 2684.00001525879 153 153 151
-38.7272760272026 581.391215324402 2676.00011825562 146 145 141
-31.353984028101 579.655945301056 2667.99998283386 140 139 135
-24.0421872586012 578.35453748703 2661.99994087219 138 137 133
-16.7692713439465 577.269911766052 2657.00006484985 141 140 136
-9.45168547332287 571.839332580566 2631.99996948242 140 139 135
-2.2265485022217 555.544912815094 2556.99992179871 184 185 180
4.66268183663487 547.723352909088 2520.99990844727 180 181 176
11.4839915186167 545.984625816345 2513.00001144409 158 159 154
18.3346457779408 546.417951583862 2515.00010490417 158 159 154
25.1460690051317 545.7643866539 2512.00008392334 156 157 152
31.9538302719593 545.327544212341 2509.99999046326 160 161 156
38.7351624667645 544.672906398773 2506.99996948242 158 158 156
45.5909110605717 545.104086399078 2509.0000629425 157 157 155
52.3738339543343 544.665634632111 2506.99996948242 156 156 154
59.1457299888134 544.22664642334 2505.00011444092 157 157 155
65.9065544605255 543.787121772766 2503.00002098084 161 161 159
72.8596746921539 544.867873191834 2507.99989700317 168 168 166
79.8079892992973 545.730710029602 2512.00008392334 183 183 181
87.0192646980286 548.113822937012 2523.00000190735 198 198 196
95.3319892287254 556.579113006592 2562.00003623962 200 200 198
104.45549339056 568.302273750305 2615.9999370575 172 172 170
112.806171178818 574.593603610992 2644.99998092651 149 149 147
120.542995631695 577.191174030304 2657.00006484985 158 157 155
128.104269504547 578.702032566071 2664.00003433228 157 156 154
135.652437806129 579.994976520538 2670.00007629395 160 159 157
143.179297447205 581.070065498352 2674.99995231628 164 164 162
150.732934474945 582.144618034363 2680.0000667572 170 170 168
158.372297883034 583.435833454132 2686.00010871887 171 171 169
166.413873434067 586.029648780823 2697.99995422363 175 177 174
174.906641244888 589.92612361908 2716.00008010864 195 200 196
184.235021471977 596.210956573486 2744.99988555908 197 202 198
-69.7499886155128 590.232133865356 2750.99992752075 203 205 202
-61.565063893795 583.586275577545 2720.00002861023 164 166 163
-53.7278242409229 578.87065410614 2697.99995422363 166 168 165
-46.2164394557476 576.72905921936 2687.99996376038 145 145 143
-38.7882739305496 575.01608133316 2680.0000667572 145 144 140
-31.4035080373287 573.302388191223 2671.99993133545 140 139 135
-24.0802448242903 572.017192840576 2665.99988937378 140 139 135
-16.8147999793291 571.589767932892 2664.00003433228 141 140 136
-9.49194841086864 567.084968090057 2642.99988746643 121 120 116
-2.24153138697147 552.280724048615 2573.99988174438 185 186 181
4.67045558616519 541.767179965973 2525.00009536743 179 180 175
11.4940544590354 539.620935916901 2515.00010490417 157 158 153
18.3361172676086 539.619743824005 2515.00010490417 158 159 154
25.1580979675055 539.188861846924 2513.00001144409 158 159 154
31.9563932716846 538.542866706848 2509.99999046326 164 165 160
38.7382656335831 537.896394729614 2506.99996948242 161 161 159
45.6127300858498 538.536667823792 2509.99999046326 161 161 159
52.3989163339138 538.103640079498 2507.99989700317 157 157 155
59.1504573822021 537.455558776855 2505.00011444092 157 157 155
65.9118220210075 537.021458148956 2503.00002098084 158 158 156
72.8654786944389 538.088619709015 2507.99989700317 165 165 163
79.8143446445465 538.940787315369 2512.00008392334 178 178 176
86.9572013616562 540.865004062653 2520.99990844727 195 195 193
95.0418561697006 547.9376912117 2553.99990081787 201 201 199
104.463785886765 561.231255531311 2615.9999370575 176 176 174
112.857758998871 567.65878200531 2645.99990844727 150 150 148
120.597898960114 570.223987102509 2657.99999237061 150 149 147
128.210544586182 571.930348873138 2665.99988937378 153 152 150
135.815560817719 573.421776294708 2673.00009727478 163 162 160
143.4046626091 574.697852134705 2678.99990081787 166 166 164
150.913491845131 575.544416904449 2683.00008773804 165 165 163
158.502593636513 576.604843139648 2687.99996376038 164 164 162
166.488543152809 578.951835632324 2698.99988174438 178 180 177
174.984648823738 582.799673080444 2717.00000762939 190 195 191
183.779433369637 587.290167808533 2737.99991607666 193 198 194
-70.0344666838646 585.125029087067 2762.00008392334 199 201 198
-61.5699663758278 576.232612133026 2720.00002861023 177 179 176
-53.831685334444 572.63571023941 2703.00006866455 151 153 150
-46.3748835027218 571.36857509613 2697.00002670288 148 150 147
-38.907166570425 569.465279579163 2687.99996376038 148 149 144
-31.4647890627384 567.137718200684 2677.00004577637 139 140 135
-24.1183023899794 565.656960010529 2670.00007629395 141 142 137
-16.8350823223591 565.023005008698 2667.00005531311 129 130 125
-9.52144246548414 561.634361743927 2651.00002288818 132 133 128
-2.25129071623087 547.652244567871 2585.00003814697 192 193 188
4.68007801100612 535.999894142151 2529.99997138977 175 176 171
11.4995446056128 533.033311367035 2516.00003242493 160 161 156
18.3375813066959 532.820224761963 2515.00010490417 158 159 154
25.1500997692347 532.182931900024 2512.00008392334 165 166 161
31.9462157785892 531.545102596283 2509.0000629425 162 163 158
38.7259051203728 530.906677246094 2506.00004196167 162 163 158
45.5800220370293 531.32700920105 2507.99989700317 160 161 156
52.3613095283508 530.899465084076 2506.00004196167 159 160 155
59.1315515339375 530.471324920654 2503.99994850159 159 160 155
65.8907368779182 530.04264831543 2502.00009346008 159 159 157
72.7550536394119 530.460894107819 2503.99994850159 161 161 159
79.7253623604774 531.514048576355 2509.0000629425 178 178 176
86.8606120347977 533.414006233215 2517.99988746643 193 193 191
94.9377417564392 540.397524833679 2551.00011825562 205 205 203
104.392185807228 553.735315799713 2614.00008201599 174 174 172
112.909324467182 560.717165470123 2647.0000743866 148 148 148
120.562024414539 562.826335430145 2657.00006484985 149 149 147
128.124445676804 564.299404621124 2664.00003433228 156 156 154
135.77538728714 565.983593463898 2671.99993133545 161 161 159
143.415883183479 567.455410957336 2678.99990081787 166 166 164
150.925263762474 568.291127681732 2683.00008773804 166 166 164
158.455982804298 569.12636756897 2687.00003623962 171 171 169
166.37809574604 571.231842041016 2697.00002670288 178 180 177
174.869358539581 575.031042098999 2714.99991416931 191 193 190
183.525130152702 579.041302204132 2733.99996757507 198 200 197
-61.7106780409813 570.132493972778 2726.0000705719 139 141 138
-53.9554692804813 566.581547260284 2709.00011062622 150 152 149
-46.5333424508572 565.958142280579 2706.00008964539 148 150 147
-39.0405394136906 564.079165458679 2697.00002670288 145 146 141
-31.573086977005 561.781346797943 2686.00010871887 140 141 136
-24.1834577172995 559.901118278503 2677.00004577637 133 134 129
-16.8806128203869 559.275329113007 2674.00002479553 136 137 132
-9.55811981111765 556.557416915894 2661.00001335144 144 145 140
-2.25234124809504 540.871322154999 2585.99996566772 185 186 181
4.68415068462491 529.576897621155 2532.00006484985 171 172 167
11.5050310268998 526.439011096954 2516.99995994568 158 159 154
18.3463357388973 526.228666305542 2516.00003242493 161 162 157
25.1521002501249 525.390267372131 2512.00008392334 172 173 168
31.9360233843327 524.551391601563 2507.99989700317 163 164 159
38.6980772018433 523.711979389191 2503.99994850159 161 162 157
45.5109477043152 523.708641529083 2503.99994850159 160 161 156
52.3236729204655 523.704826831818 2503.99994850159 159 160 155
59.1834783554077 524.118721485138 2506.00004196167 160 161 156
65.9486278891563 523.695409297943 2503.99994850159 160 160 158
72.7608129382133 523.689925670624 2503.99994850159 161 161 159
79.6045586466789 523.893117904663 2505.00011444092 166 166 164
86.7294743657112 525.768756866455 2513.99993896484 185 185 183
94.7219207882881 532.244801521301 2545.00007629395 199 199 197
104.200705885887 545.621454715729 2608.99996757507 185 185 183
112.832874059677 553.141593933105 2644.99998092651 145 145 145
120.616853237152 555.85104227066 2657.99999237061 155 155 153
128.278762102127 557.72340297699 2667.00005531311 161 161 159
135.938450694084 559.386074542999 2674.99995231628 160 160 158
143.480598926544 560.420751571655 2680.0000667572 161 161 159
150.993257761002 561.245739459991 2684.00001525879 162 162 160
158.704161643982 562.697470188141 2690.99998474121 169 169 167
166.514366865158 564.357697963715 2698.99988174438 177 179 176
174.62520301342 566.853702068329 2710.99996566772 190 192 189
183.136463165283 570.394515991211 2727.9999256134 197 199 196
193.555727601051 579.37079668045 2770.99990844727 202 204 201
-70.1977163553238 571.425199508667 2767.99988746643 211 213 210
-61.9645975530148 565.030753612518 2736.99998855591 135 137 134
-54.1190840303898 560.90646982193 2717.00000762939 153 155 152
-46.5886183083057 559.258937835693 2709.00011062622 150 152 149
-39.0725843608379 557.19780921936 2698.99988174438 153 154 149
-31.6108539700508 555.136144161224 2688.99989128113 136 137 132
-24.2305491119623 553.693234920502 2681.99992179871 138 139 134
-16.9135183095932 553.075551986694 2678.99990081787 141 142 137
-9.57324728369713 550.186276435852 2664.99996185303 158 159 154
-2.25861719809473 535.322427749634 2592.99993515015 190 191 186
4.68452274799347 522.72891998291 2532.00006484985 169 170 165
11.5150874480605 520.044505596161 2519.00005340576 163 164 159
18.3623749762774 519.836843013763 2517.99988746643 172 173 168
25.1340679824352 518.183529376984 2509.99999046326 172 173 168
31.9130830466747 517.355501651764 2506.00004196167 161 162 157
38.6856868863106 516.733407974243 2503.00002098084 160 161 156
45.5145426094532 516.936421394348 2503.99994850159 160 161 156
52.3278154432774 516.932606697083 2503.99994850159 159 160 155
59.1881535947323 517.341136932373 2506.00004196167 160 161 156
65.9538358449936 516.923308372498 2503.99994850159 161 161 159
72.737492620945 516.711413860321 2503.00002098084 163 163 161
79.6108171343803 517.118275165558 2505.00011444092 162 162 160
86.6672918200493 518.556773662567 2512.00008392334 180 180 178
94.431571662426 523.710429668427 2536.99994087219 195 195 193
103.96920889616 537.326872348785 2602.9999256134 190 190 188
112.756386399269 545.575439929962 2642.99988746643 145 145 145
120.671659708023 548.869013786316 2658.99991989136 154 154 152
128.384962677956 550.923466682434 2668.99991035461 160 160 158
135.999843478203 552.358210086823 2676.00011825562 157 157 155
143.331110477448 552.553772926331 2677.00004577637 159 159 157
150.836169719696 553.367972373962 2680.99999427795 164 164 162
158.598467707634 555.007219314575 2688.99989128113 173 173 171
166.588872671127 557.265043258667 2700.00004768372 177 179 176
174.638643860817 559.522271156311 2710.99996566772 188 190 187
183.083355426788 562.810778617859 2726.99999809265 194 196 193
193.011656403542 570.226192474365 2763.00001144409 199 201 198
-70.2032223343849 563.937604427338 2767.99988746643 212 214 211
-62.309093773365 560.683131217957 2752.00009346008 172 174 171
-54.2827062308788 555.186748504639 2724.99990463257 167 169 166
-46.6266795992851 552.338302135468 2710.99996566772 147 149 146
-39.0611924231052 549.69310760498 2697.99995422363 145 146 141
-31.6368602216244 548.269689083099 2690.99998474121 143 144 139
-24.2776367813349 547.456920146942 2687.00003623962 144 145 140
-16.9590525329113 547.254800796509 2686.00010871887 167 168 163
-9.59196500480175 543.995976448059 2670.00007629395 100 101 96
-2.26227985695004 529.123067855835 2596.99988365173 181 182 177
4.69414377585053 516.898393630981 2536.99994087219 171 172 167
11.5434257313609 514.452815055847 2525.00009536743 172 173 168
18.4002891182899 514.044165611267 2523.00000190735 172 173 168
25.1961369067431 512.616217136383 2516.00003242493 165 166 161
31.9538079202175 511.187791824341 2509.0000629425 164 165 160
38.704190403223 510.16628742218 2503.99994850159 159 160 155
45.5181337893009 510.163009166718 2503.99994850159 159 160 155
52.3319281637669 510.159134864807 2503.99994850159 159 160 155
59.1928102076054 510.562241077423 2506.00004196167 160 161 156
66.0380423069 510.761022567749 2506.99996948242 161 161 159
72.8594437241554 510.755598545074 2506.99996948242 165 165 163
79.6806216239929 510.749638080597 2506.99996948242 162 162 160
86.6050645709038 511.354327201843 2509.99999046326 176 176 174
94.1411554813385 515.218079090118 2529.00004386902 190 190 188
103.378154337406 527.230024337769 2588.00005912781 192 192 190
112.722508609295 538.22249174118 2641.99995994568 144 144 144
120.817184448242 542.287707328796 2661.99994087219 154 154 152
128.539264202118 544.315218925476 2671.99993133545 159 159 157
135.959550738335 544.916093349457 2674.99995231628 155 155 153
143.288642168045 545.109033584595 2676.00011825562 158 158 156
150.735259056091 545.708775520325 2678.99990081787 164 164 162
158.787608146667 548.344969749451 2691.99991226196 173 173 171
166.786774992943 550.573110580444 2703.00006866455 177 179 176
174.716413021088 552.393198013306 2711.99989318848 188 190 187
182.828769087791 554.620146751404 2723.00004959106 194 196 193
192.327752709389 560.716211795807 2753.00002098084 203 205 202
-70.436991751194 558.257937431335 2776.99995040894 211 213 210
-62.427181750536 554.242551326752 2756.99996948242 141 143 140
-54.4463321566582 549.422323703766 2733.00004005432 166 168 165
-46.6819405555725 545.606672763824 2713.99998664856 147 149 146
-39.1221679747105 543.197572231293 2701.99990272522 145 146 141
-31.7098908126354 542.195200920105 2697.00002670288 158 159 154
-24.3247225880623 541.192173957825 2691.99991226196 159 160 155
-16.9603824615479 539.987623691559 2686.00010871887 158 159 154
-9.58194024860859 536.168873310089 2667.00005531311 118 119 114
-2.27116979658604 524.107098579407 2607.00011253357 171 172 167
4.70746541395783 511.44152879715 2543.99991035461 170 171 166
11.5671940147877 508.626401424408 2529.99997138977 160 161 156
18.4382032603025 508.223176002502 2528.00011634827 139 140 135
25.2381768077612 506.61313533783 2519.99998092651 145 146 141
32.0072621107101 505.203664302826 2513.00001144409 154 155 150
38.7536026537418 503.994584083557 2506.99996948242 156 157 152
45.576237142086 503.991305828094 2506.99996948242 156 157 152
52.3778311908245 503.786444664001 2506.00004196167 157 158 153
59.1738224029541 503.581166267395 2505.00011444092 159 160 155
66.016860306263 503.777265548706 2506.00004196167 160 160 158
72.8651359677315 503.972887992859 2506.99996948242 165 165 163
79.718604683876 504.167914390564 2507.99989700317 168 168 166
86.6463258862495 504.764556884766 2510.99991798401 172 172 170
93.9251035451889 507.169783115387 2523.00000190735 185 185 183
102.587215602398 516.207993030548 2568.00007820129 192 192 190
112.688571214676 530.873656272888 2641.00003242493 154 154 154
121.008105576038 535.889863967896 2665.99988937378 155 155 153
128.645405173302 537.488341331482 2674.00002479553 157 157 155
135.970011353493 537.679135799408 2674.99995231628 152 152 150
143.299654126167 537.869393825531 2676.00011825562 159 159 157
150.803104043007 538.662135601044 2680.0000667572 164 164 162
158.740788698196 540.861189365387 2690.99998474121 171 171 169
166.676089167595 542.8586602211 2700.99997520447 176 178 175
174.600854516029 544.654548168182 2710.00003814697 186 188 185
182.708352804184 546.851694583893 2720.99995613098 191 193 190
191.853225231171 551.861882209778 2746.00005149841 200 202 199
-70.6961378455162 552.726447582245 2786.99994087219 207 209 206
-62.6358464360237 548.566877841949 2766.00003242493 150 152 149
-54.5701198279858 543.216645717621 2739.00008201599 169 171 168
-46.788789331913 539.452314376831 2720.00002861023 163 165 162
-39.2121039330959 537.075757980347 2707.99994468689 160 161 156
-31.759399920702 535.690188407898 2700.99997520447 135 136 131
-24.3446975946426 534.304022789001 2694.00000572205 161 162 157
-16.9617105275393 532.719016075134 2686.00010871887 124 125 120
-9.59706213325262 529.745042324066 2671.0000038147 132 133 128
-2.287901006639 520.820617675781 2625.99992752075 156 157 152
4.73189074546099 507.135570049286 2556.99992179871 159 160 155
11.6046760231256 503.366589546204 2538.00010681152 143 144 139
18.4979978948832 502.968788146973 2536.00001335144 132 133 128
25.3102574497461 501.182019710541 2526.99995040894 158 159 154
32.0607125759125 499.19655919075 2516.99995994568 159 160 155
38.8030037283897 497.805505990982 2509.99999046326 156 157 152
45.5979704856873 497.405499219894 2507.99989700317 155 156 151
52.402812987566 497.203409671783 2506.99996948242 157 158 153
59.2020526528358 497.000753879547 2506.00004196167 158 159 154
66.0483315587044 497.194170951843 2506.99996948242 160 160 158
72.8707909584045 497.188806533813 2506.99996948242 164 164 162
79.7247961163521 497.381210327148 2507.99989700317 170 170 168
86.6185203194618 497.771471738815 2509.99999046326 171 171 169
93.7089845538139 499.152690172195 2516.99995994568 185 185 183
101.99586302042 506.284356117249 2552.99997329712 192 192 190
112.355872988701 522.140741348267 2632.99989700317 158 158 158
121.0628002882 528.874099254608 2667.00005531311 152 152 150
128.703385591507 530.450940132141 2674.99995231628 154 154 152
135.980427265167 530.440807342529 2674.99995231628 151 151 149
143.417730927467 531.024992465973 2677.99997329712 160 160 158
150.870889425278 531.608760356903 2680.99999427795 167 167 165
158.752873539925 533.57982635498 2690.99998474121 173 173 171
166.56531393528 535.15362739563 2698.99988174438 175 177 174
174.356371164322 536.528766155243 2706.00008964539 184 186 183
182.453542947769 538.6962890625 2717.00000762939 190 192 189
191.378593444824 543.044030666351 2739.00008201599 199 201 198
-62.7312809228897 541.863024234772 2769.99998092651 166 168 165
-54.6341240406036 536.39018535614 2742.00010299683 176 178 175
-46.8096248805523 532.286047935486 2720.99995613098 140 142 139
-39.2296314239502 529.941976070404 2709.00011062622 155 156 151
-31.7736230790615 528.575241565704 2701.99990272522 159 160 155
-24.3556257337332 527.208089828491 2694.9999332428 134 135 130
-16.9630274176598 525.449156761169 2686.00010871887 133 134 129
-9.61577426642179 523.493885993958 2676.00011825562 144 145 140
-2.30376259423792 517.234325408936 2644.00005340576 145 146 141
4.75631793960929 502.757906913757 2569.9999332428 149 150 145
11.6192949935794 497.084110975266 2540.99988937378 140 141 136
18.4994321316481 496.104836463928 2536.00001335144 138 139 134
25.3222435712814 494.538187980652 2528.00011634827 154 155 150
32.0632010698318 492.384076118469 2516.99995994568 153 154 149
38.8369373977184 491.403222084045 2512.00008392334 154 155 150
45.6378720700741 491.008698940277 2509.99999046326 154 155 150
52.4277798831463 490.613669157028 2507.99989700317 155 156 151
59.1830052435398 490.022510290146 2505.00011444092 157 158 153
66.0270974040031 490.213304758072 2506.00004196167 159 159 157
72.8473514318466 490.207940340042 2506.00004196167 161 161 159
79.6991512179375 490.397661924362 2506.99996948242 159 159 157
86.5906774997711 490.782558917999 2509.0000629425 174 174 172
93.5672670602798 491.558015346527 2513.00001144409 174 174 172
101.524233818054 497.027456760406 2540.99988937378 188 188 188
111.596331000328 511.493861675262 2615.00000953674 164 164 164
120.890475809574 520.873725414276 2663.00010681152 152 152 150
128.713220357895 523.211300373077 2674.99995231628 151 151 149
136.092483997345 523.592412471771 2677.00004577637 160 160 158
143.696442246437 524.755358695984 2683.00008773804 162 162 160
151.220008730888 525.526463985443 2687.00003623962 165 165 163
159.000873565674 527.079403400421 2694.9999332428 171 171 169
166.763052344322 528.436124324799 2701.99990272522 173 175 172
174.627244472504 529.987871646881 2710.00003814697 183 185 182
182.601556181908 531.734526157379 2719.00010108948 187 189 186
191.043555736542 534.653961658478 2733.99996757507 197 199 196
201.52659714222 542.852640151978 2776.00002288818 201 203 200
-62.8040507435799 534.943103790283 2773.00000190735 194 196 193
-54.7578819096088 530.12478351593 2747.99990653992 164 166 163
-46.8820482492447 525.691688060761 2724.99990463257 136 138 135
-39.2036885023117 522.222518920898 2707.00001716614 166 167 162
-31.7407958209515 520.681917667389 2698.99988174438 127 128 123
-24.3484675884247 519.719541072845 2694.00000572205 136 137 132
-16.9895980507135 518.949389457703 2690.00005722046 150 151 146
-9.6416724845767 517.600059509277 2683.00008773804 148 149 144
-2.31962511315942 513.549208641052 2661.99994087219 139 140 135
4.80480724945664 500.816464424133 2595.99995613098 150 151 146
11.6613507270813 491.941571235657 2549.99995231628 142 143 138
18.522746860981 489.818334579468 2539.00003433228 137 138 133
25.3342129290104 487.887501716614 2529.00004386902 154 155 150
32.0656709372997 485.570251941681 2516.99995994568 151 152 147
38.8553962111473 484.795898199081 2513.00001144409 154 155 150
45.6959381699562 484.792619943619 2513.00001144409 154 155 150
52.4736270308495 484.210133552551 2509.99999046326 155 156 151
59.2111796140671 483.434200286865 2506.00004196167 156 157 152
66.0058259963989 483.236521482468 2505.00011444092 157 157 155
72.8238746523857 483.23118686676 2505.00011444092 160 160 158
79.6734914183617 483.41828584671 2506.00004196167 159 159 157
86.5627899765968 483.797669410706 2507.99989700317 171 171 169
93.5371816158295 484.562456607819 2512.00008392334 172 172 170
101.252287626266 488.798767328262 2533.99991989136 187 187 187
111.00734770298 501.714646816254 2601.0000705719 169 169 169
120.627291500568 512.507796287537 2657.00006484985 149 149 147
128.674864768982 515.777409076691 2674.00002479553 153 153 151
136.204481124878 516.731798648834 2678.99990081787 159 159 157
143.814414739609 517.878532409668 2684.99994277954 160 160 158
151.343986392021 518.638908863068 2688.99989128113 164 164 162
159.071877598763 519.977390766144 2696.00009918213 167 167 165
166.899025440216 521.508097648621 2703.9999961853 170 172 169
174.704745411873 522.845327854156 2710.99996566772 181 183 180
182.749524712563 524.760603904724 2720.99995613098 185 187 184
190.918013453484 526.868164539337 2732.00011253357 196 198 195
201.10596716404 534.181833267212 2769.99998092651 200 202 199
-62.8315135836601 527.625143527985 2773.9999294281 215 217 214
-54.6624362468719 521.733283996582 2743.00003051758 136 138 135
-46.8856394290924 518.313407897949 2724.99990463257 175 177 174
-39.2066948115826 514.893054962158 2707.00001716614 132 133 128
-31.7667499184608 513.754487037659 2700.99997520447 165 166 161
-24.3774522095919 512.995779514313 2697.00002670288 173 174 169
-17.0098524540663 512.236535549164 2693.00007820129 157 158 153
-9.66397579759359 511.476695537567 2688.99989128113 144 145 140
-2.33026058413088 508.623957633972 2674.00002479553 138 139 134
4.85515315085649 498.923152685165 2622.99990653992 147 148 143
11.7079801857471 486.93922162056 2559.99994277954 137 138 133
18.5314659029245 483.133882284164 2539.99996185303 134 135 130
25.3361575305462 481.039941310883 2529.00004386902 158 159 154
32.0936143398285 479.135572910309 2519.00005340576 154 155 150
38.9202199876308 478.752434253693 2516.99995994568 151 152 147
45.7358174026012 478.368878364563 2515.00010490417 152 153 148
52.4985492229462 477.604269981384 2510.99991798401 153 154 149
59.2393428087235 476.83921456337 2506.99996948242 154 155 150
66.0372078418732 476.644188165665 2506.00004196167 156 156 154
72.8585049510002 476.638942956924 2506.00004196167 159 159 157
79.6795561909676 476.633131504059 2506.00004196167 160 160 158
86.534857749939 476.816982030869 2506.99996948242 167 167 165
93.5070514678955 477.570921182632 2510.99991798401 172 172 170
101.060174405575 480.987012386322 2529.00004386902 185 185 185
110.119417309761 490.678578615189 2579.99992370605 183 183 183
120.500199496746 504.74351644516 2654.00004386902 150 150 148
128.732711076736 508.72790813446 2674.99995231628 156 156 154
136.418133974075 510.23942232132 2683.00008773804 159 159 157
143.985912203789 511.179685592651 2687.99996376038 159 159 157
151.524186134338 511.929392814636 2691.99991226196 165 165 163
159.260764718056 513.248860836029 2698.99988174438 166 166 164
167.034938931465 514.567852020264 2706.00008964539 169 171 168
174.846678972244 515.886306762695 2713.00005912781 179 181 178
182.695925235748 517.204105854034 2720.00002861023 183 185 182
190.862238407135 519.28186416626 2730.99994659424 194 196 193
200.031712651253 523.830890655518 2755.00011444092 199 201 198
-62.5418052077293 517.675459384918 2760.99991798401 169 171 168
-54.5270889997482 512.992441654205 2736.00006103516 149 151 148
-46.8375831842422 510.371267795563 2721.99988365173 143 145 142
-39.2676144838333 508.312106132507 2710.99996566772 139 140 135
-31.8515039980412 507.752299308777 2707.99994468689 166 167 162
-24.4245044887066 506.629407405853 2701.99990272522 161 162 157
-17.0174650847912 505.131006240845 2694.00000572205 141 142 137
-9.66830644756556 504.382014274597 2690.00005722046 145 146 141
-2.33653886243701 502.69490480423 2680.99999427795 132 133 128
4.89809876307845 496.13219499588 2645.99990844727 140 141 136
11.7866257205606 483.193904161453 2576.99990272522 136 137 132
18.5839515179396 477.567672729492 2546.99993133545 137 138 133
25.3881793469191 475.128471851349 2533.99991989136 156 157 152
32.1725085377693 473.438829183578 2525.00009536743 150 151 146
39.0159673988819 473.061114549637 2523.00000190735 149 150 145
45.8302199840546 472.495347261429 2519.99998092651 150 151 146
52.5861792266369 471.554189920425 2515.00010490417 153 154 149
59.3147277832031 470.612436532974 2509.99999046326 154 155 150
66.0949349403381 470.232725143433 2507.99989700317 155 155 153
72.8349536657333 469.665050506592 2505.00011444092 158 158 156
79.6537920832634 469.659298658371 2505.00011444092 160 160 158
86.5413993597031 470.027953386307 2506.99996948242 167 167 165
93.5141071677208 470.771104097366 2510.99991798401 172 172 170
100.827999413013 473.013639450073 2523.00000190735 183 183 183
109.487436711788 480.879873037338 2565.00005722046 187 187 187
120.055176317692 495.68185210228 2644.00005340576 157 157 155
128.742352128029 501.484215259552 2674.99995231628 158 158 156
136.631727218628 503.723919391632 2687.00003623962 159 159 157
144.103825092316 504.275858402252 2690.00005722046 160 160 158
151.648059487343 505.014657974243 2694.00000572205 164 164 162
159.095570445061 505.378067493439 2696.00009918213 167 167 165
166.8621301651 506.678223609924 2703.00006866455 168 170 167
174.601793289185 507.790327072144 2709.00011062622 179 181 178
182.507872581482 509.276747703552 2717.00000762939 182 184 181
190.666601061821 511.324882507324 2727.9999256134 192 194 191
199.610710144043 515.246689319611 2749.00007247925 196 198 195
-62.4559074640274 509.45782661438 2756.99996948242 169 171 168
-54.4315502047539 504.657685756683 2730.99994659424 174 176 173
-46.8239150941372 502.813637256622 2720.99995613098 182 184 181
-39.3430143594742 501.892924308777 2716.00008010864 175 176 171
-31.8892002105713 500.971615314484 2710.99996566772 159 160 155
-24.4353953748941 499.495476484299 2703.00006866455 133 134 129
-17.0187521725893 497.833847999573 2694.00000572205 142 143 138
-9.6690384671092 497.095704078674 2690.00005722046 142 143 138
-2.3410739377141 496.356993913651 2686.00010871887 160 161 156
4.91513125598431 490.628242492676 2654.99997138977 154 155 150
11.8515575304627 478.80083322525 2591.00008010864 138 139 134
18.6072494834661 471.223115921021 2549.99995231628 142 143 138
25.4301819950342 469.003975391388 2538.00010681152 155 156 151
32.2131663560867 467.15384721756 2528.00011634827 150 151 146
39.0962436795235 467.151135206223 2528.00011634827 146 147 142
45.8700619637966 466.03924036026 2522.0000743866 149 150 145
52.6528730988503 465.29632806778 2517.99988746643 152 153 148
59.3901090323925 464.368224143982 2513.00001144409 154 155 150
66.2053301930428 464.178711175919 2512.00008392334 155 155 153
72.9276612401009 463.434368371964 2507.99989700317 156 156 154
79.7233730554581 463.243871927261 2506.99996948242 160 160 158
86.5824148058891 463.422387838364 2507.99989700317 166 166 164
93.5211181640625 463.970005512238 2510.99991798401 172 172 170
100.675687193871 465.440988540649 2519.00005340576 180 180 180
108.940653502941 471.530556678772 2552.00004577637 189 189 189
119.201324880123 485.010117292404 2625 166 166 164
128.511279821396 493.315309286118 2670.00007629395 160 160 158
136.591017246246 496.261656284332 2686.00010871887 158 158 156
144.221633672714 497.359782457352 2691.99991226196 160 160 158
151.771873235703 498.087972402573 2696.00009918213 162 162 160
159.343376755714 498.815447092056 2700.00004768372 166 166 164
166.997864842415 499.727159738541 2704.99992370605 167 169 166
174.743503332138 500.823140144348 2710.99996566772 178 180 177
182.521238923073 501.918494701386 2717.00000762939 181 183 180
190.680518746376 503.936886787415 2727.9999256134 190 192 189
199.479982256889 507.432520389557 2746.99997901917 193 195 192
-62.5059008598328 502.352952957153 2759.0000629425 209 211 208
-54.5552186667919 498.351544141769 2736.99998855591 176 178 175
-46.9306819140911 496.534526348114 2726.99999809265 170 172 169
-39.4183956086636 495.445221662521 2720.99995613098 156 157 152
-31.9268852472305 494.173318147659 2713.99998664856 128 129 124
-24.4462676346302 492.354601621628 2703.9999961853 152 153 148
-17.026349902153 490.71741104126 2694.9999332428 155 156 151
-9.67335980385542 489.990085363388 2690.99998474121 163 164 159
-2.3429929278791 489.44428563118 2687.99996376038 150 151 146
4.92290640249848 484.163701534271 2658.99991989136 136 137 132
11.889043264091 473.237991333008 2598.99997711182 140 141 136
18.67432333529 465.953439474106 2559.00001525879 139 140 135
25.4922136664391 463.220566511154 2543.99991035461 160 161 156
32.2793014347553 461.21546626091 2532.99999237061 147 148 143
39.1455702483654 460.848599672318 2530.99989891052 145 145 143
45.9280647337437 459.753006696701 2525.00009536743 147 147 145
52.6986457407475 458.838880062103 2519.99998092651 154 154 152
59.4418160617352 457.924336194992 2515.00010490417 154 154 152
66.236637532711 457.555502653122 2513.00001144409 155 155 153
72.9912668466568 457.004129886627 2509.99999046326 157 157 155
79.8247158527374 456.998407840729 2509.99999046326 157 157 155
86.6924375295639 457.174241542816 2510.99991798401 165 165 163
