ply
format ascii 1.0
comment KinectMotionCapture
element vertex 802
property float x
property float y
property float z
property uchar red
property uchar green
property uchar blue
end_header
5.11093437671661 74.1772502660751 2753.00002098084 10 12 7
12.504237703979 73.4496489167213 2726.0000705719 13 15 10
19.9037082493305 73.2877552509308 2720.00002861023 15 17 12
27.5215301662683 73.7993717193604 2739.00008201599 15 17 12
34.578513354063 72.9097947478294 2706.00008964539 15 17 12
41.8428704142571 72.693720459938 2697.99995422363 12 15 8
49.3369475007057 72.8816986083984 2704.99992370605 11 14 7
56.7432343959808 72.907917201519 2706.00008964539 12 15 8
64.1547441482544 72.9340314865112 2707.00001716614 14 17 10
72.1528977155685 73.552779853344 2730.00001907349 16 19 10
79.489029943943 73.4439715743065 2726.0000705719 19 22 13
86.7710933089256 73.3081251382828 2720.99995613098 20 23 14
94.925619661808 73.8726630806923 2742.00010299683 20 23 14
102.111250162125 73.6557841300964 2733.99996757507 21 24 15
108.451262116432 72.9000270366669 2706.00008964539 21 24 15
116.050601005554 73.0331912636757 2710.99996566772 21 24 13
125.042885541916 73.9744380116463 2746.00005149841 18 21 14
134.080857038498 74.8347193002701 2778.00011634827 17 20 13
143.39491724968 75.7487341761589 2812.00003623962 13 16 9
153.055101633072 76.74340903759 2848.99997711182 10 13 6
161.956906318665 77.2800222039223 2868.99995803833 10 13 6
170.020326972008 77.3855298757553 2872.99990653992 11 14 7
177.114397287369 77.0599842071533 2861.00006103516 11 14 7
183.948367834091 76.6535550355911 2845.99995613098 12 15 8
193.124815821648 77.2166326642036 2867.00010299683 12 15 8
201.784208416939 77.5371864438057 2878.99994850159 12 15 8
210.435464978218 77.8306946158409 2890.00010490417 14 17 10
218.617051839828 77.9355689883232 2894.00005340576 17 20 13
228.463217616081 78.6058455705643 2918.99991035461 18 21 14
-2.38791573792696 66.1524832248688 2732.00011253357 9 11 6
5.08872279897332 66.3703829050064 2740.9999370575 10 12 7
12.1878916397691 64.3363147974014 2657.00006484985 12 14 9
20.1161801815033 66.563792526722 2749.00007247925 13 15 10
27.0697195082903 65.2317330241203 2694.00000572205 16 18 13
34.6556380391121 65.6672045588493 2711.99989318848 18 20 15
42.3862338066101 66.1752074956894 2733.00004005432 14 17 10
49.994207918644 66.3683414459229 2740.9999370575 12 15 8
57.7714890241623 66.7066648602486 2755.00011444092 11 14 7
64.4162744283676 65.8100321888924 2717.99993515015 13 16 9
71.7838183045387 65.7607764005661 2716.00008010864 14 17 8
79.3442577123642 65.8809095621109 2720.99995613098 17 20 11
86.9316682219505 66.0009458661079 2726.0000705719 17 20 11
94.372920691967 65.9998282790184 2726.0000705719 18 21 12
100.730650126934 65.29650837183 2697.00002670288 20 23 14
108.69312286377 65.6583905220032 2711.99989318848 20 23 14
116.993881762028 66.1654248833656 2733.00004005432 20 23 12
125.773087143898 66.8660253286362 2762.00008392334 16 19 12
134.8065584898 67.6149129867554 2792.99998283386 16 19 12
145.028591156006 68.8478350639343 2844.00010108948 12 15 8
152.466103434563 68.7007904052734 2838.00005912781 10 13 6
162.297680974007 69.594532251358 2875 9 12 5
169.904157519341 69.4957077503204 2871.00005149841 11 14 7
177.983358502388 69.5904344320297 2875 13 16 9
185.825109481812 69.5882365107536 2875 12 15 8
194.272413849831 69.8037892580032 2884.0000629425 11 14 7
201.226055622101 69.4867745041847 2871.00005149841 13 16 9
209.782794117928 69.7263479232788 2881.00004196167 15 18 11
217.033416032791 69.5301741361618 2872.99990653992 16 19 12
-33.6195640265942 61.2275004386902 2849.99990463257 0 1 0
-24.0153446793556 56.909654289484 2648.9999294281 3 5 0
-16.7377423495054 56.7594952881336 2641.99995994568 9 11 6
12.5091327354312 58.585699647665 2726.99999809265 12 14 9
19.4065924733877 56.9742545485497 2651.99995040894 11 13 8
27.3915827274323 58.5637763142586 2726.0000705719 11 13 8
34.5921479165554 58.1552535295486 2707.00001716614 17 19 14
42.5728335976601 58.9711926877499 2744.99988555908 18 21 14
50.0312745571136 58.9277222752571 2743.00003051758 16 19 12
56.8914227187634 58.2826547324657 2713.00005912781 14 17 10
64.9858266115189 58.904979377985 2742.00010299683 13 16 9
71.9167962670326 58.4530979394913 2720.99995613098 13 16 7
79.0535733103752 58.2374595105648 2710.99996566772 15 18 9
86.7732167243958 58.4513694047928 2720.99995613098 16 19 10
93.3354198932648 57.9133555293083 2696.00009918213 19 22 13
101.030603051186 58.1056177616119 2704.99992370605 19 22 13
110.658250749111 59.3073889613152 2760.99991798401 19 22 13
118.835978209972 59.6283450722694 2776.00002288818 17 20 9
126.639723777771 59.7344115376472 2780.99989891052 14 17 10
135.097712278366 60.1196251809597 2799.00002479553 14 17 10
143.959358334541 60.6336109340191 2822.99995422363 11 14 7
154.240742325783 61.6629533469677 2871.00005149841 9 12 5
163.259223103523 62.1122680604458 2891.99995994568 9 12 5
172.21412062645 62.4970607459545 2910.00008583069 11 14 7
178.666353225708 61.979740858078 2885.99991798401 14 17 10
187.766298651695 62.3858235776424 2904.99997138977 12 15 8
194.207221269608 61.911329627037 2882.99989700317 12 15 8
202.069401741028 61.9092173874378 2882.99989700317 15 18 11
208.911344408989 61.6064108908176 2868.99995803833 16 19 12
219.377681612968 62.3556822538376 2904.00004386902 16 19 12
-32.7469706535339 52.0582087337971 2776.00002288818 10 12 7
-9.95258707553148 51.7775230109692 2760.99991798401 10 12 7
-2.41943448781967 51.9088581204414 2767.99988746643 10 12 7
12.7753186970949 52.2275604307652 2785.00008583069 14 16 11
20.15320956707 51.6460575163364 2753.99994850159 10 12 7
34.8353013396263 51.1204451322556 2726.0000705719 15 17 12
42.4026697874069 51.2701012194157 2733.99996757507 17 20 13
50.1047447323799 51.5134446322918 2746.99997901917 17 20 13
57.2904460132122 51.2316450476646 2732.00011253357 16 19 12
64.6309852600098 51.1372908949852 2726.99999809265 16 19 12
72.3404213786125 51.3241626322269 2736.99998855591 15 18 9
79.6667635440826 51.2296818196774 2732.00011253357 15 18 9
86.7422223091125 51.0038733482361 2720.00002861023 16 19 10
96.4868143200874 52.2593297064304 2786.99994087219 18 21 12
104.243740439415 52.3333810269833 2790.99988937378 19 22 13
112.302638590336 52.5386109948158 2802.00004577637 18 21 12
119.265288114548 52.2375144064426 2786.00001335144 16 19 8
126.231178641319 51.9738458096981 2772.0000743866 14 17 10
134.809464216232 52.3663535714149 2792.99998283386 14 17 10
143.960788846016 52.9275014996529 2822.99995422363 10 13 6
153.221547603607 53.4698106348515 2851.99999809265 8 11 4
163.994759321213 54.4619560241699 2904.99997138977 8 11 4
171.268939971924 54.254163056612 2894.00005340576 11 14 7
178.915798664093 54.1775338351727 2890.00010490417 14 17 10
184.536382555962 53.5197220742702 2855.00001907349 12 15 8
194.411277770996 54.0990680456162 2885.99991798401 13 16 9
201.650902628899 53.9285242557526 2877.00009346008 17 20 13
208.6221575737 53.7016876041889 2865.00000953674 16 19 12
215.451598167419 53.4560568630695 2851.99999809265 16 19 12
-32.7944494783878 44.5425473153591 2779.99997138977 15 17 12
-17.9101079702377 45.296024531126 2826.99990272522 3 5 0
-10.1509373635054 45.1198928058147 2815.99998474121 14 16 11
-2.43693799711764 44.6713119745255 2788.00010681152 11 13 8
5.18727814778686 44.7674281895161 2793.99991035461 14 16 11
12.7479089424014 44.5270203053951 2779.00004386902 13 15 10
20.3582886606455 44.5749536156654 2782.00006484985 10 12 7
28.1758867204189 44.9272505939007 2803.99990081787 10 12 7
35.653468221426 44.7026751935482 2789.99996185303 9 11 6
42.9458804428577 44.3658791482449 2769.00005340576 13 16 9
50.0869527459145 43.99698600173 2746.00005149841 17 20 13
57.0183321833611 43.5639508068562 2719.00010108948 18 21 14
64.8448690772057 43.8358336687088 2736.00006103516 18 21 14
72.578951716423 43.99548843503 2746.00005149841 20 23 14
79.8715874552727 43.8827164471149 2739.00008201599 19 22 13
87.2851386666298 43.8499934971333 2736.99998855591 17 20 11
96.2799414992332 44.5541664958 2780.99989891052 16 19 10
105.02902418375 45.0499951839447 2812.00003623962 16 19 10
109.898842871189 43.927688151598 2742.00010299683 15 18 9
118.281714618206 44.2631877958775 2763.00001144409 13 16 5
127.689495682716 44.9190028011799 2803.99990081787 14 17 10
134.858936071396 44.7577498853207 2793.99991035461 15 18 11
145.389959216118 45.6697084009647 2851.0000705719 11 14 7
152.148380875587 45.3641526401043 2832.00001716614 10 13 6
162.133231759071 46.0036210715771 2871.99997901917 10 13 6
170.441910624504 46.1304299533367 2880.00011444092 7 10 3
177.555337548256 45.9368228912354 2868.00003051758 7 10 3
185.895308852196 46.0635051131248 2875.99992752075 15 18 11
194.412976503372 46.2221540510654 2885.99991798401 15 18 11
201.021790504456 45.932300388813 2868.00003051758 14 17 10
208.478301763535 45.8505973219872 2862.99991607666 16 19 12
219.381764531136 46.5055070817471 2904.00004386902 14 17 10
230.429634451866 47.1442863345146 2944.00000572205 24 27 20
-34.4580262899399 38.8258583843708 2921.0000038147 0 1 0
-25.8019994944334 37.8291644155979 2845.99995613098 10 12 7
-17.7518576383591 37.2444614768028 2802.00004577637 9 11 6
-10.169037617743 37.4971032142639 2821.00009918213 13 15 10
-2.44394852779806 37.1648408472538 2796.0000038147 5 7 2
12.725068256259 36.8723459541798 2773.9999294281 12 14 9
20.54138854146 37.3108685016632 2806.99992179871 11 13 8
27.9851779341698 37.018284201622 2785.00008583069 11 13 8
42.9462008178234 36.8051268160343 2769.00005340576 13 16 9
50.1055642962456 36.5123897790909 2746.99997901917 17 20 13
57.375255972147 36.3658219575882 2736.00006103516 18 21 14
64.7979453206062 36.3388210535049 2733.99996757507 17 20 13
72.3680332303047 36.391519010067 2737.99991607666 19 22 13
79.6388909220696 36.297969520092 2730.99994659424 19 22 13
86.360938847065 35.9917171299458 2707.99994468689 17 20 11
94.6188569068909 36.3233722746372 2733.00004005432 16 19 10
101.556204259396 36.1366458237171 2719.00010108948 15 18 9
111.983828246593 37.1326990425587 2793.99991035461 15 18 9
118.239797651768 36.7066487669945 2762.00008392334 14 17 6
127.644911408424 37.2506938874722 2802.99997329712 13 16 9
136.549293994904 37.5953353941441 2828.9999961853 14 17 10
142.994195222855 37.2621715068817 2803.99990081787 11 14 7
152.79421210289 37.7927348017693 2844.00010108948 10 13 6
162.247344851494 38.1903387606144 2874.00007247925 10 13 6
170.857444405556 38.3619703352451 2887.00008392334 8 11 4
178.361460566521 38.2810831069946 2881.00004196167 9 12 5
186.413794755936 38.3197404444218 2884.0000629425 14 17 10
194.683834910393 38.3981987833977 2890.00010490417 15 18 11
207.023441791534 37.7710983157158 2842.99993515015 16 19 12
218.250140547752 38.3808314800262 2888.99993896484 24 27 20
229.883417487144 39.0170402824879 2937.00003623962 23 26 19
-33.8684022426605 30.3217675536871 2871.00005149841 9 11 6
-25.6571006029844 29.8889093101025 2829.99992370605 8 10 5
-9.8771108314395 28.938565403223 2740.00000953674 13 15 10
5.07038319483399 28.8435369729996 2730.99994659424 11 13 8
12.7113834023476 29.2659476399422 2770.99990844727 11 13 8
20.3439276665449 29.3609127402306 2779.99997138977 10 12 7
35.3472530841827 29.2127523571253 2766.00003242493 11 13 8
42.6517762243748 29.04356084764 2750 11 14 7
50.0329099595547 28.9693810045719 2743.00003051758 14 17 10
57.1029894053936 28.7578720599413 2723.00004959106 16 19 12
64.5613297820091 28.7681017071009 2723.99997711182 17 20 13
72.024866938591 28.7782941013575 2724.99990463257 18 21 12
79.5810520648956 28.8201309740543 2729.00009155273 19 22 13
86.6484865546227 28.6929588764906 2717.00000762939 17 20 11
93.7538966536522 28.597429394722 2707.99994468689 15 18 9
102.079726755619 28.8609117269516 2733.00004005432 15 18 9
109.820157289505 28.9342626929283 2740.00000953674 16 19 10
118.582971394062 29.2504467070103 2769.99998092651 15 18 7
128.283232450485 29.7460909932852 2816.99991226196 11 14 7
136.743173003197 29.9143344163895 2832.99994468689 13 16 9
143.250033259392 29.6601708978415 2809.00001525879 11 14 7
153.708443045616 30.2084423601627 2861.00006103516 10 13 6
163.038656115532 30.4926838725805 2888.00001144409 11 14 7
171.687006950378 30.6290555745363 2901.00002288818 10 13 6
179.600715637207 30.6281261146069 2901.00002288818 11 14 7
187.836900353432 30.6799449026585 2905.99989891052 11 14 7
195.358633995056 30.6155942380428 2900.00009536743 13 16 9
200.603902339935 30.2133951336145 2861.99998855591 18 21 14
210.228726267815 30.4762348532677 2887.00008392334 20 23 16
218.553632497787 30.5384509265423 2892.99988746643 21 24 17
230.197846889496 31.0439579188824 2940.99998474121 21 24 17
-25.5030933767557 22.0280755311251 2812.99996376038 14 16 11
-17.8470797836781 22.0594853162766 2816.99991226196 14 16 11
-2.3871585726738 21.3861111551523 2730.99994659424 12 14 9
5.10011240839958 21.5114001184702 2746.99997901917 12 14 9
12.6563962548971 21.6053351759911 2759.0000629425 11 13 8
20.4025693237782 21.8323655426502 2788.00010681152 10 12 7
34.900140017271 21.3857851922512 2730.99994659424 10 12 7
42.4038209021091 21.4091222733259 2733.99996757507 9 12 5
49.8689785599709 21.4089378714561 2733.99996757507 12 15 8
57.1451932191849 21.3382486253977 2724.99990463257 15 18 11
64.4668340682983 21.2988555431366 2720.00002861023 18 21 14
72.1044987440109 21.3612243533134 2727.9999256134 18 21 12
79.5814320445061 21.3687531650066 2729.00009155273 18 21 12
88.0202203989029 21.6111540794373 2759.99999046326 16 19 10
96.247062087059 21.7673890292645 2779.99997138977 15 18 9
102.976612746716 21.5869024395943 2756.99996948242 16 19 10
110.822685062885 21.6491185128689 2765.00010490417 16 19 10
118.112616240978 21.6016862541437 2759.0000629425 14 17 6
128.37490439415 22.0709647983313 2819.00000572205 11 14 7
136.454209685326 22.1330747008324 2826.99990272522 13 16 9
145.545572042465 22.3439056426287 2854.00009155273 11 14 7
153.977796435356 22.437259554863 2865.9999370575 10 13 6
162.757143378258 22.5697252899408 2882.99989700317 11 14 7
171.806156635284 22.7256361395121 2903.00011634827 10 13 6
179.663449525833 22.7171201258898 2901.99995040894 10 13 6
188.290253281593 22.8025112301111 2913.00010681152 10 13 6
197.91941344738 22.997448220849 2937.99996376038 12 15 8
205.300986766815 22.9262169450521 2928.99990081787 20 23 16
212.559878826141 22.8471346199512 2918.99991035461 22 25 18
222.180843353271 23.0184849351645 2940.99998474121 23 26 19
231.529504060745 23.1506582349539 2957.99994468689 30 33 26
-10.2881388738751 14.5558966323733 2854.00009155273 13 15 10
-2.47894716449082 14.4641101360321 2835.99996566772 14 16 11
5.24494610726833 14.4080044701695 2825.00004768372 10 12 7
12.6839624717832 14.1019709408283 2765.00010490417 10 12 7
34.8363630473614 13.9028774574399 2726.0000705719 11 13 8
42.1713143587112 13.8670774176717 2719.00010108948 11 14 7
49.9056279659271 13.9536578208208 2736.00006103516 13 16 9
57.2292730212212 13.9178186655045 2729.00009155273 15 18 11
64.9173632264137 13.9686586335301 2739.00008201599 18 21 14
72.0518752932549 13.9021817594767 2726.0000705719 17 20 11
80.281563103199 14.0396784991026 2753.00002098084 14 17 8
87.9886150360107 14.0700591728091 2759.0000629425 15 18 9
96.3858664035797 14.1973113641143 2783.99991989136 16 19 10
104.209549725056 14.2276491969824 2789.99996185303 19 22 13
111.584581434727 14.1967730596662 2783.99991989136 17 20 11
119.654171168804 14.2525685951114 2795.00007629395 13 16 5
126.826986670494 14.2012573778629 2785.00008583069 11 14 7
136.695981025696 14.4405765458941 2832.00001716614 14 17 10
145.138055086136 14.5116001367569 2845.99995613098 12 15 8
153.441026806831 14.5622044801712 2855.99994659424 9 12 5
163.378670811653 14.7555535659194 2894.00005340576 10 13 6
170.682236552238 14.7041380405426 2884.0000629425 10 13 6
180.902242660522 14.8974312469363 2921.99993133545 10 13 6
192.427694797516 15.1773616671562 2976.99999809265 11 14 7
198.526337742805 15.0239216163754 2947.00002670288 12 15 8
205.511942505836 14.9469403550029 2931.99992179871 19 22 15
234.19152200222 15.2511326596141 2992.00010299683 31 34 27
-25.9837359189987 6.79083727300167 2865.9999370575 10 12 7
-18.4300430119038 6.89275050535798 2908.99991989136 16 18 13
-10.2881584316492 6.76244823262095 2854.00009155273 12 14 9
-2.44398787617683 6.62502693012357 2796.0000038147 14 16 11
5.20968018099666 6.64872024208307 2805.99999427795 9 11 6
12.8720663487911 6.64870906621218 2805.99999427795 9 11 6
20.2124062925577 6.54443260282278 2762.00008392334 10 12 7
27.6439674198627 6.51833927258849 2750.99992752075 11 13 8
42.636688798666 6.51351548731327 2749.00007247925 13 16 9
57.33422935009 6.47785328328609 2733.99996757507 16 19 12
64.9885907769203 6.49673445150256 2742.00010299683 18 21 14
72.5277811288834 6.50138966739178 2743.99995803833 16 19 10
79.8734575510025 6.48945150896907 2739.00008201599 13 16 7
88.4033814072609 6.56753592193127 2772.0000743866 14 17 8
96.6284051537514 6.61243917420506 2790.99988937378 16 19 10
103.948295116425 6.59336522221565 2782.99999237061 20 23 14
112.105838954449 6.62640295922756 2796.99993133545 18 21 12
119.226299226284 6.59783603623509 2785.00008583069 12 15 6
128.147855401039 6.66638882830739 2813.99989128113 12 15 8
136.261820793152 6.68755127117038 2822.99995422363 15 18 11
145.138323307037 6.74186879768968 2845.99995613098 12 15 8
154.784470796585 6.82460051029921 2881.00004196167 9 12 5
162.419259548187 6.814937107265 2877.00009346008 9 12 5
172.635585069656 6.90948637202382 2917.00005531311 9 12 5
179.292902350426 6.85953581705689 2895.99990844727 12 15 8
190.488919615746 6.98011554777622 2947.00002670288 15 18 11
197.785675525665 6.95383222773671 2936.00010871887 14 17 10
203.479662537575 6.87543815001845 2903.00011634827 16 19 12
210.740461945534 6.85387896373868 2894.00005340576 22 25 18
234.035402536392 7.08070723339915 2990.00000953674 28 31 24
-25.9293522685766 -1.03318912442774 2859.99989509583 11 13 8
-18.3223467320204 -1.04475335683674 2891.99995994568 11 13 8
-2.4334997870028 -1.00574141833931 2783.99991989136 10 12 7
5.19111612811685 -1.01007625926286 2796.0000038147 8 10 5
12.9087707027793 -1.01657712366432 2813.99989128113 9 11 6
20.3148704022169 -1.00284640211612 2776.00002288818 10 12 7
27.804758399725 -0.999590614810586 2766.99995994568 11 13 8
35.258162766695 -0.996694783680141 2759.0000629425 12 14 9
42.2489680349827 -0.984043814241886 2723.99997711182 12 15 8
50.0516667962074 -0.991260167211294 2743.99995803833 19 22 15
57.5020313262939 -0.990527914837003 2742.00010299683 19 22 15
65.2256458997726 -0.994128989987075 2752.00009346008 12 15 8
72.6864039897919 -0.993393710814416 2750 12 15 8
80.7775110006332 -1.00060435943305 2769.99998092651 12 15 8
88.9136865735054 -1.00709078833461 2788.00010681152 16 19 12
97.3901301622391 -1.01610412821174 2812.99996376038 17 20 13
104.844771325588 -1.01391831412911 2806.99992179871 17 20 13
111.62494122982 -1.0059520136565 2785.00008583069 15 18 11
118.96950006485 -1.00376363843679 2779.00004386902 12 15 8
127.146065235138 -1.00843654945493 2792.00005531311 14 17 10
137.178987264633 -1.02647161111236 2842.00000762939 16 18 13
146.464332938194 -1.03728100657463 2871.99997901917 11 13 8
156.6112190485 -1.05278368573636 2914.99996185303 9 12 5
165.975958108902 -1.06178328860551 2940.00005722046 12 15 8
171.866297721863 -1.04875140823424 2904.00004386902 12 15 8
180.283561348915 -1.05160858947784 2911.99994087219 13 14 8
189.131617546082 -1.05663109570742 2926.00011825562 14 15 7
197.381615638733 -1.05804076883942 2930.0000667572 15 16 8
203.900292515755 -1.05042161885649 2908.99991989136 15 16 8
211.250305175781 -1.04749563615769 2901.00002288818 17 18 10
222.786411643028 -1.06478843372315 2948.99988174438 18 19 11
231.530800461769 -1.06799765489995 2957.99994468689 25 28 19
-33.9159071445465 -8.88932682573795 2875 211 213 208
-26.0743871331215 -8.89246631413698 2875.99992752075 14 16 11
-18.125930801034 -8.84612184017897 2861.00006103516 10 12 7
-10.0971003994346 -8.66062566637993 2801.00011825562 0 2 0
5.11313369497657 -8.5153104737401 2753.99994850159 11 13 8
12.8491260111332 -8.66061914712191 2801.00011825562 10 12 7
20.3514397144318 -8.59875231981277 2780.99989891052 10 12 7
27.8851259499788 -8.58016312122345 2775.00009536743 11 13 8
35.0920036435127 -8.49044788628817 2746.00005149841 13 15 10
42.2954559326172 -8.4316385909915 2726.99999809265 17 20 13
50.1428283751011 -8.49958788603544 2749.00007247925 18 21 14
58.2149848341942 -8.58298316597939 2776.00002288818 16 19 12
65.6521990895271 -8.56433343142271 2769.99998092651 12 15 8
73.373556137085 -8.58277548104525 2776.00002288818 14 17 10
81.6814452409744 -8.65994673222303 2801.00011825562 16 19 12
90.0616943836212 -8.73092096298933 2823.99988174438 17 20 13
97.3900482058525 -8.69676563888788 2812.99996376038 18 21 14
104.657910764217 -8.66259913891554 2802.00004577637 17 20 13
112.426459789276 -8.67170467972755 2805.0000667572 16 19 12
118.926577270031 -8.58805235475302 2778.00011634827 13 16 9
126.963809132576 -8.61877482384443 2788.00010681152 14 16 11
137.516751885414 -8.80713947117329 2848.99997711182 15 17 12
147.025167942047 -8.91202036291361 2882.99989700317 10 12 7
158.222869038582 -9.10343788564205 2944.9999332428 10 13 6
167.217805981636 -9.15573444217443 2961.99989318848 11 14 7
173.168167471886 -9.04419366270304 2926.00011825562 11 14 7
180.283412337303 -9.00064688175917 2911.99994087219 12 13 7
188.872888684273 -9.03127063065767 2921.99993133545 14 15 7
196.168825030327 -9.00006480515003 2911.99994087219 15 16 8
203.479573130608 -8.97194352000952 2903.00011634827 16 17 9
212.997794151306 -9.03961528092623 2924.99995231628 18 19 11
221.275299787521 -9.05164517462254 2928.99990081787 19 22 15
230.513036251068 -9.10074450075626 2944.9999332428 19 24 17
-26.028998196125 -16.7168136686087 2871.00005149841 14 16 11
-10.0898668169975 -16.2976887077093 2799.00002479553 19 21 16
-2.3810463026166 -15.8610045909882 2723.99997711182 11 13 8
5.15211140736938 -16.1579586565495 2775.00009536743 11 13 8
12.6747786998749 -16.0880591720343 2763.00001144409 10 12 7
20.1538074761629 -16.0356052219868 2753.99994850159 11 13 8
27.2419489920139 -15.7851614058018 2710.99996566772 15 17 12
34.3890599906445 -15.6686175614595 2690.99998474121 16 18 13
41.9851616024971 -15.7616641372442 2707.00001716614 19 22 15
50.6352037191391 -16.163282096386 2776.00002288818 17 20 13
57.5857348740101 -15.9884486347437 2746.00005149841 14 17 10
66.291980445385 -16.2852052599192 2796.99993133545 13 16 9
73.5319778323174 -16.1976628005505 2782.00006484985 15 18 11
81.0980275273323 -16.1916110664606 2780.99989891052 17 20 13
89.359886944294 -16.3136254996061 2802.00004577637 17 20 13
96.212700009346 -16.1794424057007 2779.00004386902 18 21 14
106.450520455837 -16.5925025939941 2849.99990463257 17 20 13
112.706765532494 -16.3709484040737 2812.00003623962 16 19 12
119.868136942387 -16.3007453083992 2799.99995231628 14 17 10
127.145662903786 -16.2538085132837 2792.00005531311 15 17 12
137.371644377708 -16.5677778422832 2845.99995613098 14 16 11
148.401767015457 -16.939926892519 2910.00008583069 10 12 7
156.127199530602 -16.9161949306726 2905.99989891052 10 13 6
163.265645503998 -16.8342348188162 2891.99995994568 11 14 7
170.741274952888 -16.7929995805025 2884.99999046326 11 14 7
178.673341870308 -16.7983118444681 2885.99991798401 12 13 7
187.062606215477 -16.8443452566862 2894.00005340576 14 15 7
196.5052485466 -16.9776566326618 2917.00005531311 15 16 8
205.231428146362 -17.0410964637995 2927.99997329712 16 17 9
213.725537061691 -17.08123087883 2934.99994277954 18 19 11
224.598869681358 -17.3017513006926 2973.00004959106 19 22 13
232.156276702881 -17.2603577375412 2966.00008010864 25 30 23
-18.2778742164373 -24.6763937175274 2884.99999046326 15 18 11
-10.0970389321446 -23.9579752087593 2801.00011825562 2 5 0
-2.4264904204756 -23.7441658973694 2776.00002288818 8 11 4
5.14095276594162 -23.6842874437571 2769.00005340576 9 12 5
12.6976668834686 -23.6756931990385 2767.99988746643 12 15 8
20.2781390398741 -23.7012822180986 2770.99990844727 15 18 11
34.4144962728024 -23.0338852852583 2693.00007820129 21 24 17
42.2952026128769 -23.3245268464088 2726.99999809265 17 20 13
50.3796562552452 -23.6236862838268 2762.00008392334 15 18 11
59.2631734907627 -24.1708420217037 2825.99997520447 14 17 10
66.2443339824677 -23.9054244011641 2795.00007629395 15 18 11
73.7167298793793 -23.8538030534983 2789.00003433228 16 19 12
81.1852067708969 -23.8106995820999 2783.99991989136 17 20 13
88.5622650384903 -23.7504635006189 2776.99995040894 17 20 13
98.393477499485 -24.3059694766998 2842.00000762939 17 20 13
105.665773153305 -24.1943448781967 2828.9999961853 16 19 12
114.189319312572 -24.3649128824472 2848.99997711182 15 18 11
120.424218475819 -24.0565314888954 2812.99996376038 14 17 10
128.147080540657 -24.0645464509726 2813.99989128113 16 18 13
139.253616333008 -24.671133607626 2884.99999046326 11 13 8
149.472177028656 -25.0638779252768 2930.99999427795 9 11 6
155.535668134689 -24.7553791850805 2894.99998092651 11 14 7
161.57141327858 -24.4725123047829 2861.99998855591 9 12 5
172.812059521675 -24.9677393585444 2920.00007629395 10 13 6
177.434489130974 -24.5052631944418 2865.9999370575 13 14 8
187.514394521713 -24.8037427663803 2901.00002288818 13 14 6
194.955125451088 -24.743078276515 2894.00005340576 13 14 6
205.230683088303 -25.0329151749611 2927.99997329712 14 15 7
216.200634837151 -25.3825467079878 2969.00010108948 15 16 8
224.144801497459 -25.3645181655884 2967.00000762939 16 19 12
234.581872820854 -25.6200097501278 2996.99997901917 25 30 26
-18.3791480958462 -32.7348299324512 2901.00002288818 3 6 0
-10.2267600595951 -32.0127382874489 2836.99989318848 12 15 8
-2.46668630279601 -31.843513250351 2822.00002670288 9 12 5
5.21147670224309 -31.6742435097694 2806.99992179871 9 12 5
12.7343013882637 -31.3243865966797 2776.00002288818 12 15 8
20.5122120678425 -31.6289626061916 2802.99997329712 17 20 13
34.9766053259373 -30.8839026838541 2736.99998855591 21 24 17
43.7218844890594 -31.8089500069618 2819.00000572205 14 17 10
51.181972026825 -31.6619873046875 2805.99999427795 14 17 10
58.6757026612759 -31.5713994204998 2798.00009727478 14 17 10
66.2913993000984 -31.5597578883171 2796.99993133545 16 19 12
73.9278048276901 -31.5593518316746 2796.99993133545 16 19 12
81.534743309021 -31.5476208925247 2796.0000038147 16 19 12
90.2201756834984 -31.9194719195366 2828.9999961853 17 20 13
97.3197370767593 -31.7158401012421 2811.00010871887 16 19 12
106.673710048199 -32.2229787707329 2855.99994659424 15 18 11
114.589557051659 -32.2561897337437 2858.99996757507 15 18 11
122.350059449673 -32.2442315518856 2858.00004005432 14 17 10
129.740282893181 -32.1419723331928 2848.99997711182 16 18 13
138.866782188416 -32.4571020901203 2877.00009346008 11 13 8
149.981394410133 -33.1782922148705 2940.99998474121 7 9 4
169.191882014275 -33.8082164525986 2996.99997901917 10 13 6
171.568378806114 -32.7017605304718 2898.9999294281 10 13 6
184.924706816673 -33.6934104561806 2986.99998855591 12 13 7
189.452588558197 -33.0606885254383 2930.99999427795 13 14 6
216.199576854706 -33.4858857095242 2969.00010108948 14 15 7
226.258963346481 -33.7778851389885 2994.99988555908 14 17 10
232.937037944794 -33.5623286664486 2976.0000705719 14 18 17
-18.3220095932484 -40.5301451683044 2891.99995994568 39 42 35
-10.6592644006014 -41.441198438406 2957.00001716614 16 19 12
-2.54883454181254 -40.8666431903839 2915.99988937378 7 10 3
5.21701341494918 -39.3810831010342 2809.99994277954 11 14 7
12.8534873947501 -39.2689034342766 2802.00004577637 14 17 10
20.4462185502052 -39.1566678881645 2793.99991035461 19 22 15
28.2564330846071 -39.4087545573711 2812.00003623962 19 22 15
43.1167297065258 -38.9597862958908 2779.99997138977 11 14 7
50.2878688275814 -38.6371202766895 2756.99996948242 14 17 10
58.2139678299427 -38.9029979705811 2776.00002288818 16 19 12
66.338375210762 -39.2248779535294 2799.00002479553 15 18 11
74.4295194745064 -39.462611079216 2815.99998474121 14 17 10
82.0882767438889 -39.4480377435684 2815.00005722046 12 15 8
89.5498767495155 -39.3493324518204 2808.00008773804 18 21 14
97.4922105669975 -39.4607707858086 2815.99998474121 19 22 15
105.739273130894 -39.6702438592911 2831.00008964539 9 12 5
113.867379724979 -39.809588342905 2841.00008010864 11 14 7
122.606128454208 -40.1310361921787 2864.00008201599 16 19 12
130.695760250092 -40.2142107486725 2869.99988555908 10 12 7
149.980440735817 -41.2070490419865 2940.99998474121 9 11 6
159.348383545876 -41.5562428534031 2966.00008010864 10 13 6
165.351957082748 -41.0366989672184 2928.99990081787 12 15 8
175.414085388184 -41.5258631110191 2963.99998664856 14 17 10
184.490174055099 -41.7487621307373 2980.00001907349 11 12 6
188.740387558937 -40.9068912267685 2920.00007629395 16 17 9
196.63704931736 -40.8915393054485 2918.99991035461 16 17 9
205.228388309479 -41.0162173211575 2927.99997329712 12 13 5
213.212639093399 -41.0147644579411 2927.99997329712 13 14 6
223.009094595909 -41.349433362484 2951.99990272522 14 15 9
-10.4465018957853 -48.5274344682693 2898.00000190735 9 12 5
-2.54619214683771 -48.7786717712879 2913.00010681152 12 15 8
20.5558259040117 -47.0369420945644 2809.00001525879 18 21 14
28.0753374099731 -46.7855520546436 2793.99991035461 16 19 12
35.7045009732246 -46.7852801084518 2793.99991035461 14 17 10
43.3335229754448 -46.7849485576153 2793.99991035461 12 15 8
50.196286290884 -46.0812747478485 2752.00009346008 15 18 11
57.877991348505 -46.2147668004036 2759.99999046326 16 19 12
66.4563551545143 -46.9509847462177 2803.99990081787 15 18 11
74.9046877026558 -47.4527105689049 2834.00011062622 14 17 10
81.4460888504982 -46.76553606987 2792.99998283386 13 16 9
88.9113619923592 -46.6810986399651 2788.00010681152 17 20 13
104.132384061813 -46.6794557869434 2788.00010681152 10 13 6
113.706171512604 -47.4989302456379 2836.99989318848 14 17 10
122.348323464394 -47.849528491497 2858.00004005432 17 20 13
131.377831101418 -48.3004935085773 2884.99999046326 10 12 7
140.457630157471 -48.7178824841976 2910.00008583069 10 12 7
149.622321128845 -49.1184554994106 2934.00001525879 11 13 8
156.875818967819 -48.8827973604202 2920.00007629395 11 14 7
164.899080991745 -48.8981828093529 2921.0000038147 12 15 8
171.980246901512 -48.6456677317619 2905.99989891052 13 16 9
179.721772670746 -48.5939830541611 2903.00011634827 13 14 8
188.997492194176 -48.9439591765404 2924.00002479553 13 14 6
194.816723465919 -48.4067350625992 2891.99995994568 12 13 5
203.544646501541 -48.6059300601482 2904.00004386902 14 15 7
212.264388799667 -48.7883128225803 2914.99996185303 16 17 9
-2.4989687371999 -55.6808523833752 2858.99996757507 16 19 10
5.19278831779957 -54.4733516871929 2796.99993133545 18 21 12
12.8119820728898 -54.395355284214 2792.99998283386 19 22 13
20.3580558300018 -54.1809648275375 2782.00006484985 15 18 9
28.2760467380285 -54.8039376735687 2813.99989128113 13 16 7
35.8958579599857 -54.7062419354916 2809.00001525879 13 16 7
43.5812696814537 -54.72531914711 2809.99994277954 16 19 12
51.2719601392746 -54.7443255782127 2811.00010871887 15 18 11
58.4226734936237 -54.256908595562 2786.00001335144 14 17 10
66.7164549231529 -54.8210553824902 2815.00005722046 14 17 10
74.3225291371346 -54.7619350254536 2812.00003623962 14 17 10
81.2120586633682 -54.2353615164757 2785.00008583069 14 17 10
88.5916501283646 -54.0982037782669 2778.00011634827 11 14 7
95.7249253988266 -53.8441315293312 2765.00010490417 8 11 4
114.105917513371 -55.4388575255871 2846.99988365173 17 20 13
122.90370464325 -55.9050291776657 2871.00005149841 17 20 13
131.331086158752 -56.1569184064865 2884.0000629425 10 12 7
140.649423003197 -56.7397400736809 2914.00003433228 11 13 8
147.734120488167 -56.4073137938976 2897.0000743866 12 14 9
156.605750322342 -56.7562952637672 2914.99996185303 13 16 9
164.389505982399 -56.6963218152523 2911.99994087219 13 16 9
169.552281498909 -55.7796210050583 2865.00000953674 13 16 9
176.686629652977 -55.5637776851654 2854.00009155273 13 14 8
182.984620332718 -55.1142580807209 2831.00008964539 13 14 6
203.052192926407 -56.3953816890717 2897.0000743866 18 19 11
209.42260324955 -55.9845939278603 2875.99992752075 19 20 12
5.25956880301237 -62.9096701741219 2832.99994468689 17 20 11
12.6696461811662 -61.3329447805882 2762.00008392334 12 15 6
20.4090625047684 -61.9323179125786 2789.00003433228 13 16 7
28.1149726361036 -62.1318928897381 2798.00009727478 15 18 9
36.1638329923153 -62.8421157598495 2829.99992370605 14 17 8
43.9375191926956 -62.9082769155502 2832.99994468689 15 18 11
51.4173358678818 -62.5968649983406 2819.00000572205 14 17 10
59.030182659626 -62.5074207782745 2815.00005722046 13 16 9
66.1943480372429 -62.0182007551193 2792.99998283386 13 16 9
73.8724321126938 -62.0618239045143 2795.00007629395 13 16 9
81.502802670002 -62.0609447360039 2795.00007629395 13 16 9
88.0485698580742 -61.3050423562527 2760.99991798401 10 13 6
95.4123362898827 -61.1930005252361 2756.00004196167 9 12 5
117.431282997131 -65.0539547204971 2930.0000667572 20 23 16
124.315090477467 -64.4753351807594 2904.00004386902 12 15 8
131.193101406097 -63.9632567763329 2881.00004196167 6 8 3
149.823352694511 -65.2255862951279 2937.99996376038 11 13 8
156.926468014717 -64.846470952034 2921.0000038147 13 16 9
165.855526924133 -65.2220696210861 2937.99996376038 14 17 10
168.189361691475 -63.089095056057 2842.00000762939 14 17 10
176.065728068352 -63.1315931677818 2844.00010108948 17 18 12
180.526569485664 -61.9975216686726 2792.99998283386 18 19 11
197.979003190994 -65.2362182736397 2938.99989128113 20 21 13
201.087579131126 -63.6802762746811 2868.99995803833 19 20 12
-17.6497548818588 -69.4723576307297 2786.00001335144 19 22 13
-10.265938937664 -71.0185915231705 2848.00004959106 20 23 14
-2.49891215935349 -71.2929740548134 2858.99996757507 24 27 18
5.20566664636135 -69.9214488267899 2803.99990081787 15 18 9
12.7474730834365 -69.2979320883751 2779.00004386902 9 12 3
20.2770996838808 -69.0982341766357 2770.99990844727 13 16 7
28.2151196151972 -70.0205639004707 2808.00008773804 15 18 9
36.2911783158779 -70.8181038498878 2839.99991416931 14 17 8
43.9524985849857 -70.6679821014404 2834.00011062622 14 17 10
51.398478448391 -70.2684074640274 2818.00007820129 13 16 9
58.2745708525181 -69.2952275276184 2779.00004386902 12 15 8
66.6912421584129 -70.1671615242958 2813.99989128113 12 15 8
73.9772543311119 -69.7922483086586 2799.00002479553 13 16 9
81.181064248085 -69.4172456860542 2783.99991989136 11 14 7
87.4097272753716 -68.3440119028091 2740.9999370575 10 13 6
95.4804271459579 -68.7667354941368 2757.99989700317 13 16 9
104.801371693611 -69.9622705578804 2805.99999427795 21 24 17
115.06525427103 -71.5815275907516 2871.00005149841 16 19 12
125.42662024498 -73.0510130524635 2930.0000667572 7 10 3
132.238879799843 -72.4011659622192 2904.00004386902 5 7 2
141.708120703697 -73.19725304842 2936.00010871887 6 8 3
160.255447030067 -74.3652060627937 2983.00004005432 11 14 7
167.829379439354 -74.1138607263565 2973.00004959106 12 15 8
172.80338704586 -72.7905258536339 2920.00007629395 13 16 9
189.444050192833 -73.0602219700813 2930.99999427795 15 16 8
201.996386051178 -71.8340054154396 2881.99996948242 14 15 7
-17.7001990377903 -77.299989759922 2793.99991035461 26 29 20
-10.1973135024309 -78.2685130834579 2828.9999961853 15 18 9
-2.49625649303198 -79.0156051516533 2855.99994659424 13 16 7
5.32998144626617 -79.4305726885796 2871.00005149841 13 16 7
12.8298681229353 -77.3831307888031 2796.99993133545 13 16 7
20.5695275217295 -77.7702182531357 2811.00010871887 12 15 6
28.1142592430115 -77.4102210998535 2798.00009727478 12 15 6
36.0351242125034 -78.0184119939804 2819.9999332428 12 15 6
43.5176678001881 -77.6305347681046 2805.99999427795 10 13 6
50.9053282439709 -77.2148817777634 2790.99988937378 11 14 7
58.1270046532154 -76.6884759068489 2772.0000743866 12 15 8
66.2637650966644 -77.3515626788139 2796.0000038147 12 15 8
74.6105760335922 -78.0975222587585 2822.99995422363 12 15 8
82.0547640323639 -77.8474435210228 2813.99989128113 11 14 7
89.2900228500366 -77.4589404463768 2799.99995231628 15 18 11
96.9331562519073 -77.4576440453529 2799.99995231628 20 23 16
105.248153209686 -77.9541656374931 2818.00007820129 14 17 10
151.655375957489 -82.2604298591614 2973.99997711182 6 8 3
162.939429283142 -83.8901698589325 3032.99999237061 6 9 2
169.012635946274 -82.809180021286 2993.99995803833 6 9 2
175.760045647621 -82.1430087089539 2970.00002861023 8 11 4
180.023342370987 -80.4258063435555 2907.99999237061 10 11 5
186.662316322327 -79.8701643943787 2888.00001144409 16 17 11
-25.3922548145056 -85.1402506232262 2801.00011825562 23 26 19
-17.5732374191284 -84.3198746442795 2773.9999294281 19 22 15
-10.1394904777408 -85.5055525898933 2812.99996376038 16 19 12
-2.49884137883782 -86.9038924574852 2858.99996757507 13 16 9
5.33175887539983 -87.2990265488625 2871.99997901917 11 14 7
12.9351792857051 -85.7182666659355 2819.9999332428 10 13 6
20.5106846988201 -85.2012634277344 2802.99997329712 10 13 6
28.5157579928637 -86.2647667527199 2838.00005912781 10 13 6
36.0473729670048 -85.7475250959396 2821.00009918213 10 13 6
43.3309189975262 -84.9262177944183 2793.99991035461 9 12 3
51.0869696736336 -85.1382613182068 2801.00011825562 10 13 4
58.7761886417866 -85.1982086896896 2802.99997329712 11 14 5
65.4096156358719 -83.8902518153191 2759.99999046326 12 15 6
74.2923393845558 -85.4393169283867 2811.00010871887 12 15 8
81.9077715277672 -85.3773280978203 2809.00001525879 13 16 9
89.8946076631546 -85.6799408793449 2819.00000572205 20 23 16
99.5281264185905 -87.3805209994316 2875 19 22 15
150.429338216782 -89.6484181284904 2950.00004768372 7 9 4
160.519599914551 -90.800829231739 2987.99991607666 7 9 4
168.44567656517 -90.6767770648003 2983.99996757507 7 9 4
175.284057855606 -90.0056511163712 2961.99989318848 6 8 3
200.126782059669 -90.2706235647202 2970.99995613098 14 17 10
210.821822285652 -91.3917273283005 3007.99989700317 17 19 14
-25.3374520689249 -92.5880298018456 2795.00007629395 16 19 12
-17.186526209116 -89.8720249533653 2713.00005912781 14 17 10
-9.98433493077755 -91.7604640126228 2769.99998092651 11 14 7
-2.50754132866859 -95.0400978326797 2868.99995803833 9 12 5
5.21657383069396 -93.0856093764305 2809.99994277954 10 13 6
12.9395565018058 -93.4498459100723 2821.00009918213 9 12 5
20.7518246024847 -93.9464643597603 2835.99996566772 9 12 5
28.3545348793268 -93.4822857379913 2822.00002670288 10 13 6
35.8423441648483 -92.9185971617699 2805.0000667572 10 13 6
43.7489487230778 -93.4479460120201 2821.00009918213 14 17 8
51.4873936772347 -93.5133919119835 2822.99995422363 12 15 6
59.509139508009 -94.0093398094177 2838.00005912781 12 15 6
65.4796585440636 -91.5239080786705 2763.00001144409 16 19 10
72.9697048664093 -91.4565026760101 2760.99991798401 19 22 15
82.7812105417252 -94.0388888120651 2838.99998664856 20 23 16
89.3829390406609 -92.8449854254723 2802.99997329712 18 21 14
109.465181827545 -97.0813855528831 2930.99999427795 10 13 6
127.604201436043 -98.733514547348 2980.99994659424 7 9 4
143.149822950363 -98.2322096824646 2966.00008010864 9 11 6
150.528937578201 -97.7661088109016 2951.99990272522 10 12 7
158.421948552132 -97.6641923189163 2948.99988174438 10 12 7
168.386563658714 -98.7874791026115 2983.00004005432 10 12 7
183.484554290771 -98.1524810194969 2963.99998664856 7 9 4
190.469980239868 -97.5864604115486 2947.00002670288 6 8 3
198.911175131798 -97.7819487452507 2953.00006866455 6 8 3
205.562070012093 -97.1163958311081 2933.00008773804 13 15 10
210.428431630135 -95.6892371177673 2890.00010490417 17 19 14
-17.8957190364599 -101.29389166832 2825.00004768372 14 17 10
-2.44719162583351 -100.397847592831 2799.99995231628 8 11 4
5.24618523195386 -101.33008658886 2825.99997520447 8 11 4
12.7283381298184 -99.5012521743774 2775.00009536743 10 13 6
20.8904873579741 -102.369450032711 2855.00001907349 11 14 7
28.4947026520967 -101.687736809254 2835.99996566772 13 16 9
35.7394926249981 -100.288763642311 2796.99993133545 15 18 11
43.6861477792263 -101.005151867867 2816.99991226196 15 18 9
51.7600663006306 -101.757250726223 2838.00005912781 16 19 10
59.0258315205574 -100.931584835052 2815.00005722046 17 20 11
65.9050866961479 -99.7113808989525 2780.99989891052 20 23 14
73.9991292357445 -100.391335785389 2799.99995231628 22 25 18
82.3423862457275 -101.250410079956 2823.99988174438 23 26 19
90.7525569200516 -102.037623524666 2845.99995613098 16 19 12
99.3170887231827 -102.860510349274 2868.99995803833 11 14 7
108.454920351505 -104.113467037678 2904.00004386902 7 10 3
117.82343685627 -105.402067303658 2940.00005722046 8 10 5
127.002730965614 -106.367833912373 2967.00000762939 8 10 5
136.101201176643 -107.154168188572 2989.00008201599 8 10 5
141.940772533417 -105.430901050568 2940.99998474121 9 11 6
150.169402360916 -105.571672320366 2944.9999332428 10 12 7
157.398551702499 -105.031214654446 2930.0000667572 10 12 7
167.988538742065 -106.677241623402 2976.0000705719 10 12 7
177.349448204041 -107.426919043064 2996.99997901917 9 11 6
183.852836489677 -106.455899775028 2970.00002861023 9 11 6
191.436171531677 -106.165811419487 2961.99989318848 6 8 3
204.787656664848 -104.725152254105 2921.99993133545 10 12 7
212.317958474159 -104.506440460682 2915.99988937378 13 15 10
-33.7342992424965 -110.354661941528 2859.99989509583 15 18 11
-18.3514747768641 -111.783355474472 2897.0000743866 14 17 10
-10.1209366694093 -108.349494636059 2808.00008773804 10 13 6
-2.48909648507833 -109.893053770065 2848.00004959106 10 13 6
5.18482597544789 -107.770793139935 2792.99998283386 14 17 10
12.7877239137888 -107.577681541443 2788.00010681152 14 17 10
20.6852145493031 -109.082199633121 2826.99990272522 15 18 11
28.4037366509438 -109.081730246544 2826.99990272522 15 18 11
35.5854891240597 -107.460513710976 2785.00008583069 17 20 13
42.9874733090401 -106.958128511906 2772.0000743866 15 18 9
58.4376119077206 -107.534915208817 2786.99994087219 22 25 16
65.7616630196571 -107.070714235306 2775.00009536743 21 24 15
73.4956040978432 -107.300840318203 2780.99989891052 19 22 15
82.1075886487961 -108.649745583534 2815.99998474121 17 20 13
91.1653861403465 -110.307112336159 2858.99996757507 12 15 8
98.449818789959 -109.726548194885 2844.00010108948 7 10 3
108.415544033051 -112.000837922096 2903.00011634827 6 9 2
117.340333759785 -112.963154911995 2927.99997329712 8 10 5
127.471193671227 -114.889785647392 2977.9999256134 9 11 6
133.503273129463 -113.11262845993 2931.99992179871 7 9 4
143.482521176338 -114.691667258739 2973.00004959106 8 10 5
149.75868165493 -113.300055265427 2937.00003623962 9 11 6
159.544393420219 -114.570096135139 2970.00002861023 9 11 6
166.912958025932 -114.065483212471 2957.00001716614 9 11 6
176.28102004528 -114.910811185837 2979.00009155273 8 10 5
184.34464931488 -114.86878246069 2977.9999256134 9 11 6
190.786376595497 -113.862350583076 2951.99990272522 9 11 6
-17.9583635181189 -117.129169404507 2835.00003814697 12 15 8
-10.2252531796694 -117.212079465389 2836.99989318848 12 15 8
-2.47681047767401 -117.08826571703 2834.00011062622 13 16 9
5.22927241399884 -116.385877132416 2816.99991226196 16 19 12
12.8103960305452 -115.394107997417 2792.99998283386 16 19 12
20.4726066440344 -115.600347518921 2798.00009727478 15 18 11
35.5847664177418 -115.062080323696 2785.00008583069 16 19 12
43.0176183581352 -114.606782793999 2773.9999294281 18 21 12
50.1896142959595 -113.696895539761 2752.00009346008 21 24 15
57.7445067465305 -113.77839744091 2753.99994850159 22 25 16
65.5944421887398 -114.355489611626 2767.99988746643 20 23 14
73.1505677103996 -114.35405164957 2767.99988746643 18 21 14
81.6394165158272 -115.674436092377 2799.99995231628 12 15 8
89.6648913621902 -116.168394684792 2812.00003623962 10 13 6
98.2401371002197 -117.24054813385 2838.00005912781 7 10 3
107.40502923727 -118.808217346668 2875.99992752075 7 9 4
116.736866533756 -120.334357023239 2913.00010681152 8 10 5
124.129980802536 -119.794845581055 2900.00009536743 9 11 6
133.955910801888 -121.527105569839 2941.99991226196 9 11 6
142.804011702538 -122.226484119892 2959.00011062622 9 11 6
152.458146214485 -123.503938317299 2990.00000953674 10 12 7
161.636203527451 -124.285496771336 3009.0000629425 10 12 7
168.490096926689 -123.290799558163 2984.99989509583 10 12 7
176.632568240166 -123.287260532379 2984.99989509583 10 12 7
183.969587087631 -122.746646404266 2971.99988365173 10 12 7
193.173840641975 -123.444922268391 2989.00008201599 10 12 7
199.034914374352 -122.036747634411 2954.99992370605 10 12 7
214.275747537613 -121.532812714577 2943.00007820129 11 13 8
-33.1667438149452 -123.852640390396 2812.00003623962 16 19 12
-25.6255362182856 -124.51396882534 2826.99990272522 18 21 14
-17.9959814995527 -125.131085515022 2841.00008010864 17 20 13
-10.1889902725816 -124.514751136303 2826.99990272522 15 18 11
-2.45927809737623 -123.942315578461 2813.99989128113 16 19 12
5.23472856730223 -124.206565320492 2819.9999332428 17 20 13
12.8880916163325 -123.765908181667 2809.99994277954 19 22 15
20.3477796167135 -122.488245368004 2780.99989891052 20 23 16
28.1614251434803 -123.456686735153 2802.99997329712 20 23 16
35.8012095093727 -123.411938548088 2802.00004577637 18 21 14
43.2803109288216 -122.92655557394 2790.99988937378 22 25 16
51.0456785559654 -123.277865350246 2799.00002479553 20 23 14
58.6658120155334 -123.23260307312 2798.00009727478 21 24 15
66.1617666482925 -122.966967523098 2792.00005531311 20 23 14
73.4925493597984 -122.480936348438 2780.99989891052 16 19 12
98.5841900110245 -125.425979495049 2848.00004959106 8 11 4
107.216008007526 -126.436606049538 2871.00005149841 7 9 4
115.812689065933 -127.27090716362 2890.00010490417 7 9 4
124.384142458439 -127.972841262817 2905.99989891052 8 10 5
133.816465735435 -129.423215985298 2938.99989128113 10 12 7
143.090516328812 -130.565121769905 2964.99991416931 11 13 8
152.199938893318 -131.442561745644 2984.99989509583 11 13 8
159.913837909698 -131.086885929108 2976.99999809265 12 14 9
168.994531035423 -131.831839680672 2993.99995803833 12 14 9
177.161395549774 -131.82806968689 2993.99995803833 11 13 8
190.972447395325 -130.102902650833 2954.99992370605 9 11 6
199.434891343117 -130.36285340786 2960.99996566772 10 12 7
211.713552474976 -132.999956607819 3020.99990844727 11 13 8
218.421250581741 -132.070794701576 3000 14 16 11
-32.9890660941601 -130.825325846672 2796.99993133545 15 18 11
-25.5886893719435 -132.0421397686 2822.99995422363 17 20 13
-17.7485346794128 -131.060406565666 2802.00004577637 17 20 13
-10.0878430530429 -130.92041015625 2799.00002479553 17 20 13
-2.44873459450901 -131.060868501663 2802.00004577637 14 17 10
5.27544552460313 -132.931798696518 2842.00000762939 15 18 11
12.8419306129217 -130.967065691948 2799.99995231628 17 20 13
20.4936433583498 -131.013467907906 2801.00011825562 18 21 14
28.1306337565184 -130.96609711647 2799.99995231628 17 20 13
35.9153784811497 -131.479859352112 2811.00010871887 16 19 12
43.7755323946476 -132.040202617645 2822.99995422363 16 19 10
51.2633509933949 -131.477817893028 2811.00010871887 16 19 10
58.853168040514 -131.289422512054 2806.99992179871 18 21 12
67.1081021428108 -132.457241415977 2832.00001716614 18 21 12
75.6313800811768 -133.858695626259 2861.99998855591 15 18 11
93.0726230144501 -136.520639061928 2918.99991035461 9 12 5
100.90110450983 -136.331290006638 2914.99996185303 8 11 4
108.819343149662 -136.282056570053 2914.00003433228 8 11 4
116.130627691746 -135.531157255173 2898.00000190735 10 12 7
125.066146254539 -136.65072619915 2921.99993133545 9 11 6
132.948368787766 -136.554196476936 2920.00007629395 11 14 7
142.025604844093 -137.626573443413 2943.00007820129 11 14 7
151.482701301575 -138.932541012764 2970.99995613098 12 15 8
158.083900809288 -137.619584798813 2943.00007820129 12 15 8
168.313398957253 -139.43949341774 2982.00011253357 12 15 8
175.678133964539 -138.827636837959 2969.00010108948 11 14 7
190.968200564384 -138.164564967155 2954.99992370605 9 12 5
201.114222407341 -139.609485864639 2986.00006103516 10 13 6
210.517510771751 -140.446320176125 3003.99994850159 11 14 7
215.212985873222 -138.197362422943 2956.00008964539 13 16 9
