ply
format ascii 1.0
comment KinectMotionCapture
element vertex 796
property float x
property float y
property float z
property uchar red
property uchar green
property uchar blue
end_header
138.68211209774 280.943363904953 2584.00011062622 149 149 147
145.838037133217 281.153559684753 2585.99996566772 149 151 148
152.945220470428 281.25473856926 2586.99989318848 153 155 152
159.93358194828 281.138122081757 2585.99996566772 149 151 148
166.980445384979 281.129896640778 2585.99996566772 144 146 143
174.565106630325 281.99103474617 2594.00010108948 139 141 138
182.752847671509 283.721357584 2609.99989509583 174 176 173
193.93689930439 289.799392223358 2665.99988937378 10 12 7
206.406384706497 297.289699316025 2734.99989509583 28 29 24
213.934004306793 297.387987375259 2736.00006103516 26 27 21
223.408207297325 300.094425678253 2760.99991798401 18 21 14
233.603283762932 303.561180830002 2792.99998283386 31 34 27
243.108138442039 305.940479040146 2815.00005722046 30 33 26
252.821058034897 308.427959680557 2838.00005912781 26 29 22
-56.5297231078148 300.157248973846 2831.00008964539 19 24 17
-32.0311859250069 288.182944059372 2717.99993515015 23 26 17
-24.5715696364641 287.654280662537 2713.00005912781 18 21 12
-17.164446413517 287.549257278442 2711.99989318848 21 24 15
-2.35854345373809 286.383926868439 2700.99997520447 15 18 9
4.95583936572075 283.309012651443 2671.99993133545 16 19 10
12.295288965106 284.474909305573 2683.00008773804 18 21 12
19.6142923086882 284.47413444519 2683.00008773804 17 20 11
27.0637162029743 285.851299762726 2696.00009918213 16 19 10
34.0222381055355 282.562881708145 2664.99996185303 16 19 10
41.1988608539104 281.924843788147 2658.99991989136 17 20 11
48.4519116580486 281.922549009323 2658.99991989136 13 16 7
55.6209869682789 281.495839357376 2654.99997138977 14 17 8
62.6969859004021 280.750691890717 2648.00000190735 18 21 12
69.9193999171257 280.747354030609 2648.00000190735 16 19 12
77.3163214325905 281.379759311676 2654.00004386902 15 18 11
84.5545306801796 281.375706195831 2654.00004386902 12 15 8
92.0345112681389 282.113432884216 2661.00001335144 16 19 12
99.2538034915924 282.002598047256 2660.00008583069 17 20 13
105.466246604919 279.241055250168 2634.0000629425 11 14 7
112.220779061317 278.175503015518 2624.00007247925 153 155 150
118.738368153572 276.685565710068 2609.99989509583 149 151 148
125.468492507935 275.831431150436 2601.99999809265 143 145 142
132.103562355042 274.870932102203 2592.99993515015 147 149 146
138.957411050797 274.440199136734 2588.99998664856 143 145 142
145.901739597321 274.221152067184 2586.99989318848 131 133 130
152.95284986496 274.21373128891 2586.99989318848 141 143 140
160.127103328705 274.417996406555 2588.99998664856 125 127 124
167.247071862221 274.515926837921 2589.99991416931 148 148 146
174.708351492882 275.143444538116 2595.99995613098 154 154 152
182.341754436493 275.982618331909 2604.00009155273 183 183 181
193.728223443031 282.226353883743 2663.00010681152 0 1 0
215.977624058723 292.69814491272 2762.00008392334 24 25 19
224.63296353817 294.171065092087 2776.00002288818 28 31 24
234.534725546837 297.12700843811 2803.99990081787 33 36 29
243.379071354866 298.599004745483 2818.00007820129 28 31 24
251.942425966263 299.646705389023 2828.00006866455 20 23 16
-64.3002092838287 292.652934789658 2832.99994468689 19 21 16
-39.7376380860806 282.846838235855 2737.99991607666 23 26 17
-32.480638474226 284.708112478256 2756.00004196167 21 24 15
-24.7358325868845 282.126903533936 2730.99994659424 19 22 13
-17.3298697918653 282.851040363312 2737.99991607666 24 27 18
-9.87844727933407 283.36825966835 2743.00003051758 25 28 19
-2.40407069213688 284.401625394821 2753.00002098084 24 27 18
5.08963456377387 283.471792936325 2743.99995803833 18 21 12
12.3463179916143 278.306096792221 2694.00000572205 17 20 11
19.6079611778259 277.065634727478 2681.99992179871 20 23 14
26.844210922718 276.238054037094 2674.00002479553 20 23 14
34.0494774281979 275.513410568237 2667.00005531311 16 19 10
41.2783920764923 275.201618671417 2664.00003433228 14 17 8
48.8916896283627 277.162164449692 2683.00008773804 15 18 9
56.0008771717548 276.126563549042 2673.00009727478 16 19 10
62.7948343753815 273.954302072525 2651.99995040894 16 19 10
69.5267841219902 271.988302469254 2632.99989700317 15 18 9
77.2327706217766 273.844093084335 2651.00002288818 16 19 12
84.4312757253647 273.736834526062 2650.00009536743 12 15 8
92.0736640691757 274.972051382065 2661.99994087219 15 18 11
99.5945483446121 275.690376758575 2668.99991035461 14 17 10
106.672748923302 275.168895721436 2664.00003433228 22 25 18
112.953394651413 272.787809371948 2641.00003242493 0 2 0
119.108200073242 270.406514406204 2618.00003051758 146 148 145
125.619322061539 269.057810306549 2605.00001907349 151 153 150
132.262900471687 268.121987581253 2595.99995613098 143 145 142
139.178916811943 267.805546522141 2592.99993515015 156 158 155
145.965278148651 267.282247543335 2588.00005912781 161 163 160
153.019472956657 267.275005578995 2588.00005912781 169 169 167
160.011202096939 267.164170742035 2586.99989318848 152 152 150
167.255207896233 267.466098070145 2589.99991416931 172 172 170
174.514934420586 267.767697572708 2592.99993515015 181 181 179
182.420611381531 268.998295068741 2605.00001907349 189 189 187
190.682023763657 270.641565322876 2621.00005149841 8 9 4
204.766049981117 280.131787061691 2713.00005912781 7 8 3
215.127751231194 284.045428037643 2750.99992752075 13 14 8
226.909562945366 289.507180452347 2803.99990081787 15 18 11
234.713226556778 289.702743291855 2805.99999427795 28 31 24
243.045166134834 290.517419576645 2813.99989128113 28 31 24
250.439792871475 290.196120738983 2811.00010871887 30 33 26
-55.2771836519241 278.403788805008 2767.99988746643 29 32 25
-47.3123788833618 275.99236369133 2743.99995803833 17 20 13
-39.9863198399544 277.10086107254 2755.00011444092 22 25 16
-32.6000824570656 278.209000825882 2766.00003242493 19 22 13
-24.8729083687067 276.198744773865 2746.00005149841 18 21 12
-17.0901902019978 271.572977304459 2700.00004768372 21 24 15
-9.71686281263828 271.372437477112 2697.99995422363 22 25 16
-2.34043761156499 269.562244415283 2680.0000667572 19 22 13
4.99713839963079 270.970344543457 2694.00000572205 16 19 10
12.3790018260479 271.674007177353 2700.99997520447 15 18 9
19.63085308671 270.063906908035 2684.99994277954 20 23 14
26.9860737025738 270.36452293396 2687.99996376038 22 25 16
34.1405086219311 268.954902887344 2674.00002479553 17 20 11
41.5283404290676 269.556552171707 2680.0000667572 14 17 8
48.8393940031528 269.554376602173 2680.0000667572 16 19 10
56.1083555221558 269.350677728653 2677.99997329712 16 19 10
63.3188411593437 268.945515155792 2674.00002479553 14 17 8
69.9791014194489 266.528427600861 2650.00009536743 14 17 8
77.3822069168091 267.128348350525 2655.99989891052 19 22 15
84.4672471284866 266.621589660645 2651.00002288818 13 16 9
91.4901047945023 266.013920307159 2644.99998092651 17 20 13
100.196450948715 270.032197237015 2684.99994277954 14 17 10
107.438758015633 269.826114177704 2683.00008773804 15 18 11
113.685965538025 267.306596040726 2657.99999237061 9 12 5
119.523420929909 264.18349146843 2627.00009346008 162 164 161
125.866502523422 262.468069791794 2609.99989509583 147 149 146
132.473066449165 261.456310749054 2599.99990463257 160 162 159
139.292970299721 260.947078466415 2595.00002861023 157 159 156
146.14149928093 260.538101196289 2591.00008010864 168 170 167
153.145045042038 260.430455207825 2589.99991416931 156 156 154
160.266265273094 260.523617267609 2591.00008010864 157 157 155
167.58605837822 260.918080806732 2595.00002861023 161 161 159
174.994364380836 261.412769556046 2599.99990463257 150 150 148
182.989507913589 262.711405754089 2612.99991607666 173 173 171
192.437142133713 265.919864177704 2644.99998092651 0 1 0
207.115545868874 275.863528251648 2743.99995803833 8 9 4
216.07631444931 277.763813734055 2763.00001144409 15 16 10
223.440304398537 277.552545070648 2760.99991798401 11 14 7
241.50176346302 281.049370765686 2796.0000038147 12 15 8
248.313084244728 280.133485794067 2786.99994087219 19 22 15
-64.2610117793083 277.02733874321 2831.00008964539 35 38 31
-54.7406002879143 268.223136663437 2740.9999370575 22 25 18
-39.9737060070038 269.499719142914 2753.99994850159 26 29 20
-32.1773253381252 267.15287566185 2730.00001907349 24 27 18
-24.4664717465639 264.316290616989 2700.99997520447 25 28 19
-17.0720163732767 263.925850391388 2697.00002670288 20 23 14
-9.71012376248837 263.828635215759 2696.00009918213 17 20 11
-2.34578968957067 262.850314378738 2686.00010871887 14 17 8
4.9695516936481 262.16521859169 2678.99990081787 13 16 7
12.2970947995782 262.556284666061 2683.00008773804 14 17 8
19.6975953876972 263.631939888 2694.00000572205 17 20 11
27.0275212824345 263.435155153275 2691.99991226196 20 23 14
34.3592017889023 263.335853815079 2690.99998474121 20 23 14
41.2668846547604 260.594040155411 2663.00010681152 12 15 4
48.3314320445061 259.515464305878 2651.99995040894 10 13 2
55.8595955371857 260.883003473282 2665.99988937378 15 18 7
63.2271245121956 261.27165555954 2670.00007629395 14 17 8
70.8539038896561 262.540608644485 2683.00008773804 14 17 8
77.152781188488 259.112268686295 2648.00000190735 10 13 4
84.1844752430916 258.521407842636 2641.99995994568 19 22 13
92.1170860528946 260.572135448456 2663.00010681152 10 13 6
99.9772921204567 262.133181095123 2678.99990081787 21 24 17
107.523918151855 262.715399265289 2684.99994277954 9 12 5
113.477475941181 259.579241275787 2653.00011634827 12 15 8
119.483552873135 256.932020187378 2625.99992752075 88 93 89
125.872418284416 255.360871553421 2609.99989509583 138 143 139
132.428333163261 254.278659820557 2598.99997711182 142 147 143
139.245823025703 253.783196210861 2594.00010108948 149 151 148
146.148338913918 253.48311662674 2591.00008010864 160 162 159
153.329581022263 253.671854734421 2592.99993515015 162 162 160
160.335570573807 253.566771745682 2592.00000762939 172 172 170
167.787611484528 254.146218299866 2598.00004959106 165 165 163
175.002455711365 254.333972930908 2599.99990463257 177 177 175
183.208048343658 255.890876054764 2615.9999370575 180 180 178
192.737028002739 259.110242128372 2648.9999294281 91 90 86
207.728937268257 269.175857305527 2752.00009346008 2 3 0
215.61698615551 269.655257463455 2756.99996948242 13 14 8
220.779821276665 266.809016466141 2727.9999256134 11 14 7
226.787716150284 265.136301517487 2710.99996566772 12 15 8
248.948037624359 273.232012987137 2793.99991035461 20 23 16
-62.3117797076702 261.13498210907 2744.99988555908 30 33 26
-55.7217709720135 265.418618917465 2789.99996185303 20 23 16
-47.8341467678547 263.898879289627 2773.9999294281 25 28 21
-39.4820459187031 258.763670921326 2720.00002861023 26 29 20
-31.8369977176189 256.957799196243 2700.99997520447 26 29 20
-24.5672557502985 258.005559444427 2711.99989318848 30 33 24
-17.3070318996906 260.099470615387 2733.99996757507 23 26 17
-9.76100191473961 257.816851139069 2710.00003814697 18 21 12
-2.32493737712502 253.250628709793 2661.99994087219 14 17 8
4.95865289121866 254.297077655792 2673.00009727478 14 17 8
12.3710026964545 256.77016377449 2698.99988174438 14 17 8
19.6985136717558 256.293773651123 2694.00000572205 16 19 10
27.0890220999718 256.673216819763 2697.99995422363 18 21 12
34.3224927783012 255.720496177673 2687.99996376038 20 23 14
41.4702631533146 254.577130079269 2676.00011825562 23 26 15
48.4248138964176 252.767562866211 2657.00006484985 15 18 7
55.904109030962 253.811597824097 2667.99998283386 13 16 5
63.5852888226509 255.426079034805 2684.99994277954 13 16 7
71.0684657096863 255.993783473969 2690.99998474121 13 16 7
78.1470462679863 255.13419508934 2681.99992179871 13 16 7
85.0487351417542 253.893792629242 2668.99991035461 20 23 14
92.2597125172615 253.699511289597 2667.00005531311 13 16 7
100.131183862686 255.217105150223 2683.00008773804 14 17 10
107.60897397995 255.592882633209 2687.00003623962 16 19 12
113.568238914013 252.543956041336 2654.99997138977 13 16 9
119.489051401615 249.78019297123 2625.99992752075 0 2 0
125.878214836121 248.252764344215 2609.99989509583 176 181 177
132.536321878433 247.390881180763 2601.0000705719 176 181 177
139.413222670555 247.004255652428 2596.99988365173 169 171 168
146.437034010887 246.902704238892 2595.99995613098 155 157 154
153.513967990875 246.895954012871 2595.99995613098 163 163 161
160.590305924416 246.888905763626 2595.99995613098 154 154 152
167.859807610512 247.166857123375 2598.99997711182 158 158 156
175.212323665619 247.539550065994 2602.9999256134 168 167 165
183.14628303051 248.67270886898 2615.00000953674 187 186 184
192.38193333149 251.422077417374 2644.00005340576 123 122 118
205.096244812012 258.354812860489 2717.00000762939 4 5 0
213.827773928642 259.961992502213 2733.99996757507 14 15 9
221.518099308014 260.237634181976 2736.99998855591 9 12 5
232.98853635788 264.791458845139 2785.00008583069 11 14 7
241.350695490837 265.636712312698 2793.99991035461 14 17 10
251.454025506973 268.287986516953 2822.00002670288 16 19 12
-62.6778155565262 255.135655403137 2760.99991798401 30 27 22
-56.4632974565029 261.237233877182 2826.99990272522 21 22 16
-47.6121380925179 255.140602588654 2760.99991798401 19 22 15
-39.4257716834545 250.984132289886 2716.00008010864 19 22 13
-31.909167766571 250.154078006744 2707.00001716614 21 24 15
-24.7586164623499 252.557992935181 2733.00004005432 27 30 21
-17.2255225479603 251.450002193451 2720.99995613098 21 24 15
-9.73623152822256 249.787226319313 2703.00006866455 15 18 9
-2.3163091391325 245.074510574341 2651.99995040894 15 18 9
4.89765778183937 243.965536355972 2640.00010490417 15 18 9
12.2936414554715 247.846409678459 2681.99992179871 15 18 9
19.6847841143608 248.769789934158 2691.99991226196 15 18 9
27.0802117884159 249.230787158012 2697.00002670288 16 19 10
34.4134345650673 249.044597148895 2694.9999332428 19 22 13
41.751105338335 248.950466513634 2694.00000572205 41 44 33
48.9555709064007 248.209208250046 2686.00010871887 27 30 19
56.3047751784325 248.299241065979 2687.00003623962 22 25 14
63.8486817479134 249.128207564354 2696.00009918213 19 22 13
70.9924548864365 248.385950922966 2687.99996376038 16 19 10
77.9757425189018 247.273772954941 2676.00011825562 18 21 12
85.3075236082077 247.362568974495 2677.00004577637 10 13 4
92.7482023835182 247.728168964386 2680.99999427795 16 19 10
100.284993648529 248.278304934502 2687.00003623962 13 16 9
107.293404638767 247.534453868866 2678.99990081787 11 14 7
113.744460046291 245.681643486023 2658.99991989136 15 18 11
119.448907673359 242.535039782524 2625 22 24 19
125.835612416267 241.05130136013 2608.99996757507 130 132 127
132.491275668144 240.214064717293 2599.99990463257 173 175 170
139.365762472153 239.838540554047 2595.99995613098 157 156 151
146.44356071949 239.832252264023 2595.99995613098 163 162 157
153.520777821541 239.825651049614 2595.99995613098 165 162 157
160.535559058189 239.726424217224 2595.00002861023 173 170 163
167.802631855011 239.996373653412 2598.00004959106 193 188 182
175.220057368279 240.450784564018 2602.9999256134 187 182 176
182.874202728271 241.181969642639 2611.00006103516 145 140 134
190.78953564167 242.189928889275 2621.99997901917 171 166 160
203.368976712227 248.831823468208 2694.00000572205 8 5 0
213.289633393288 251.870840787888 2726.99999809265 17 14 7
222.499012947083 253.893405199051 2749.00007247925 7 8 0
235.341176390648 259.794354438782 2812.99996376038 9 12 5
243.779957294464 260.615348815918 2822.00002670288 14 17 10
251.46484375 260.604739189148 2822.00002670288 16 18 13
-71.1543336510658 250.928640365601 2798.00009727478 27 17 15
-64.2924383282661 253.980755805969 2832.00001716614 30 27 22
-56.4857684075832 253.624677658081 2828.00006866455 16 15 10
-47.8556789457798 248.873710632324 2775.00009536743 26 27 21
-39.5291335880756 244.212001562119 2723.00004959106 20 23 16
-32.1109779179096 244.303241372108 2723.99997711182 18 21 14
-24.6962960809469 244.4838732481 2726.0000705719 20 23 16
-17.2136221081018 243.856966495514 2719.00010108948 15 18 11
-9.63580142706633 239.911332726479 2674.99995231628 14 17 8
-2.298942534253 236.055091023445 2631.99996948242 17 20 11
4.96837450191379 240.180611610413 2677.99997329712 15 18 9
12.3308571055532 241.256460547447 2690.00005722046 14 17 8
19.8538452386856 243.497923016548 2714.99991416931 16 19 10
27.1014925092459 242.061942815781 2698.99988174438 18 21 12
34.5298871397972 242.509007453918 2703.9999961853 18 21 10
41.9544316828251 242.776393890381 2707.00001716614 42 43 35
49.1764545440674 241.967275738716 2697.99995422363 23 24 16
56.6006377339363 242.234006524086 2700.99997520447 18 19 11
64.0172883868217 242.410764098167 2703.00006866455 20 21 13
71.3389366865158 242.2284334898 2700.99997520447 19 20 12
78.1248807907104 240.431576967239 2680.99999427795 17 18 10
85.375003516674 240.248680114746 2678.99990081787 18 19 11
92.9944589734077 241.051912307739 2687.99996376038 18 19 11
99.8788326978683 239.97163772583 2676.00011825562 18 19 11
106.977701187134 239.518761634827 2671.0000038147 17 18 10
114.305563271046 239.603653550148 2671.99993133545 16 17 9
120.182231068611 236.818820238113 2641.00003242493 14 13 8
126.034036278725 234.302759170532 2612.99991607666 125 122 113
132.649928331375 233.400538563728 2602.9999256134 168 164 153
139.532893896103 233.036056160927 2598.99997711182 143 133 121
146.562740206718 232.940256595612 2598.00004959106 126 112 99
153.527438640594 232.754528522491 2595.99995613098 96 79 63
160.604372620583 232.747808098793 2595.99995613098 108 89 74
167.745277285576 232.830479741096 2596.99988365173 109 90 73
175.227582454681 233.361110091209 2602.9999256134 128 109 92
182.741940021515 233.891412615776 2608.99996757507 138 121 103
190.433874726295 234.600737690926 2617.00010299683 170 155 136
200.131446123123 237.640380859375 2651.00002288818 186 170 155
225.260451436043 249.454826116562 2782.99999237061 18 14 2
235.434800386429 252.223819494247 2813.99989128113 1 1 0
244.222179055214 253.379017114639 2826.99990272522 16 19 10
251.564532518387 253.010213375092 2822.99995422363 14 19 15
-73.2682049274445 250.521957874298 2881.00004196167 30 25 21
-64.7038519382477 247.829183936119 2849.99990463257 24 23 18
-39.835698902607 238.618209958076 2743.99995803833 20 23 16
-32.3952846229076 238.967552781105 2747.99990653992 18 21 14
-24.951035156846 239.490523934364 2753.99994850159 20 23 16
-17.2840058803558 237.404391169548 2730.00001907349 17 20 13
-9.81993600726128 237.057119607925 2726.0000705719 15 18 9
-2.37416196614504 236.361652612686 2717.99993515015 18 21 12
5.01682702451944 235.144138336182 2703.9999961853 17 20 11
12.5193381682038 237.491726875305 2730.99994659424 15 18 9
19.94245685637 237.143218517303 2726.99999809265 16 19 10
27.1829944103956 235.40298640728 2707.00001716614 17 20 11
34.5952250063419 235.57560145855 2709.00011062622 17 20 9
42.0957282185555 236.182689666748 2716.00008010864 17 18 10
49.3061579763889 235.224187374115 2704.99992370605 18 19 11
56.5821118652821 234.787166118622 2700.00004768372 18 19 11
63.9489740133286 234.784603118896 2700.00004768372 17 18 10
71.2627619504929 234.607830643654 2697.99995422363 17 18 10
78.1573578715324 233.213365077972 2681.99992179871 16 17 9
85.2511823177338 232.601255178452 2674.99995231628 16 17 9
92.5486609339714 232.597514986992 2674.99995231628 15 16 8
99.7337773442268 232.332572340965 2671.99993133545 15 16 8
106.902159750462 232.06739127636 2668.99991035461 15 16 8
114.952132105827 233.627811074257 2687.00003623962 17 17 9
121.234022080898 231.623083353043 2664.00003433228 23 20 13
126.473501324654 227.966219186783 2621.99997901917 25 18 10
132.757484912872 226.482793688774 2605.00001907349 113 104 95
139.485105872154 225.868538022041 2598.00004959106 118 104 93
146.456077694893 225.688681006432 2595.99995613098 129 111 99
153.533905744553 225.682437419891 2595.99995613098 137 115 101
160.734862089157 225.849807262421 2598.00004959106 139 118 101
167.946085333824 226.016849279404 2599.99990463257 145 122 106
175.234913825989 226.27055644989 2602.9999256134 150 129 110
182.679548859596 226.697832345963 2608.00004005432 137 116 97
189.859613776207 226.777076721191 2608.99996757507 153 134 117
197.799384593964 227.725252509117 2619.99988555908 180 164 149
225.836336612701 242.483496665955 2789.99996185303 17 13 1
232.348725199699 241.344347596169 2776.99995040894 17 17 7
243.109047412872 244.55027282238 2813.99989128113 12 15 6
252.911567687988 246.625959873199 2838.00005912781 17 22 16
-73.8053396344185 244.439616799355 2901.99995040894 29 32 25
-54.2932525277138 228.946104645729 2717.99993515015 14 21 13
-46.0488200187683 224.904969334602 2670.00007629395 24 29 22
-38.9082171022892 225.74907541275 2680.0000667572 18 21 14
-32.3966443538666 231.478497385979 2747.99990653992 18 21 14
-24.9158404767513 231.648176908493 2750 19 22 15
-17.4050275236368 231.564804911613 2749.00007247925 16 19 12
-9.79513023048639 229.038283228874 2719.00010108948 15 18 9
-2.37513543106616 229.038536548615 2719.00010108948 15 18 9
5.08754327893257 230.975925922394 2742.00010299683 15 18 9
12.4556832015514 228.869646787643 2717.00000762939 15 18 9
19.9871715158224 230.21674156189 2733.00004005432 15 18 9
27.1941740065813 228.109866380692 2707.99994468689 15 18 9
34.737154841423 229.119434952736 2720.00002861023 16 19 8
42.2059893608093 229.370549321175 2723.00004959106 15 16 8
56.6473491489887 227.681800723076 2703.00006866455 17 18 10
64.2832368612289 228.605851531029 2713.99998664856 19 20 12
70.8431005477905 225.907683372498 2681.99992179871 20 21 13
77.9566243290901 225.315004587173 2674.99995231628 20 21 13
85.0634947419167 224.806278944016 2668.99991035461 19 20 12
91.4799422025681 222.696989774704 2644.00005340576 16 17 9
99.1780161857605 223.788022994995 2657.00006484985 15 16 8
106.866531074047 224.710270762444 2667.99998283386 15 16 8
114.614635705948 225.632220506668 2678.99990081787 16 16 8
122.376777231693 226.469591259956 2688.99989128113 25 21 12
126.671656966209 221.158683300018 2625.99992752075 16 3 0
132.915824651718 219.637483358383 2608.00004005432 135 120 113
139.598205685616 218.958243727684 2599.99990463257 122 102 91
146.574944257736 218.784034252167 2598.00004959106 129 105 93
153.77676486969 218.946382403374 2599.99990463257 145 117 103
160.865157842636 218.940049409866 2599.99990463257 142 114 100
168.146714568138 219.186037778854 2602.9999256134 145 116 100
175.376683473587 219.347551465034 2605.00001907349 152 123 107
182.756990194321 219.677194952965 2608.99996757507 143 116 97
189.940080046654 219.753965735435 2609.99989509583 141 115 98
197.429865598679 220.167219638824 2615.00000953674 167 145 131
206.667110323906 222.432404756546 2641.99995994568 173 159 146
220.826610922813 229.664206504822 2727.9999256134 24 16 3
232.441693544388 233.864590525627 2778.00011634827 28 24 13
240.958869457245 234.78128015995 2789.00003433228 16 16 6
251.852184534073 237.886250019073 2825.99997520447 22 25 18
-72.8418529033661 233.433052897453 2864.00008201599 11 18 10
-39.0694960951805 219.341084361076 2690.99998474121 19 22 15
-31.8910032510757 220.483660697937 2704.99992370605 18 21 14
-24.8262453824282 223.337650299072 2740.00000953674 20 23 16
-17.3234213143587 223.012417554855 2736.00006103516 16 19 12
-9.76310390979052 220.893710851669 2710.00003814697 15 18 9
-2.3481510579586 219.100713729858 2687.99996376038 15 18 9
5.03208488225937 221.056908369064 2711.99989318848 16 19 10
12.4561889097095 221.46412730217 2717.00000762939 17 20 11
19.7612624615431 220.2408015728 2701.99990272522 15 18 9
27.0044691860676 219.180226325989 2688.99989128113 15 18 9
34.7130186855793 221.542775630951 2717.99993515015 17 20 9
42.579710483551 223.905026912689 2746.99997901917 16 17 9
49.6748089790344 222.109988331795 2724.99990463257 13 14 6
57.1735911071301 222.352370619774 2727.9999256134 13 14 6
64.3095299601555 221.290335059166 2714.99991416931 17 18 10
70.5554038286209 217.701405286789 2671.0000038147 19 20 12
77.3768872022629 216.394349932671 2654.99997138977 21 22 14
84.8438292741776 216.961666941643 2661.99994087219 20 21 13
91.0684168338776 214.513078331947 2631.99996948242 18 19 11
98.5100939869881 215.079829096794 2638.99993896484 17 18 10
106.790713965893 217.276260256767 2665.99988937378 16 17 9
114.961512386799 218.983337283134 2687.00003623962 16 16 8
121.47144973278 217.51169860363 2668.99991035461 17 10 2
126.580268144608 213.839590549469 2624.00007247925 23 10 2
132.972121238708 212.612047791481 2608.99996757507 112 95 87
139.603778719902 211.873263120651 2599.99990463257 132 110 99
146.806448698044 212.030634284019 2601.99999809265 126 102 90
153.901189565659 212.024733424187 2601.99999809265 132 103 89
161.119043827057 212.18153834343 2604.00009155273 136 107 91
168.411791324615 212.419584393501 2607.00011253357 145 113 98
175.720229744911 212.657272815704 2609.99989509583 146 115 97
183.044388890266 212.89473772049 2612.99991607666 146 117 99
190.020307898521 212.724581360817 2611.00006103516 143 116 99
197.2865909338 212.880030274391 2612.99991607666 150 127 111
205.892905592918 214.420169591904 2631.99996948242 165 149 134
219.701915979385 221.092149615288 2713.99998664856 31 22 7
231.613963842392 225.482448935509 2767.99988746643 33 27 15
241.22741818428 227.428421378136 2792.00005531311 24 24 12
252.931386232376 231.165960431099 2838.00005912781 20 23 16
-72.259709239006 223.814368247986 2841.00008010864 16 23 15
-64.4165426492691 223.501905798912 2836.99989318848 20 27 19
-46.0352525115013 210.270807147026 2668.99991035461 18 21 14
-39.9276651442051 216.653898358345 2750 22 25 18
-31.904049217701 213.18881213665 2706.00008964539 20 23 16
-24.7094295918942 214.844360947609 2726.99999809265 21 24 17
-17.2354560345411 214.451268315315 2721.99988365173 17 20 13
-9.74187254905701 213.033676147461 2703.9999961853 15 18 9
-2.35348544083536 212.246060371399 2694.00000572205 20 23 14
4.99331671744585 212.009653449059 2690.99998474121 21 24 15
12.3695703223348 212.560802698135 2697.99995422363 20 23 14
19.5499397814274 210.590586066246 2673.00009727478 17 20 11
26.7845895141363 210.116982460022 2667.00005531311 15 18 7
34.0630151331425 210.115790367126 2667.00005531311 16 19 8
41.4808169007301 210.823386907578 2676.00011825562 14 15 7
50.0049069523811 216.100051999092 2743.00003051758 19 20 12
57.4483051896095 215.940400958061 2740.9999370575 18 19 11
63.8146176934242 212.235331535339 2694.00000572205 13 14 6
70.2411755919456 209.475427865982 2658.99991989136 13 14 6
77.2050619125366 208.684802055359 2648.9999294281 14 15 7
85.7396125793457 211.911559104919 2690.00005722046 14 15 7
92.9750874638557 211.67179942131 2687.00003623962 15 16 8
100.044474005699 211.116641759872 2680.0000667572 17 18 10
106.834948062897 210.088610649109 2667.00005531311 16 17 9
114.28140848875 210.399433970451 2671.0000038147 16 16 6
121.703758835793 210.631251335144 2674.00002479553 18 14 5
126.922875642776 207.239419221878 2631.00004196167 21 11 1
133.028239011765 205.580323934555 2609.99989509583 18 6 0
139.662891626358 204.866245388985 2601.0000705719 126 104 93
146.699279546738 204.782024025917 2599.99990463257 122 98 86
153.788805007935 204.77631688118 2599.99990463257 129 100 86
161.063358187675 205.006629228592 2602.9999256134 133 104 88
168.353646993637 205.236673355103 2605.99994659424 140 109 91
175.726965069771 205.545172095299 2609.99989509583 135 104 86
182.981342077255 205.695956945419 2611.99998855591 146 117 99
190.173119306564 205.767691135406 2612.99991607666 150 123 106
197.294101119041 205.760419368744 2612.99991607666 152 126 111
205.118402838707 206.46159350872 2621.99997901917 169 151 137
217.605412006378 211.650595068932 2687.99996376038 70 58 44
242.100492119789 220.609471201897 2802.00004577637 30 28 16
-48.0723641812801 211.969241499901 2786.99994087219 15 16 10
-39.6387949585915 207.635670900345 2730.00001907349 19 20 14
-32.1764536201954 207.560986280441 2729.00009155273 19 22 15
-24.7738026082516 207.942321896553 2733.99996757507 20 23 16
-17.3437632620335 208.323419094086 2739.00008201599 18 21 14
-9.81790479272604 207.259073853493 2724.99990463257 17 20 11
-2.3719216696918 206.498742103577 2714.99991416931 22 25 16
5.07330009713769 207.943812012672 2733.99996757507 22 25 16
12.2875152155757 203.83632183075 2680.0000667572 20 23 14
19.3970911204815 201.706111431122 2651.99995040894 18 21 12
26.8358290195465 203.226387500763 2671.99993133545 18 21 10
33.9110419154167 201.9322514534 2654.99997138977 19 22 11
40.9708432853222 201.018169522285 2642.99988746643 16 17 9
49.6786572039127 207.253113389015 2724.99990463257 17 18 10
56.318674236536 204.361006617546 2687.00003623962 18 19 11
63.3906573057175 203.5221606493 2676.00011825562 17 18 10
70.3230947256088 202.454894781113 2661.99994087219 16 17 9
77.9949426651001 203.516885638237 2676.00011825562 14 15 7
86.1253589391708 205.491155385971 2701.99990272522 14 15 7
93.9474925398827 206.476449966431 2714.99991416931 14 15 7
100.570909678936 204.875782132149 2694.00000572205 14 15 7
107.239589095116 203.579112887383 2677.00004577637 14 15 7
114.456877112389 203.422874212265 2674.99995231628 15 15 5
122.026942670345 203.87476682663 2680.99999427795 19 16 7
127.651289105415 201.208636164665 2645.99990844727 18 12 0
133.033230900764 198.466300964355 2609.99989509583 23 13 1
139.614433050156 197.700873017311 2599.99990463257 114 96 82
146.591931581497 197.543546557426 2598.00004959106 135 113 100
153.735399246216 197.614029049873 2598.99997711182 135 109 94
160.945609211922 197.760358452797 2601.0000705719 129 102 85
168.230697512627 197.982400655746 2604.00009155273 134 107 88
175.531521439552 198.204219341278 2607.00011253357 131 102 84
182.777926325798 198.349729180336 2608.99996757507 131 104 85
190.107345581055 198.571041226387 2611.99998855591 133 106 87
197.301357984543 198.640033602715 2612.99991607666 141 113 99
205.2041888237 199.392929673195 2622.99990653992 149 130 116
213.808387517929 200.753673911095 2641.00003242493 154 140 127
243.232578039169 213.963240385056 2815.00005722046 35 31 20
-55.0408698618412 202.02212035656 2755.00011444092 24 23 18
-47.487661242485 201.877310872078 2753.00002098084 20 17 12
-39.8290231823921 201.145604252815 2743.00003051758 14 15 9
-32.4370414018631 201.73354446888 2750.99992752075 21 24 17
-24.9287653714418 201.734572649002 2750.99992752075 22 25 18
-17.3254087567329 200.635388493538 2736.00006103516 19 22 15
-9.87231265753508 200.929179787636 2740.00000953674 20 23 14
-2.37812497653067 199.609443545341 2721.99988365173 20 23 14
5.06792031228542 200.269401073456 2730.99994659424 20 23 14
12.3063083738089 196.822464466095 2684.00001525879 20 23 14
19.514836370945 195.648595690727 2667.99998283386 18 21 12
26.8769972026348 196.234419941902 2676.00011825562 16 19 8
34.1805294156075 196.233302354813 2676.00011825562 17 20 9
41.8869778513908 198.138505220413 2701.99990272522 15 16 8
48.8053821027279 196.303591132164 2677.00004577637 17 18 10
56.6980354487896 198.35489988327 2704.99992370605 18 19 11
63.7957155704498 197.4728256464 2693.00007820129 17 18 10
71.0125640034676 197.103723883629 2687.99996376038 16 17 9
78.6681845784187 197.907611727715 2698.99988174438 16 17 9
86.0010161995888 197.831317782402 2697.99995422363 15 16 8
93.639500439167 198.41468334198 2706.00008964539 15 16 8
100.238591432571 196.871384978294 2684.99994277954 14 15 7
107.323624193668 196.427702903748 2678.99990081787 14 15 7
115.060113370419 197.156935930252 2688.99989128113 13 14 6
122.213467955589 196.859404444695 2684.99994277954 13 13 3
128.04189324379 194.582089781761 2654.00004386902 19 15 4
133.292943239212 191.718101501465 2615.00000953674 14 8 0
139.995396137238 191.126719117165 2607.00011253357 114 100 87
146.879360079765 190.82835316658 2602.9999256134 122 103 89
153.918400406837 190.749704837799 2601.99999809265 134 111 95
161.137044429779 190.890714526176 2604.00009155273 133 107 90
168.430581688881 191.10481441021 2607.00011253357 137 110 91
175.807148218155 191.391929984093 2611.00006103516 134 107 88
182.994648814201 191.45892560482 2611.99998855591 129 102 83
190.478056669235 191.818848252296 2617.00010299683 132 105 86
197.987988591194 192.178547382355 2621.99997901917 146 117 103
206.072062253952 193.050995469093 2634.0000629425 126 104 91
215.030342340469 194.656029343605 2655.99989891052 142 126 113
250.240236520767 212.22859621048 2895.99990844727 29 25 14
-55.3425177931786 195.568963885307 2769.99998092651 22 21 16
-47.7308519184589 195.35893201828 2766.99995994568 20 15 11
-40.0046929717064 194.513231515884 2755.00011444092 14 15 9
-32.4028246104717 194.02027130127 2747.99990653992 22 25 18
-24.8390343040228 193.527042865753 2740.9999370575 22 25 18
-17.4590088427067 194.65745985508 2756.99996948242 16 19 12
-9.85104683786631 193.034008145332 2733.99996757507 17 20 11
-2.39655748009682 193.669691681862 2743.00003051758 19 22 13
5.02356234937906 191.127836704254 2707.00001716614 18 21 12
12.4167930334806 191.198155283928 2707.99994468689 19 22 13
19.6764562278986 189.926698803902 2690.00005722046 18 21 12
27.0286146551371 189.996495842934 2690.99998474121 17 20 11
34.8842851817608 192.819565534592 2730.99994659424 17 20 9
41.9194847345352 190.911933779716 2703.9999961853 15 16 8
49.335852265358 191.051542758942 2706.00008964539 19 20 12
55.6729584932327 187.519580125809 2655.99989891052 20 21 13
63.7269094586372 189.917966723442 2690.00005722046 19 20 12
71.5170502662659 191.11579656601 2707.00001716614 16 17 9
78.6126852035522 190.407186746597 2697.00002670288 16 17 9
85.7809334993362 189.980730414391 2690.99998474121 16 17 9
91.6356891393662 186.941921710968 2648.00000190735 15 16 8
99.3087887763977 187.785774469376 2660.00008583069 14 15 7
107.487678527832 189.405903220177 2683.00008773804 14 15 7
115.064166486263 189.825594425201 2688.99989128113 13 14 6
122.263289988041 189.609706401825 2686.00010871887 17 19 8
127.998158335686 187.275856733322 2653.00011634827 20 17 8
133.552476763725 184.941902756691 2619.99988555908 15 11 0
140.161395072937 184.231296181679 2609.99989509583 115 103 89
147.166639566422 184.085205197334 2608.00004005432 111 95 80
154.337882995605 184.150606393814 2608.99996757507 111 88 72
161.575838923454 184.286385774612 2611.00006103516 110 87 71
168.824061751366 184.421882033348 2612.99991607666 112 86 69
176.082566380501 184.557154774666 2615.00000953674 119 93 76
183.421358466148 184.76277589798 2618.00003051758 108 83 63
191.066935658455 185.25043129921 2625 112 85 68
198.825418949127 185.808405280113 2632.99989700317 122 90 77
207.096219062805 186.789497733116 2647.0000743866 98 74 62
214.956745505333 187.346905469894 2654.99997138977 104 88 75
-62.6318454742432 187.19856441021 2757.99989700317 19 22 15
-55.6640960276127 189.101055264473 2786.00001335144 18 17 12
-47.7152392268181 187.745273113251 2766.00003242493 19 16 11
-40.0205850601196 187.067970633507 2756.00004196167 19 20 14
-32.1445167064667 185.032889246941 2726.0000705719 24 27 20
-24.7130170464516 185.101747512817 2726.99999809265 22 25 18
-17.2949563711882 185.373961925507 2730.99994659424 14 17 10
-9.80454310774803 184.69563126564 2720.99995613098 14 17 8
-2.38003907725215 184.899464249611 2723.99997711182 15 18 9
5.01260068267584 183.338239789009 2700.99997520447 16 19 10
12.3942960053682 183.473721146584 2703.00006866455 18 21 12
19.7649113833904 183.40528011322 2701.99990272522 18 21 12
27.2505227476358 184.151157736778 2713.00005912781 18 21 12
34.5916897058487 183.810710906982 2707.99994468689 19 22 11
42.1224683523178 184.420317411423 2717.00000762939 16 17 9
49.1552241146564 182.993397116661 2696.00009918213 20 21 13
55.2975535392761 179.054841399193 2638.00001144409 21 22 14
63.5869428515434 182.175070047379 2684.00001525879 20 21 13
70.8325803279877 181.969195604324 2680.99999427795 18 19 11
78.4696266055107 182.713270187378 2691.99991226196 15 16 8
84.89128947258 180.742263793945 2663.00010681152 15 16 8
91.9848904013634 180.399924516678 2657.99999237061 15 16 8
99.5361879467964 180.939674377441 2665.99988937378 15 16 8
107.611514627934 182.293578982353 2686.00010871887 15 16 8
115.367628633976 182.968527078629 2696.00009918213 15 16 8
122.495040297508 182.625234127045 2690.99998474121 18 18 10
129.44994866848 182.078123092651 2683.00008773804 21 18 9
134.219691157341 178.680583834648 2632.99989700317 22 15 5
140.380948781967 177.386686205864 2614.00008201599 87 73 60
147.510185837746 177.381902933121 2614.00008201599 115 97 83
154.757186770439 177.512615919113 2615.9999370575 110 87 71
162.200123071671 177.846670150757 2621.00005149841 102 76 61
169.411242008209 177.909076213837 2621.99997901917 106 79 62
176.761835813522 178.106933832169 2625 114 87 70
184.058040380478 178.236708045006 2627.00009346008 104 77 60
191.655576229095 178.637653589249 2632.99989700317 107 80 63
199.360638856888 179.106205701828 2640.00010490417 115 83 70
207.259550690651 179.710149765015 2648.9999294281 110 86 74
215.125769376755 180.246025323868 2657.00006484985 107 91 78
-71.8909725546837 184.104532003403 2825.99997520447 22 34 24
-64.0192180871964 183.650717139244 2819.00000572205 21 26 19
-55.5860102176666 181.242167949677 2782.00006484985 20 23 16
-47.8548295795918 180.722668766975 2773.9999294281 24 23 18
-39.7895649075508 178.508996963501 2740.00000953674 28 29 23
-31.9451130926609 176.490545272827 2709.00011062622 25 28 21
-24.5778951793909 176.686897873878 2711.99989318848 22 25 18
-17.2005351632833 176.948189735413 2716.00008010864 17 20 13
-9.77243762463331 176.688030362129 2711.99989318848 18 21 12
-2.32332362793386 173.235237598419 2658.99991989136 18 21 12
5.00534288585186 175.710916519165 2697.00002670288 18 21 12
12.4313896521926 176.622733473778 2710.99996566772 17 20 11
19.8387168347836 176.687359809875 2711.99989318848 16 19 10
27.1208453923464 175.904825329781 2700.00004768372 17 20 11
34.2096053063869 174.470514059067 2677.99997329712 21 24 13
41.612233966589 174.860179424286 2684.00001525879 18 19 11
48.6827827990055 173.946619033813 2670.00007629395 18 19 11
56.5990619361401 175.899371504784 2700.00004768372 18 19 11
63.1862804293633 173.747569322586 2667.00005531311 18 19 11
70.4650208353996 173.745423555374 2667.00005531311 18 19 11
77.6851624250412 173.612713813782 2664.99996185303 16 17 9
85.1172283291817 173.935830593109 2670.00007629395 16 17 9
92.5762429833412 174.258664250374 2674.99995231628 16 17 9
100.099503993988 174.64642226696 2680.99999427795 15 16 8
108.256094157696 176.01104080677 2701.99990272522 15 16 8
115.970522165298 176.528558135033 2710.00003814697 16 16 8
122.635625302792 175.482511520386 2694.00000572205 18 15 10
128.923416137695 174.045443534851 2671.99993133545 27 20 12
134.224057197571 171.50092124939 2632.99989700317 20 11 2
140.492916107178 170.389264822006 2615.9999370575 53 36 26
147.571414709091 170.31954228878 2615.00000953674 120 98 87
154.939666390419 170.575246214867 2618.99995803833 113 85 73
162.452906370163 170.960977673531 2625 86 56 45
169.998228549957 171.346500515938 2631.00004196167 122 90 77
177.238896489143 171.406105160713 2631.99996948242 110 78 65
184.554427862167 171.530663967133 2634.0000629425 97 65 52
192.171290516853 171.915456652641 2640.00010490417 111 79 66
199.669063091278 172.169789671898 2644.00005340576 118 84 74
207.735598087311 172.879680991173 2654.99997138977 123 99 89
216.023251414299 173.719555139542 2667.99998283386 107 90 80
-63.6578798294067 174.963042140007 2802.99997329712 23 28 21
-55.62774091959 173.778906464577 2783.99991989136 24 27 20
-47.7528423070908 172.78179526329 2767.99988746643 27 26 21
-39.9796180427074 171.846836805344 2753.00002098084 27 28 22
-32.1348085999489 170.100137591362 2724.99990463257 21 24 17
-24.4971122592688 168.727740645409 2703.00006866455 19 22 15
-17.0744173228741 168.291434645653 2696.00009918213 18 21 14
-9.70788486301899 168.167009949684 2694.00000572205 20 23 14
-2.3356310557574 166.856318712234 2673.00009727478 20 23 14
5.03519829362631 169.353187084198 2713.00005912781 20 23 14
12.4180279672146 169.04079914093 2707.99994468689 16 19 10
19.8539812117815 169.414833188057 2713.99998664856 15 18 9
27.1920226514339 168.977156281471 2707.00001716614 16 19 10
34.3128927052021 167.665332555771 2686.00010871887 21 24 15
40.9003607928753 164.667904376984 2638.00001144409 17 18 10
48.7207919359207 166.788816452026 2671.99993133545 17 18 10
56.558933109045 168.410137295723 2697.99995422363 16 17 9
63.472606241703 167.222291231155 2678.99990081787 17 18 10
70.387989282608 166.283920407295 2664.00003433228 17 18 10
77.5418728590012 166.031956672668 2660.00008583069 18 19 11
85.0880444049835 166.591182351112 2668.99991035461 17 18 10
92.7176102995873 167.212590575218 2678.99990081787 16 17 9
101.11078619957 169.019624590874 2707.99994468689 15 16 8
107.898905873299 168.080195784569 2693.00007820129 14 15 7
114.818707108498 167.452618479729 2683.00008773804 13 14 6
121.774531900883 166.949674487114 2674.99995231628 22 19 14
128.782704472542 166.571348905563 2668.99991035461 24 17 11
134.890988469124 165.131896734238 2645.99990844727 19 9 0
141.195520758629 164.066761732101 2628.99994850159 69 51 41
148.027494549751 163.687899708748 2622.99990653992 121 99 88
155.240312218666 163.745671510696 2624.00007247925 109 81 69
162.581726908684 163.928031921387 2627.00009346008 80 51 37
170.261949300766 164.422154426575 2634.99999046326 131 99 86
177.513763308525 164.479285478592 2635.99991798401 111 79 66
184.980541467667 164.72339630127 2640.00010490417 95 63 50
192.395597696304 164.904862642288 2642.99988746643 117 85 74
199.82622563839 165.086135268211 2645.99990844727 105 75 65
207.741960883141 165.641516447067 2654.99997138977 118 98 89
218.458950519562 168.317779898643 2697.99995422363 88 74 63
-72.2007229924202 169.404238462448 2838.00005912781 23 26 19
-63.5235533118248 166.958898305893 2796.99993133545 22 25 18
-55.8292493224144 166.781589388847 2793.99991035461 23 26 19
-40.2858108282089 165.590599179268 2773.9999294281 20 23 16
-32.33627602458 163.681492209435 2742.00010299683 24 27 20
-24.6609970927238 162.428736686707 2720.99995613098 21 24 17
-17.1256065368652 161.414563655853 2703.9999961853 21 24 17
-9.76584013551474 161.773145198822 2710.00003814697 22 25 18
-2.36366409808397 161.474838852882 2704.99992370605 19 22 15
5.02978358417749 161.773279309273 2710.00003814697 17 20 13
12.4688511714339 162.310272455215 2719.00010108948 15 18 11
19.8472701013088 161.951616406441 2713.00005912781 14 17 10
27.3435320705175 162.488162517548 2721.99988365173 15 18 11
34.7099676728249 162.18875348568 2717.00000762939 16 19 12
42.0024506747723 161.71008348465 2709.00011062622 16 19 10
48.8681569695473 159.977599978447 2680.0000667572 16 19 10
56.24620616436 160.15513241291 2683.00008773804 17 20 11
63.5219216346741 160.033941268921 2680.99999427795 18 21 12
70.575088262558 159.435033798218 2671.0000038147 16 19 10
77.6608362793922 159.014984965324 2664.00003433228 16 19 10
85.5050683021545 160.08697450161 2681.99992179871 15 18 9
93.7587320804596 161.695927381516 2709.00011062622 14 17 8
101.337879896164 161.991462111473 2713.99998664856 14 17 8
107.381299138069 159.959033131599 2680.0000667572 14 17 8
114.094637334347 159.120142459869 2665.99988937378 12 15 6
121.414013206959 159.176364541054 2667.00005531311 14 13 8
129.124358296394 159.709811210632 2676.00011825562 14 9 3
135.914668440819 159.109085798264 2665.99988937378 10 1 0
141.736820340157 157.493636012077 2638.99993896484 109 93 78
148.426979780197 156.952291727066 2630.00011444092 103 84 69
155.659094452858 157.00751543045 2631.00004196167 92 66 51
163.019806146622 157.181888818741 2634.0000629425 78 52 35
170.590102672577 157.535061240196 2640.00010490417 109 83 68
177.855744957924 157.58965909481 2641.00003242493 111 85 70
185.546576976776 158.002093434334 2648.00000190735 91 65 52
193.202033638954 158.354610204697 2654.00004386902 99 77 66
200.889453291893 158.706933259964 2660.00008583069 72 55 47
208.687052130699 159.11865234375 2667.00005531311 83 73 64
241.301268339157 171.992272138596 2882.99989700317 16 12 3
-71.5159103274345 160.12416779995 2811.00010871887 27 30 23
-63.4118542075157 159.043774008751 2792.00005531311 20 23 16
-55.7909160852432 159.045457839966 2792.00005531311 22 25 18
-48.1352582573891 158.933013677597 2789.99996185303 18 21 14
-40.2724668383598 157.96585381031 2773.00000190735 20 23 16
-32.6202586293221 157.568156719208 2766.00003242493 22 25 18
-25.0333230942488 157.341107726097 2762.00008392334 20 23 16
-17.4807887524366 157.227769494057 2759.99999046326 21 24 17
-9.84180439263582 155.576139688492 2730.99994659424 21 24 17
-2.38645286299288 155.576303601265 2730.99994659424 17 20 13
5.07447589188814 155.747160315514 2733.99996757507 15 18 11
12.4600445851684 154.778495430946 2717.00000762939 12 15 8
19.9136938899755 155.062854290009 2721.99988365173 13 16 9
27.253920212388 154.549494385719 2713.00005912781 14 17 10
34.8642840981483 155.460059642792 2729.00009155273 15 18 11
42.1742349863052 154.946267604828 2720.00002861023 15 18 9
49.7813299298286 155.514612793922 2730.00001907349 15 18 9
56.8767748773098 154.544681310654 2713.00005912781 16 19 10
63.9739632606506 153.802439570427 2700.00004768372 17 20 11
70.5771371722221 152.148559689522 2671.0000038147 16 19 10
78.1878381967545 152.773037552834 2681.99992179871 17 20 11
86.3046124577522 154.194742441177 2707.00001716614 15 18 9
94.3498387932777 155.274450778961 2726.0000705719 14 17 8
101.527526974678 154.872953891754 2719.00010108948 14 17 8
107.584737241268 152.933374047279 2684.99994277954 13 16 7
114.825502038002 152.816340327263 2683.00008773804 11 14 5
123.284079134464 154.236882925034 2707.99994468689 12 11 6
129.803642630577 153.20810675621 2690.00005722046 26 21 15
135.969564318657 151.894420385361 2667.00005531311 27 20 10
142.439126968384 151.036217808723 2651.99995040894 101 87 74
149.334236979485 150.690421462059 2645.99990844727 73 55 41
156.610190868378 150.743097066879 2647.0000743866 76 55 38
163.705289363861 150.624722242355 2644.99998092651 83 60 44
171.111911535263 150.790885090828 2648.00000190735 98 75 61
178.062841296196 150.558263063431 2644.00005340576 92 69 55
186.182484030724 151.293471455574 2657.00006484985 82 60 47
193.935483694077 151.686787605286 2664.00003433228 91 73 61
202.481105923653 152.649253606796 2680.99999427795 56 42 33
210.883915424347 153.440684080124 2694.9999332428 40 31 22
-71.5942233800888 152.617797255516 2813.99989128113 11 14 7
-63.6407360434532 151.96880698204 2802.00004577637 18 21 14
-55.7325221598148 151.265367865562 2789.00003433228 22 25 18
-48.4126508235931 152.188807725906 2805.99999427795 18 21 14
-40.27359187603 150.400206446648 2773.00000190735 17 20 13
-32.6447524130344 150.129988789558 2767.99988746643 18 21 14
-25.0884015113115 150.130778551102 2767.99988746643 17 20 13
-17.3799376934767 148.829638957977 2743.99995803833 18 21 14
-9.86009836196899 148.396104574203 2736.00006103516 17 20 13
-2.39263684488833 148.504763841629 2737.99991607666 13 16 9
5.04306424409151 147.365719079971 2717.00000762939 12 15 8
12.3732564970851 146.334946155548 2697.99995422363 11 14 7
19.6947678923607 146.0090726614 2691.99991226196 12 15 8
27.2345878183842 147.038951516151 2710.99996566772 13 16 9
34.5714129507542 146.766930818558 2706.00008964539 13 16 9
42.1288907527924 147.362515330315 2717.00000762939 12 15 6
49.5274253189564 147.307023406029 2716.00008010864 12 15 6
57.0880137383938 147.68522977829 2723.00004959106 14 17 8
64.0705153346062 146.653085947037 2703.9999961853 15 18 9
71.4511051774025 146.65125310421 2703.9999961853 14 17 8
78.3940851688385 145.835682749748 2688.99989128113 14 17 8
86.3070115447044 146.809667348862 2707.00001716614 13 16 7
95.0100794434547 148.868069052696 2744.99988555908 12 15 6
101.418316364288 147.29268848896 2716.00008010864 14 17 8
108.389116823673 146.693304181099 2704.99992370605 14 17 8
115.171052515507 145.93106508255 2690.99998474121 13 16 7
123.924843966961 147.608935832977 2721.99988365173 18 19 13
