ply
format ascii 1.0
comment KinectMotionCapture
element vertex 802
property float x
property float y
property float z
property uchar red
property uchar green
property uchar blue
end_header
-38.5231323043325 200.443722230332 2713.15016957679 21 16 10
-44.6123362564652 199.946045099032 2708.73345484906 40 33 27
-64.1252468995037 199.649041379406 2718.0540879323 41 32 27
-70.174593370584 199.154720104183 2713.66628374126 48 39 32
-67.8004942841115 198.529286768586 2700.5625334332 50 41 32
-63.3810839275901 197.866173073355 2685.23617216786 65 55 46
163.981550764444 217.715553698137 3003.31217691165 25 30 26
206.36642544141 216.98780343423 2961.1617291953 14 19 13
177.65108009094 216.628308679992 2974.9272175339 29 34 28
180.728747943492 216.097169149355 2963.56901348518 20 25 19
166.749940874074 215.6635651407 2965.78453135131 21 23 18
160.891134029103 215.183305592401 2961.53492462697 27 30 23
147.78191416568 214.749723011336 2963.14578829597 21 24 17
122.661561905697 214.399894987079 2974.57697181689 23 26 19
114.469525750816 213.941974493536 2972.34118041152 24 27 20
119.871671155892 213.387592750792 2958.96281213346 24 27 20
119.634365215282 212.869474066521 2950.14231426103 26 29 22
106.652632229717 212.446264152198 2951.8456484281 27 30 23
92.1249278776326 212.038752599765 2954.89842773261 26 29 22
72.9034218900582 211.673821868091 2961.95959447036 28 31 24
75.8190068276776 211.129226113161 2950.48411937619 21 24 17
76.3280898807235 210.601036407681 2940.96960717308 20 23 16
61.1293911912774 210.209726088372 2944.77108705435 20 23 16
59.2660569165853 209.700748469429 2937.2422605781 18 21 14
56.6008712750365 209.197233890879 2930.36692475722 19 22 15
56.2481197897142 208.669628406417 2921.46268989319 19 25 15
45.0161441892525 208.247390475487 2921.96409771826 20 26 16
28.4053659462562 207.882825196323 2927.21272867723 21 27 17
20.3299378082384 207.434451226696 2925.06181174388 20 26 16
16.8761934336219 206.937579404619 2918.85019762181 22 28 18
13.4081979832206 206.43955308647 2912.62824674302 23 29 19
3.81539196973657 206.009283486115 2911.84751516589 23 29 19
-9.56485065535051 205.624692631215 2914.497193433 19 25 15
-6.95377626843863 205.055248894233 2902.80084628211 15 21 11
-3.63468978869674 204.472622288683 2890.382354327 17 23 13
-1.12457409465061 203.894954963795 2878.61277841099 19 25 15
-7.69804533249197 203.427396226987 2875.08019717788 26 29 20
-12.7669487059094 202.940755110966 2870.16813938434 26 29 20
-22.3321249993333 202.51292088387 2869.4077439936 27 30 21
-34.1150406261055 202.11698332299 2870.74493348171 26 29 20
-44.3757691889821 201.703428074434 2870.71542636206 22 25 16
-43.4832238611556 201.135778281595 2860.2433631661 21 24 15
-27.8381324768464 200.352980247251 2835.76214622703 19 22 11
-27.0709311383261 199.775123917564 2825.19916680012 27 30 19
-31.4914805380353 199.2706640178 2819.52198775383 32 35 24
-35.1887096307051 198.754298725425 2813.13376762515 26 29 18
-41.8236069925739 198.282062506603 2809.55663359146 23 26 15
-25.1384176793725 197.442300937139 2783.3590440479 24 27 16
-44.9133625169977 197.17508327566 2792.48987382366 25 26 18
-59.5358028553219 196.83168105762 2796.7093383456 25 26 18
-82.7711523759349 196.637008773825 2809.50778647465 20 23 14
-41.8360590173972 195.363699095034 2758.89278924548 19 22 13
-55.0111569882441 194.996660742078 2761.69127015733 19 22 13
-79.5901183744829 194.83444612739 2775.98594303378 15 18 9
-51.9900365273558 193.750245834701 2737.93720096377 18 19 11
0.997990939259452 192.183277148129 2673.82601374044 23 23 15
-26.4766885552548 192.068746865384 2690.96220128687 28 28 20
-49.5806529207263 191.885226066833 2703.85594980325 139 134 128
150.45743673289 210.627040511987 3014.46944839603 63 68 64
218.202906864973 209.523298322409 2952.41274727541 14 19 13
212.25645837655 209.035371257338 2948.09956841588 28 33 27
168.946842267767 208.886940263069 2973.51855921485 18 23 17
192.261167608891 208.134879503931 2945.95124397256 19 21 16
154.020478768792 207.958141154562 2967.6338562133 20 23 16
155.431677405423 207.407572489056 2957.53786238877 15 18 11
132.698407944912 207.096701108767 2966.99428613235 17 20 13
122.877065100217 206.660807204496 2966.04785484086 22 25 18
136.250259762327 205.98127557808 2946.09598664794 21 24 17
131.188770091176 205.491762445365 2941.18928865806 25 28 21
118.175136850499 205.090000204277 2942.86960628611 26 29 22
98.0674392470187 204.772394112017 2950.52363014705 26 29 22
79.6184299081419 204.442844040299 2956.90993877215 28 31 24
68.3317960417393 204.034713698925 2957.3717951115 22 25 18
53.1452292217676 203.676732894693 2961.18253294144 20 23 16
57.604159485761 203.080010928951 2948.35523004602 19 22 15
58.0973904550959 202.528010719174 2938.82881124721 17 20 13
55.4370824002879 202.013386017545 2931.95724949511 19 22 15
47.3180966378131 201.569070859098 2929.7747772689 20 26 16
42.3112027555939 201.084002998087 2924.90767944773 20 26 16
24.9346049528651 200.768430595907 2930.83614177521 19 25 15
18.410854127116 200.306986222931 2927.33992937739 18 24 14
17.2692765650555 199.768964491417 2919.0988415248 19 25 15
13.0356331858961 199.273362604781 2913.55690503214 20 26 16
3.44417570357036 198.856356248207 2912.77751269199 23 29 19
-3.84085341138096 198.40652202255 2909.96423437571 20 26 16
-12.6373484088091 197.980770424927 2908.52575190361 16 22 12
-11.5712815654716 197.401909066585 2898.17971584561 18 24 14
-1.48298320113494 196.674999216793 2879.55142613083 21 27 17
-6.54847761621569 196.185318482672 2874.64182416768 26 29 20
-8.61603192080063 195.645522569527 2866.96450365573 26 29 20
-18.9414733404294 195.242504693063 2866.88813817905 26 29 20
-17.2990172742415 194.637056798263 2855.72447319717 25 28 19
-31.3301401287891 194.300208781429 2859.13788742858 24 27 18
-39.3777018628207 193.862112908489 2857.00722350677 24 27 18
-42.9743017690749 193.345094957699 2850.69194831701 23 26 15
-38.4714328756364 192.678383172205 2836.66081185332 32 35 24
-32.5604848758241 191.979201231258 2821.18018425759 34 37 26
-36.9861197173411 191.46834003652 2815.49928624219 25 28 17
-39.9595325717552 190.92861173347 2808.40062098417 23 26 15
-27.6467293174421 190.088611593589 2786.44390851899 26 29 18
-19.07826505462 189.311589876318 2767.9489359089 27 28 20
-54.0627336802411 189.40267438625 2791.99340824987 26 27 19
-70.094926089781 189.124155128581 2797.66160979019 21 24 15
-62.3071146345988 188.357284339041 2779.83610782255 19 22 13
-28.7637916142609 187.038794212701 2736.21367940222 18 21 12
-46.985681736756 186.802870073571 2744.00014245724 16 19 10
-6.63710294096753 185.30265043313 2692.95881896101 9 12 3
-33.8567622515924 184.625665373584 2699.16110851998 23 23 15
243.111249454442 201.82665992662 2933.37660222887 6 11 5
207.77474529699 201.69018644232 2952.22428288009 7 12 6
201.840701981399 201.202689300374 2947.92009897273 12 17 11
192.665374658562 200.756255148579 2946.20688810205 16 18 13
199.666675642147 200.10181337812 2931.51690727133 12 15 8
175.976458744544 199.846148748523 2941.51493565777 13 16 9
150.774665298137 199.619954238652 2952.88741247571 15 18 11
140.904121070402 199.193176195526 2951.90565470229 18 21 14
127.058648408386 198.824046110833 2954.21815609898 16 19 12
126.806048458656 198.265182843464 2945.38636489361 19 22 15
109.03513766235 197.957769727249 2951.02902264538 21 24 17
94.4995482201785 197.608768662023 2954.07667672398 24 27 20
79.2212136438133 197.275545204111 2957.82072107272 28 31 24
60.8411120949679 196.994936505744 2964.25723032308 24 27 20
53.5356006284697 196.548262716686 2961.4294143983 22 25 18
55.6448227271278 195.95283226602 2950.60416881497 20 23 16
65.5262056698556 195.227453737167 2933.06122055794 18 21 14
43.3591711753767 195.019954235682 2942.92834923438 20 23 14
31.3883659620298 194.651086676064 2944.12947066631 15 21 11
30.3032426053331 194.100674011665 2935.92953938649 22 28 16
26.0992544952678 193.601418003285 2930.40908212243 23 29 17
21.8856376925736 193.101374495443 2924.88164082475 22 28 16
14.587826621868 192.65537680016 2922.05941050576 16 22 10
18.0267360451123 192.015566520252 2909.72749111295 15 21 9
12.2421339673711 191.540220593049 2905.53170189644 19 25 13
7.21837400008507 191.050575160985 2900.65235430396 20 26 14
-3.88866510860852 190.675947723253 2901.24457241472 21 27 15
-5.87555376913307 190.128440617362 2893.62598356796 20 26 14
-1.8424272998645 189.460712856488 2880.48964675629 19 25 13
-4.64586818639967 188.923004160355 2873.51391355785 22 25 16
-14.9776758617359 188.535354933046 2873.43301089179 22 25 16
-12.5552551393426 187.889114419594 2861.59951568261 20 23 14
-13.1684580663352 187.300911333901 2852.5061670714 21 24 15
-23.4903062198202 186.914188426563 2852.43248896726 24 27 18
-37.4975093363241 186.608967961021 2855.86310885002 25 28 19
-47.757715395998 186.227388110273 2855.83414246578 26 29 18
-46.9261033511819 185.604355858009 2845.31762690951 22 25 16
-42.4574756896443 184.895927541734 2831.26175142063 22 25 14
-37.3181106475478 184.165815194454 2816.45666683306 22 25 14
-41.0197648325701 183.631586482397 2810.06514837875 24 27 18
-41.8199752994814 183.028420399825 2800.83615822039 23 24 16
-30.2974124048845 182.131254814863 2779.54162520587 24 25 17
-46.414310862029 181.883668853756 2785.14857820781 25 26 18
-80.5292300322489 182.078711035539 2808.58889544301 20 23 14
-97.1900197386457 181.863398711731 2815.03706464971 18 21 12
0.662125847463724 178.146449346057 2696.97890148448 13 19 9
-34.758408121442 178.388169604659 2721.94306038098 9 15 5
-37.2787747964787 177.797907844644 2713.93752537576 14 17 8
237.802707280581 194.428190815387 2938.13669737095 6 11 5
253.803146403717 193.593375446915 2916.38318384862 12 17 11
218.49560402333 193.557235514442 2935.25236771933 10 15 9
238.863837893456 192.045920618918 2900.6050811313 12 14 9
201.364110735701 192.068339604616 2921.59050997342 14 17 10
172.071970437798 191.969203048978 2936.17422274001 12 15 8
132.485446100921 192.058955811705 2959.35292767302 15 18 11
124.258301368232 191.621128179276 2957.09208156168 16 19 12
110.463197617688 191.282933383071 2959.44125315055 16 19 12
99.0960324672989 190.905454698588 2959.8448859002 20 23 16
93.3084327076492 190.429223679706 2955.64691911694 23 26 19
92.263721263329 189.865114696981 2947.47591944325 26 29 22
73.8462785805871 189.624690664665 2953.88556285202 26 29 22
68.8641588331973 189.135035561262 2949.0364010946 26 29 22
66.2288586636088 188.599413004452 2942.18286173391 23 26 19
60.4477104044836 188.123704629061 2937.98957442835 21 24 17
56.2250900764187 187.616837866104 2932.45557172185 22 25 16
27.1137648563116 187.61215396127 2948.40587624762 23 26 17
30.6943831084467 186.95050445436 2936.17686846612 18 21 10
23.3985601005702 186.50954898083 2933.35581039913 24 27 16
19.964759369512 185.987945793798 2927.15852858065 24 27 16
21.1289861430242 185.366565006227 2916.88314090455 17 20 9
19.95299212905 184.791726477955 2908.61721182418 19 22 11
14.928449606102 184.298661638127 2903.7369851434 17 20 9
12.1846298328641 183.754240315199 2896.80473303862 20 23 12
0.303340316006206 183.414262144781 2898.07118711677 24 27 16
-2.45107680201317 182.868986896318 2891.13095396828 20 23 12
6.10808821258235 182.059350681054 2873.86440604204 18 21 10
-3.49643797097476 181.667719361758 2873.07537397402 20 23 14
-4.81793309442335 181.081098198521 2864.70361387585 21 24 17
-24.140871538588 180.92585563887 2872.92764327929 21 24 17
-20.2374699699008 180.211399026355 2859.69702942788 19 22 15
-23.8375258685193 179.676484144136 2853.37915826402 19 22 15
-31.9056768751496 179.252096874933 2851.23363817587 20 23 16
-43.6622289979678 178.922706352641 2852.5902762045 24 27 18
-44.3161382606796 178.31158722447 2843.46730262754 21 24 17
-38.3804684829172 177.52554656612 2828.00415641971 19 22 13
-27.3817793789095 176.598340015216 2807.56474058015 22 25 16
-25.9924391262418 175.916451769718 2796.21719935785 25 28 21
-42.8758843163943 175.723301988249 2802.50407311031 24 27 18
-50.2444703416729 175.277161356638 2799.63024131532 21 24 15
-48.9090364330524 174.591040519676 2788.24360079489 20 23 14
-84.4659222949384 174.93340870721 2813.1097195729 18 21 12
-58.6185366741201 173.554979154475 2777.49432463945 15 18 9
-26.1221706914996 171.290600522259 2724.46259272613 15 18 11
-15.7900000009716 170.3092491871 2703.53972921042 16 19 12
-52.5171438815146 170.715003734412 2730.02789729896 10 13 6
236.28838157069 186.39102929303 2930.82274291592 18 23 17
238.406883625329 185.740711303993 2920.0036520775 12 17 11
200.766875590855 185.857888816357 2940.88816276599 13 15 10
202.095068783608 185.224925664675 2930.73187365647 13 16 9
204.995570672581 184.556398795764 2919.2445423259 13 16 9
134.690413193206 185.36530385497 2967.09322280781 11 14 7
126.468183925741 184.935541151917 2964.83568639554 10 13 6
140.645095392744 184.040829629174 2944.23032310886 11 14 7
123.61530400452 183.793020495703 2949.17549941255 12 15 8
102.670213784919 183.635204900804 2957.45861997181 13 16 9
102.424561408696 183.037428738482 2948.63166810926 18 21 14
101.356622121027 182.454403586094 2940.44373426209 21 24 17
84.4899374601376 182.219994615977 2945.50721798777 24 27 20
77.1203350031002 181.777881919752 2942.63296423901 26 29 22
82.3056829114313 181.049931124555 2929.0965556674 24 27 20
73.3527415514907 180.642393179283 2927.54475414412 22 25 18
47.2606441764851 180.638072482932 2940.74332221422 21 24 15
44.6101852851206 180.089673517916 2933.87843478056 23 26 17
41.1655132053013 179.558395244008 2927.67351756017 20 23 12
31.5211810662603 179.17642145854 2926.85567822282 24 27 16
29.6078968385181 178.606304652948 2919.29033227759 24 27 16
24.596585373903 178.110988426682 2914.41968566965 17 20 9
23.4129577507347 177.518494145226 2906.14783891617 19 22 11
18.3795989009159 177.021424597187 2901.26149528428 19 22 11
14.1031976096633 176.504236953287 2895.68874780955 20 23 12
7.53680532983214 176.045936948158 2892.16134516147 23 26 15
0.216101019595794 175.608014164035 2889.32226546858 20 23 12
-0.296172203397838 174.988474444192 2880.30192422752 20 23 12
8.95468662475363 174.100668894688 2862.3010728589 19 22 15
-4.4212021685659 173.824104039649 2864.95445448456 20 23 16
-20.7505405547348 173.634296921537 2870.40799238651 19 22 15
-31.0441571815345 173.281679241875 2870.35465819124 18 21 14
-7.05830638205085 171.957812065158 2838.33080877872 17 20 13
-24.0848187873073 171.793205151591 2844.51411462901 19 22 15
-37.3451316287821 171.526391572389 2847.25132912081 29 32 25
-33.5871275673791 170.763958856235 2833.915070505 23 26 19
-33.5665211412479 170.10621255227 2824.04550046371 20 23 16
-18.9093634624102 169.004216144113 2800.08182360152 19 22 15
-30.7088033519058 168.692956091592 2801.40746320722 21 24 17
-38.8278992926872 168.27241004592 2799.22503150564 21 24 15
-56.3865215283508 168.146860795526 2806.25783404804 19 22 13
-65.9024330708229 167.776391193572 2805.53344228976 21 24 15
-65.2802923355302 167.086107540684 2794.86473586927 20 23 14
-36.8655446014459 164.809012784887 2746.28460162408 16 19 12
-12.1045489464628 163.302490131409 2711.1163417091 15 18 11
-26.0806546411636 163.059995733602 2714.56982249647 17 20 13
282.337776976728 177.896693070532 2894.9945550794 19 24 18
223.373179151729 178.579752248532 2932.53659001699 13 18 12
189.011420602677 178.732241727738 2950.85731158702 14 16 11
200.883786871604 177.834501734363 2932.28642885263 14 17 10
190.889987032484 177.437005234665 2931.2154687729 13 16 9
186.546034815301 176.908203645004 2925.59339888641 12 15 8
174.97557760463 176.551244926042 2925.84976482076 9 12 5
162.635161460733 176.216094684519 2926.78341266314 10 13 6
177.443926412722 175.219113649117 2905.40024433069 10 13 6
143.624393824818 175.41610909005 2924.11396802608 10 13 6
133.750715010662 175.028381072886 2923.13013572015 14 17 10
108.870642709596 175.024074853972 2934.73695897015 16 19 12
94.348204960633 174.764873724082 2937.79460184621 21 24 17
80.6597572190899 174.489096155719 2940.22140680773 23 26 19
81.132538726405 173.84546512578 2930.67969962932 24 27 20
70.6190712500021 173.490274638728 2930.46727230657 22 25 18
48.4317580678542 173.452089264562 2940.32055813898 21 24 15
34.8909602765497 173.188497028114 2942.85445942154 23 26 17
34.5777005943297 172.565401505406 2933.9783693325 21 24 13
39.6463348446749 171.788945551079 2920.35710685123 23 26 15
40.0255304915351 171.137661233375 2910.74781299697 24 27 16
36.5236624718182 170.592926879349 2904.5010705844 18 21 10
39.1420688042086 169.870375788759 2892.80896852131 18 21 10
24.8898442481029 169.633565295446 2896.06260812049 16 19 8
21.3586551902378 169.08646307831 2889.79459826793 16 19 8
9.45111991516923 168.787080114216 2891.04193738155 19 22 11
-3.18045088839014 168.513360359082 2892.99986878431 17 20 9
1.61000965202529 167.714167596592 2879.17683707777 18 21 10
4.83069185432061 166.956174444939 2866.68612149575 20 23 14
4.24055343981244 166.310536637424 2857.60920192368 21 24 17
-13.6132826005335 166.203504821274 2864.42809147335 20 23 16
-15.7105225431664 165.604300972712 2856.72895029596 19 22 15
-19.3205373812466 165.051022091641 2850.40376666707 19 22 15
-25.1726606791076 164.568847020795 2846.15899528616 19 22 15
-29.5451315882973 164.038126324231 2840.51653634758 25 28 21
-35.4037839691723 163.555519408546 2836.26702970768 21 24 17
-41.2635714835927 163.072887746176 2832.0167000599 20 23 16
-43.455283264596 162.466217324549 2824.24903641108 20 23 16
-41.2806114484456 161.707833699528 2812.23537470557 22 25 18
-31.861446141709 160.693838108464 2793.12085648848 19 22 13
-45.0789757403429 160.457830712492 2795.88924150545 17 20 11
-58.2534943259516 160.225434643855 2798.68882441574 18 21 12
-48.9784579811892 159.199767577076 2779.4694704429 22 25 16
-20.2830758978827 156.02453599591 2719.97201169255 17 20 13
-20.6689075721811 155.311619460301 2709.80782102736 8 11 4
217.54109148803 171.930058220552 2946.80212501855 14 19 13
217.275940349298 171.291488094313 2937.96083145746 14 19 13
204.817877199986 170.968125316962 2938.80895970371 15 17 12
191.585371822468 170.668926163749 2940.33113175106 14 17 10
184.036558743036 170.222023291996 2937.32664565737 14 17 10
198.209347706156 169.188977055345 2916.71759318706 12 15 8
170.566694574386 169.286281463342 2930.02768167896 10 13 6
195.030579416107 167.9571605054 2900.82071046939 10 13 6
187.421644127988 167.505177960888 2897.77261477402 10 13 6
182.206871104873 166.986474091084 2892.75465055424 9 12 5
151.602578305903 167.191661414841 2908.85877068892 10 13 6
127.461770718325 167.2254803857 2919.76665918883 11 14 7
87.6433533905292 167.727493200509 2944.01438475152 16 19 12
64.5329155843144 167.758227950558 2954.43415804372 19 22 15
60.3460063346151 167.236189147091 2948.92596621067 22 25 18
58.4960649404591 166.642750825454 2941.40642070923 22 25 18
47.2622503058728 166.332069910707 2941.9070604375 22 25 16
36.0580883639177 166.023880810483 2942.429208657 23 26 17
49.7065278334294 164.947422920025 2921.43982416001 21 24 13
53.1886996050543 164.177298694756 2909.13860650098 23 26 15
53.5319195761028 163.50055123344 2899.5028096587 23 26 15
48.4549748158605 162.993237029341 2894.58481777898 18 21 10
50.275021000008 162.262226027547 2883.54925566168 17 20 9
42.8732393711213 161.827416464875 2880.65171153632 15 18 7
32.4290286440112 161.493967376991 2880.48960003361 14 17 6
20.4896449572352 161.21335528232 2881.71394663206 16 19 8
7.82602657356923 160.961123541292 2883.6487549011 16 19 8
-4.0430268150522 160.686395684539 2884.92411523843 17 20 9
1.45827048956271 159.818861789103 2870.38100148176 20 23 14
-2.12597732919018 159.258790899427 2864.07446251221 20 23 14
-11.7193076501936 158.90767671933 2863.29375179118 20 23 14
-12.3259327249077 158.241040125298 2854.20477432429 19 22 13
-21.1589262542249 157.864689725588 2852.74008351432 18 21 12
-23.2906198072262 157.248508484641 2845.01617466267 19 22 13
-29.8887139615505 156.792397375413 2841.46580173641 22 25 16
-36.4834175699478 156.33662815001 2837.91788842096 20 23 14
-62.2150280021945 156.592283572698 2852.61442910555 19 22 13
-63.6081074385433 155.949178122571 2844.19048990722 21 24 15
-52.5890273817073 154.832771848619 2823.76489757063 22 25 16
-38.754101941993 153.596410316742 2800.43952305436 22 25 16
-40.3134038078923 152.939838996056 2791.8950174622 18 21 12
-52.777309966423 152.704918414606 2793.97439459273 17 20 11
-69.5404857915982 152.643904466383 2800.34912346859 21 24 15
-91.2836987522652 152.788663182552 2811.76060478323 20 23 14
-68.381991214477 151.15568468743 2778.94927107377 21 24 17
-32.047491931954 148.957495085225 2732.40532904745 21 24 17
-20.2543003981939 147.729491379114 2710.06997364243 7 10 3
251.372865221686 163.54967738752 2920.64472152437 2 7 1
228.251656992199 163.548627844933 2929.82148948399 11 16 10
219.007551485066 163.148509396669 2928.05865443788 12 14 9
198.457970778797 163.08707386991 2935.39364536177 12 15 8
188.471432406893 162.7164603767 2934.32808544233 11 14 7
135.070556903565 163.668284138057 2968.49393404298 9 12 5
211.077247794908 160.674491442577 2897.59477721703 10 13 6
197.838123515156 160.398698418406 2899.11226963755 10 13 6
203.784775666062 159.526039513306 2884.89168267709 10 13 6
164.315505648808 160.083264866918 2908.15775560956 9 12 5
166.286676207634 159.336693346865 2897.23166795953 10 13 6
143.685597618509 159.378314909735 2906.7854106561 11 14 7
103.027806979526 160.019166915829 2931.6606909465 11 14 7
80.65939591273 160.07999560568 2941.38319658326 13 16 9
63.8747377462989 159.965752413243 2946.50675172865 15 18 11
60.4520738260428 159.409922068755 2940.3173698547 16 19 12
46.872009968248 159.196798789057 2942.82306196289 19 22 13
47.3398639551332 158.507851584362 2933.27784766143 21 24 15
53.2029462007841 157.628228417538 2918.99664381783 21 24 13
58.9989218001841 156.743112010559 2904.66705958691 21 24 13
51.6132842567507 156.314469061414 2901.78095541172 20 23 12
46.5430676077441 155.804436403454 2896.86782711391 17 20 9
55.2751011989314 154.798241971709 2879.72530522491 14 17 6
50.919401226853 154.256385982733 2874.0949474941 15 18 7
33.5883233277006 154.188076734938 2880.05766060775 15 18 7
25.4479152858402 153.788163294235 2877.85988381749 17 20 9
8.97847317517186 153.700195447418 2883.21207889856 17 20 9
-6.67448952437399 153.588836151645 2887.92100221778 18 21 10
-13.9784423006364 153.167231676722 2885.09444320183 18 21 10
3.53158204161685 151.7955608315 2859.49209994833 19 22 11
-4.57870419606876 151.39830874177 2857.3158781 18 21 10
-20.150125704556 151.293868846876 2862.08394741692 17 20 9
-17.7829165863372 150.489591568772 2850.20962765024 17 20 9
-26.608642553771 150.124329898146 2848.75026141757 17 20 9
-28.0108594270421 149.463307866856 2840.3196075452 20 23 12
-32.3946571251095 148.919698407104 2834.66887229151 20 23 12
-58.1410974122192 149.247709128216 2849.35473451466 20 23 12
-63.9488859754354 148.768386335598 2845.14211677639 20 23 12
-45.6050042056797 147.284342227892 2817.67331763935 21 24 13
-27.4075985975986 145.788312429911 2790.09827409686 21 24 13
-39.9114424609222 145.574228628921 2792.1490995523 18 21 12
-58.1791007989769 145.61135997779 2799.903767331 14 17 8
-73.5869894069463 144.794847521184 2794.90560188491 19 22 13
-65.3115185663831 142.935319772607 2766.31186699613 14 17 10
-28.4115034021597 140.530553704499 2718.94179652143 22 25 18
294.533064061036 153.935925709158 2877.77627686137 10 15 9
225.901955369968 155.476241728777 2923.13681141198 10 12 7
219.892180908508 154.979092102318 2918.77767948906 10 12 7
175.966723849439 155.750960217767 2944.9899321661 10 13 6
172.172341676746 154.499511728122 2929.88171499662 9 12 5
210.247712537576 152.493585129867 2889.54118277329 10 13 6
195.417318138669 152.297674801542 2892.37560740505 11 14 7
156.761582801831 152.94294627672 2914.99683833081 10 13 6
152.407903839848 152.395082572783 2909.36762076607 11 14 7
148.835811970807 151.818147985811 2903.06980848594 12 15 8
134.990403833488 151.609928158607 2905.38317170013 10 13 6
109.383223349943 151.834777575174 2917.69939053609 12 15 8
97.2261998550166 151.578758170242 2918.76608995977 13 16 9
72.5817134291216 151.789507106755 2930.54507821211 13 16 9
64.4300600130445 151.396150642228 2928.33918262248 16 19 12
47.7304466089725 151.326779154497 2933.52461581508 21 24 15
65.235907847617 149.962544494704 2909.15403896534 21 24 13
64.0370242839246 149.300736234514 2900.87078176603 20 23 12
56.6377825971127 148.875930421169 2897.97512956985 20 23 12
49.2464787678832 148.451787176343 2895.08494057505 16 19 8
50.3024227382451 147.695350784748 2884.73037230081 13 16 5
42.9023584511783 147.270553011377 2881.83412382488 14 17 6
35.5099949725344 146.846423897231 2878.9434612162 15 18 7
18.9977832181922 146.792756791474 2884.26482540983 18 21 10
3.30451535889198 146.713119800038 2888.94469133831 17 20 9
-4.77022296295937 146.326382650723 2886.79458667007 18 21 10
-9.06249051544683 145.783897226587 2881.2099147887 19 22 11
0.168690584574804 144.672922687055 2863.19366822009 20 23 12
-5.68218025241762 144.189094104936 2858.94979639943 20 23 12
-32.4629726164383 144.59856686747 2874.12157845538 18 21 10
-28.5660873316425 143.702640751 2860.88532163189 18 21 10
-40.3315154668322 143.479584621567 2862.23606385439 19 22 11
-38.727547429487 142.675320432558 2851.0434910353 18 21 10
-36.4300455152335 141.834762452297 2839.11845525992 19 22 11
-43.0193416659241 141.383949417298 2835.57448703004 19 22 11
-51.0739184257414 140.999487825369 2833.43900943453 21 24 13
-11.5329657408345 138.459517778922 2785.51235835875 22 25 14
-17.5168368035301 137.965317966012 2781.17201930379 23 26 15
-49.6969575207811 138.678616835707 2802.31213393587 17 20 11
-70.8379066964255 138.89915766934 2812.92526186636 15 18 9
-50.6627826986059 137.194695047448 2783.07744847324 18 21 12
-41.4630298525145 135.988457723797 2763.80289973866 18 21 12
-106.396360098883 138.304370769393 2818.02343897319 19 22 15
-84.97405720186 136.515932841448 2786.60893909331 24 27 20
-35.1437075196612 133.328369228746 2726.37624732312 12 15 8
295.76448532704 146.216763215519 2877.39482470791 0 4 0
252.660604013875 146.315952925622 2893.08303483385 16 18 13
208.640407613776 147.208127708405 2919.22751279475 14 17 10
172.067352014674 147.848052115106 2939.65279678338 15 18 11
195.845209738327 146.244829181636 2911.18215812404 9 12 5
175.074647103856 145.586383857789 2909.70808520143 9 12 5
142.041167088725 146.133150129002 2927.75866468805 9 12 5
139.31686169031 145.52110105574 2920.83992194513 10 13 6
149.238187121255 144.411534608313 2903.32398286267 10 13 6
151.967034799531 143.57524199634 2891.71166044194 10 13 6
148.349840147735 142.985766688455 2885.38108867083 10 13 6
136.084094655104 142.742114194116 2886.36933031599 9 12 5
100.370408096653 143.453046120769 2907.41794892912 9 12 5
57.0167955713092 144.496807497354 2935.28145221162 9 12 5
76.1414285602462 142.990790205065 2909.6135616261 9 12 3
56.3166732956089 143.086635981676 2917.47479064198 10 13 4
53.5970898372447 142.47499473255 2910.5597674769 16 19 10
40.0541557221654 142.318730957514 2913.09266373258 18 21 12
38.8674748835407 141.640958946582 2904.81817168954 19 22 13
36.8858652575836 140.993980374385 2897.20290588501 18 21 12
37.1771081487102 140.245563954602 2887.52906673084 17 20 11
20.6461562846822 140.228147140544 2892.83732391093 17 20 11
9.50142950936606 139.980984413777 2893.40286706175 20 23 14
5.21383176097778 139.432783426702 2887.82155147058 20 23 14
6.9674958998136 138.612551762278 2876.73741567172 19 22 13
0.380029839829543 138.163619555676 2873.19478364042 15 18 7
-4.70023963298627 137.64649940628 2868.27433193655 16 19 8
-4.53730501728433 136.887788559352 2858.50772170902 19 22 11
-20.110200867383 136.853480485035 2863.27507747574 19 22 11
-26.6821797478687 136.406086695813 2859.74368022376 18 21 10
-33.9940122346463 135.994007793021 2856.9114572864 18 21 10
-47.2261367073346 135.86411794157 2859.66979967397 19 22 11
-43.4227974358903 134.924438674664 2846.36550773071 17 20 9
-44.8339533496651 134.228855078073 2837.92819869597 18 21 10
-51.4133888697195 133.78118580887 2834.39139457146 25 28 17
-27.9693745980782 131.861540337821 2801.97173856203 27 30 19
-21.4925171224125 130.757427010162 2785.66426313596 28 31 20
-47.8423232977228 131.279500933758 2801.14875214786 18 21 12
-54.4790382722855 130.827470595487 2797.57069731173 16 19 10
-39.4106412510036 129.276599593643 2772.66753188063 13 16 7
-35.2889604280739 128.26751342927 2758.35862433296 12 15 6
-80.2752454459661 128.98576970951 2782.56655199975 21 24 17
285.710293829515 136.662588377547 2857.7066832221 15 18 11
219.950620276113 138.563176515211 2901.44490839113 11 14 7
124.130425617635 139.56074847938 2943.14939926216 9 12 5
100.023044227977 139.84711651221 2954.08279833708 11 14 7
134.598542772329 137.646054869036 2916.1445865769 11 14 7
145.265340556184 136.443597958234 2897.93354917453 11 14 7
141.668369173467 135.847008491755 2891.61760164815 10 13 6
144.609662250472 134.202460205696 2870.27401499177 7 10 3
140.161140104083 133.634650728032 2864.57594254933 7 10 3
81.2075247671822 135.503245643531 2905.83734826378 6 9 0
62.1431898826415 135.611560319509 2913.0148487696 8 11 2
54.7641517692252 135.198293758294 2910.13390102352 12 15 6
45.8491577158067 134.856411614465 2908.60994087216 15 18 9
28.4836336299397 134.906923267617 2914.54857953826 18 21 12
37.2792222138427 133.748109019096 2897.45135697035 18 21 12
28.387571313325 133.408252354568 2895.94432902815 19 22 13
10.3548234019244 133.502879804948 2902.63454298826 19 22 13
3.04447244930639 133.095476388854 2899.80341772889 19 22 13
10.1581834303461 131.996090852081 2883.95734047016 18 21 12
27.0311578097142 130.414171433864 2859.12715778197 17 20 11
7.56238711784185 130.588677695217 2867.24714051962 16 19 10
-3.55454526840338 130.362675541445 2867.83293959872 17 20 11
-15.3916059862316 130.176368906321 2869.13193997678 18 21 12
-22.7081833917127 129.768744861227 2866.29629991132 18 21 12
-15.8515086192379 128.64839752385 2850.26407992095 18 21 12
-25.4242715389263 128.351934828733 2849.49855576861 18 21 12
-35.7174239121196 128.095171792806 2849.44633812037 18 21 12
-52.6358590021814 128.183470915845 2855.70927254186 17 20 11
-51.8071133855296 127.358518798818 2845.18965628671 18 21 12
-41.4699496822672 126.030312839417 2825.50369205464 22 25 16
-48.8071846794007 125.621508185495 2822.65307088012 24 27 18
-45.9145072650988 124.669884344768 2809.9235968497 20 23 14
-50.3553917707829 124.103973515629 2804.23136519004 17 20 11
-62.160668063467 123.127450942103 2795.66852218905 13 16 7
-80.4421786639833 122.508592446869 2793.52864898453 17 20 13
-66.4862416306158 120.091845215346 2759.16880637488 17 20 13
268.655663039879 128.921624412087 2862.59589860714 6 9 2
212.709990689198 130.612715577899 2898.62611856426 14 17 10
201.429116541935 129.57393523859 2889.20807389272 12 15 8
177.073731868303 129.902181511915 2899.96190221598 12 15 8
135.350311444704 131.036675096627 2925.30192727793 13 16 9
146.082466292752 129.781576272123 2907.13800196451 14 17 10
134.612524135824 129.544526135762 2907.46784076703 9 12 5
134.983719244127 128.757684682527 2897.85206052801 9 12 5
164.590825686084 125.799340177325 2853.83795177966 9 12 5
143.689995764372 126.00558940508 2862.15500163353 9 12 5
100.582617976494 126.514113440779 2880.31311818481 10 13 4
47.0133733165032 127.584812191138 2908.18203689286 10 13 4
43.5012697899775 126.986614345726 2901.92760373984 11 14 5
36.1368276778191 126.579523409537 2899.05697375031 12 15 6
22.6559610023513 126.482261748755 2901.63545735191 16 19 10
3.11200067025164 126.699133622409 2909.70085362789 15 18 9
1.91216764494095 125.986466202325 2901.41665053192 17 20 11
11.3093780017866 124.722958629647 2883.51998950493 17 20 11
21.3743915652049 123.412738532244 2864.87216003667 17 20 11
15.5016131277774 122.925417555482 2860.61238923926 18 21 14
0.600391981787851 122.914839471575 2864.6314454241 18 21 14
-8.24861969755997 122.589305856275 2863.15569458938 18 21 14
-9.60189251518861 121.864208101804 2854.76019675129 19 22 15
-13.2197882682275 121.257738625293 2848.42903065811 19 22 15
-25.7739857182036 121.135740760755 2850.4438201574 20 23 16
-33.8416277617279 120.773107193934 2848.29868734513 21 24 17
-38.201979283488 120.207447334026 2842.66483703539 21 24 17
-40.3611673519739 119.517992976055 2834.92033120291 20 23 16
-44.7478129331866 118.950322491723 2829.26740958412 19 22 15
-23.5068409500001 116.933794531879 2798.95563484025 19 22 15
-49.1686066060961 117.56342589063 2813.70440727845 18 21 12
-76.8968504934149 118.328140728905 2830.66123413509 16 19 10
-86.3467074282489 118.055749265587 2829.98492907965 15 18 9
-97.9467540829297 117.911505780522 2831.45625354538 13 16 7
-38.8073121715615 113.626085074846 2763.14444859987 11 14 5
-35.4500430138345 112.577979137629 2749.5162417091 15 18 11
117.902407430243 129.884439273301 3002.81188542555 10 13 6
177.788900378463 124.781895094248 2927.62698057581 14 17 10
153.924478418892 124.37341911707 2928.85210461707 14 17 10
189.422680686009 121.863646744036 2890.3461801671 14 17 10
173.866435815064 121.830663368946 2893.89057666462 13 16 9
178.953149025596 120.78327466422 2880.28075320259 13 16 9
165.812707296292 120.636009174326 2881.87043372722 9 12 5
176.338036588033 119.305636106196 2863.55619487528 9 12 5
165.565110513276 119.040131868665 2863.15613475599 9 12 5
136.804420959871 119.694616393813 2878.12863027131 11 14 7
119.103647404877 119.798354404498 2883.82450904465 11 14 7
107.698339217255 119.58529989844 2884.20132393347 10 13 4
135.9295194671 117.311507148913 2850.30975188522 10 13 4
95.0441761251683 118.638355626742 2876.25829122458 10 13 4
72.1162197358343 119.042694760698 2886.81224157009 10 13 4
74.6944632482096 118.101927209137 2875.09021378928 12 15 6
81.8304379025929 116.909960408568 2859.26010147716 12 15 6
31.4686566790257 118.814331124305 2894.39854811058 11 14 5
11.897739375764 119.077825302098 2902.44493333106 11 14 5
9.15236666298025 118.429716847687 2895.51073579448 15 18 9
10.9424871880499 117.528603048452 2884.45261832406 17 20 11
18.7423146242658 116.287034710644 2867.86845919004 18 21 12
16.6517001404136 115.58849834306 2860.17361781032 14 17 10
10.7758194774092 115.100433164954 2855.91159437386 15 18 11
1.89768311889305 114.782935549678 2854.41477114158 18 21 14
-0.979274618314596 114.124226984626 2847.38513112098 19 22 15
-16.5543410563431 114.19525064611 2852.15144690819 21 24 17
-32.8171001869126 114.314178943881 2857.65481333914 21 24 17
-32.7072689440488 113.483958917012 2847.84905065824 22 25 18
-24.5020268612497 112.171633209094 2830.32309574726 16 19 12
-28.174217751344 111.552251727299 2823.95250454866 13 16 9
-39.9441093174928 111.414935206252 2825.30073989984 13 16 9
-39.2766010520367 109.687524485132 2804.77878612945 17 20 11
-61.9961568581018 109.376684068768 2806.83404814439 16 19 10
-67.8792963466459 108.889136105422 2802.56676525017 14 17 8
-43.4551749079284 106.510789014181 2768.38521317014 11 14 5
-40.0803816849022 105.427957713496 2754.76953395748 14 17 10
-85.5349121006324 107.426617475971 2789.76042465542 19 22 15
175.538279682948 119.107475294979 2948.19914173575 3 8 2
164.804900441449 118.861380301852 2947.82784827151 17 19 14
162.127802692977 118.207391812273 2940.94311493008 11 14 7
180.678755282781 115.654020516287 2907.44353187356 14 17 10
196.996689284647 113.992936927009 2884.68066084684 14 17 10
188.567648536297 113.614956701981 2882.27375914399 11 14 7
194.408866902491 112.483679232468 2867.97572550593 9 12 5
197.81370550153 111.473101870196 2855.61722943718 9 12 5
183.047599204622 111.43028047365 2858.49903331168 9 12 5
153.403642068007 112.19800279672 2874.06713398406 9 12 5
116.056799309113 113.402979484691 2896.40500746076 10 13 6
116.379589081362 112.567159464372 2886.7535945975 11 14 7
108.876590906875 112.158398374767 2883.78280837882 13 16 9
114.586432133294 111.016168814319 2869.38918669689 13 16 9
124.102178307752 109.651573611219 2851.577942785 13 16 9
67.3906469143004 111.185939972509 2882.11174034192 11 14 7
89.1426449179695 109.114513069186 2853.40517782136 11 14 7
64.0232578827082 109.719796918113 2866.07664103638 13 16 9
21.4500635817472 111.352586191858 2894.50886968711 10 13 6
18.6788042896593 110.690860437873 2887.55613191945 10 13 6
9.05636450169611 110.429415945642 2886.75477331924 11 14 7
2.48261484505363 109.990492171568 2883.22242977315 11 14 7
3.46034715992438 109.101794737164 2872.81049427248 16 19 12
4.39744795164376 108.209745952434 2862.3690871383 17 20 13
2.29221045005801 107.495935775325 2854.66386233312 18 21 14
-12.5551646215305 107.554721094883 2858.72230402573 17 20 13
-24.367041436004 107.434958443667 2860.0401922882 13 16 9
-17.5497838480192 106.170004264192 2843.97866547742 11 14 7
-15.2578122711635 105.175431365548 2832.0485460495 5 8 1
-2.6640105007345 103.528804615242 2810.29174415967 12 15 8
-16.7202068702437 103.546032952102 2813.68848105451 13 16 9
-34.4040729318276 103.80058415589 2820.6324169584 12 15 8
-56.4151790671907 104.342008648721 2831.85141150691 12 15 8
-19.2991099396664 100.209415888203 2775.98336601977 16 19 10
-23.1125949328397 99.5700745146372 2769.51024660969 16 19 10
-33.4563358554183 99.3577849637826 2769.42158150936 15 18 9
-50.9924222447173 99.6252339982473 2776.47271138152 12 15 6
-62.7023582915007 99.5150784995086 2777.86425286712 14 17 10
204.200895137463 110.246106057692 2925.70287751786 36 42 38
203.860168323579 109.443465747505 2916.80596648916 0 2 0
164.934199396201 110.736697521639 2939.2342868877 12 14 9
163.033542604914 110.02533125132 2931.67737938426 12 15 8
175.489244411906 108.518478172581 2912.29124712334 12 15 8
197.403044138641 106.471922888757 2884.93714073371 13 16 9
180.234724498892 106.590527500258 2889.7840453864 12 15 8
175.803033883143 106.000034678672 2884.09805958411 11 14 7
197.433680411477 103.929838838134 2856.53856965408 9 12 5
143.593795735872 105.307990615826 2882.97752184305 11 14 7
114.104432555977 106.170260454155 2898.65846435268 11 14 7
137.092443221723 103.991827851341 2869.61204067749 10 13 6
129.532175835124 103.583221758039 2866.59973956985 12 15 8
101.780471605719 104.368963689923 2881.06929829479 12 15 8
102.814643356124 103.459427844241 2870.69846587178 13 16 9
10.7831302023844 107.298329280352 2932.45524095385 13 16 9
31.1666858709132 105.234992268753 2905.22707409286 13 16 9
41.4429471960931 103.767881734204 2886.73158795435 13 16 9
68.4281785812742 101.258862992273 2853.17035167039 12 15 8
7.64718453229296 104.161110379067 2898.05272820563 10 13 6
-0.424424326316064 103.820808720319 2895.90512735699 9 12 5
-7.72677997448157 103.434037319234 2893.07990256967 8 11 4
-8.22680878122917 102.618282667686 2884.06744369994 9 12 5
-5.74754441421144 101.608263868508 2872.2730185761 10 13 6
-4.81901715269384 100.690408616305 2861.82556006909 12 15 8
-8.30653165742623 99.1840796491127 2845.7031756949 10 13 6
-10.4602903057334 98.452224241657 2837.96268547231 9 12 5
5.16494046056382 96.5463885247067 2813.46138274014 10 13 6
-11.138968844616 96.7378773582392 2818.93499158772 11 14 7
-22.2209207122184 96.590031031596 2819.54654466598 11 14 7
-39.154367693963 96.8398860484841 2825.79941495927 13 16 9
-58.9545471472794 97.2935317335217 2834.91560293855 14 17 10
-59.6729174261437 96.4605520022862 2825.74477642762 16 19 12
-44.3952417868514 94.5264260204191 2800.99138027092 14 17 10
-17.8471950235746 90.8779456522808 2754.75649268074 14 17 10
-35.4318246342513 91.1848212183208 2761.77263223892 15 18 11
-45.7495794940057 90.9908917236689 2761.70260351038 13 16 7
-26.6239670400228 88.7143352751768 2732.32641013965 9 12 3
300.12266442742 96.4797517720027 2839.54308044374 5 11 7
280.21048022701 96.7477967393471 2846.10676595191 15 20 16
160.226372278002 102.850373293241 2934.54650012355 12 15 8
139.936208456135 103.200255194297 2942.07192576405 13 16 9
187.450847943071 99.5622386865744 2893.74423649613 13 16 9
161.568510944477 100.239775623528 2905.86328145373 11 14 7
164.321384777697 99.2214528967432 2894.26715961003 10 13 6
170.185783198881 98.0088749434929 2879.98551788554 9 12 5
168.10361428053 97.2679624061024 2872.29658423283 10 13 6
143.209529621009 97.9144260277382 2883.89684037971 11 14 7
147.414186266112 96.7902833428902 2870.88253762157 11 14 7
146.090885138171 95.9991920251883 2862.50843263056 10 13 6
122.921379871785 96.5626418215613 2872.88808496706 11 14 7
83.5295711680866 98.1554629412775 2897.45059338475 12 15 8
106.313898952689 95.8582035340829 2868.25591376102 13 16 9
68.6672787805915 97.3697206288765 2891.61306151013 13 16 9
14.249468457074 99.9783363306177 2929.99054532878 13 16 9
20.0323586005915 98.7590254518627 2915.64948793373 13 16 9
45.6661331363533 96.2458016401243 2883.57919265104 12 15 8
34.4528326758913 96.1048792942849 2884.09556340254 11 14 7
20.2226513811956 96.1661585800062 2887.36639803883 10 13 6
32.0400823098361 93.6355612290796 2857.63150214262 9 12 5
6.50899645051339 94.4561961508071 2871.24093799585 8 11 4
17.2299276813694 92.854983621706 2851.83179220244 9 12 5
-17.1885569793011 94.2958616276004 2873.82332211007 11 14 7
0.953634998992481 92.1792974353815 2847.44014652919 11 14 7
-2.68851998295272 91.5358976229401 2841.09120734383 9 12 5
7.79271238037538 89.9150381954876 2821.50849368752 9 12 5
-25.5953977945276 91.3286929699432 2843.01149505191 10 13 6
-24.0562820006134 90.3235588390683 2831.77089201169 11 14 7
-28.462088510566 89.7302639258729 2826.10365595693 12 15 8
-40.9660470296229 89.7095092904316 2828.15537754632 14 17 10
-35.8917937066863 87.5261283832005 2803.41484900457 14 17 10
-43.9981948076502 87.191850249457 2801.24205702728 13 16 9
-17.9477067260825 84.3746941544509 2765.76660796848 12 15 8
-8.02646419720299 82.7082004580552 2745.77771458384 15 18 11
-29.2522333295877 83.3220340034146 2756.33134682267 15 18 11
-23.0315085992858 81.9143886536455 2739.8366578538 13 16 7
-8.99243055141041 79.9111180049981 2715.42006226792 13 16 7
278.788887220263 90.0199966045681 2857.39339493204 0 2 0
183.059343057216 94.1183345884925 2916.47099698986 14 17 10
200.263994293182 92.1834876053184 2893.11450291486 15 18 11
156.774191118456 94.0165095946279 2919.64794534355 13 16 9
152.431642286186 93.4214687200474 2914.0265572857 9 12 5
198.009743058784 89.6702979208382 2866.76511883961 8 11 4
172.960605609193 90.3690271543413 2878.25294416859 10 13 6
155.897528869641 90.5719322856563 2883.17627416736 11 14 7
149.898359051646 90.0710564157682 2878.82481090264 12 15 8
139.195620735891 89.8749997562372 2878.47598315341 11 14 7
143.368433160642 88.7120427104894 2865.43839923796 10 13 6
151.380136023346 87.2883332776451 2849.00691054169 11 14 7
104.908415183758 89.453593167528 2879.55585769132 11 14 7
64.0887082702575 91.2770426787664 2905.55478813756 13 16 9
45.1042292271975 91.6683657530567 2912.79161134041 13 16 9
60.1002514766851 89.7815759266423 2890.30464613304 14 17 10
59.6084302797446 88.9268610975955 2881.29793979384 14 17 10
47.5917110382067 88.8537174593703 2882.46727506685 10 13 6
52.4174776818023 87.6292681732873 2868.66768349985 10 13 6
40.4204927066418 87.5579128205443 2869.85162809875 10 13 6
70.2375644875879 84.5836756591333 2833.40045593531 10 13 6
28.0471121919019 85.7120614058851 2852.22641106582 11 14 7
3.3169580437864 86.5541675669 2865.18153153609 11 14 7
10.9817390986815 85.1020847514727 2848.49840810089 13 16 9
2.84508535141059 84.7721114446848 2846.30341266245 13 16 9
-4.53322571830395 84.3893133840504 2843.42314629483 13 16 9
-23.0672604334259 84.8189645947191 2850.98670034353 12 15 8
-33.3651756084583 84.6575999904352 2850.93151325046 13 16 9
-36.9791333197129 84.0080605934424 2844.60298377018 14 17 10
-22.9040689674145 82.0454680302368 2821.44801257311 15 18 11
-42.0434342681624 82.5412013883815 2829.80812091019 14 17 10
-53.7724871782332 82.4932542197072 2831.18641374809 13 16 9
-46.4602578939264 81.0126302926234 2814.24727896718 12 15 8
-20.2788860035437 78.0850466345853 2778.86644551424 13 16 9
-5.91850351035728 76.0306863222604 2754.68280607555 14 17 10
-22.832651170706 76.3640480195276 2760.94979535956 16 19 12
-15.8486130565274 74.8566232666414 2743.77290652104 16 19 12
-18.3050927491402 74.0723781663448 2735.81240751191 14 17 8
-20.0669001243696 73.2300204569483 2727.12016030967 9 12 3
118.94557279439 93.4440816392631 2995.97300641259 183 186 177
228.807371485543 84.6481331012287 2889.06553868521 13 16 9
245.973254635013 82.6301783740587 2865.68051983985 14 17 10
207.861787784566 84.2075092894514 2887.46569256526 15 18 11
145.215319785918 87.4251477190238 2929.7623081118 12 15 8
204.496727793408 82.6167156338823 2871.43194472799 10 13 6
177.806943371002 83.4816704943669 2884.20163975422 8 11 4
167.040453493703 83.2961664483456 2883.80635611154 11 14 7
157.875729134818 83.00645829114 2882.10191988079 12 15 8
145.583395037362 82.9315685201751 2883.07144721833 12 15 8
154.491129935171 81.4138473440919 2866.05370397234 11 14 7
153.933782830896 80.533780135788 2856.99936808973 10 13 6
132.297336632669 81.1067027065947 2866.02004790789 11 14 7
102.974284888287 82.2277732446701 2881.82256952593 11 14 7
92.3853794770864 82.0571886376411 2881.55639069949 13 16 9
74.8652813543123 82.3788566404339 2887.38434880782 13 16 9
94.4064636891819 80.0830963341166 2860.77938689951 13 16 9
57.1808870157033 80.9011467684604 2874.55706905627 10 13 6
51.2840297421415 80.4084996118783 2870.27981601853 10 13 6
64.4356846668379 78.5313520588843 2848.92595167508 10 13 6
71.398172782446 77.0895220753314 2832.96880966232 11 14 7
84.3456158413796 75.1954427489763 2811.46682201651 11 14 7
7.29151720078658 79.9476393902842 2871.73471528726 11 14 7
5.96808821646233 79.1231259861428 2863.36034832097 12 15 8
0.86224670909596 78.5779157852435 2858.42121662187 13 16 9
-5.74648305768588 78.1452588055786 2854.86325251295 14 17 10
-22.0575492664161 78.4495765472975 2860.33224466908 14 17 10
-33.8418673374541 78.4179580678911 2861.67055732041 14 17 10
-43.3652286726085 78.2182198532429 2860.94133535954 15 18 11
-6.24867986317801 74.4158949967372 2816.19152356995 16 19 12
-25.4599879047483 74.9544017842064 2824.49969573473 15 18 11
-36.5017723067398 74.8661926958263 2825.14066914039 13 16 9
-53.3808740807433 75.2426413186399 2831.43357665613 12 15 8
-42.4100875279989 73.4226853164783 2810.96941170972 12 15 8
-15.504040154553 70.3154408654627 2774.87766985623 13 16 9
-20.775516986923 69.7575143458489 2769.81840116454 15 18 11
-27.9805624956642 67.3754799036625 2746.05622261481 14 17 10
-16.787260355843 65.455994909399 2724.51782320302 15 18 9
243.682601541725 76.106342495383 2877.57321836495 13 16 7
186.263921286432 79.102230898301 2915.01260024714 15 18 11
225.054626922184 75.5231194722303 2873.94762434765 13 16 9
217.360296820779 75.1231936090647 2870.83788780706 10 13 6
201.723488322985 75.2774179384456 2874.3248302561 10 13 6
192.481208634356 74.9916626405376 2872.56389805669 12 15 8
169.814414052829 75.6545116914191 2882.07344294465 12 15 8
163.796480403409 75.1510104813443 2877.70836408022 13 16 9
163.281663186238 74.2548122103499 2868.68448283637 13 16 9
169.791545877636 72.8495667595139 2853.63475390662 11 14 7
161.375017593764 72.5109453546281 2851.23682763946 10 13 6
97.6129745548282 76.194612241534 2896.43250392238 13 16 9
104.926123039677 74.7347089703454 2880.72947154999 13 16 9
101.309764543606 74.0665590519749 2874.39910742359 13 16 9
111.595151103684 72.3678486435124 2855.90876878657 13 16 9
87.8673625248756 73.1857555222616 2867.12003514002 12 15 8
61.9334880656051 74.1846856149056 2880.43838404141 11 14 7
54.5090233747674 73.8074088875953 2877.52468789552 12 15 8
51.6783554566889 73.083307206423 2870.52856760067 12 15 8
60.2609140482686 71.4861159354055 2853.274694579 12 15 8
66.4792493370312 70.0567635846282 2838.01320013192 12 15 8
43.074936800338 70.9019958268312 2849.45909957998 12 15 8
9.19323156902063 72.5768474053297 2870.60560636744 12 15 8
16.9062230258641 71.0290324223299 2853.95694677917 12 15 8
-11.5151642928746 72.3077600127975 2870.41390274588 12 15 8
-48.7929143842361 74.3080313503038 2895.27596455438 13 16 9
-50.7904021767067 73.5322777454959 2887.64824158014 15 18 11
