ply
format ascii 1.0
comment KinectMotionCapture
element vertex 798
property float x
property float y
property float z
property uchar red
property uchar green
property uchar blue
end_header
5.24450512602925 -85.8703926205635 2825.00004768372 10 13 6
12.9214180633426 -85.6270790100098 2816.99991226196 11 14 7
20.4594619572163 -84.9884897470474 2796.0000038147 8 11 4
27.973173186183 -84.623359143734 2783.99991989136 8 11 4
35.4979075491428 -84.4404920935631 2778.00011634827 11 14 7
43.4239730238914 -85.1085931062698 2799.99995231628 13 16 7
51.0140098631382 -85.0166752934456 2796.99993133545 14 17 8
58.8181279599667 -85.2589979767799 2805.0000667572 17 20 11
66.4760768413544 -85.2580294013023 2805.0000667572 18 21 14
74.9266371130943 -86.1687883734703 2835.00003814697 14 16 11
82.4909508228302 -85.9852060675621 2828.9999961853 11 13 8
91.9354856014252 -87.6251310110092 2882.99989700317 7 9 6
101.501375436783 -89.1129299998283 2931.99992179871 6 8 5
109.056107699871 -88.7465998530388 2920.00007629395 5 7 4
131.415575742722 -87.7077579498291 2885.99991798401 5 7 6
155.577227473259 -88.0050808191299 2895.99990844727 9 11 8
162.123322486877 -87.2733592987061 2871.99997901917 15 17 14
169.603005051613 -87.0885252952576 2865.9999370575 17 19 14
179.46358025074 -88.0886316299438 2898.9999294281 13 15 10
187.241345643997 -88.0251079797745 2897.0000743866 10 12 7
195.074766874313 -87.9918336868286 2895.99990844727 9 11 6
203.25243473053 -88.1103798747063 2900.00009536743 10 13 6
226.922571659088 -91.2636518478394 3003.99994850159 9 12 5
-49.577072262764 -95.1699689030647 2872.99990653992 21 24 17
-42.4448326230049 -96.7939123511314 2921.99993133545 12 15 8
-34.0540148317814 -95.6351533532143 2887.00008392334 11 14 7
-25.8179120719433 -94.3437218666077 2848.00004959106 8 11 4
-18.0607382208109 -94.4434702396393 2851.0000705719 8 11 4
-10.305130854249 -94.708725810051 2858.99996757507 8 11 4
-2.48743919655681 -94.2781865596771 2845.99995613098 8 11 4
5.26112876832485 -93.8806533813477 2834.00011062622 15 18 11
12.8248846158385 -92.6216840744019 2796.0000038147 15 18 11
20.4957202076912 -92.7870497107506 2801.00011825562 14 17 10
27.6210550218821 -91.0640731453896 2749.00007247925 14 17 10
35.4334451258183 -91.8585658073425 2773.00000190735 15 18 11
43.0820919573307 -92.0235365629196 2778.00011634827 20 23 14
51.3050109148026 -93.1821390986443 2812.99996376038 21 24 15
59.2994540929794 -93.6780869960785 2828.00006866455 19 22 13
67.5888508558273 -94.4720134139061 2851.99999809265 16 19 12
75.1897171139717 -94.2389592528343 2845.00002861023 10 12 7
83.1311196088791 -94.436377286911 2851.0000705719 8 10 5
91.2005752325058 -94.7330147027969 2859.99989509583 7 9 6
100.565068423748 -96.2219536304474 2904.99997138977 7 9 6
109.129056334496 -96.7832878232002 2921.99993133545 6 8 5
114.659428596497 -94.7609841823578 2861.00006103516 7 9 8
122.981175780296 -95.1564535498619 2872.99990653992 7 9 8
132.597371935844 -96.4460298418999 2911.99994087219 6 8 7
141.171008348465 -96.8743041157722 2924.99995231628 5 7 4
154.554083943367 -95.279723405838 2877.00009346008 7 9 6
161.499813199043 -94.7472304105759 2861.00006103516 10 12 7
170.310467481613 -95.3074768185616 2878.00002098084 11 13 8
177.479833364487 -94.9403420090675 2867.00010299683 10 12 7
187.173739075661 -95.8976447582245 2895.99990844727 9 11 6
192.512065172195 -94.6362391114235 2858.00004005432 10 13 6
200.936406850815 -94.9310287833214 2867.00010299683 9 12 5
214.360296726227 -97.4771976470947 2944.00000572205 13 16 9
-42.15357452631 -104.053162038326 2901.99995040894 10 13 6
-33.9826419949532 -103.300891816616 2881.00004196167 10 13 6
-25.6814807653427 -101.580336689949 2832.99994468689 10 13 6
-17.9717354476452 -101.724155247211 2836.99989318848 12 15 8
-10.2544892579317 -102.011270821095 2845.00002861023 14 17 10
-2.48477351851761 -101.939670741558 2842.99993515015 14 17 10
5.22205187007785 -100.863955914974 2812.99996376038 17 20 13
12.8108998760581 -100.146666169167 2792.99998283386 17 20 13
20.0855992734432 -98.4252616763115 2744.99988555908 16 19 12
28.0928015708923 -100.253492593765 2796.0000038147 16 19 12
35.2411568164825 -98.8903865218163 2757.99989700317 15 18 11
43.1898906826973 -99.857784807682 2785.00008583069 21 24 15
51.5959188342094 -101.434551179409 2828.9999961853 21 24 15
60.0952133536339 -102.760180830956 2865.9999370575 18 21 12
83.3629220724106 -102.505289018154 2858.99996757507 8 10 5
91.0076647996902 -102.324448525906 2854.00009155273 7 9 6
99.2478579282761 -102.788805961609 2867.00010299683 7 9 6
106.923699378967 -102.64353454113 2862.99991607666 7 9 8
117.582984268665 -105.186961591244 2934.00001525879 7 9 8
125.033691525459 -104.718722403049 2921.0000038147 7 9 8
132.822751998901 -104.573003947735 2917.00005531311 6 8 5
140.058532357216 -104.032807052135 2901.99995040894 6 8 5
156.055554747581 -104.135036468506 2904.99997138977 6 8 5
161.158353090286 -102.339893579483 2855.00001907349 8 10 5
169.124037027359 -102.444492280483 2858.00004005432 8 10 5
176.48634314537 -102.190494537354 2851.0000705719 16 18 13
185.554787516594 -102.904140949249 2871.00005149841 16 18 13
194.596871733665 -103.545926511288 2888.99993896484 9 11 6
200.652658939362 -102.61058062315 2862.99991607666 25 28 21
212.09953725338 -104.398928582668 2913.00010681152 18 21 14
-49.6788024902344 -111.086159944534 2878.99994850159 9 12 5
-41.0343185067177 -109.003446996212 2825.00004768372 15 18 11
-33.4630087018013 -109.467193484306 2836.99989318848 14 17 10
-25.6538018584251 -109.197676181793 2829.99992370605 14 17 10
-17.9397221654654 -109.27527397871 2832.00001716614 15 18 11
-10.2002313360572 -109.19838398695 2829.99992370605 17 20 13
-2.46112886816263 -108.65829885006 2815.99998474121 16 19 12
12.7051621675491 -106.883130967617 2769.99998092651 19 22 15
20.4364359378815 -107.770286500454 2792.99998283386 21 24 17
28.1324591487646 -108.039915561676 2799.99995231628 22 25 18
35.7643738389015 -108.000710606575 2799.00002479553 21 24 17
43.437197804451 -108.077101409435 2801.00011825562 17 20 11
51.4855235815048 -108.925051987171 2822.99995422363 14 17 10
59.7585886716843 -109.965741634369 2849.99990463257 11 14 7
68.4632211923599 -111.469283699989 2888.99993896484 8 11 4
76.6140818595886 -111.853696405888 2898.9999294281 7 9 4
83.3613649010658 -110.308818519115 2858.99996757507 8 10 5
93.3974832296371 -113.007873296738 2928.99990081787 9 11 6
99.8344793915749 -111.269816756248 2884.0000629425 8 10 7
108.975730836391 -112.579546868801 2917.99998283386 7 9 6
118.141837418079 -113.734759390354 2947.99995422363 6 8 5
125.545009970665 -113.153710961342 2933.00008773804 6 8 7
133.503273129463 -113.11262845993 2931.99992179871 8 10 7
140.0076597929 -111.914068460464 2901.00002288818 8 10 7
150.880470871925 -114.148743450642 2959.00011062622 7 9 6
163.864836096764 -111.982457339764 2903.00011634827 5 7 2
179.949596524239 -112.130142748356 2907.00006484985 6 8 3
187.878057360649 -112.126648426056 2907.00006484985 14 16 11
193.852379918098 -111.004456877708 2878.00002098084 11 13 8
202.260881662369 -111.309245228767 2885.99991798401 17 20 13
210.129737854004 -111.305333673954 2885.99991798401 16 19 12
-58.1371001899242 -120.182491838932 2908.99991989136 17 19 14
-49.1601377725601 -117.704756557941 2848.99997711182 21 24 17
-40.8737137913704 -116.259694099426 2813.99989128113 16 19 12
-33.1438705325127 -116.095215082169 2809.99994277954 16 19 12
-25.5717020481825 -116.550296545029 2821.00009918213 16 19 12
-17.8063362836838 -116.137601435184 2811.00010871887 17 20 13
-10.2685047313571 -117.707870900631 2848.99997711182 18 21 14
-2.47768452391028 -117.12957918644 2835.00003814697 19 22 15
5.19214617088437 -115.559563040733 2796.99993133545 21 24 17
12.7874640747905 -115.187533199787 2788.00010681152 22 25 18
20.3994382172823 -115.18719047308 2788.00010681152 22 25 18
28.0515123158693 -115.351937711239 2792.00005531311 21 24 17
35.8786471188068 -116.012327373028 2808.00008773804 17 20 13
43.7309630215168 -116.507261991501 2819.9999332428 17 20 13
51.7762750387192 -117.291234433651 2838.99998664856 11 14 7
61.0154382884502 -120.223373174667 2910.00008583069 9 12 5
69.4334283471107 -121.048271656036 2930.0000667572 8 11 4
76.7975300550461 -120.055228471756 2905.99989891052 8 11 4
85.1965621113777 -120.714537799358 2921.99993133545 8 11 4
93.2361781597137 -120.795302093029 2924.00002479553 8 10 5
118.139460682869 -121.780179440975 2947.99995422363 8 10 7
126.484155654907 -122.066810727119 2954.99992370605 8 10 7
133.819311857224 -121.403180062771 2938.99989128113 9 11 8
142.61095225811 -122.061252593994 2954.99992370605 9 11 6
151.846259832382 -123.008266091347 2977.9999256134 9 11 6
159.970954060555 -123.005047440529 2977.9999256134 8 10 5
173.673897981644 -121.222153306007 2934.99994277954 5 7 2
179.884120821953 -120.020776987076 2905.99989891052 10 12 7
201.48603618145 -118.72886121273 2875 10 13 6
-58.6354695260525 -129.222944378853 2934.00001525879 10 12 7
-48.8484986126423 -124.687656760216 2831.00008964539 20 22 17
-41.0761795938015 -124.556519091129 2828.00006866455 17 20 13
-17.7236031740904 -123.237155377865 2798.00009727478 20 23 16
-10.2899074554443 -125.748008489609 2855.00001907349 20 23 16
-2.49773170799017 -125.880300998688 2858.00004005432 20 23 16
5.33868046477437 -126.673072576523 2875.99992752075 17 20 13
12.947715818882 -124.338492751122 2822.99995422363 18 21 14
20.4282645136118 -122.972741723061 2792.00005531311 19 22 15
27.9604867100716 -122.575797140598 2782.99999237061 19 22 15
35.6989912688732 -123.059578239918 2793.99991035461 19 22 15
43.9936369657516 -124.952577054501 2836.99989318848 13 16 9
52.4681732058525 -126.713261008263 2877.00009346008 12 15 8
60.4480057954788 -126.976251602173 2882.99989700317 8 11 4
68.7210336327553 -127.723574638367 2900.00009536743 8 11 4
77.2979930043221 -128.82299721241 2924.99995231628 8 11 4
84.9323272705078 -128.292694687843 2913.00010681152 9 12 5
93.0428579449654 -128.510922193527 2917.99998283386 9 12 5
101.318791508675 -128.905147314072 2927.00004577637 10 12 7
109.904810786247 -129.607439041138 2943.00007820129 8 10 5
118.25717240572 -129.957243800163 2950.99997520447 10 12 9
126.481458544731 -130.130678415298 2954.99992370605 10 12 9
134.636029601097 -130.215883255005 2957.00001716614 10 12 7
143.428340554237 -130.873367190361 2971.99988365173 10 12 7
151.180177927017 -130.561873316765 2964.99991416931 9 11 6
160.021275281906 -131.174966692925 2979.00009155273 8 10 5
166.84964299202 -130.158632993698 2956.00008964539 7 9 4
173.55190217495 -129.142194986343 2933.00008773804 6 8 3
187.417984008789 -127.681374549866 2900.00009536743 12 14 9
-57.5949363410473 -134.797841310501 2881.99996948242 18 20 15
-49.6065728366375 -134.471699595451 2875 14 16 11
-25.3167580813169 -130.638927221298 2792.99998283386 14 17 10
-10.2211944758892 -132.651045918465 2835.99996566772 14 17 10
-2.45922151952982 -131.622150540352 2813.99989128113 13 16 9
5.31071424484253 -133.82051885128 2861.00006103516 13 16 9
12.9795223474503 -132.370293140411 2829.99992370605 13 16 9
20.4716939479113 -130.873143672943 2798.00009727478 15 18 11
28.0000269412994 -130.358040332794 2786.99994087219 16 19 12
35.6215126812458 -130.404084920883 2788.00010681152 16 19 12
43.5739457607269 -131.432145833969 2809.99994277954 12 15 8
52.2846058011055 -134.097084403038 2867.00010299683 10 13 6
60.2579303085804 -134.423151612282 2874.00007247925 8 11 4
67.6531195640564 -133.533000946045 2855.00001907349 8 11 4
84.7262889146805 -135.914698243141 2905.99989891052 10 13 6
93.232050538063 -136.754497885704 2924.00002479553 9 12 5
101.351089775562 -136.939287185669 2927.99997329712 9 11 6
109.752930700779 -137.451246380806 2938.99989128113 10 12 7
119.697093963623 -139.693424105644 2986.99998855591 10 12 7
127.163425087929 -138.942271471024 2970.99995613098 10 12 7
134.632974863052 -138.284504413605 2957.00001716614 10 13 6
140.481308102608 -136.130109429359 2911.00001335144 10 13 6
149.851113557816 -137.436121702194 2938.99989128113 11 14 7
156.203866004944 -135.982915759087 2907.99999237061 10 13 6
169.272929430008 -140.234410762787 2999.00007247925 9 12 5
172.423735260963 -136.255890130997 2914.00003433228 7 10 3
181.795164942741 -137.32722401619 2937.00003623962 8 11 4
188.770934939384 -136.574864387512 2921.0000038147 8 11 4
196.332201361656 -136.289894580841 2914.99996185303 8 11 4
-57.0140145719051 -141.226902604103 2852.9999256134 13 15 10
-41.9456884264946 -142.961904406548 2888.00001144409 9 12 5
-34.6748270094395 -145.536988973618 2940.00005722046 9 12 5
-10.1596778258681 -139.548823237419 2819.00000572205 8 11 4
-2.44692713022232 -138.608410954475 2799.99995231628 10 13 6
5.26417978107929 -140.390485525131 2835.99996566772 9 12 5
12.8095159307122 -138.261660933495 2792.99998283386 10 13 6
20.7345858216286 -140.290856361389 2834.00011062622 13 16 9
28.2002780586481 -138.953670859337 2806.99992179871 14 17 10
35.4034453630447 -137.170776724815 2770.99990844727 13 16 9
43.6969436705112 -139.496400952339 2818.00007820129 11 14 7
52.483931183815 -142.46529340744 2878.00002098084 10 13 6
59.3759007751942 -140.186861157417 2832.00001716614 9 12 5
67.8410455584526 -141.719773411751 2862.99991607666 8 11 4
76.6337215900421 -143.549501895905 2900.00009536743 10 13 6
85.5114385485649 -145.180985331535 2933.00008773804 10 13 6
93.4529826045036 -145.079731941223 2930.99999427795 8 11 4
101.452477276325 -145.07731795311 2930.99999427795 9 12 5
109.937012195587 -145.718172192574 2944.00000572205 10 13 6
117.931060492992 -145.665869116783 2943.00007820129 11 14 7
126.946359872818 -146.801218390465 2966.00008010864 11 14 7
133.491531014442 -145.115211606026 2931.99992179871 12 15 8
140.719220042229 -144.31993663311 2915.99988937378 12 15 6
146.788373589516 -142.485201358795 2878.99994850159 12 15 6
155.93159198761 -143.669277429581 2903.00011634827 11 14 7
163.963362574577 -143.764331936836 2904.99997138977 9 12 5
180.348351597786 -150.836899876595 3048.00009727478 8 11 4
184.019133448601 -147.120967507362 2973.00004959106 9 12 5
188.766449689865 -144.543215632439 2921.0000038147 10 13 6
193.364143371582 -142.064407467842 2871.00005149841 12 14 9
205.326840281487 -144.979014992714 2930.0000667572 13 15 10
-48.7241633236408 -147.498488426208 2823.99988174438 9 11 6
-42.0317612588406 -151.155829429626 2894.00005340576 10 13 6
-34.3673005700111 -152.201443910599 2914.00003433228 10 13 6
-17.6906436681747 -145.882830023766 2792.99998283386 9 12 5
-10.0332805886865 -145.413100719452 2783.99991989136 9 12 5
-2.4573509581387 -146.875753998756 2812.00003623962 10 13 6
5.15267625451088 -144.995376467705 2776.00002288818 11 14 7
12.8000127151608 -145.778596401215 2790.99988937378 16 19 12
20.5072518438101 -146.404936909676 2802.99997329712 18 21 14
28.23974378407 -146.822169423103 2811.00010871887 16 19 12
35.6963872909546 -145.933374762535 2793.99991035461 9 12 5
51.6255125403404 -147.863641381264 2831.00008964539 9 12 5
61.6596154868603 -153.607428073883 2940.99998474121 9 12 5
70.3746974468231 -155.120357871056 2970.00002861023 9 12 5
77.4773359298706 -153.133720159531 2931.99992179871 11 14 7
85.4218006134033 -153.027147054672 2930.0000667572 11 14 7
94.0245017409325 -154.017105698586 2948.99988174438 8 11 4
101.692192256451 -153.440073132515 2937.99996376038 9 12 5
109.934210777283 -153.750658035278 2944.00000572205 10 13 6
117.367066442966 -152.964323759079 2928.99990081787 12 15 6
125.102773308754 -152.647852897644 2923.00009727478 12 15 6
133.89790058136 -153.584465384483 2940.99998474121 12 15 6
141.825571656227 -153.476446866989 2938.99989128113 12 15 6
147.600412368774 -151.175022125244 2894.99998092651 11 14 5
154.745981097221 -150.440067052841 2881.00004196167 11 14 5
176.142886281013 -155.444324016571 2976.99999809265 8 11 4
185.190543532372 -156.222894787788 2992.00010299683 10 13 6
187.016949057579 -151.101291179657 2894.00005340576 10 13 6
197.939053177834 -153.445854783058 2938.99989128113 10 13 6
206.723242998123 -154.014989733696 2950.00004768372 13 15 10
216.949820518494 -155.575826764107 2980.00001907349 10 12 7
-58.6096458137035 -161.192715167999 2933.00008773804 21 23 20
-49.6372729539871 -158.116549253464 2877.00009346008 12 14 9
-41.9725365936756 -158.832281827927 2890.00010490417 10 13 6
-33.8946357369423 -157.953962683678 2874.00007247925 9 12 5
-25.8042495697737 -156.470865011215 2846.99988365173 9 12 5
-18.2158648967743 -158.065304160118 2875.99992752075 9 12 5
-9.935705922544 -151.525437831879 2756.99996948242 10 13 6
-2.42233066819608 -152.350008487701 2772.0000743866 11 14 7
12.8225991502404 -153.668761253357 2796.0000038147 18 21 14
20.5505974590778 -154.382795095444 2809.00001525879 17 20 13
28.5303108394146 -156.085878610611 2839.99991416931 14 17 10
36.5641787648201 -157.294079661369 2861.99998855591 8 11 4
43.6946488916874 -154.87477183342 2818.00007820129 9 12 5
69.9462965130806 -162.234500050545 2951.99990272522 10 13 6
77.5809660553932 -161.353170871735 2936.00010871887 10 13 6
85.0113555788994 -160.251811146736 2915.99988937378 10 13 6
93.4481024742126 -161.073699593544 2930.99999427795 9 12 5
101.308733224869 -160.851195454597 2927.00004577637 10 13 6
109.819263219833 -161.617666482925 2940.99998474121 11 14 7
117.003321647644 -160.46054661274 2920.00007629395 12 15 6
125.099435448647 -160.622090101242 2923.00009727478 12 15 6
134.167492389679 -161.937370896339 2947.00002670288 11 14 5
142.88341999054 -162.702888250351 2960.99996566772 11 14 5
149.024039506912 -160.610899329185 2923.00009727478 10 13 4
160.381570458412 -164.068341255188 2986.00006103516 10 13 4
167.849227786064 -163.404539227486 2973.99997711182 10 13 4
175.191596150398 -162.685632705688 2960.99996566772 9 12 5
184.442937374115 -163.724675774574 2980.00001907349 10 13 6
188.56292963028 -160.313352942467 2917.99998283386 10 13 6
196.923673152924 -160.637810826302 2924.00002479553 9 12 5
208.259478211403 -163.269340991974 2971.99988365173 12 14 9
214.614585042 -161.945253610611 2947.99995422363 9 11 6
-58.2882799208164 -168.271660804749 2917.00005531311 9 11 8
-50.6192706525326 -169.253900647163 2934.00001525879 15 17 12
-42.2472842037678 -167.813047766685 2908.99991989136 12 15 8
-33.6578115820885 -164.641320705414 2854.00009155273 11 14 7
-26.3291988521814 -167.584285140038 2904.99997138977 10 13 6
-18.3040201663971 -166.719600558281 2890.00010490417 11 14 7
-10.3714745491743 -166.027754545212 2878.00002098084 14 17 10
-2.45634187012911 -162.162810564041 2811.00010871887 18 21 14
5.18208788707852 -161.066666245461 2792.00005531311 20 23 16
12.8497527912259 -161.64331138134 2802.00004577637 18 21 14
20.8206996321678 -164.181113243103 2845.99995613098 12 15 8
29.1925128549337 -167.641669511795 2905.99989891052 8 11 4
36.6397984325886 -165.448576211929 2868.00003051758 11 14 7
44.1895760595798 -164.409041404724 2849.99990463257 9 12 5
51.8597178161144 -164.061531424522 2844.00010108948 10 13 6
60.0419640541077 -165.213644504547 2864.00008201599 10 13 6
77.4202421307564 -169.016942381859 2930.0000667572 9 12 5
85.0381106138229 -168.26468706131 2917.00005531311 9 12 5
100.717522203922 -167.855590581894 2910.00008583069 11 14 5
108.695983886719 -167.910248041153 2911.00001335144 11 14 5
117.721274495125 -169.464379549026 2937.99996376038 11 14 5
124.582372605801 -167.903557419777 2911.00001335144 11 14 5
134.801104664803 -170.783787965775 2960.99996566772 10 13 4
142.493411898613 -170.318409800529 2953.00006866455 10 13 2
149.835601449013 -169.506758451462 2938.99989128113 10 13 4
156.832277774811 -168.406620621681 2920.00007629395 11 14 5
168.352499604225 -172.035381197929 2983.00004005432 11 14 5
172.583505511284 -168.224260210991 2917.00005531311 12 15 6
182.766780257225 -170.295342803001 2953.00006866455 11 14 7
188.428491353989 -168.156385421753 2915.99988937378 11 14 7
195.908069610596 -167.747318744659 2908.99991989136 10 13 6
208.043560385704 -171.20149731636 2969.00010108948 13 15 10
214.026317000389 -169.523373246193 2940.00005722046 9 11 6
-58.4264285862446 -176.652103662491 2924.00002479553 21 23 18
-49.6516525745392 -173.874661326408 2878.00002098084 13 16 9
-42.0281998813152 -174.842700362206 2894.00005340576 10 13 6
-34.2818386852741 -175.629258155823 2907.00006484985 13 16 9
-25.8480738848448 -172.307282686234 2851.99999809265 14 17 10
-10.3063024580479 -172.791689634323 2859.99989509583 14 17 10
-2.47112335637212 -170.858547091484 2828.00006866455 20 23 16
5.26359863579273 -171.341836452484 2835.99996566772 17 20 13
13.0694899708033 -172.187387943268 2849.99990463257 12 15 8
20.8566635847092 -172.247305512428 2851.0000705719 9 12 5
28.8400650024414 -173.454880714417 2871.00005149841 9 12 5
36.6131626069546 -173.151791095734 2865.9999370575 11 14 7
44.2502908408642 -172.425612807274 2854.00009155273 10 11 5
51.8764182925224 -171.880409121513 2845.00002861023 10 11 5
60.0821189582348 -173.147425055504 2865.9999370575 11 12 6
67.8809583187103 -173.085078597069 2865.00000953674 11 12 6
77.2065743803978 -176.526457071304 2921.99993133545 11 12 6
84.6566334366798 -175.436586141586 2904.00004386902 10 11 5
92.8688794374466 -175.977632403374 2913.00010681152 12 13 7
100.749164819717 -175.85389316082 2911.00001335144 12 13 7
109.290212392807 -176.817297935486 2927.00004577637 12 13 7
115.794591605663 -174.578830599785 2890.00010490417 11 12 6
123.808391392231 -174.756452441216 2892.99988746643 11 12 6
133.158296346664 -176.685616374016 2924.99995231628 11 12 6
141.186445951462 -176.741927862167 2926.00011825562 11 12 4
149.627313017845 -177.281215786934 2934.99994277954 11 12 6
156.773999333382 -176.310241222382 2918.99991035461 11 12 6
163.607016205788 -175.097480416298 2898.9999294281 12 13 7
171.809390187263 -175.394520163536 2904.00004386902 12 13 7
181.090459227562 -176.718026399612 2926.00011825562 10 12 7
187.647670507431 -175.383895635605 2904.00004386902 11 13 8
200.414463877678 -179.726481437683 2976.0000705719 13 15 10
204.253807663918 -176.036700606346 2914.99996185303 12 14 9
214.966550469398 -178.325340151787 2953.00006866455 9 11 6
-58.0050237476826 -183.302074670792 2903.00011634827 23 25 20
-49.5466105639935 -181.346356868744 2871.99997901917 21 24 17
-41.5476746857166 -180.653214454651 2861.00006103516 21 24 17
-33.8798351585865 -181.412130594254 2872.99990653992 16 19 12
-25.5482010543346 -178.003266453743 2819.00000572205 16 19 12
-17.9735887795687 -179.203733801842 2838.00005912781 19 22 15
-10.2735534310341 -180.025056004524 2851.0000705719 18 21 14
-2.44483398273587 -176.678583025932 2798.00009727478 16 19 12
5.2430210635066 -178.383439779282 2825.00004768372 13 16 9
13.2158268243074 -181.98236823082 2881.99996948242 10 13 6
20.9657456725836 -180.971533060074 2865.9999370575 9 12 5
28.6684110760689 -180.213019251823 2854.00009155273 10 13 6
36.8164293467999 -181.980013847351 2881.99996948242 11 14 7
44.6210242807865 -181.726157665253 2878.00002098084 11 12 6
52.8412014245987 -182.987466454506 2898.00000190735 11 12 6
60.122188180685 -181.09142780304 2868.00003051758 11 12 6
67.9025650024414 -180.963143706322 2865.9999370575 11 12 6
76.1737525463104 -182.034254074097 2882.99989700317 10 11 5
85.0913003087044 -184.304803609848 2918.99991035461 10 11 5
92.1327918767929 -182.470962405205 2890.00010490417 12 13 7
109.697572886944 -185.495257377625 2937.99996376038 12 13 7
117.273487150669 -184.797212481499 2927.00004577637 12 13 7
132.016181945801 -183.084845542908 2900.00009536743 11 12 6
141.519904136658 -185.163944959641 2933.00008773804 11 12 6
149.163976311684 -184.717506170273 2926.00011825562 11 12 6
156.984075903893 -184.523373842239 2923.00009727478 11 12 6
164.222851395607 -183.697760105133 2910.00008583069 12 13 7
176.063805818558 -187.858760356903 2976.0000705719 12 13 7
181.208774447441 -184.82331931591 2927.99997329712 11 13 8
192.294299602509 -187.847435474396 2976.0000705719 9 11 6
195.559874176979 -183.296844363213 2904.00004386902 9 11 6
203.897371888161 -183.669477701187 2910.00008583069 12 14 9
-67.0844838023186 -194.577321410179 2953.9999961853 14 16 13
-57.7234365046024 -190.297856926918 2888.99993896484 28 30 25
-50.5110733211041 -192.868545651436 2927.99997329712 23 26 19
-41.6334681212902 -188.851967453957 2867.00010299683 20 23 16
-34.1971330344677 -191.026940941811 2900.00009536743 16 19 12
-26.3267587870359 -191.357284784317 2904.99997138977 17 20 13
-17.8400166332722 -185.561314225197 2816.99991226196 21 24 17
-2.4569877423346 -185.232609510422 2812.00003623962 13 16 9
5.30595192685723 -188.328549265862 2858.99996757507 11 14 7
13.2979406043887 -191.028997302055 2900.00009536743 9 12 5
21.0821125656366 -189.842730760574 2881.99996948242 9 12 5
28.9085600525141 -189.578428864479 2878.00002098084 10 13 6
36.7641486227512 -189.577341079712 2878.00002098084 11 14 7
44.8056310415268 -190.366461873055 2890.00010490417 12 13 7
52.657175809145 -190.233141183853 2888.00001144409 12 13 7
60.0573793053627 -188.716277480125 2865.00000953674 12 13 7
67.3317909240723 -187.199205160141 2842.00000762939 11 12 6
76.0656297206879 -189.63398039341 2878.99994850159 10 11 5
84.3598246574402 -190.619379281998 2894.00005340576 9 10 4
93.2137295603752 -192.592486739159 2924.00002479553 12 13 7
100.431397557259 -191.140279173851 2901.99995040894 12 13 7
110.440798103809 -194.825232028961 2957.99994468689 12 13 7
119.593515992165 -196.599826216698 2984.99989509583 12 13 7
126.239910721779 -194.290682673454 2950.00004768372 13 14 8
132.785841822624 -192.113071680069 2917.00005531311 11 12 6
141.708418726921 -193.425819277763 2937.00003623962 11 12 6
150.07683634758 -193.882092833519 2944.00000572205 12 13 7
157.730966806412 -193.416133522987 2937.00003623962 12 13 7
168.450072407722 -196.571871638298 2984.99989509583 12 13 7
170.852228999138 -190.178751945496 2888.00001144409 12 13 7
183.183431625366 -194.914296269417 2960.00003814697 11 13 8
186.473086476326 -190.035581588745 2885.99991798401 9 11 6
197.102576494217 -192.729189991951 2927.00004577637 9 11 6
207.114011049271 -194.632232189178 2956.00008964539 10 12 7
213.715985417366 -193.30869615078 2936.00010871887 9 11 6
-67.9906010627747 -205.377325415611 2993.99995803833 52 54 51
-58.3808347582817 -200.440511107445 2921.99993133545 17 19 14
-42.5323806703091 -200.924128293991 2928.99990081787 14 17 10
-34.3492813408375 -199.827879667282 2913.00010681152 17 20 13
-18.0674009025097 -195.713728666306 2852.9999256134 19 22 15
-10.1503664627671 -193.244621157646 2816.99991226196 14 17 10
-2.47350614517927 -194.20525431633 2831.00008964539 11 14 7
5.35031361505389 -197.772353887558 2882.99989700317 10 13 6
13.3066652342677 -199.075415730476 2901.99995040894 9 12 5
21.2789066135883 -199.555024504662 2908.99991989136 10 13 6
28.9075914770365 -197.427600622177 2878.00002098084 11 14 7
36.7756932973862 -197.495102882385 2878.99994850159 10 13 6
44.5405803620815 -197.082117199898 2872.99990653992 14 15 9
52.0719699561596 -195.914298295975 2855.99994659424 13 14 8
68.9642131328583 -199.683010578156 2911.00001335144 11 12 6
76.538659632206 -198.720216751099 2897.0000743866 9 10 4
84.5610573887825 -198.991850018501 2901.00002288818 8 9 3
92.8599685430527 -199.811995029449 2913.00010681152 12 13 7
101.258613169193 -200.700387358665 2926.00011825562 12 13 7
109.018415212631 -200.285285711288 2920.00007629395 13 14 8
132.690414786339 -199.930101633072 2914.99996185303 11 12 6
143.295913934708 -203.697681427002 2970.00002861023 11 12 6
150.989457964897 -203.144058585167 2961.99989318848 12 13 7
159.175768494606 -203.2760232687 2963.99998664856 12 13 7
167.033791542053 -202.996239066124 2960.00003814697 12 13 7
181.506589055061 -201.133027672768 2933.00008773804 10 12 7
188.793018460274 -200.372532010078 2921.99993133545 11 13 8
193.796634674072 -197.34899699688 2878.00002098084 11 13 8
206.897079944611 -202.485129237175 2953.00006866455 10 12 7
-58.3987943828106 -208.480030298233 2923.00009727478 15 17 12
-42.7341982722282 -209.910124540329 2943.00007820129 17 20 13
-10.3337746113539 -204.564407467842 2868.00003051758 12 15 8
-2.46643042191863 -201.354920864105 2822.99995422363 11 14 7
5.36311790347099 -206.133767962456 2890.00010490417 10 13 6
13.4116634726524 -208.629861474037 2924.99995231628 9 12 5
21.2928000837564 -207.630664110184 2911.00001335144 11 14 7
29.2279981076717 -207.558453083038 2910.00008583069 11 14 7
36.9532406330109 -206.344738602638 2892.99988746643 10 13 6
44.2444868385792 -203.56160402298 2854.00009155273 14 15 9
52.6353567838669 -205.913618206978 2887.00008392334 14 15 9
59.4663806259632 -202.345430850983 2836.99989318848 13 14 8
66.0716369748116 -198.919698596001 2789.00003433228 10 11 5
76.9058763980865 -207.618519663811 2911.00001335144 9 10 4
84.4415426254272 -206.617191433907 2897.0000743866 8 9 3
92.6336199045181 -207.255944609642 2905.99989891052 12 13 7
101.012870669365 -208.179697394371 2918.99991035461 12 13 7
108.939990401268 -208.104699850082 2917.99998283386 13 14 8
113.896608352661 -202.752023935318 2842.99993515015 14 15 9
123.107686638832 -205.17261326313 2877.00009346008 14 15 9
135.917663574219 -212.941318750381 2986.00006103516 12 13 7
144.255921244621 -213.221669197083 2990.00000953674 12 13 7
151.545003056526 -212.004259228706 2973.00004959106 12 13 7
159.492537379265 -211.784899234772 2970.00002861023 12 13 7
166.576653718948 -210.495695471764 2951.99990272522 13 14 8
174.508482217789 -210.347205400467 2950.00004768372 13 14 8
182.304888963699 -210.055828094482 2946.00009918213 10 12 7
188.980475068092 -208.552107214928 2924.99995231628 10 12 7
194.530755281448 -205.978736281395 2888.99993896484 12 14 9
-57.7973499894142 -214.228615164757 2892.99988746643 21 22 17
-49.7468560934067 -213.56412768364 2884.0000629425 21 22 16
-25.7259476929903 -210.235923528671 2838.99998664856 18 21 14
-10.2325174957514 -210.311263799667 2839.99991416931 11 14 7
-2.49517243355513 -211.496382951736 2855.99994659424 11 14 7
5.34436851739883 -213.273629546165 2880.00011444092 10 13 6
13.1865125149488 -212.977036833763 2875.99992752075 10 13 6
21.3139764964581 -215.790450572968 2914.00003433228 12 15 8
29.2470324784517 -215.641409158707 2911.99994087219 12 15 8
37.0285473763943 -214.67749774456 2898.9999294281 10 13 6
44.6614548563957 -213.343098759651 2881.00004196167 15 16 10
52.19591781497 -212.008386850357 2862.99991607666 14 15 9
76.427586376667 -214.222803711891 2892.99988746643 9 10 4
84.0304493904114 -213.479399681091 2882.99989700317 8 9 3
92.7896872162819 -215.549513697624 2911.00001335144 12 13 7
101.632140576839 -217.471182346344 2937.00003623962 12 13 7
109.496086835861 -217.171177268028 2933.00008773804 13 14 8
116.496503353119 -215.315982699394 2907.99999237061 14 15 9
125.542268157005 -217.236697673798 2934.00001525879 14 15 9
136.003851890564 -221.230119466782 2987.99991607666 12 13 7
145.215675234795 -222.853884100914 3009.99999046326 12 13 7
151.845455169678 -220.553383231163 2979.00009155273 12 13 7
158.949911594391 -219.141140580177 2960.00003814697 13 14 8
165.950104594231 -217.728659510612 2940.99998474121 13 14 8
172.905191779137 -216.390043497086 2923.00009727478 13 14 8
183.597967028618 -219.640895724297 2967.00000762939 10 12 7
188.586175441742 -216.080963611603 2918.99991035461 9 11 6
201.728567481041 -221.773937344551 2996.00005149841 10 12 7
209.475055336952 -221.3224619627 2990.00000953674 12 14 9
-56.5765686333179 -217.43269264698 2832.00001716614 20 21 16
-33.7324701249599 -219.664365053177 2861.00006103516 18 21 14
-25.7340501993895 -218.053117394447 2839.99991416931 16 19 12
-18.2364154607058 -221.125155687332 2880.00011444092 12 15 8
5.28849987313151 -218.822479248047 2849.99990463257 10 13 6
13.4336035698652 -224.964499473572 2930.0000667572 11 14 7
21.3058684021235 -223.658606410027 2913.00010681152 12 15 8
29.0952939540148 -222.429186105728 2897.0000743866 12 15 8
37.2698493301868 -224.040269851685 2917.99998283386 12 15 8
44.6752868592739 -221.274688839912 2881.99996948242 14 17 10
53.3242635428905 -224.574282765388 2924.99995231628 13 16 9
62.9203468561172 -230.483949184418 3002.00009346008 10 13 6
75.8435800671577 -220.4210460186 2871.00005149841 8 11 4
83.6484432220459 -220.341250300407 2869.99988555908 6 9 2
93.9018651843071 -226.17270052433 2946.00009918213 9 12 5
100.970931351185 -224.019408226013 2917.99998283386 10 13 6
109.230726957321 -224.629640579224 2926.00011825562 13 16 9
117.894276976585 -225.930437445641 2943.00007820129 13 16 9
126.906827092171 -227.691516280174 2966.00008010864 12 15 8
136.31746172905 -229.91281747818 2994.99988555908 13 14 8
143.81131529808 -228.832870721817 2980.99994659424 13 14 8
152.196705341339 -229.211181402206 2986.00006103516 13 14 8
158.514499664307 -226.595491170883 2951.99990272522 13 14 8
165.266960859299 -224.824041128159 2928.99990081787 13 14 8
174.732565879822 -226.736649870872 2953.9999961853 13 14 8
180.744916200638 -224.197164177895 2921.0000038147 6 8 3
193.295434117317 -229.639679193497 2992.00010299683 11 13 8
200.778633356094 -228.864938020706 2982.00011253357 8 10 5
210.448279976845 -230.545789003372 3003.99994850159 10 12 7
-56.3146881759167 -224.119395017624 2819.00000572205 21 22 16
-48.5184900462627 -223.644435405731 2812.99996376038 22 23 17
-33.1888310611248 -223.806634545326 2815.00005722046 16 19 12
-25.9233415126801 -227.465033531189 2861.00006103516 14 17 10
-18.3053631335497 -229.851052165031 2891.00003242493 11 14 7
-10.4947416111827 -231.600761413574 2913.00010681152 9 12 5
-2.48362636193633 -226.035565137863 2842.99993515015 10 13 6
5.31798461452127 -227.864161133766 2865.9999370575 10 13 6
13.3368074893951 -231.28254711628 2908.99991989136 11 14 7
20.9978688508272 -228.260695934296 2871.00005149841 12 15 8
28.9234463125467 -228.975251317024 2880.00011444092 13 16 9
37.0257459580898 -230.484545230865 2898.9999294281 13 16 9
45.0610928237438 -231.118977069855 2907.00006484985 15 18 11
53.2310716807842 -232.150629162788 2920.00007629395 13 16 9
76.3689875602722 -229.837462306023 2891.00003242493 8 11 4
83.7035402655602 -228.323847055435 2871.99997901917 7 10 3
93.9938649535179 -234.441816806793 2948.99988174438 9 12 5
101.486101746559 -233.166068792343 2933.00008773804 10 13 6
108.554616570473 -231.174558401108 2907.99999237061 13 16 9
118.009954690933 -234.191000461578 2946.00009918213 13 16 9
129.041284322739 -239.750787615776 3016.00003242493 12 15 8
135.720610618591 -237.042918801308 2982.00011253357 13 14 8
143.612891435623 -236.640065908432 2976.99999809265 13 14 8
150.356084108353 -234.488248825073 2950.00004768372 13 14 8
158.186361193657 -234.164357185364 2946.00009918213 13 14 8
165.937781333923 -233.760714530945 2940.99998474121 13 14 8
174.666851758957 -234.707966446877 2953.00006866455 13 14 8
193.675816059113 -238.270446658134 2997.99990653992 13 15 10
199.62652027607 -235.640272498131 2964.99991416931 10 12 7
207.568272948265 -235.473617911339 2963.00005912781 11 13 8
-58.9892491698265 -242.822036147118 2953.00006866455 20 21 16
-50.6724715232849 -241.590827703476 2937.99996376038 21 22 16
-41.8711379170418 -237.152248620987 2884.0000629425 16 19 12
-33.9774079620838 -236.989304423332 2881.99996948242 14 17 10
-25.7229767739773 -233.454585075378 2838.99998664856 13 16 9
-18.3362923562527 -238.142669200897 2895.99990844727 11 14 7
-2.48964270576835 -234.360843896866 2849.99990463257 10 13 6
5.36416098475456 -237.732321023941 2891.00003242493 11 14 7
13.2308350875974 -237.320750951767 2885.99991798401 11 14 7
21.0043452680111 -236.168846487999 2871.99997901917 13 16 9
28.7515688687563 -235.427737236023 2862.99991607666 13 16 9
36.8071608245373 -236.988812685013 2881.99996948242 13 16 9
44.9043028056622 -238.220617175102 2897.0000743866 15 18 11
59.7298443317413 -234.351605176926 2849.99990463257 10 13 6
68.9514055848122 -239.364936947823 2911.00001335144 9 12 5
76.2338936328888 -237.306356430054 2885.99991798401 9 12 5
83.9625224471092 -236.892014741898 2881.00004196167 10 13 6
93.4164747595787 -240.999713540077 2930.99999427795 10 13 6
99.9250859022141 -237.46021091938 2888.00001144409 10 13 6
110.379427671432 -243.12935769558 2957.00001716614 12 15 8
119.60756778717 -245.509162545204 2986.00006103516 14 17 10
128.180533647537 -246.32640182972 2996.00005149841 13 16 9
135.442212224007 -244.676783680916 2976.0000705719 13 14 8
142.256587743759 -242.451444268227 2948.99988174438 13 14 8
150.35018324852 -242.527827620506 2950.00004768372 13 14 8
158.878192305565 -243.261590600014 2959.00011062622 13 14 8
165.874913334846 -241.693213582039 2940.00005722046 13 14 8
173.536255955696 -241.193220019341 2934.00001525879 13 14 8
183.020412921906 -243.159145116806 2957.99994468689 11 13 8
191.342741250992 -243.480578064919 2961.99989318848 10 12 7
198.474302887917 -242.322117090225 2947.99995422363 10 12 7
208.120658993721 -244.204699993134 2970.99995613098 10 12 7
-59.0667352080345 -251.210153102875 2957.00001716614 19 20 15
-50.5669228732586 -249.088555574417 2931.99992179871 19 20 14
-42.1597845852375 -246.711745858192 2904.00004386902 16 19 12
-33.8817089796066 -244.164630770683 2874.00007247925 14 17 10
-25.7128644734621 -241.107434034348 2838.00005912781 12 15 8
-18.0063135921955 -241.618067026138 2844.00010108948 11 14 7
-10.2453269064426 -241.618677973747 2844.00010108948 11 14 7
-2.51662009395659 -244.762361049652 2881.00004196167 11 14 7
5.35651948302984 -245.272040367126 2887.00008392334 11 14 7
13.289887458086 -246.291100978851 2898.9999294281 12 15 8
20.842595025897 -242.127522826195 2849.99990463257 13 16 9
28.8608577102423 -244.165450334549 2874.00007247925 13 16 9
36.7545746266842 -244.503915309906 2878.00002098084 13 16 9
44.8869653046131 -246.031433343887 2895.99990844727 15 18 11
52.3518174886703 -243.990480899811 2871.99997901917 13 16 9
59.999842196703 -243.223547935486 2862.99991607666 11 14 7
68.6170011758804 -246.109336614609 2897.0000743866 9 12 5
77.1552696824074 -248.145148158073 2921.0000038147 9 12 5
84.4253674149513 -246.10298871994 2897.0000743866 10 13 6
91.97848290205 -245.16487121582 2885.99991798401 10 13 6
101.408757269382 -248.983576893806 2930.99999427795 10 13 6
108.247324824333 -246.345907449722 2900.00009536743 13 16 9
117.359653115273 -248.88963997364 2930.0000667572 14 17 10
133.707374334335 -249.558866024017 2937.99996376038 13 14 8
141.189634799957 -248.618885874748 2927.00004577637 13 14 8
151.363417506218 -252.265244722366 2970.00002861023 13 14 8
159.730866551399 -252.683609724045 2974.99990463257 13 14 8
165.811821818352 -249.619320034981 2938.99989128113 13 14 8
174.29818212986 -250.29182434082 2947.00002670288 13 14 8
182.57999420166 -250.624299049377 2950.99997520447 12 14 9
190.172374248505 -250.022292137146 2944.00000572205 9 11 6
200.688034296036 -253.15660238266 2980.99994659424 11 13 8
209.443315863609 -253.912627696991 2990.00000953674 11 13 8
-58.5449188947678 -256.988674402237 2930.99999427795 22 23 18
-50.0474125146866 -254.448264837265 2901.99995040894 20 21 15
-41.954766958952 -253.398090600967 2890.00010490417 14 17 10
-33.8567011058331 -251.821428537369 2871.99997901917 12 15 8
-25.7027205079794 -248.753845691681 2836.99989318848 10 13 6
-10.3277461603284 -251.38583779335 2867.00010299683 10 13 6
-2.53048958256841 -254.016607999802 2897.0000743866 11 14 7
5.39339985698462 -254.893392324448 2907.00006484985 11 14 7
13.2068144157529 -252.613216638565 2881.00004196167 12 15 8
21.0464783012867 -252.349436283112 2878.00002098084 13 16 9
28.8897641003132 -252.260684967041 2877.00009346008 14 17 10
37.0084308087826 -254.10059094429 2898.00000190735 14 17 10
44.668085873127 -252.695947885513 2881.99996948242 13 16 9
53.4068122506142 -256.902515888214 2930.0000667572 14 17 10
69.7983428835869 -258.387804031372 2947.00002670288 11 14 7
76.7558291554451 -254.789888858795 2905.99989891052 8 11 4
84.9172249436378 -255.487889051437 2914.00003433228 9 12 5
92.6757603883743 -254.958033561707 2907.99999237061 11 14 7
100.366607308388 -254.34023141861 2901.00002288818 10 13 6
109.063945710659 -256.176918745041 2921.99993133545 13 16 9
116.353437304497 -254.68173623085 2904.99997138977 14 17 10
124.790348112583 -255.728662014008 2917.00005531311 14 17 10
136.978358030319 -263.87619972229 3009.99999046326 13 14 8
144.077867269516 -261.853963136673 2986.99998855591 13 14 8
151.968687772751 -261.409401893616 2982.00011253357 13 14 8
159.992679953575 -261.227548122406 2980.00001907349 13 14 8
178.016945719719 -263.843089342117 3009.99999046326 13 14 8
183.871701359749 -260.50466299057 2971.99988365173 12 14 9
191.06887280941 -259.269744157791 2957.99994468689 9 11 6
202.093541622162 -263.118118047714 3002.00009346008 12 14 9
212.516739964485 -265.914171934128 3033.99991989136 13 15 10
-57.9631552100182 -262.353330850601 2901.99995040894 27 28 23
-49.7520789504051 -260.818779468536 2884.99999046326 18 19 13
-41.6045449674129 -259.103089570999 2865.9999370575 17 20 13
-33.8080823421478 -259.285569190979 2868.00003051758 10 13 6
-10.4821901768446 -263.085603713989 2910.00008583069 11 14 7
-2.54872208461165 -263.809114694595 2917.99998283386 9 12 5
5.38017880171537 -262.181729078293 2900.00009536743 12 15 8
13.2383285090327 -261.096447706223 2888.00001144409 14 17 10
21.1479403078556 -261.457324028015 2891.99995994568 15 18 11
29.1596222668886 -262.541085481644 2904.00004386902 15 18 11
36.9429737329483 -261.545151472092 2892.99988746643 14 17 10
44.8366329073906 -261.543363332748 2892.99988746643 15 18 11
52.5660663843155 -260.72758436203 2884.0000629425 14 17 10
61.4825449883938 -265.245318412781 2934.00001525879 13 16 9
68.800613284111 -262.620747089386 2904.99997138977 10 13 6
77.8882205486298 -266.595244407654 2948.99988174438 9 12 5
84.5347419381142 -262.252420186996 2901.00002288818 10 13 6
92.990443110466 -263.78533244133 2917.99998283386 13 16 9
102.022863924503 -266.583412885666 2948.99988174438 13 16 9
109.619110822678 -265.494078397751 2937.00003623962 14 17 10
116.86909198761 -263.771623373032 2917.99998283386 14 17 10
135.880380868912 -269.907355308533 2986.00006103516 13 15 10
145.470470190048 -272.6129591465 3016.00003242493 13 15 10
151.095867156982 -267.996728420258 2964.99991416931 13 16 9
159.341633319855 -268.261194229126 2967.99993515015 13 16 9
170.987918972969 -273.948222398758 3030.99989891052 13 16 9
178.896471858025 -273.398399353027 3025.00009536743 13 16 7
185.596168041229 -271.131128072739 3000 12 15 8
192.869365215302 -269.85776424408 2986.00006103516 13 15 10
202.421590685844 -271.74711227417 3006.99996948242 13 15 10
-57.82076343894 -269.607752561569 2894.99998092651 16 17 12
-34.0659022331238 -269.148349761963 2890.00010490417 12 15 8
-25.7185772061348 -264.399945735931 2838.99998664856 11 14 7
-2.5267731398344 -269.430994987488 2892.99988746643 12 15 8
5.37808379158378 -269.989728927612 2898.9999294281 14 17 10
13.2148200646043 -268.499225378037 2882.99989700317 14 17 10
21.293243393302 -271.199256181717 2911.99994087219 14 17 10
29.2486920952797 -271.291255950928 2913.00010681152 15 18 11
37.1201001107693 -270.730972290039 2907.00006484985 16 19 12
45.0825951993465 -270.915359258652 2908.99991989136 15 18 11
53.3474460244179 -272.589504718781 2927.00004577637 15 18 11
61.3331273198128 -272.58688211441 2927.00004577637 12 15 8
70.6684738397598 -277.892231941223 2983.99996757507 10 13 6
78.2809257507324 -276.026338338852 2963.99998664856 9 12 5
84.3561664223671 -269.59702372551 2894.99998092651 10 13 6
93.3049842715263 -272.666126489639 2927.99997329712 12 15 8
102.398902177811 -275.641679763794 2960.00003814697 13 16 9
110.733918845654 -276.288777589798 2967.00000762939 13 16 9
117.745041847229 -273.769438266754 2940.00005722046 14 17 10
124.137841165066 -270.225524902344 2901.99995040894 14 17 10
134.782284498215 -275.806695222855 2961.99989318848 13 15 10
144.017145037651 -278.035253286362 2986.00006103516 13 15 10
159.01255607605 -275.787115097046 2961.99989318848 13 16 9
168.667629361153 -278.386890888214 2990.00000953674 13 16 9
177.410274744034 -279.310286045074 3000 13 16 7
185.526236891747 -279.209166765213 2999.00007247925 12 15 8
193.054765462875 -278.269827365875 2989.00008201599 13 15 10
200.460746884346 -277.237147092819 2977.9999256134 13 15 10
-50.0234887003899 -278.071612119675 2901.00002288818 19 20 15
-42.2975309193134 -279.319852590561 2914.00003433228 15 18 11
-34.1940000653267 -278.075516223907 2901.00002288818 13 16 9
-26.2790340930223 -278.07691693306 2901.00002288818 12 15 8
-18.0791076272726 -273.764431476593 2855.99994659424 10 13 6
-10.3659853339195 -275.873959064484 2878.00002098084 12 15 8
-2.49172281473875 -273.477822542191 2852.9999256134 15 18 11
5.26467896997929 -272.039920091629 2838.00005912781 15 18 11
13.0767105147243 -273.47731590271 2852.9999256134 14 17 10
21.3215164840221 -279.515475034714 2915.99988937378 14 17 10
29.2373113334179 -279.130846261978 2911.99994087219 15 18 11
36.9396395981312 -277.308076620102 2892.99988746643 16 19 12
44.9875593185425 -278.264760971069 2903.00011634827 14 17 10
53.0716367065907 -279.125154018402 2911.99994087219 15 18 11
61.4560507237911 -281.135410070419 2933.00008773804 12 15 8
70.1679438352585 -284.00793671608 2963.00005912781 10 13 6
78.0132710933685 -283.141851425171 2953.9999961853 9 12 5
85.6926441192627 -281.892061233521 2940.99998474121 10 13 6
94.1929668188095 -283.325612545013 2956.00008964539 10 13 6
102.394260466099 -283.704519271851 2960.00003814697 12 15 8
110.878184437752 -284.753888845444 2970.99995613098 13 16 9
117.379270493984 -280.914902687073 2930.99999427795 14 17 10
125.287145376205 -280.717641115189 2928.99990081787 15 18 11
134.503200650215 -283.299386501312 2956.00008964539 13 15 10
144.878759980202 -287.893205881119 3003.99994850159 13 15 10
152.713015675545 -287.215560674667 2996.99997901917 13 16 9
168.490827083588 -286.242634057999 2986.99998855591 13 16 9
177.047520875931 -286.905616521835 2993.99995803833 13 16 7
183.600291609764 -284.40597653389 2967.99993515015 11 14 7
190.785676240921 -283.056020736694 2953.9999961853 12 14 9
197.557479143143 -281.226724386215 2934.99994277954 12 14 9
-50.4694581031799 -288.536220788956 2927.00004577637 22 24 19
-41.7585037648678 -283.609479665756 2877.00009346008 15 18 11
-34.1452546417713 -285.582900047302 2897.0000743866 13 16 9
-26.341212913394 -286.668688058853 2907.99999237061 12 15 8
-18.1478895246983 -282.627999782562 2867.00010299683 11 14 7
-10.325881652534 -282.628655433655 2867.00010299683 12 15 8
-2.50208587385714 -282.431781291962 2865.00000953674 15 18 11
5.31266117468476 -282.333165407181 2864.00008201599 15 18 11
13.3785931393504 -287.754595279694 2918.99991035461 14 17 10
21.1011692881584 -284.500658512115 2885.99991798401 13 16 9
29.0953852236271 -285.682439804077 2898.00000190735 14 17 10
36.4782623946667 -281.639128923416 2857.00011253357 16 19 12
44.0556779503822 -280.257105827332 2842.99993515015 14 17 10
52.0668178796768 -281.634956598282 2857.00011253357 14 17 10
59.2322275042534 -278.674960136414 2826.99990272522 12 15 8
78.537791967392 -293.159037828445 2973.99997711182 9 12 5
86.1548185348511 -291.479378938675 2957.00001716614 9 12 5
92.9777547717094 -287.630826234818 2917.99998283386 10 13 6
102.769985795021 -292.850494384766 2970.99995613098 11 14 7
110.20128428936 -291.071206331253 2953.00006866455 12 15 8
134.997457265854 -292.433828115463 2967.00000762939 13 15 10
161.145269870758 -295.862674713135 3002.00009346008 13 16 9
167.637020349503 -292.898416519165 2971.99988365173 13 16 7
176.80287361145 -294.664323329926 2990.00000953674 13 16 7
184.08676981926 -293.276280164719 2976.0000705719 11 14 7
188.322812318802 -287.35488653183 2915.99988937378 12 14 9
196.000397205353 -286.951869726181 2911.99994087219 11 13 8
-50.2773746848106 -295.393198728561 2915.99988937378 19 21 16
-41.6258759796619 -290.533006191254 2868.00003051758 16 19 12
-33.6250327527523 -289.015263319016 2852.9999256134 11 14 7
-25.9051714092493 -289.725840091705 2859.99989509583 11 14 7
-18.2229708880186 -291.651695966721 2878.99994850159 14 17 10
-10.3938123211265 -292.361497879028 2885.99991798401 14 17 10
-2.5264173746109 -293.070942163467 2892.99988746643 13 16 9
5.4032951593399 -295.096933841705 2913.00010681152 13 16 9
