ply
format ascii 1.0
comment KinectMotionCapture
element vertex 782
property float x
property float y
property float z
property uchar red
property uchar green
property uchar blue
end_header
189.801514148712 405.530154705048 2713.00005912781 142 144 141
198.785573244095 408.806174993515 2734.99989509583 152 154 151
207.134649157524 410.586833953857 2746.99997901917 160 165 161
215.62647819519 412.516444921494 2759.99999046326 163 168 164
224.75428879261 415.491729974747 2779.99997138977 166 171 167
234.825849533081 419.960796833038 2809.99994277954 184 189 185
-39.6864525973797 401.838093996048 2736.99998855591 190 195 189
-32.3446653783321 403.308570384979 2746.99997901917 203 208 202
-24.7944165021181 402.282744646072 2740.00000953674 214 219 213
-17.2569435089827 400.669127702713 2729.00009155273 205 210 204
-9.79375746101141 399.6422290802 2721.99988365173 148 150 145
-2.37131281755865 399.055361747742 2717.99993515015 123 125 120
5.03304321318865 398.761659860611 2716.00008010864 131 133 128
12.4218994751573 398.320645093918 2713.00005912781 148 150 145
19.8016632348299 398.025929927826 2710.99996566772 152 154 149
27.1704494953156 397.730737924576 2709.00011062622 144 146 141
34.5154851675034 397.288292646408 2706.00008964539 119 120 115
41.8440401554108 396.84534072876 2703.00006866455 128 129 124
49.1924956440926 396.695524454117 2701.99990272522 135 136 131
56.5981231629848 396.985739469528 2703.9999961853 142 143 138
63.8488531112671 396.247714757919 2698.99988174438 135 136 131
70.2806413173676 391.104936599731 2664.00003433228 107 107 105
75.7064521312714 381.851136684418 2601.0000705719 149 149 147
81.9663777947426 378.028988838196 2575.00004768372 149 149 147
88.6372551321983 376.555413007736 2565.00005722046 136 136 134
95.1414555311203 374.641001224518 2552.00004577637 140 140 140
101.734489202499 373.313367366791 2542.99998283386 143 143 143
108.534500002861 372.866183519363 2539.99996185303 146 146 146
115.49960821867 373.005747795105 2540.99988937378 145 147 144
122.325204312801 372.70450592041 2539.00003433228 147 149 146
129.190400242805 372.549653053284 2538.00010681152 150 152 149
136.049672961235 372.394353151321 2536.99994087219 151 153 150
142.959356307983 372.385382652283 2536.99994087219 156 158 155
150.045767426491 372.816354036331 2539.99996185303 164 166 163
157.271608710289 373.540461063385 2545.00007629395 159 161 158
165.943503379822 377.492994070053 2572.00002670288 187 189 186
178.124010562897 388.78321647644 2648.9999294281 170 172 169
189.743652939796 398.017674684525 2711.99989318848 145 147 144
199.234321713448 402.261435985565 2740.9999370575 158 160 157
207.449376583099 403.716146945953 2750.99992752075 148 153 149
216.030761599541 405.757397413254 2765.00010490417 159 164 160
225.415259599686 409.118711948395 2788.00010681152 155 160 156
235.759899020195 413.946747779846 2821.00009918213 178 183 179
-39.471510797739 392.242401838303 2721.99988365173 177 182 176
-32.3232151567936 395.559042692184 2744.99988555908 29 34 28
-24.7869808226824 394.696295261383 2739.00008201599 196 201 195
-17.2454155981541 392.968416213989 2726.99999809265 209 214 208
-9.76920686662197 391.240060329437 2714.99991416931 149 151 146
-2.36535933800042 390.664011240005 2710.99996566772 131 133 128
5.01669105142355 390.087515115738 2707.00001716614 167 169 164
12.3952329158783 390.086948871613 2707.00001716614 157 159 154
19.7664275765419 389.941871166229 2706.00008964539 158 160 155
27.1521545946598 390.08441567421 2707.00001716614 126 128 123
34.5049649477005 389.794230461121 2704.99992370605 138 139 134
41.8622344732285 389.647662639618 2703.9999961853 140 141 136
49.2138974368572 389.500647783279 2703.00006866455 143 144 139
56.6436536610127 389.929533004761 2706.00008964539 130 131 126
63.9476180076599 389.493346214294 2703.00006866455 115 116 111
70.6545561552048 385.886609554291 2677.99997329712 122 123 118
76.1770755052567 377.092182636261 2617.00010299683 143 143 141
82.2581797838211 372.332036495209 2584.00011062622 146 146 144
88.7466445565224 370.021134614944 2568.00007820129 135 135 133
95.259428024292 368.1420981884 2555.0000667572 139 139 137
101.86105966568 366.839021444321 2546.0000038147 142 142 140
108.712404966354 366.544127464294 2543.99991035461 145 145 143
115.597933530807 366.392880678177 2542.99998283386 144 146 143
122.429393231869 366.097152233124 2540.99988937378 146 148 145
129.300460219383 365.945100784302 2539.99996185303 149 151 148
136.111959815025 365.648537874222 2538.00010681152 150 152 149
143.19384098053 366.071879863739 2540.99988937378 152 154 151
150.232538580894 366.350799798965 2542.99998283386 163 165 162
157.343342900276 366.773307323456 2546.0000038147 168 170 167
165.566846728325 369.644284248352 2565.99998474121 177 179 176
176.924794912338 378.996968269348 2631.00004196167 180 182 179
190.175384283066 391.517698764801 2717.99993515015 146 148 145
199.610263109207 395.538836717606 2746.00005149841 140 142 139
207.764029502869 396.822512149811 2755.00011444092 161 166 162
216.434895992279 398.969888687134 2769.99998092651 155 160 156
225.75269639492 402.124881744385 2792.00005531311 165 170 166
235.858052968979 406.431406736374 2822.00002670288 163 168 164
-39.3435321748257 383.575290441513 2713.00005912781 18 23 17
-31.9720022380352 383.860319852829 2714.99991416931 32 37 31
-24.7976183891296 387.396782636642 2740.00000953674 22 27 21
-17.2148998826742 384.85312461853 2721.99988365173 5 10 4
-9.75543912500143 383.298754692078 2710.99996566772 16 18 13
-2.35940306447446 382.309436798096 2703.9999961853 3 5 0
5.00774616375566 382.026582956314 2701.99990272522 15 17 12
12.3731307685375 382.026016712189 2701.99990272522 73 75 70
19.7530817240477 382.30773806572 2703.9999961853 185 187 182
27.1238014101982 382.306307554245 2703.9999961853 153 155 150
34.4816669821739 382.16295838356 2703.00006866455 141 142 137
41.8339446187019 382.019132375717 2701.99990272522 147 148 143
49.2170490324497 382.157623767853 2703.00006866455 127 128 123
56.6054098308086 382.295668125153 2703.9999961853 107 108 103
63.9753639698029 382.291823625565 2703.9999961853 108 109 104
70.9229111671448 380.02547621727 2687.99996376038 137 138 133
76.7059177160263 372.527778148651 2634.99999046326 136 136 134
82.5499296188354 366.584956645966 2592.99993515015 142 142 140
88.9942049980164 364.03477191925 2575.00004768372 136 136 134
95.4519063234329 361.908406019211 2559.99994277954 140 140 138
102.067582309246 360.629856586456 2551.00011825562 142 142 140
108.804762363434 359.916359186172 2546.0000038147 143 143 141
115.650691092014 359.626561403275 2543.99991035461 144 146 143
122.53350019455 359.477788209915 2542.99998283386 146 148 145
129.410415887833 359.328538179398 2542.00005531311 150 152 149
136.33506000042 359.320223331451 2542.00005531311 150 152 149
143.315568566322 359.452873468399 2542.99998283386 153 155 152
150.360092520714 359.726399183273 2545.00007629395 161 163 160
157.538592815399 360.282242298126 2549.00002479553 164 166 163
165.512651205063 362.533688545227 2565.00005722046 178 180 177
190.537050366402 384.842544794083 2723.00004959106 141 143 140
200.204163789749 389.211714267731 2753.99994850159 140 142 139
208.606421947479 390.895068645477 2766.00003242493 152 157 153
217.229604721069 392.860531806946 2779.99997138977 146 151 147
226.170837879181 395.249366760254 2796.99993133545 167 172 168
236.959040164948 400.605052709579 2835.00003814697 158 163 159
-32.3626585304737 381.059378385544 2747.99990653992 43 48 42
-24.4281012564898 374.266415834427 2698.99988174438 26 31 25
-17.3361580818892 380.091786384583 2740.9999370575 32 37 31
-9.74166207015514 375.377923250198 2707.00001716614 25 27 22
-2.35082604922354 373.575568199158 2694.00000572205 31 33 28
4.97470051050186 372.188806533813 2684.00001525879 18 20 15
12.3189585283399 373.02029132843 2690.00005722046 8 10 5
19.7104979306459 374.128639698029 2697.99995422363 9 11 6
27.0954202860594 374.543190002441 2700.99997520447 15 17 12
34.4583243131638 374.541223049164 2700.99997520447 114 115 110
41.8211072683334 374.538838863373 2700.99997520447 133 134 128
49.1473078727722 374.258637428284 2698.99988174438 112 113 108
56.4833618700504 374.116659164429 2697.99995422363 134 135 130
63.8374239206314 374.112904071808 2697.99995422363 142 143 138
70.9801539778709 372.999399900436 2690.00005722046 111 112 107
77.2056430578232 367.725670337677 2651.99995040894 124 125 120
82.9371735453606 361.203759908676 2605.00001907349 136 137 132
89.2417281866074 358.009219169617 2582.00001716614 138 138 136
95.7188904285431 355.923682451248 2566.99991226196 143 143 141
102.314032614231 354.530960321426 2556.99992179871 143 143 141
108.982510864735 353.553891181946 2549.99995231628 141 141 139
115.748837590218 352.992355823517 2546.0000038147 144 146 143
122.637510299683 352.84635424614 2545.00007629395 146 148 145
129.571199417114 352.838546037674 2545.00007629395 149 151 148
136.504426598549 352.830350399017 2545.00007629395 150 152 149
143.437162041664 352.821737527847 2545.00007629395 152 154 151
150.487542152405 353.089958429337 2546.99993133545 159 161 158
157.671928405762 353.63507270813 2551.00011825562 159 161 158
165.393754839897 355.288684368134 2562.99996376038 175 177 174
175.601541996002 361.932039260864 2611.00006103516 177 179 176
189.988866448402 376.336991786957 2714.99991416931 169 171 168
200.434476137161 382.146865129471 2756.99996948242 166 168 165
209.071636199951 384.213596582413 2772.0000743866 135 140 136
217.789798974991 386.279821395874 2786.99994087219 156 161 157
226.831465959549 388.761252164841 2805.0000667572 172 177 173
-16.8059263378382 361.222952604294 2657.00006484985 26 31 24
-9.72787290811539 367.477566003799 2703.00006866455 28 31 24
-2.35010008327663 366.118460893631 2693.00007820129 28 31 24
4.96574258431792 364.215016365051 2678.99990081787 21 24 17
12.2739300131798 364.350467920303 2680.0000667572 20 23 16
19.704420119524 366.66065454483 2697.00002670288 18 21 14
27.0670112222433 366.795152425766 2697.99995422363 14 17 10
34.4349518418312 366.929143667221 2698.99988174438 17 18 12
41.7617708444595 366.65490269661 2697.00002670288 13 16 9
49.09573122859 366.516202688217 2696.00009918213 60 63 56
56.4450025558472 366.512894630432 2696.00009918213 113 116 109
63.841387629509 366.781055927277 2697.99995422363 122 125 118
71.063719689846 366.097211837769 2693.00007820129 101 103 98
77.5015726685524 361.878424882889 2661.99994087219 130 132 127
83.292543888092 355.620175600052 2615.9999370575 139 141 136
89.6274596452713 352.488249540329 2592.99993515015 132 134 129
95.9858372807503 349.899768829346 2573.99988174438 151 153 150
102.48040407896 348.126530647278 2561.00010871887 132 134 131
109.117440879345 347.032606601715 2552.99997329712 144 146 143
115.937821567059 346.617966890335 2549.99995231628 144 146 143
122.885972261429 346.610635519028 2549.99995231628 145 147 144
129.782795906067 346.467077732086 2549.00002479553 145 147 144
136.67368888855 346.323072910309 2548.00009727478 149 151 148
143.502250313759 346.042692661285 2546.0000038147 153 155 152
150.555804371834 346.305698156357 2548.00009727478 158 160 157
157.681494951248 346.704125404358 2551.00011825562 162 164 161
165.46830534935 348.461151123047 2563.99989128113 173 175 172
175.410389900208 354.430675506592 2608.00004005432 170 172 169
189.930334687233 368.825048208237 2713.99998664856 141 143 140
200.446516275406 374.65688586235 2756.99996948242 116 118 115
209.385886788368 377.226620912552 2776.00002288818 162 167 163
218.193545937538 379.388093948364 2792.00005531311 168 173 169
227.491930127144 382.228404283524 2812.99996376038 158 163 159
-17.249746248126 363.327383995056 2726.99999809265 26 31 24
-9.72127169370651 359.864175319672 2700.99997520447 23 26 19
-2.34588072635233 358.132481575012 2687.99996376038 22 25 18
12.2746825218201 357.066005468369 2680.0000667572 18 21 14
19.5668023079634 356.798559427261 2677.99997329712 21 24 17
26.8981121480465 357.196867465973 2680.99999427795 19 22 15
34.3860276043415 359.060227870941 2694.9999332428 21 22 16
41.686899960041 358.658194541931 2691.99991226196 11 14 7
48.8437786698341 357.323169708252 2681.99992179871 21 24 17
56.1343915760517 357.186764478683 2680.99999427795 20 23 16
63.4193420410156 357.049912214279 2680.0000667572 21 24 17
70.7777738571167 357.31229186058 2681.99992179871 16 19 12
77.3898437619209 354.110419750214 2657.99999237061 9 12 5
83.3294689655304 348.643392324448 2617.00010299683 17 19 14
89.7366255521774 345.840483903885 2595.99995613098 138 140 135
96.1035564541817 343.303710222244 2576.99990272522 153 155 150
102.646708488464 341.699093580246 2565.00005722046 153 155 150
109.252288937569 340.49379825592 2555.99999427795 144 146 141
116.126693785191 340.22057056427 2553.99990081787 144 146 143
123.037986457348 340.080201625824 2552.99997329712 145 147 144
129.943385720253 339.939415454865 2552.00004577637 145 147 144
136.789187788963 339.665025472641 2549.99995231628 149 151 148
143.736332654953 339.65665102005 2549.99995231628 152 154 151
150.742098689079 339.781105518341 2551.00011825562 156 158 155
157.752737402916 339.905112981796 2552.00004577637 163 165 162
165.220007300377 340.961039066315 2559.99994277954 165 167 164
174.949988722801 346.411645412445 2601.0000705719 174 176 173
200.531095266342 367.298781871796 2757.99989700317 159 161 158
209.699988365173 370.216548442841 2779.99997138977 128 133 129
218.440860509872 372.201591730118 2795.00007629395 155 160 156
227.586150169373 374.71866607666 2813.99989128113 162 167 163
-17.3266977071762 357.48016834259 2739.00008201599 23 28 21
-9.7038634121418 351.868838071823 2696.00009918213 25 28 21
-2.36347783356905 353.43536734581 2707.99994468689 23 26 19
4.94780903682113 348.345190286636 2668.99991035461 16 19 12
12.2800031676888 349.910855293274 2680.99999427795 18 21 14
19.4803029298782 347.952157258987 2665.99988937378 22 25 18
26.7592687159777 348.081350326538 2667.00005531311 22 25 18
34.1711863875389 349.515169858933 2677.99997329712 22 23 17
41.3332283496857 348.338276147842 2668.99991035461 26 29 22
48.5371053218842 347.81351685524 2664.99996185303 9 12 5
55.5724166333675 346.374809741974 2654.00004386902 9 12 5
62.7841949462891 346.240758895874 2653.00011634827 12 15 8
69.9111074209213 345.714747905731 2648.9999294281 14 17 10
77.1906599402428 345.971345901489 2651.00002288818 21 23 18
83.4618285298347 342.051416635513 2621.00005149841 0 1 0
89.8802727460861 339.305698871613 2599.99990463257 156 158 153
96.2584912776947 336.820662021637 2581.00008964539 155 157 152
102.812923491001 335.24876832962 2569.00000572205 136 138 133
109.472535550594 334.198504686356 2561.00010871887 144 146 141
116.315513849258 333.800345659256 2558.00008773804 143 145 142
123.286291956902 333.79328250885 2558.00008773804 145 147 144
130.15478849411 333.524823188782 2555.99999427795 145 147 144
136.958241462708 333.125501871109 2552.99997329712 149 151 148
143.801227211952 332.856297492981 2551.00011825562 152 154 151
150.86917579174 333.108574151993 2552.99997329712 152 154 151
157.947480678558 333.360552787781 2555.0000667572 167 169 166
165.294274687767 334.133923053741 2561.00010871887 163 165 162
174.2202937603 337.907612323761 2589.99991416931 173 175 172
200.760915875435 360.19492149353 2760.99991798401 158 160 157
210.315674543381 363.705366849899 2788.00010681152 152 157 153
218.688011169434 364.997565746307 2798.00009727478 156 161 157
227.356687188148 366.680532693863 2811.00010871887 157 162 158
236.513331532478 369.015246629715 2828.9999961853 68 73 69
-39.6747216582298 349.516659975052 2734.99989509583 28 33 27
-31.9346897304058 346.451699733734 2710.99996566772 26 31 24
-24.6060565114021 347.347915172577 2717.99993515015 21 26 19
-17.0746762305498 344.921052455902 2698.99988174438 20 25 18
-9.74403414875269 345.944195985794 2707.00001716614 21 24 17
-2.34179780818522 342.877477407455 2683.00008773804 12 15 8
12.6838320866227 353.867322206497 2769.00005340576 16 19 12
19.3206984549761 337.89187669754 2644.00005340576 17 20 13
26.8612001091242 342.107802629471 2677.00004577637 19 22 15
34.1859757900238 342.361569404602 2678.99990081787 18 19 13
41.3047112524509 340.825855731964 2667.00005531311 16 19 12
48.5217683017254 340.439796447754 2664.00003433228 18 21 14
55.5128902196884 338.775455951691 2651.00002288818 14 17 10
62.6222416758537 338.133007287979 2645.99990844727 18 21 14
69.6513205766678 337.23458647728 2638.99993896484 21 24 17
77.1661102771759 338.635981082916 2650.00009536743 20 22 17
83.9126035571098 336.714446544647 2634.99999046326 20 22 17
90.1967287063599 333.386957645416 2608.99996757507 139 141 136
96.5252444148064 330.698102712631 2588.00005912781 152 154 149
103.019081056118 328.903287649155 2573.99988174438 150 152 147
109.607212245464 327.619314193726 2563.99989128113 134 136 131
116.413272917271 327.101647853851 2559.99994277954 143 145 142
123.389899730682 327.094674110413 2559.99994277954 144 146 143
130.264237523079 326.831787824631 2558.00008773804 146 148 145
137.073531746864 326.440751552582 2555.0000667572 148 150 147
144.03510093689 326.432645320892 2555.0000667572 151 153 150
151.114344596863 326.679676771164 2556.99992179871 157 159 156
158.203929662704 326.9262611866 2559.00001525879 156 158 155
165.303826332092 327.172487974167 2561.00010871887 164 166 163
173.759460449219 329.973250627518 2582.99994468689 173 175 172
187.093913555145 341.460138559341 2673.00009727478 179 181 178
200.990602374077 353.073596954346 2763.99993896484 156 158 155
210.780322551727 356.894016265869 2793.99991035461 170 175 171
219.091296195984 358.031451702118 2802.99997329712 153 158 154
227.288708090782 358.912914991379 2809.99994277954 151 156 152
235.690638422966 360.049396753311 2819.00000572205 0 5 1
-39.4304133951664 339.952826499939 2717.99993515015 26 31 25
-32.0779196918011 340.580314397812 2723.00004959106 25 30 23
-24.5441198348999 339.081019163132 2710.99996566772 22 27 20
-17.1262882649899 338.581919670105 2707.00001716614 20 25 18
-9.79140121489763 340.20870923996 2720.00002861023 20 23 16
-2.39168875850737 342.710584402084 2740.00000953674 17 20 13
5.06148859858513 341.45975112915 2730.00001907349 15 18 11
12.3593285679817 337.456792593002 2697.99995422363 16 19 12
26.7423540353775 333.326995372772 2664.99996185303 19 22 15
34.2390164732933 335.576593875885 2683.00008773804 18 19 13
41.4620079100132 334.823966026306 2677.00004577637 15 18 9
48.6885383725166 334.321051836014 2673.00009727478 23 26 19
55.8511950075626 333.567589521408 2667.00005531311 17 20 13
63.0519241094589 333.18892121315 2664.00003433228 19 22 15
70.1040774583817 332.184493541718 2655.99989891052 19 22 15
77.49093323946 332.805603742599 2661.00001335144 21 24 17
84.7455114126205 332.800924777985 2661.00001335144 11 14 7
91.1354348063469 329.669237136841 2635.99991798401 14 16 11
97.0157384872437 325.286656618118 2601.0000705719 140 142 137
103.265188634396 322.654575109482 2579.99992370605 151 153 148
109.827294945717 321.272850036621 2569.00000572205 141 143 138
116.601891815662 320.641040802002 2563.99989128113 142 144 141
123.541623353958 320.509165525436 2562.99996376038 144 146 143
130.271717905998 319.876700639725 2558.00008773804 146 148 145
137.027740478516 319.368869066238 2553.99990081787 148 150 147
143.87421309948 319.110810756683 2552.00004577637 151 153 150
151.004776358604 319.477587938309 2555.0000667572 152 154 151
158.08929502964 319.718927145004 2556.99992179871 158 160 157
165.248677134514 320.084869861603 2559.99994277954 161 163 160
173.56750369072 322.575956583023 2579.99992370605 167 169 166
200.56563615799 344.809532165527 2757.99989700317 176 178 175
210.490420460701 348.79869222641 2789.99996185303 165 170 166
219.10360455513 350.411921739578 2802.99997329712 144 149 145
227.301433682442 351.274609565735 2809.99994277954 155 160 156
236.121848225594 353.011816740036 2823.99988174438 14 19 15
-39.7228412330151 335.007429122925 2737.99991607666 28 31 24
-31.8559221923351 330.849379301071 2703.9999961853 25 28 19
-24.4459379464388 330.361574888229 2700.00004768372 24 27 18
-17.108291387558 330.852180719376 2703.9999961853 23 26 17
-9.77756455540657 332.321226596832 2716.00008010864 20 23 14
-2.37174890935421 332.443952560425 2717.00000762939 17 20 11
4.97278105467558 328.161358833313 2681.99992179871 17 20 11
12.1813705191016 325.346618890762 2658.99991989136 14 17 8
19.5056442171335 326.56928896904 2668.99991035461 13 16 7
26.8040988594294 326.812714338303 2671.0000038147 15 18 9
34.2537462711334 328.401625156403 2684.00001525879 16 19 10
41.5418297052383 328.154742717743 2681.99992179871 14 17 8
48.8370582461357 328.029811382294 2680.99999427795 12 15 6
56.0219325125217 327.292710542679 2674.99995231628 13 16 7
63.3869022130966 327.656358480453 2677.99997329712 18 21 12
70.3456550836563 326.062023639679 2664.99996185303 18 21 14
77.7283385396004 326.547235250473 2668.99991035461 17 20 13
85.2280780673027 327.399045228958 2676.00011825562 12 15 8
91.6246920824051 324.213057756424 2650.00009536743 26 28 23
97.3196625709534 319.191634654999 2608.99996757507 122 124 119
103.431180119514 316.127449274063 2584.00011062622 146 148 143
109.919048845768 314.531028270721 2571.00009918213 136 138 133
116.744950413704 314.035296440125 2566.99991226196 143 143 141
123.645015060902 313.783884048462 2565.00005722046 145 145 143
130.43187558651 313.287436962128 2561.00010871887 147 147 145
137.19642162323 312.790602445602 2556.99992179871 148 150 147
144.051432609558 312.538117170334 2555.0000667572 152 152 150
151.072338223457 312.652200460434 2555.99999427795 154 156 153
158.098131418228 312.765926122665 2556.99992179871 146 148 145
165.387034416199 313.368588685989 2562.00003623962 168 170 167
173.711732029915 315.805435180664 2582.00001716614 170 172 169
210.12482047081 340.601593255997 2785.00008583069 164 169 165
218.959331512451 342.546612024307 2801.00011825562 139 144 138
227.637514472008 344.124227762222 2813.99989128113 152 157 153
232.204809784889 339.587032794952 2776.99995040894 24 29 25
243.47697198391 344.832301139832 2819.9999332428 29 34 30
-39.8556552827358 328.636050224304 2746.99997901917 30 33 24
-31.8930633366108 323.852688074112 2707.00001716614 28 31 22
-24.4473163038492 323.016822338104 2700.00004768372 27 30 21
-17.0712918043137 322.778671979904 2697.99995422363 26 29 20
-9.73491370677948 323.497235774994 2703.9999961853 23 26 17
-2.36489903181791 324.095785617828 2709.00011062622 21 24 15
4.97306138277054 320.865511894226 2681.99992179871 18 21 12
12.2187109664083 319.070518016815 2667.00005531311 16 19 10
19.3605702370405 316.916137933731 2648.9999294281 16 19 10
26.905968785286 320.743203163147 2680.99999427795 18 21 12
34.3067348003387 321.578949689865 2687.99996376038 16 19 10
41.6061319410801 321.337550878525 2686.00010871887 18 21 12
48.6758537590504 319.660127162933 2671.99993133545 14 17 8
56.2554746866226 321.332067251205 2686.00010871887 14 17 8
63.3904710412025 320.371687412262 2677.99997329712 15 18 9
70.5343931913376 319.650173187256 2671.99993133545 14 17 10
77.8200775384903 319.646060466766 2671.99993133545 12 15 8
85.0735977292061 319.521874189377 2671.0000038147 16 19 12
91.3186296820641 315.928250551224 2641.00003242493 19 22 15
97.2132012248039 311.736196279526 2605.99994659424 19 21 16
103.717178106308 309.936314821243 2591.00008010864 151 153 148
110.309973359108 308.614552021027 2579.99992370605 146 147 142
116.978868842125 307.651370763779 2572.00002670288 146 142 141
123.796507716179 307.166278362274 2568.00007820129 147 143 142
130.591914057732 306.680828332901 2563.99989128113 145 141 140
137.364998459816 306.195020675659 2559.99994277954 149 148 146
144.172176718712 305.828481912613 2556.99992179871 152 151 149
151.080682873726 305.700778961182 2555.99999427795 157 157 155
158.230513334274 306.051164865494 2559.00001525879 160 160 158
165.589779615402 306.759923696518 2565.00005722046 157 157 155
173.788517713547 308.903336524963 2582.99994468689 169 171 168
209.45717394352 331.952273845673 2776.00002288818 135 140 134
218.502148985863 334.212750196457 2795.00007629395 144 149 142
227.164447307587 335.755258798599 2808.00008773804 69 74 67
236.39839887619 338.014662265778 2826.99990272522 24 29 23
244.612514972687 338.719189167023 2832.99994468689 22 27 21
-39.553165435791 318.70710849762 2726.0000705719 23 26 17
-32.2011709213257 319.527477025986 2733.00004005432 21 24 15
-24.5754420757294 317.307651042938 2713.99998664856 20 23 14
-17.0595832169056 315.204322338104 2696.00009918213 23 26 17
-9.74985491484404 316.608041524887 2707.99994468689 21 24 15
-2.3571727797389 315.673053264618 2700.00004768372 19 22 13
4.97519224882126 313.685417175293 2683.00008773804 20 23 14
12.2102247551084 311.580449342728 2664.99996185303 18 21 12
19.5370633155108 312.514930963516 2673.00009727478 19 22 13
27.0178616046906 314.735025167465 2691.99991226196 21 24 15
34.4107411801815 315.201044082642 2696.00009918213 16 19 10
41.391558945179 312.392979860306 2671.99993133545 20 23 14
48.7332008779049 312.741279602051 2674.99995231628 17 20 11
55.9444054961205 312.270760536194 2671.0000038147 16 19 10
63.5360106825829 313.787311315537 2684.00001525879 15 18 9
70.5646798014641 312.497615814209 2673.00009727478 13 16 9
77.9408738017082 312.844336032867 2676.00011825562 12 15 8
84.6642106771469 310.735553503037 2657.99999237061 15 18 11
90.3208553791046 305.353164672852 2611.99998855591 14 17 10
97.2558408975601 304.763525724411 2607.00011253357 9 11 6
104.003079235554 303.705960512161 2598.00004959106 145 147 142
110.615327954292 302.414238452911 2586.99989318848 140 141 136
117.258168756962 301.356017589569 2578.00006866455 144 143 141
123.99610877037 300.648123025894 2572.00002670288 144 143 141
130.802765488625 300.173670053482 2568.00007820129 142 141 139
137.69443333149 299.932658672333 2565.99998474121 147 146 144
144.518315792084 299.57440495491 2562.99996376038 151 151 149
151.443541049957 299.449592828751 2562.00003623962 142 142 140
158.54823589325 299.674987792969 2563.99989128113 155 155 153
165.792390704155 300.133854150772 2568.00007820129 158 160 157
173.528730869293 301.410377025604 2578.9999961853 167 169 166
182.234510779381 304.205805063248 2602.9999256134 180 182 179
208.261027932167 322.532683610916 2759.99999046326 0 2 0
217.028364539146 324.391216039658 2776.00002288818 28 33 26
225.720226764679 326.015502214432 2789.99996185303 0 2 0
235.825508832932 329.50884103775 2819.9999332428 31 36 30
244.711771607399 331.132113933563 2834.00011062622 20 25 19
-46.88660800457 310.601890087128 2720.00002861023 21 26 19
-38.9458723366261 306.493252515793 2684.00001525879 23 26 17
-32.3443152010441 313.460946083069 2744.99988555908 22 25 16
-24.6854461729527 311.292827129364 2726.0000705719 21 24 15
-17.1048082411289 308.667480945587 2703.00006866455 18 21 12
-9.69277694821358 307.412028312683 2691.99991226196 18 21 12
-2.35031661577523 307.412385940552 2691.99991226196 21 24 15
4.93651954457164 303.986459970474 2661.99994087219 20 23 14
12.2475456446409 305.242151021957 2673.00009727478 19 22 13
19.6404568850994 306.840002536774 2687.00003623962 21 24 15
27.0394030958414 307.638108730316 2694.00000572205 22 25 16
34.387081861496 307.636469602585 2694.00000572205 14 17 8
41.4092987775803 305.236369371414 2673.00009727478 16 19 10
48.6265271902084 304.777145385742 2668.99991035461 18 21 12
55.9055432677269 304.77437376976 2668.99991035461 18 21 12
63.2080212235451 304.885357618332 2670.00007629395 18 21 12
70.5156996846199 304.995954036713 2671.0000038147 18 21 14
77.7120664715767 304.649442434311 2667.99998283386 17 20 13
84.4139531254768 302.589774131775 2650.00009536743 26 29 22
91.2939980626106 301.443219184875 2640.00010490417 17 20 13
97.9699268937111 299.839615821838 2625.99992752075 18 20 15
104.368984699249 297.664791345596 2607.00011253357 124 126 121
110.963352024555 296.288907527924 2595.00002861023 146 148 143
117.491871118546 294.912725687027 2582.99994468689 142 142 140
124.243818223476 294.221311807632 2576.99990272522 143 143 141
131.064429879189 293.757826089859 2572.99995422363 144 144 142
137.970104813576 293.522417545319 2571.00009918213 143 145 142
144.80796456337 293.17244887352 2568.00007820129 146 148 145
151.747137308121 293.050467967987 2566.99991226196 147 149 146
158.804014325142 293.15647482872 2568.00007820129 151 153 150
165.86571931839 293.262094259262 2569.00000572205 162 167 163
173.201441764832 293.82398724556 2573.99988174438 155 160 156
181.12388253212 295.29869556427 2586.99989318848 183 188 184
190.643951296806 299.169927835464 2621.00005149841 200 205 199
216.805100440979 316.498041152954 2773.00000190735 11 16 9
225.812867283821 318.541020154953 2790.99988937378 26 31 24
235.754117369652 321.724772453308 2819.00000572205 21 26 20
243.774548172951 322.168976068497 2822.99995422363 18 23 17
254.04280424118 325.465768575668 2851.99999809265 17 22 16
-39.2236597836018 301.30660533905 2703.00006866455 23 26 17
-31.3326492905617 296.403735876083 2658.99991989136 23 26 17
-25.0127762556076 307.886868715286 2762.00008392334 21 24 15
-17.2196310013533 303.317606449127 2720.99995613098 18 21 12
-9.65008325874805 298.747897148132 2680.0000667572 18 21 12
-2.34694918617606 299.639999866486 2687.99996376038 19 22 13
4.92750992998481 296.18427157402 2657.00006484985 19 22 13
12.2527796775103 298.078894615173 2674.00002479553 17 20 11
19.6561235934496 299.750119447708 2688.99989128113 18 21 12
27.1311812102795 301.309496164322 2703.00006866455 19 22 13
34.4655029475689 300.973474979401 2700.00004768372 14 17 8
41.5974147617817 299.299389123917 2684.99994277954 15 18 9
49.0299612283707 299.96582865715 2690.99998474121 17 20 11
56.1808310449123 298.959821462631 2681.99992179871 17 20 11
63.6375173926353 299.625486135483 2687.99996376038 15 18 9
70.7834661006927 298.841685056686 2680.99999427795 14 17 10
77.8326988220215 297.834604978561 2671.99993133545 17 20 13
84.6095457673073 296.046882867813 2655.99989891052 23 26 19
91.9213145971298 296.265184879303 2657.99999237061 14 17 10
99.16902333498 296.260237693787 2657.99999237061 24 26 21
104.894950985909 292.01939702034 2619.99988555908 9 11 6
111.225783824921 289.896160364151 2601.0000705719 150 152 147
117.725513875484 288.441240787506 2588.00005912781 141 141 139
124.539628624916 287.877708673477 2582.99994468689 140 140 138
131.326034665108 287.31381893158 2578.00006866455 141 143 140
138.245642185211 287.083894014359 2575.99997520447 142 144 141
145.041093230247 286.630809307098 2572.00002670288 143 145 142
151.932403445244 286.400258541107 2569.9999332428 146 148 145
158.997789025307 286.503702402115 2571.00009918213 148 150 147
166.132599115372 286.718189716339 2572.99995422363 158 163 159
173.412278294563 287.155210971832 2576.99990272522 166 171 167
180.993184447289 288.037568330765 2585.00003814697 192 197 193
189.708143472672 290.590912103653 2608.00004005432 187 192 186
217.285379767418 309.622913599014 2779.00004386902 23 28 21
226.390793919563 311.728537082672 2798.00009727478 15 20 13
234.929785132408 312.942415475845 2809.00001525879 19 24 18
243.268772959709 313.821583986282 2816.99991226196 16 21 15
253.075778484344 316.482782363892 2841.00008010864 25 30 24
-38.6452302336693 289.599269628525 2663.00010681152 24 27 18
-31.8410061299801 293.842315673828 2701.99990272522 24 27 18
-24.5793666690588 295.148760080338 2713.99998664856 22 25 16
-17.0306675136089 292.648583650589 2690.99998474121 19 22 13
-9.78022255003452 295.368075370789 2716.00008010864 20 23 14
4.94074961170554 289.713233709335 2664.00003433228 19 22 13
12.2580016031861 290.909022092819 2674.99995231628 15 18 9
19.7521802037954 293.844491243362 2701.99990272522 13 16 7
27.0623322576284 293.190807104111 2696.00009918213 15 18 9
34.3651734292507 292.754203081131 2691.99991226196 15 18 9
41.7080335319042 292.752236127853 2691.99991226196 12 15 6
48.8685257732868 291.66242480278 2681.99992179871 17 20 11
55.869534611702 290.028512477875 2667.00005531311 17 20 11
63.3330494165421 290.895402431488 2674.99995231628 15 18 9
70.7079395651817 291.218221187592 2677.99997329712 15 18 11
77.8076127171516 290.453165769577 2671.0000038147 19 22 15
84.6458002924919 288.926601409912 2657.00006484985 17 20 13
92.0298397541046 289.357036352158 2661.00001335144 22 25 18
99.659189581871 290.439486503601 2671.0000038147 16 18 13
105.701141059399 287.063390016556 2640.00010490417 20 22 17
111.44533008337 283.360838890076 2605.99994659424 102 104 99
117.959022521973 281.941473484039 2592.99993515015 142 144 141
124.835342168808 281.500369310379 2588.99998664856 135 140 136
131.740316748619 281.167656183243 2585.99996566772 138 143 139
138.5747641325 280.72589635849 2582.00001716614 145 150 146
145.386874675751 280.283808708191 2578.00006866455 147 152 148
152.176648378372 279.841393232346 2573.99988174438 148 153 149
159.315124154091 280.050992965698 2575.99997520447 145 150 146
166.334748268127 280.042797327042 2575.99997520447 137 142 138
173.622965812683 280.469089746475 2579.99992370605 137 142 138
181.212410330772 281.329840421677 2588.00005912781 178 183 179
189.644992351532 283.385992050171 2607.00011253357 187 192 186
204.217821359634 294.137477874756 2706.00008964539 6 8 3
216.827109456062 301.409661769867 2773.00000190735 29 32 25
225.592955946922 303.029090166092 2788.00010681152 18 21 14
234.941497445107 305.300176143646 2809.00001525879 25 30 24
243.626311421394 306.592583656311 2821.00009918213 34 39 33
252.910137176514 308.536618947983 2838.99998664856 18 23 17
-38.9374569058418 284.470200538635 2683.00008773804 24 27 18
-31.7247807979584 285.42622923851 2691.99991226196 24 27 18
-24.5262831449509 287.124127149582 2707.99994468689 20 23 14
-17.3986237496138 291.472315788269 2749.00007247925 18 21 12
-9.73030552268028 286.489635705948 2701.99990272522 21 24 15
-2.33758636750281 283.839255571365 2677.00004577637 16 19 10
4.98366076499224 284.899443387985 2687.00003623962 18 21 12
12.3411156237125 285.53518652916 2693.00007820129 20 23 14
19.6800865232944 285.428375005722 2691.99991226196 17 20 11
27.0034838467836 285.215139389038 2690.00005722046 14 17 8
34.1754332184792 283.835232257843 2677.00004577637 15 18 9
41.5087416768074 284.045368432999 2678.99990081787 14 17 8
48.7434603273869 283.618956804276 2674.99995231628 16 19 10
55.6209869682789 281.495839357376 2654.99997138977 18 21 12
63.1468519568443 282.76515007019 2667.00005531311 15 18 9
71.0019841790199 285.094261169434 2688.99989128113 13 16 9
78.0446156859398 284.03028845787 2678.99990081787 16 19 12
85.0005522370338 282.859981060028 2667.99998283386 15 18 11
92.1036824584007 282.325476408005 2663.00010681152 15 18 11
99.7388735413551 283.380806446075 2673.00009727478 18 20 15
105.82660138607 280.19517660141 2642.99988746643 20 22 17
111.750334501266 277.009338140488 2612.99991607666 22 24 19
118.328928947449 275.73150396347 2601.0000705719 153 158 154
125.034511089325 274.877339601517 2592.99993515015 144 149 145
131.848827004433 274.340927600861 2588.00005912781 133 138 134
138.689056038857 273.910194635391 2584.00011062622 142 147 143
145.450562238693 273.373156785965 2578.9999961853 127 132 128
152.302488684654 273.047775030136 2575.99997520447 136 141 137
159.384906291962 273.146063089371 2576.99990272522 139 144 140
166.472181677818 273.244053125381 2578.00006866455 142 147 143
173.900783061981 273.871630430222 2584.00011062622 162 167 163
181.361421942711 274.498820304871 2589.99991416931 184 186 183
190.018057823181 276.821345090866 2611.99998855591 209 211 206
201.737299561501 283.276498317719 2673.00009727478 6 8 3
214.413702487946 290.578693151474 2742.00010299683 14 17 10
224.875718355179 294.488966464996 2779.00004386902 24 27 20
234.534725546837 297.12700843811 2803.99990081787 32 34 29
243.465438485146 298.704952001572 2819.00000572205 38 40 35
251.67515873909 299.328833818436 2825.00004768372 17 22 16
-46.7238649725914 279.952198266983 2710.00003814697 6 11 4
-38.8523228466511 276.545286178589 2677.00004577637 22 25 16
-32.162431627512 281.918913125992 2729.00009155273 23 26 17
-24.7448906302452 282.230228185654 2732.00011253357 22 25 16
-17.2285996377468 281.198143959045 2721.99988365173 24 27 18
-2.35604168847203 278.719782829285 2697.99995422363 18 21 12
4.96721640229225 276.653587818146 2677.99997329712 18 21 12
12.3050715774298 277.376353740692 2684.99994277954 18 21 12
19.6664500981569 277.892082929611 2690.00005722046 20 23 14
26.8341731280088 276.134759187698 2673.00009727478 20 23 14
33.8069014251232 273.550599813461 2648.00000190735 17 20 11
41.2783920764923 275.201618671417 2664.00003433228 14 17 8
48.6183427274227 275.612622499466 2667.99998283386 13 16 7
55.4980598390102 273.647278547287 2648.9999294281 15 18 9
63.0552992224693 275.090634822845 2663.00010681152 14 17 8
71.2431743741035 278.702795505524 2697.99995422363 15 18 11
78.7185728549957 279.112309217453 2701.99990272522 17 20 13
85.323378443718 276.629120111465 2677.99997329712 14 17 10
92.9383710026741 277.554452419281 2687.00003623962 14 17 10
99.5945483446121 275.690376758575 2668.99991035461 14 16 11
106.592662632465 274.962306022644 2661.99994087219 16 18 13
112.996160984039 272.891104221344 2641.99995994568 23 25 20
118.516758084297 269.063770771027 2605.00001907349 4 9 5
125.185325741768 268.128246068954 2595.99995613098 145 150 146
131.855309009552 267.295747995377 2588.00005912781 149 154 150
138.749524950981 266.979306936264 2585.00003814697 151 156 152
145.626872777939 266.662567853928 2582.00001716614 159 161 158
152.54645049572 266.448795795441 2579.99992370605 162 164 161
159.454539418221 266.23472571373 2578.00006866455 151 153 150
166.415706276894 266.123622655869 2576.99990272522 150 155 151
173.841923475266 266.735047101974 2582.99994468689 168 173 169
181.440234184265 267.552644014359 2591.00008010864 193 195 192
189.88174200058 269.505709409714 2609.99989509583 205 207 202
198.878914117813 272.077888250351 2634.99999046326 0 1 0
234.127700328827 288.980036973953 2799.00002479553 30 32 27
243.390664458275 290.930420160294 2818.00007820129 28 30 25
251.152545213699 291.022002696991 2819.00000572205 25 30 24
-55.1573671400547 277.800321578979 2762.00008392334 21 26 19
-38.3462272584438 265.735179185867 2641.99995994568 19 22 13
-31.8104214966297 271.470010280609 2698.99988174438 18 21 12
-24.7551575303078 274.891167879105 2733.00004005432 18 21 12
-17.0395523309708 270.768284797668 2691.99991226196 22 25 16
-9.64123103767633 269.260197877884 2677.00004577637 23 26 17
-2.34829727560282 270.467489957809 2688.99989128113 18 21 12
4.99713839963079 270.970344543457 2694.00000572205 17 20 11
12.3606696724892 271.271675825119 2697.00002670288 17 20 11
19.6381639689207 270.164489746094 2686.00010871887 21 24 15
26.8254410475492 268.755197525024 2671.99993133545 22 25 16
33.6170382797718 264.831066131592 2632.99989700317 19 22 13
41.001483798027 266.136795282364 2645.99990844727 16 19 10
48.7300530076027 268.950909376144 2674.00002479553 14 17 8
56.1502613127232 269.55184340477 2680.0000667572 16 19 10
63.5556355118752 269.951313734055 2684.00001525879 14 17 8
71.8804150819778 273.769944906235 2721.99988365173 13 16 9
79.0428966283798 272.861182689667 2713.00005912781 14 17 10
86.2515419721603 272.253721952438 2707.00001716614 15 18 11
92.8391069173813 269.936233758926 2684.00001525879 16 19 12
99.7859686613083 268.925905227661 2674.00002479553 14 16 11
107.078358530998 268.920987844467 2674.00002479553 15 17 12
113.087169826031 265.898674726486 2644.00005340576 25 27 22
118.65895986557 262.272775173187 2608.00004005432 22 27 23
125.191360712051 261.060208082199 2595.99995613098 152 157 153
131.810694932938 260.149031877518 2586.99989318848 145 150 146
138.648837804794 259.740382432938 2582.99994468689 162 167 163
145.521059632301 259.43198800087 2579.99992370605 156 158 155
152.494624257088 259.32440161705 2578.9999961853 164 166 163
159.400284290314 259.115904569626 2576.99990272522 169 171 168
166.423603892326 259.10821557045 2576.99990272522 150 150 148
173.782870173454 259.60299372673 2582.00001716614 156 156 154
181.518867611885 260.600090026855 2592.00000762939 174 174 172
189.745202660561 262.200027704239 2608.00004005432 194 195 190
199.039250612259 265.106469392776 2637.00008392334 0 1 0
242.538258433342 282.255619764328 2808.00008773804 12 14 9
250.184148550034 282.244294881821 2808.00008773804 20 22 17
-55.3796775639057 271.354556083679 2773.00000190735 31 36 29
-38.6528633534908 260.594695806503 2663.00010681152 30 33 24
-31.6587164998055 262.847125530243 2686.00010871887 22 25 16
-24.5570540428162 265.294879674912 2710.99996566772 22 25 16
-17.0783456414938 264.023691415787 2697.99995422363 18 21 12
-9.75694600492716 265.100806951523 2709.00011062622 16 19 10
-2.34491610899568 262.752443552017 2684.99994277954 13 16 7
5.01407217234373 264.513850212097 2703.00006866455 13 16 7
12.3520940542221 263.730555772781 2694.9999332428 13 16 7
19.6683499962091 263.240516185761 2690.00005722046 16 19 10
26.8267225474119 261.47797703743 2671.99993133545 17 20 11
33.7974019348621 259.030103683472 2647.0000743866 17 20 11
41.2513874471188 260.49616932869 2661.99994087219 12 15 6
48.9328429102898 262.744724750519 2684.99994277954 9 12 3
55.9853129088879 261.470139026642 2671.99993133545 16 19 10
63.8901814818382 264.011561870575 2697.99995422363 15 18 9
71.382075548172 264.497667551041 2703.00006866455 13 16 9
78.6970034241676 264.298439025879 2700.99997520447 12 15 8
85.6183543801308 262.924671173096 2687.00003623962 15 18 11
92.4284085631371 261.45276427269 2671.99993133545 16 19 12
99.7160598635674 261.448264122009 2671.99993133545 13 15 10
106.642909348011 260.562807321548 2663.00010681152 15 17 12
112.921424210072 258.307278156281 2640.00010490417 23 25 20
118.710048496723 255.268722772598 2608.99996757507 9 11 8
125.341922044754 254.284650087357 2598.99997711182 169 171 168
131.867840886116 253.202468156815 2588.00005912781 137 139 136
138.655334711075 252.707004547119 2582.99994468689 143 145 142
145.527854561806 252.40695476532 2579.99992370605 151 151 149
152.620017528534 252.497911453247 2581.00008964539 148 148 146
159.469574689865 252.197206020355 2578.00006866455 168 168 166
166.495949029922 252.189725637436 2578.00006866455 165 164 162
173.790916800499 252.573192119598 2582.00001716614 172 171 169
181.527256965637 253.543257713318 2592.00000762939 190 189 187
189.681187272072 255.002051591873 2607.00011253357 202 203 198
198.746457695961 257.536321878433 2632.99989700317 107 108 103
215.695187449455 269.753068685532 2757.99989700317 2 3 0
-63.6283904314041 266.652584075928 2802.99997329712 18 23 16
-54.6033419668674 260.091215372086 2733.99996757507 19 24 17
-47.6099774241447 262.662142515183 2760.99991798401 29 34 27
-38.9449745416641 255.243748426437 2683.00008773804 30 33 24
-31.613040715456 255.150228738785 2681.99992179871 26 29 20
-24.4223196059465 256.483405828476 2696.00009918213 29 32 23
-17.2627195715904 259.433537721634 2726.99999809265 23 26 17
-9.90507565438747 261.622250080109 2750 17 20 11
-2.39218794740736 260.576069355011 2739.00008201599 14 17 8
4.98647894710302 255.72407245636 2687.99996376038 14 17 8
12.3801697045565 256.960451602936 2700.99997520447 14 17 8
19.6473300457001 255.627810955048 2687.00003623962 15 18 9
26.9183367490768 255.05593419075 2680.99999427795 16 19 10
34.1948047280312 254.769146442413 2677.99997329712 18 21 12
41.6097342967987 255.433320999146 2684.99994277954 21 24 15
49.0444749593735 256.002068519592 2690.99998474121 12 15 6
56.3022270798683 255.61910867691 2687.00003623962 12 15 6
63.5852888226509 255.426079034805 2684.99994277954 13 16 7
70.8043724298477 255.042493343353 2680.99999427795 12 15 8
77.9722258448601 254.563450813293 2676.00011825562 13 16 9
84.6344903111458 252.657145261765 2655.99989891052 13 16 9
92.0867472887039 253.223866224289 2661.99994087219 14 17 10
99.9445766210556 254.741460084915 2677.99997329712 14 16 11
107.04830288887 254.261165857315 2673.00009727478 14 16 11
113.568238914013 252.543956041336 2654.99997138977 14 16 11
119.44355070591 249.685078859329 2625 20 22 19
125.540614128113 247.586950659752 2602.9999256134 79 81 78
132.07770884037 246.53485417366 2592.00000762939 173 175 172
138.661682605743 245.672702789307 2582.99994468689 179 179 177
145.534500479698 245.380967855453 2579.99992370605 159 159 157
152.508676052094 245.279163122177 2578.9999961853 154 153 151
159.600526094437 245.367243885994 2579.99992370605 156 155 153
166.761845350266 245.550140738487 2582.00001716614 147 146 144
173.933416604996 245.732709765434 2584.00011062622 161 157 156
181.465402245522 246.390447020531 2591.00008010864 187 183 182
189.253181219101 247.333154082298 2601.0000705719 205 204 200
198.906362056732 250.557571649551 2634.99999046326 124 125 120
212.185367941856 257.965207099915 2713.00005912781 0 1 0
225.241094827652 264.611393213272 2782.99999237061 11 12 6
234.076097607613 266.027480363846 2798.00009727478 0 1 0
240.486890077591 264.685988426209 2783.99991989136 16 18 13
246.99878692627 263.534486293793 2772.0000743866 14 16 11
-63.4496584534645 258.277505636215 2795.00007629395 26 27 21
-55.7243004441261 257.818132638931 2789.99996185303 22 27 20
-39.7886745631695 253.294378519058 2740.9999370575 21 24 15
-31.6262654960155 247.936233878136 2683.00008773804 22 25 16
-24.3781320750713 248.676747083664 2690.99998474121 29 32 23
-17.2761678695679 252.189308404922 2729.00009155273 24 27 18
-9.86230187118053 253.021597862244 2737.99991607666 15 18 9
-2.38268892280757 252.097755670547 2727.9999256134 12 15 6
5.01453364267945 249.78743493557 2703.00006866455 16 19 10
12.550332583487 253.021419048309 2737.99991607666 18 21 12
19.6994096040726 248.954623937607 2694.00000572205 17 20 11
26.949679479003 248.029455542564 2684.00001525879 17 20 11
34.4389751553535 249.229431152344 2697.00002670288 21 24 15
41.7976006865501 249.227702617645 2697.00002670288 36 39 30
49.2471866309643 249.687716364861 2701.99990272522 21 24 15
56.5352737903595 249.315723776817 2697.99995422363 18 21 12
63.3039772510529 247.002854943275 2673.00009727478 17 20 11
70.4114139080048 246.353030204773 2665.99988937378 16 19 12
77.6260793209076 246.164917945862 2664.00003433228 15 18 11
85.4987278580666 247.916981577873 2683.00008773804 15 18 11
92.6790088415146 247.54336476326 2678.99990081787 15 18 11
100.061058998108 247.723892331123 2680.99999427795 16 19 12
107.693903148174 248.458445072174 2688.99989128113 16 19 12
114.557228982449 247.437179088593 2677.99997329712 13 15 10
120.313495397568 244.29053068161 2644.00005340576 20 22 17
125.835612416267 241.05130136013 2608.99996757507 2 4 0
132.134571671486 239.567339420319 2592.99993515015 125 126 121
138.775244355202 238.822281360626 2585.00003814697 158 157 153
145.653799176216 238.538861274719 2582.00001716614 169 166 161
152.692869305611 238.532304763794 2582.00001716614 173 168 164
159.793198108673 238.617852330208 2582.99994468689 160 155 151
167.027562856674 238.887846469879 2585.99996566772 197 190 184
174.277663230896 239.157557487488 2588.99998664856 195 187 184
181.683525443077 239.61167037487 2594.00010108948 112 104 101
189.115941524506 240.065455436707 2598.99997711182 124 117 111
197.782725095749 241.996794939041 2619.99988555908 171 167 158
226.707801222801 258.696049451828 2801.00011825562 13 13 5
234.420895576477 258.77845287323 2802.00004577637 19 18 13
242.138624191284 258.860647678375 2802.99997329712 8 9 3
250.930190086365 260.050654411316 2815.99998474121 17 19 14
-69.4759264588356 245.009675621986 2732.00011253357 27 16 14
-61.749804764986 243.936330080032 2720.00002861023 28 29 23
-54.0889166295528 242.862656712532 2707.99994468689 15 22 14
-46.8726940453053 243.761703372002 2717.99993515015 24 36 26
-39.3839664757252 243.315145373344 2713.00005912781 18 24 14
-31.6866040229797 241.074562072754 2687.99996376038 19 22 13
-24.4879275560379 242.421105504036 2703.00006866455 20 23 14
-17.2516070306301 244.395062327385 2724.99990463257 16 19 10
