ply
format ascii 1.0
comment KinectMotionCapture
element vertex 793
property float x
property float y
property float z
property uchar red
property uchar green
property uchar blue
end_header
113.847029125789 -79.8571184526801 2837.00838977818 15 18 11
109.347857154934 -80.5954475282088 2831.27273648167 15 18 11
81.8879463384343 -77.9558198748479 2845.9635072525 14 17 10
93.4546133552314 -81.0590730669929 2825.92480861793 13 16 9
87.4247252580904 -81.5719964705026 2821.55101599397 15 18 11
83.6692556829415 -82.4244788343496 2815.1188735974 17 20 13
77.6308359245061 -82.9379141661264 2810.73889359707 17 20 13
94.2129301032781 -86.8580929868837 2785.68570742191 17 20 13
106.1509150463 -90.1069213824439 2764.68041108008 18 21 12
105.238445974633 -91.4279001396479 2755.3664064007 18 21 12
99.0621423804443 -91.9525952155679 2750.88641443243 20 23 14
66.801122885229 -88.4765691992407 2770.74684094236 18 21 12
22.8043803609963 -83.1554853737025 2801.87090093264 22 25 18
15.3325353116189 -83.4345580021059 2798.92335517682 20 23 16
239.082710516375 -72.3817654189345 2957.47521245681 10 13 6
251.158409301436 -75.3231791901718 2939.0413781921 13 16 9
264.772636512794 -78.4947323349919 2919.25161705775 11 14 7
279.097094402362 -81.7865362344702 2898.7407770991 11 14 7
221.73114710454 -75.2988204283124 2935.0007419155 11 14 7
210.068859135056 -75.0275936546497 2935.19401413341 11 14 7
206.5272247067 -75.8701014761175 2928.91693592124 13 14 9
193.289798072135 -75.3723089630314 2930.43928288722 11 14 7
184.918955208314 -75.5432371442668 2928.07561883229 13 16 9
190.202529533615 -77.6201096309687 2914.60358413229 15 18 11
226.634554081145 -84.0842752546271 2875.51954097154 16 19 12
208.564322503516 -82.915363331602 2880.9529870555 11 14 7
171.457977048508 -79.0355301945229 2902.24312525227 9 12 5
169.444209147982 -80.109519072776 2894.60238433683 16 19 12
153.160929387931 -79.1497057873851 2898.85980306756 16 19 12
162.191779458471 -81.8103894070507 2881.92551930759 15 18 11
169.564213062467 -84.2513226169204 2866.26049487323 14 17 10
199.624086004047 -89.9949209348787 2831.20663819877 13 16 9
168.593932003351 -88.3056160751905 2838.36371444946 9 12 5
158.604849149247 -88.2539573106985 2837.2984488728 8 11 4
176.5783354298 -92.3192515682576 2812.01814085851 10 13 6
150.299385919307 -89.8640608023115 2825.09371373841 13 16 9
124.905483325535 -87.5139924666775 2837.57530692104 13 16 9
121.937793716953 -88.4888268756286 2830.47858666786 15 18 11
101.302294442527 -86.8164728774498 2838.99511200305 17 20 13
119.772855125626 -91.0196834151344 2812.83970310593 16 19 12
90.797648348147 -88.0718310631255 2828.90363797389 13 16 9
106.839244690327 -91.9402761096599 2804.69422653018 12 15 8
77.237654081963 -88.8650622406663 2821.53976413182 9 12 5
83.321305309517 -91.2346853556283 2806.17587167769 10 13 6
66.7079857984456 -90.121820192658 2811.43014389366 11 14 7
73.4669983416705 -92.6142097920649 2795.32017680454 13 16 7
86.8984282898571 -96.1627973514545 2772.92562454396 14 17 8
86.7580441278233 -97.6179547701694 2762.93530994509 16 19 10
85.0905880763921 -98.8419148620381 2754.30952713973 18 21 12
55.897519254001 -95.7310268299857 2771.45168607601 20 23 16
60.1845997422101 -97.8916434933751 2757.25684754651 17 20 13
54.0660908662134 -98.4111487301474 2752.81877849041 17 19 14
275.656829530572 -84.771346847328 2929.58037630203 10 12 7
260.263619520985 -85.347099286692 2923.35903455291 12 15 8
275.420310453776 -88.8197876041114 2902.21554524359 11 14 7
261.988119179715 -88.3138653144473 2903.59703882186 12 15 8
213.706251089026 -82.8965861884068 2932.85024371727 13 16 9
215.820434178892 -84.5486097898284 2922.02324260973 15 16 11
196.101388835641 -83.1125096114747 2928.73314950418 16 19 12
187.723705676012 -83.2761758515426 2926.36426907897 15 18 11
193.002574162024 -85.391994196415 2912.8886257472 16 19 12
184.586243213395 -88.3081927546823 2891.95135372707 13 16 9
179.362947258853 -88.9365776222482 2886.92636101951 15 18 11
182.05084350294 -90.7237246660531 2875.27953576503 15 18 11
138.112216548461 -85.6704326982887 2902.73896418891 14 17 10
162.087509153537 -90.5923312731421 2873.15960391299 13 16 9
185.895436523013 -95.5285454546563 2843.45855001765 12 15 8
193.878305109579 -98.1475702231629 2827.00010423143 9 12 5
142.449722384768 -91.899667815218 2861.38749901128 8 11 4
146.547394500048 -93.9333693653551 2848.29103378934 11 14 7
138.942885088361 -94.2150147423162 2845.24700929758 14 17 10
110.445493774198 -91.3282952040438 2860.42197651303 14 17 10
137.651497124383 -96.8913260859034 2827.00560784145 12 15 8
144.65549060662 -99.4103501853651 2811.07309775418 14 17 10
89.4157289215709 -92.3874366755508 2850.11212740741 14 17 10
127.058289514431 -101.093016998389 2797.07265699422 12 15 8
80.6051752407981 -95.3371847546291 2828.88890498068 13 16 9
93.5646698648136 -98.8146937487261 2807.38763338816 17 20 13
82.9609992089178 -98.6181688205315 2807.11261040291 17 20 13
83.6977230256974 -100.204453061616 2796.52242928389 17 20 13
71.6076840161941 -99.767797934079 2797.64119572363 18 21 12
86.5493444616061 -103.625707605047 2773.86980174453 19 22 13
81.9259533883003 -104.385361522369 2768.04399135516 20 23 14
86.0297567358015 -108.065598491037 2743.82771215097 16 19 12
67.9969157301548 -106.66835430777 2750.52445663563 16 19 12
72.2017864327071 -108.874474718879 2736.26949751559 17 19 14
66.0296151011641 -109.398685675903 2731.79250356485 17 19 16
290.037159800234 -94.2695264049013 2918.95948489545 7 9 4
272.455408324727 -93.1621977048683 2923.51169206977 16 18 13
241.027217321009 -90.0727543804775 2939.03316013824 13 16 9
261.95140364189 -94.4274616326625 2913.42033836196 13 16 9
230.653723606308 -91.3272363609997 2929.03647122916 14 17 10
218.967358423647 -91.0204111222723 2929.21246967465 15 18 11
231.590716833451 -94.2226689159718 2909.93928770396 17 18 12
203.756476955525 -91.5718339059612 2923.12342501083 18 21 14
189.723833482029 -90.9073541099683 2925.30547772967 16 19 12
198.211446725587 -93.5323981854893 2909.21260715109 12 15 8
212.223200332073 -96.9888767098351 2888.47454155177 13 16 9
210.955909338669 -98.2131585799614 2880.13884530705 13 16 9
192.145778028917 -96.840020228132 2886.27199336129 13 16 9
192.460745188516 -98.3016929933099 2876.61173965163 14 17 10
181.65467220502 -98.1067783166455 2876.18998274338 14 17 10
172.453522363751 -98.1472093147854 2874.46010906402 14 17 10
134.135098721147 -93.7862228479549 2897.34468526449 13 16 9
187.865345988323 -103.345465760696 2842.37691192818 12 15 8
173.921974223727 -102.673933192141 2844.62371533764 10 13 6
141.282051628963 -99.1312995157805 2862.97447317922 9 12 5
143.050086911603 -100.841326473257 2851.89624834063 13 16 9
107.504430495051 -96.802080454227 2873.08382863363 16 19 12
120.901964540578 -100.311404777842 2851.89994001507 15 18 11
145.769527084036 -105.633502545386 2820.49501043624 13 16 9
126.579225175802 -104.106903045935 2827.58837865056 13 16 9
102.856702507175 -101.850282026825 2838.81074974544 12 15 8
112.914425406133 -104.899951426502 2820.14882446528 11 14 7
98.454783892822 -104.086132618853 2823.25713025321 12 15 8
74.9096728173941 -101.814183381101 2834.6081884386 15 18 11
69.6774835062994 -102.446056438758 2829.57702555573 20 23 16
88.6534781081973 -106.967610263128 2802.55107291511 19 22 15
68.2510918514687 -105.17167047464 2811.2372128381 18 21 14
78.7742048613351 -108.367060877624 2791.67688404645 18 21 12
89.199931472995 -111.570649742401 2772.04562177256 18 21 12
108.502406158933 -116.249864885298 2744.02050629743 19 22 13
59.7976140783856 -109.796469753945 2779.14814479882 14 17 8
45.5426746994236 -108.964096244609 2782.40493751572 16 19 12
81.000878815026 -116.35850987606 2738.90483488733 17 20 13
91.822144631549 -119.713627806072 2718.32450327048 19 21 16
63.4865564486002 -116.546318069245 2734.85322290267 13 15 12
213.783851613168 -92.1409188935682 2969.91371727186 16 19 12
201.328026535304 -91.6916277676816 2970.76738158821 17 20 13
219.91598998555 -95.7695551703229 2947.16778830467 18 21 14
224.536679746431 -97.8290840233501 2934.45033891539 20 23 16
235.593287914523 -100.85038762018 2916.51237608546 20 23 16
214.988066080844 -99.2086479347969 2923.8159529639 20 21 15
193.653932774724 -97.4404145098245 2931.82680370515 13 16 9
163.54657879774 -94.3436903632587 2947.07077497195 13 16 9
200.210059374844 -101.223413131795 2908.15241434769 13 16 9
216.623178989269 -105.110113988503 2885.44727221265 13 16 9
200.174101803673 -104.058583028868 2889.58496541941 11 14 7
187.762778969153 -103.606751755263 2890.47119770505 11 14 7
165.062344062598 -101.578056857722 2899.96297980493 13 16 9
129.41233636515 -98.9548145682702 2911.18656482474 13 16 9
170.987285247087 -108.248717153123 2857.28938227076 11 14 7
163.355928402841 -108.522310920757 2854.2262307622 11 14 7
118.246427533022 -102.929573666065 2883.3099678293 5 8 1
169.922975791494 -112.494389577298 2829.32376376056 8 11 4
165.360599330815 -113.261557216011 2823.54214610752 16 19 12
141.428856109995 -110.960379137182 2834.61307444942 6 9 2
142.307430376516 -112.58508786747 2824.12552912105 12 15 8
139.295493998613 -113.597471117128 2816.99654324823 13 16 9
109.392136833263 -110.294962780954 2833.62476960101 15 18 11
131.685161704266 -115.379820495485 2804.0598142753 15 18 11
100.376327615135 -111.819426886677 2822.14055990981 16 19 12
52.4648498902667 -105.521162294264 2855.37242989264 17 20 13
54.1299859108428 -107.267186625967 2844.2194288492 19 22 15
55.7502038059039 -109.016879698686 2833.03384711508 19 22 15
28.6500759079082 -106.041231509775 2847.98713421193 17 20 13
59.6085489416227 -112.652140328717 2809.87489445804 16 19 10
102.354128329481 -121.278526120862 2760.53511240908 16 19 10
97.6876232789077 -122.053442282757 2754.67797047121 15 18 9
49.0076428694017 -115.442274644757 2789.82468910832 18 21 12
40.7331671402411 -115.580632201971 2787.53104862251 17 20 13
89.5607075656026 -125.3868644063 2731.47802067657 20 23 16
99.6219842783601 -128.681185316014 2711.58210131752 16 18 13
225.203730994177 -103.900194410223 2943.5489925879 24 27 20
211.091389395591 -103.187834051263 2945.67351295951 19 22 15
222.187861264041 -106.263311691815 2927.76446825151 16 19 12
156.902577326185 -99.1892872566603 2961.99191106395 15 18 11
191.309602262561 -105.83177087814 2925.14440361825 14 17 10
166.072558240588 -103.38734509169 2936.50485375997 14 17 10
179.380339496401 -106.849494138377 2916.49147148703 13 16 9
186.992063119551 -109.456855811684 2900.99877602426 12 15 8
179.395543861667 -109.722041299583 2897.96092161511 12 15 8
192.458099585049 -113.20543045698 2877.76966253499 16 19 12
177.692223162637 -112.358378975737 2880.65614043197 15 18 11
169.292806803634 -112.500704504381 2878.27190771866 14 17 10
146.727515086462 -110.403528207309 2887.86200487242 14 17 10
158.815381937918 -113.778691380545 2868.19975784329 13 16 9
143.385859963673 -112.796801599325 2871.84115900564 17 20 13
154.56608485506 -116.05794877792 2852.75655709231 12 15 8
90.8728978962525 -107.31670702409 2898.02776623096 2 5 0
152.555977000693 -118.72081246187 2835.22924499365 9 12 5
140.276085257626 -118.236437695828 2836.21091932157 10 13 6
118.76269958395 -116.241082571332 2845.32801324153 16 19 12
135.843003216342 -120.531211034524 2820.63441034076 17 20 13
147.415109591164 -123.950307335638 2800.5980550053 18 21 14
121.363882434479 -121.192497062437 2813.84024150677 18 21 14
76.3373379624164 -115.264409279074 2844.22085068272 19 22 15
60.4652207603094 -114.128380035133 2848.77722249492 18 21 14
48.4449883044245 -113.621416631832 2849.94724379742 17 20 13
34.1882500131709 -112.730490556026 2853.2030290247 17 20 13
31.3003713891602 -113.743039936485 2846.16397442372 16 19 12
64.5170043783989 -120.870232682375 2805.98070356862 16 19 10
89.2502430515512 -126.613910805278 2773.24093325576 15 18 9
65.9195019361287 -124.197848706112 2784.7481227601 15 18 9
57.6083517422497 -124.331559967536 2782.42791970655 20 23 14
63.4410046924989 -126.898119459882 2766.88107572305 14 17 10
62.5281572994041 -128.315973589769 2757.56630609754 14 17 10
208.648794108729 -107.321225636403 2966.11431325296 19 22 15
230.493008888654 -112.06288118971 2939.93114866537 19 22 15
202.525749480621 -109.202487054683 2953.01991873437 16 19 12
198.222329419474 -109.957836654324 2947.42637843948 14 17 10
173.66606408595 -107.583910725028 2958.04494585613 14 15 9
159.708207064899 -106.831762340791 2960.28165692905 14 17 10
190.089065203761 -112.983117968421 2926.6934605323 14 17 10
211.437022668584 -117.767982602961 2900.15062404085 14 17 10
180.571411476775 -114.37851513083 2916.08143790248 14 17 10
194.57335810808 -118.041695188599 2895.33521603355 14 17 10
189.346830827802 -118.682439952163 2890.30781826369 15 18 11
178.554114806464 -118.438020850389 2889.89599485203 17 20 13
186.800280733189 -121.232451981397 2873.62753045893 15 18 11
195.756895424343 -124.160648173789 2856.63807688426 14 17 10
154.996047124301 -119.089929206828 2881.46079214925 13 16 9
137.210913128959 -117.693657095994 2887.10206317908 13 16 9
148.478416418267 -121.007686669547 2868.08046337926 12 15 8
160.429799946267 -124.457683036807 2848.31889763138 11 14 7
139.558930128266 -122.547487913878 2856.66629702569 5 8 1
140.522951675383 -124.214742340482 2846.24047875221 9 12 5
104.262488210994 -119.731516464727 2868.14716563619 14 17 10
106.023548769192 -121.525002996248 2857.06346193181 10 13 6
119.294265425044 -125.25107556804 2835.78654280845 16 19 12
130.149882728314 -128.600105096486 2816.46647526261 17 20 13
100.316131158979 -125.122773804523 2833.14575123312 18 21 14
72.9085432649881 -122.021239914631 2847.87679165325 19 22 15
60.8531852357661 -121.495803890855 2849.02114876846 19 22 15
64.7772428889879 -123.687313767977 2835.79802738757 20 23 16
48.9587148995354 -122.511276142497 2840.39344981401 20 23 16
34.7062463342973 -121.590102391763 2843.65248346723 18 21 14
67.9215145323888 -128.859914213722 2803.46779532919 17 20 11
96.4043425243668 -135.367542392109 2767.26683515309 17 20 11
92.5067855623358 -136.282765740425 2760.73137278202 16 19 10
80.3878457289802 -135.761942857531 2761.82961472405 20 23 14
40.7782993575072 -130.397256481234 2788.72375343617 22 25 18
34.7428725939651 -130.911464991904 2784.34593920541 18 21 14
50.8918615838674 -135.361786929305 2758.97639503354 0 1 0
244.497144357744 -118.727336361179 2947.57921529226 7 9 6
223.772003534139 -116.948352024357 2954.7962610299 15 17 12
210.473296334131 -116.309200958707 2956.27519489216 14 17 10
187.44237781291 -114.136262248622 2965.52813299024 12 15 8
198.610438082754 -117.320887530716 2947.67043138786 12 15 8
208.06633424073 -120.257656156516 2931.04287418262 13 14 8
201.284355528147 -120.639481385572 2927.35957568842 11 14 7
206.588874787748 -122.945596816639 2913.90156325757 11 14 7
200.584845229092 -123.458247576512 2909.546517421 12 15 8
196.182666995372 -124.228448714731 2903.88101551621 13 16 9
185.379523576254 -123.96868377455 2903.46171079107 17 20 13
192.927149632582 -126.674965753267 2887.92234306037 18 21 14
178.946606323496 -125.898338060773 2890.14273235147 19 22 15
149.954387843402 -122.658949200332 2904.96077513384 18 21 14
185.092311229398 -129.907498196387 2866.16967399639 17 20 13
166.419118953561 -128.349232521966 2872.40302978512 15 18 11
138.385878737159 -125.225167402144 2886.68063560977 15 18 11
129.280962432965 -125.214936223153 2885.02078028908 11 14 7
137.383587432071 -128.071280548974 2868.64765193467 10 13 6
150.08155030847 -131.717763091896 2848.19126561882 10 13 6
131.593097648969 -130.143754778679 2854.55862283754 5 8 1
137.968156471523 -132.753479828838 2839.40476180433 7 10 3
99.4602276169911 -127.764544587678 2863.39017894597 12 15 8
108.902079270016 -130.900660361738 2845.51639421756 10 13 6
118.255263368828 -134.044257915613 2827.57829459015 12 15 8
108.369077519916 -133.903500066397 2826.58777807589 13 16 9
80.9356667515129 -130.727944496762 2841.30047387767 15 18 11
80.2818202186955 -132.163720250574 2832.17307424955 16 19 12
86.4312070271067 -134.792254586604 2816.85581796149 15 18 11
61.4625179215325 -131.997279692404 2829.64761653863 15 18 11
47.1732188602463 -131.049386588067 2832.88038079508 18 21 14
81.8668424917601 -138.729700769077 2791.29464257258 19 22 13
69.7815794475245 -138.184691302659 2792.41771452457 20 23 14
87.6687844532071 -142.963724047371 2765.83620751745 22 25 16
61.3854293467373 -139.886141246341 2780.14677585436 30 33 24
51.4578252134346 -141.323620920115 2769.23735827 28 31 24
215.333797064185 -121.492506364128 2970.88863422971 17 19 14
240.537509308524 -126.932531168317 2942.19686267755 16 18 13
241.075837868641 -128.4843247319 2932.69836641131 15 18 11
207.37340433777 -124.567918145283 2950.28078063368 12 15 8
211.994062695013 -126.770655467373 2937.56258310011 12 15 8
223.847608579803 -130.154247188922 2918.96546573853 12 13 7
202.482376987617 -128.182088318539 2926.95480559112 12 15 8
199.730062211183 -129.216514613849 2920.01391330544 12 15 8
209.814990322318 -132.351883832167 2902.6063122069 11 14 7
190.965899864724 -130.764762709479 2908.71230180835 12 15 8
180.976336571965 -130.619146331047 2907.64686938828 15 18 11
184.555135387784 -132.711989728305 2895.40899890233 16 19 12
156.292597468809 -129.531043841005 2909.52067004124 18 21 14
124.189821041842 -125.679044636847 2927.02734697131 17 20 13
169.176633135583 -136.226186757525 2870.6567079732 14 17 10
156.065402281396 -135.548279081975 2872.27174374936 13 16 9
124.967095847843 -131.810427521229 2889.27096760459 11 14 7
170.59941277936 -141.102955848795 2840.78513795756 10 13 6
150.476139857641 -139.225466415173 2848.43928400653 18 21 14
107.116606104756 -133.337439262429 2876.323032026 9 12 5
143.012538211443 -141.063588845349 2835.60864071033 5 8 1
106.803720776896 -136.36331185167 2857.55386631023 15 18 11
105.440886816583 -137.679453059434 2849.14844364416 10 13 6
110.197690762546 -140.071551106483 2835.29294517473 11 14 7
109.529000259043 -141.528204616194 2826.15497356254 12 15 8
110.356795249655 -143.256619974064 2815.63009195886 12 15 8
105.811650899243 -144.04497478181 2809.86085891312 12 15 8
110.371766885732 -146.453634057162 2795.86269325846 11 14 7
64.1245239045252 -139.812489100154 2827.83237154472 11 14 7
45.2962106336559 -138.023593476718 2835.18948162906 13 16 9
40.0955020802267 -138.667613220459 2830.1810782939 15 18 9
52.9084938060422 -142.569122933888 2808.57175045373 16 19 10
61.8680423933089 -145.800510051637 2790.34755689494 17 20 11
82.6806872170849 -151.21666855314 2760.94338995956 15 18 9
80.2641771653096 -152.421752202968 2753.00973416585 21 24 17
257.308584726037 -137.024903236997 2929.60095385988 15 20 14
248.00331548738 -137.008767796568 2927.7958883275 17 19 14
235.45667906897 -136.459403663928 2928.5845229316 12 15 8
228.631367763792 -136.839481860506 2924.86982056533 13 16 9
188.592553106484 -131.751452164459 2947.74596785076 16 19 12
175.400984199608 -131.055179826481 2949.30256340164 10 13 6
204.149792245817 -137.310222994878 2917.00110160063 11 14 7
188.51108011993 -136.215486510389 2920.49142794853 16 19 12
183.342797422488 -136.859926332747 2915.50652868059 18 21 14
184.563470774269 -138.579366171169 2905.26649844813 19 22 15
180.961788280344 -139.49538419928 2898.94551776805 20 23 16
163.834053696354 -138.123153667756 2903.82789877921 14 17 10
134.877296590125 -134.722780033648 2918.6724636879 11 14 7
134.503385353592 -136.173565895543 2909.74821357803 11 14 7
188.488206248679 -146.958740209338 2854.95877651323 13 16 9
162.746077118998 -144.09429913544 2867.19024377076 15 18 11
176.30647024188 -148.001307788145 2846.12269530045 12 14 9
171.777882688994 -148.794325564072 2840.36544101173 14 16 11
139.957651996961 -144.828447173806 2858.07751819541 76 78 73
123.050047292184 -143.437666741325 2863.11957001271 13 16 9
96.9018468487093 -140.405243627598 2876.29284947725 15 18 11
111.997075749793 -146.207915986557 2843.97708458413 16 19 12
112.12747938943 -147.818336729287 2834.18228340225 16 19 10
105.324762462607 -148.197619687628 2830.48425868809 15 18 9
111.515889982812 -150.910845302468 2815.19653767775 17 20 11
128.302746011871 -155.55498023263 2790.28841523431 19 22 13
116.087372999395 -154.978402093334 2791.31703311817 17 20 11
67.5446911037421 -147.781037417673 2825.33092047541 19 22 13
63.056597519874 -148.569968189002 2819.60304183049 21 24 13
60.0650552519677 -149.6361116769 2812.48856777704 19 22 11
72.073703512769 -153.472352152895 2791.5315214243 19 23 9
73.4936376568474 -155.376846222412 2780.19996562726 21 24 13
70.3894863039722 -156.452172045859 2773.00381233458 18 21 12
265.384299173253 -144.27388994276 2932.94812632475 93 97 96
250.331740807386 -143.300543640208 2935.62771654802 14 19 15
217.355431181337 -139.34190110788 2952.50169078944 17 19 14
239.923183692565 -144.599447842553 2925.6053844246 12 15 8
214.398902679453 -141.852388943865 2936.75914323788 13 16 9
201.133922548082 -141.137767514524 2938.26290884424 15 18 11
185.483578110884 -140.011203894346 2941.74496389213 12 15 8
185.198202260314 -141.473039266237 2932.88483900504 15 18 11
182.470468151752 -142.527828798577 2925.96136814925 17 20 13
184.533855823528 -144.405258486825 2915.09640263284 18 21 14
226.521155484955 -153.137634907445 2871.3821626643 16 19 12
200.484911619792 -150.229947616252 2883.400933401 15 18 11
203.17710280298 -152.259257226336 2871.75570056137 14 17 10
193.928420397964 -152.229147483945 2869.99202129194 15 18 11
149.464488066335 -147.611999424418 2888.42259012403 12 15 8
171.001064334889 -152.959266419624 2860.77830764367 14 17 10
169.646720944827 -154.308046487008 2852.37916912793 15 17 12
182.338308332922 -158.152568926989 2831.91686349641 13 15 10
107.891280965959 -148.089774019348 2876.80988688137 10 13 6
85.6595745528512 -145.678624048026 2886.64339747966 14 17 10
79.7531904432711 -146.184350210502 2882.35917198743 16 19 12
96.2007078525389 -150.734536769071 2858.44056823287 18 21 14
109.445328351642 -154.73708653349 2837.1436255141 19 22 13
97.28634406035 -154.13434288972 2838.21325331879 19 22 13
92.8043165008439 -154.928876114576 2832.48974368685 17 20 11
105.840023377838 -158.949037266131 2811.04126581983 17 20 11
111.926280595298 -161.715028712098 2795.67725481965 18 21 12
71.7232725783408 -155.910969559399 2822.1434060296 19 22 13
65.7135632177512 -156.4249766038 2817.78423591354 21 24 13
55.9366976757456 -156.234079614251 2816.8732219874 21 25 11
38.6699670991511 -154.62975311077 2822.89134855527 21 25 11
35.6972184763724 -155.705227964654 2815.79015667402 22 26 12
92.4405503676553 -168.10456760323 2753.11136504667 23 26 17
286.31487033199 -155.218912330205 2917.18772827295 132 136 135
213.860032776413 -144.556806743494 2964.76271034653 11 16 12
226.731581361531 -148.241732441853 2945.66700192247 16 18 13
230.538448629332 -150.412784757522 2933.59436145803 13 16 9
218.85191368556 -149.954861649184 2933.77070770354 14 17 10
205.574614498834 -149.216952339837 2935.26566092147 15 18 11
202.035723579548 -150.143745533064 2928.99014461555 15 18 11
207.350131449091 -152.602850815129 2915.53823124831 16 19 12
187.681640595272 -150.747047308942 2922.28691205113 17 20 13
189.733453263594 -152.653026702554 2911.41311648078 17 20 13
201.334607192074 -156.239721343894 2892.63230052445 12 15 8
255.096709145549 -167.251076548096 2838.91530072422 11 14 7
218.680028385664 -162.457659717986 2859.475276906 10 13 6
208.596272048911 -162.280093749023 2858.34172376912 18 21 14
184.300410977467 -159.571984706868 2869.150756496 17 20 13
164.047345203693 -157.558757082161 2876.7115004773 13 16 9
158.813523096302 -158.21532748095 2871.67873437162 14 17 10
170.041623189147 -161.834454164553 2852.62731945379 16 18 13
138.946637523623 -157.834994623378 2869.62998122361 12 14 9
171.932425728206 -165.420753164513 2831.7474110669 29 31 26
83.3958614524137 -150.93293193515 2898.56205579006 8 11 4
83.7173484730345 -152.571236444451 2888.90592826922 14 17 10
90.9617677218888 -155.490543421057 2873.14568043942 12 15 8
96.5888867380187 -158.131964522325 2858.68449796116 19 22 15
96.7676054875746 -159.782402420024 2848.9248132158 22 25 16
85.4114352421327 -159.297536855344 2849.34078435031 23 26 17
83.2581299277582 -160.522999169104 2841.59782806586 20 23 14
78.7951856729876 -161.321442634166 2835.88842699967 18 21 12
79.6428307524115 -163.122571219568 2825.37756684216 19 22 13
69.0828003540256 -162.777363344813 2825.13493271934 19 22 13
54.0146815252136 -161.568902287034 2829.0391758857 20 23 12
66.1214908417311 -165.528627016217 2808.15266310503 22 26 12
51.8291545549658 -164.461622176638 2811.38353445931 22 26 12
42.8272917798695 -164.398911346607 2809.79894513794 21 25 11
28.6145568336638 -163.324890344459 2813.08755674102 26 29 20
246.4569638226 -155.895997038108 2948.811663653 44 48 47
220.801865602401 -153.028726708745 2959.87119917568 8 13 9
214.046626997281 -153.394793972926 2956.20736497323 14 16 11
218.705242702014 -155.736825838161 2943.51597797658 13 16 9
224.119168075563 -158.225258362485 2930.13635290057 14 17 10
226.228975410616 -160.153085308793 2919.30478271666 14 17 10
221.018604117559 -160.809478142353 2914.28931198319 16 19 12
202.903923619567 -159.196188437738 2919.69249248025 13 16 9
192.090619508391 -158.856174269712 2919.26622853075 13 16 9
214.980511637771 -164.489440411618 2891.36650832783 13 16 9
204.926133061452 -164.295623592928 2890.25462854723 16 19 12
214.829939844039 -167.666250182851 2872.71424263032 17 20 13
207.944448145626 -168.04503969109 2868.95621521715 16 19 12
198.683700223848 -167.994559334561 2867.18359810128 15 18 11
184.694481358096 -167.083404333221 2869.39837970355 15 18 11
178.635342766875 -167.602580700949 2865.0033510997 18 21 14
178.867363158868 -169.270566807534 2855.28221696731 16 19 12
168.083605713613 -168.928856442306 2854.87708614104 13 15 10
187.827572680018 -174.199487078892 2828.40405883507 11 13 8
169.210007409242 -172.419217637481 2834.67886431975 2 4 0
125.77487018416 -166.014228235218 2862.51042428447 10 13 6
101.162365827569 -163.059927191511 2874.32619917667 15 18 11
102.174328689923 -164.872089808662 2863.93440059717 12 15 8
97.7479615190031 -165.673425015902 2858.25150039242 14 17 10
94.8499484728136 -166.765657233634 2851.20469552324 17 20 11
85.7996416257993 -166.697202774008 2849.58472267588 19 22 13
83.6471038047106 -167.936493349285 2841.84225272082 21 24 15
82.2341254632453 -169.323341036995 2833.40012118045 23 26 17
74.7125060107638 -169.545596871376 2830.41678068584 22 25 16
61.1352458669434 -168.598917841917 2832.93037989348 20 23 14
70.2739738228946 -172.034949260196 2814.83533519621 19 22 11
66.5133413318597 -172.989593595082 2808.39893262121 20 23 12
57.4791236235992 -172.919118810003 2806.79063336723 20 23 12
57.4515116974879 -174.608436748933 2796.88117817669 15 18 7
63.3637707260788 -177.476526628461 2781.39051502741 16 19 10
235.344668835381 -161.321758997316 2958.02033203153 30 34 33
214.633669991668 -159.247749175473 2965.24912395444 7 12 8
231.597912899796 -163.776368464909 2942.94054589017 13 15 10
223.170061910747 -163.855996244768 2940.53601788317 12 15 8
229.387957700894 -166.527672877175 2926.50294884597 13 16 9
224.999755326375 -167.330008761621 2920.84771004797 14 17 10
214.942574388317 -167.122389527292 2919.73357421047 14 17 10
200.874850694148 -166.190082265667 2921.89155312762 12 15 8
177.200320112269 -163.5165437658 2931.91578985042 12 15 8
196.127068198914 -168.519391758946 2907.32177276847 13 16 9
195.722224233548 -170.049812782263 2898.37469549554 18 21 14
184.917191344552 -169.693266570063 2897.95451126958 20 23 16
179.705726437684 -170.353481986988 2892.93822838998 17 20 13
198.285889174498 -175.386408676509 2868.09281183691 14 17 10
190.625464270416 -175.615518130056 2865.00881359325 15 18 11
186.917505133187 -176.574647804779 2858.61057233739 18 21 14
191.848542178822 -179.144229442975 2844.88048017086 16 19 12
122.979748363396 -167.949033838849 2893.82272545848 12 14 9
130.339597188573 -170.951801749369 2878.14573224586 9 11 6
167.266337223825 -179.541990582965 2836.93918243779 3 5 0
112.163069679626 -170.800341463776 2874.85082871216 11 14 7
113.959292088465 -172.783832528701 2863.79165217327 16 19 12
103.335314717604 -172.412260337453 2863.50279506587 13 16 9
104.306148218674 -174.252787550122 2853.08103726237 14 17 10
97.5456764384139 -174.6185813476 2849.41370528177 15 18 9
86.9544696657316 -174.244055653354 2849.14861924042 15 18 9
95.5061347944985 -177.571944045526 2831.86358456613 16 19 10
91.7735699922839 -178.533007309708 2825.44749634461 17 20 11
84.9858865343611 -178.900926299204 2821.7601327966 21 24 15
67.588141434161 -177.185903616501 2827.68384483829 20 23 14
67.6414786840795 -178.890839083215 2817.83269785011 19 22 13
59.3679539131009 -178.958323181207 2815.54010572223 19 22 11
72.9004614573947 -183.354761584054 2793.2145322365 18 21 10
52.5988613223349 -181.033295069672 2801.97669054347 15 18 7
77.0511154300966 -189.408156386975 2759.13901907341 19 21 16
260.921052536049 -174.779921577292 2929.55810452269 7 12 8
284.306311165861 -180.566448237958 2902.01670977285 12 14 9
236.604363990889 -173.614118894815 2930.46334489599 10 13 6
215.957361299861 -171.486323077239 2937.73880143239 12 15 8
218.093737206293 -173.466752879589 2926.92622492905 13 16 9
202.394411122701 -172.21400541763 2930.37341128218 13 16 9
190.77976081797 -171.693681458862 2930.60218430924 16 19 12
205.737897999549 -176.038972050977 2909.31033924577 18 21 14
197.319769698073 -176.110792286428 2906.91289896924 18 21 14
187.314247715633 -175.885804230949 2905.83659426465 16 19 12
168.55510668259 -174.030326087711 2912.00885492777 15 18 11
174.527454075706 -176.765258530164 2897.79775669117 17 20 13
183.607025522289 -180.099878374101 2880.89537847662 20 23 16
191.020166489478 -183.144421380208 2865.25680627596 20 23 16
183.367491396206 -183.367645556913 2862.17845584563 15 18 11
140.317982467661 -176.884297729999 2889.05463178687 9 12 5
160.240917924452 -182.320139319049 2862.71050573291 16 18 13
169.847235128967 -185.826337483267 2844.95407105238 2 4 0
145.816428151365 -182.907905903719 2855.95631247353 9 11 6
99.3236805298214 -175.637452672557 2886.51617014796 8 11 4
108.140989529755 -178.994812294886 2869.42355710741 16 19 12
109.91163604229 -181.008066550984 2858.34568929905 12 15 8
107.00922500871 -182.123099215725 2851.29528626918 17 20 13
107.165176025823 -183.841697188528 2841.51875146446 18 21 12
91.9445944814021 -182.549030947297 2845.31319214744 18 21 12
92.8375154390935 -184.420902603451 2834.83479511272 16 19 10
99.0284988461072 -187.353728285808 2819.54585731403 16 19 10
91.4603840826027 -187.569534566514 2816.52884404446 17 20 13
67.9772135014445 -184.603781012587 2827.92831847166 19 22 15
45.3503725030093 -181.78088488217 2838.71250978113 21 24 15
67.2964007561032 -187.908681150965 2808.89102098946 19 22 11
68.0327574138375 -189.793325877193 2798.29906245433 19 22 11
71.7264887127245 -192.290205326799 2784.90742582669 21 24 13
71.6257891333179 -194.029833835431 2774.94473300355 17 20 11
312.56833450644 -189.940414486605 2898.9898043069 20 24 23
235.649040640678 -179.213875447845 2940.85865983476 12 14 9
239.442524480211 -181.517697697522 2928.77535045463 11 14 7
187.883485703574 -173.661245595244 2960.60595474435 10 13 6
214.429013742291 -180.152662446895 2930.4114953309 10 13 6
215.724618523638 -182.01359922739 2920.22506778095 13 16 9
185.520728017869 -178.026238251483 2935.40356890898 16 19 12
183.603942193923 -179.286119692629 2927.83219078806 17 20 13
192.896652479634 -182.65398630935 2911.08415306515 18 21 14
184.503691956886 -182.715702258993 2908.70500862873 17 20 13
174.527706271317 -182.474889434028 2907.64990109463 17 20 13
177.304016508252 -184.648197365714 2896.06521304939 22 25 18
191.140654529827 -188.942202080933 2875.19566571313 20 23 16
185.084190350924 -189.46163974196 2870.80257452434 18 21 14
157.720833467228 -185.889365163883 2884.33302671296 13 16 9
158.804622129996 -187.769642061477 2873.99295117676 11 14 7
183.545240616253 -195.952068605071 2833.83566365416 7 9 4
115.774671866011 -184.445457706868 2882.34057647947 9 11 6
122.274222718985 -187.396032684631 2867.27523590383 12 15 8
102.320369274851 -185.161510908275 2875.05371170987 14 17 10
105.657469917845 -187.506357507658 2862.63964709147 15 18 11
106.62656410295 -189.39658311902 2852.21637668852 17 20 13
100.63095091772 -189.911001555207 2847.86742310703 18 21 12
85.4286889787525 -188.584271328817 2851.67502212675 18 21 12
74.1028495999605 -188.021033750099 2852.11367220051 20 23 14
89.504591920543 -192.838656932608 2828.6706457762 21 24 15
94.8949324384087 -195.664839716672 2814.0368816571 23 26 19
77.4667425248698 -193.870942198995 2819.93892312046 22 25 18
63.1285088628899 -192.688884854066 2823.13710525157 22 25 16
59.3937240397464 -193.666587385788 2816.71932340833 21 24 13
77.4467207703879 -199.133152977098 2790.25481434841 20 23 12
65.3745699349542 -198.414073545114 2791.38797884206 18 21 10
83.9799870803599 -204.052209043171 2764.08773098841 22 25 16
118.833822637152 -213.11967973228 2721.37607095925 23 26 17
194.474529066369 -177.337183267276 2982.65701410574 11 16 12
221.320196493533 -183.91146588567 2952.67971240883 14 16 11
208.027852432226 -183.052360301618 2954.16437315913 14 17 10
224.05588646703 -187.669389743963 2932.41170611724 14 17 10
228.608699998415 -190.163288305919 2919.64285163244 15 18 11
225.823395543988 -191.289176800812 2912.67728667405 13 16 9
225.440196911595 -192.874989269994 2903.74561999634 12 15 8
188.014004596524 -187.427838745579 2924.81212762696 10 13 6
175.633046103084 -186.71360228181 2925.72170080548 11 14 7
176.090348416972 -188.449857443082 2916.16323807278 13 16 9
174.117788802326 -189.728685314651 2908.55133237332 14 17 10
178.489489856726 -192.239197681061 2895.65110143663 17 20 13
185.978385633357 -195.370455949948 2880.0667118071 17 20 13
174.396924155186 -194.810182698946 2880.32004095087 17 20 13
160.477861957084 -193.784580609558 2882.5862603158 16 19 12
154.472725860786 -194.299949739189 2878.2303985574 15 18 11
162.0274147962 -199.201887762361 2852.80385296309 9 11 6
136.453143765812 -195.846664100091 2865.15978452666 10 12 7
98.5354715398952 -189.998789348615 2888.34211088681 13 16 9
101.929981434408 -192.371675383667 2875.96922695772 18 21 14
109.914404101862 -195.682676481392 2859.50840276138 20 23 16
104.700072417728 -196.352235071063 2854.48999436874 17 20 13
97.1722061747204 -196.554395707278 2851.50193275149 17 20 11
83.5137427866477 -195.506576947416 2853.95717828707 16 19 10
79.0796617412792 -196.331000739026 2848.26856918188 16 19 10
84.5542985011689 -199.191189485071 2833.69574096069 15 18 9
89.2013073260554 -201.900221272532 2819.75904433297 14 17 10
86.2008078657568 -203.04547427844 2812.6376763143 14 17 10
67.2989365155794 -200.893231286157 2819.9433030032 15 18 9
67.3243976556974 -202.666651047789 2810.07160114166 15 18 9
50.0191301256829 -200.821094263173 2816.06301332851 14 17 6
47.0240414004386 -201.965371244862 2808.9455726109 14 17 6
44.0105610841481 -203.111138150535 2801.81479188969 15 18 9
260.463825342581 -196.957991071572 2931.58468221356 9 14 10
220.072481467254 -190.983454028299 2954.20976387999 12 14 9
212.493093501318 -191.182708856557 2951.18436778474 13 16 9
213.870487986303 -193.08555125038 2941.05731355327 13 16 9
218.453376025557 -195.612441524208 2928.31009361152 14 17 10
195.468649574233 -192.864520252345 2937.59942972689 18 21 14
185.486468689178 -192.59660766501 2936.53996842612 15 18 11
182.768313248368 -193.728038844551 2929.62334762296 14 17 10
174.414360880211 -193.770224893278 2927.27257995308 13 16 9
171.675476174367 -194.903723709265 2920.34092159033 13 16 9
176.900258062741 -197.601287901762 2906.82312307226 13 16 9
172.511425975716 -198.427224221506 2901.16701376435 17 20 13
168.113311705254 -199.254091733073 2895.5041708869 17 20 13
181.912270036265 -203.688190877119 2874.60689360995 15 18 11
156.920469210328 -200.439491235184 2886.14919958387 14 17 10
150.926218954543 -200.954068106054 2881.80123321652 13 16 9
141.791322664681 -200.839354082961 2880.12017399061 13 15 10
185.122255109242 -211.279131443252 2833.66590941413 9 11 6
147.77146255553 -205.495539863256 2856.02381671034 9 11 6
126.942555412666 -203.013453022191 2864.40453248768 12 15 8
117.840006314385 -202.895999028203 2862.74693630977 12 15 8
113.398356206296 -203.72695063601 2857.0528071648 13 16 9
121.2969314217 -207.09459367546 2840.52916893876 14 17 10
102.947486332625 -205.073851529841 2846.99955850678 14 17 8
107.691260281384 -207.813250432929 2833.13285516701 13 16 7
96.302249969896 -207.217681390513 2833.52558057174 13 16 7
102.493722014473 -210.282172728371 2818.23633008434 12 15 6
101.76628906438 -211.917768124565 2809.05486844306 12 14 9
75.9711228425126 -208.288312772085 2822.48709403496 12 14 9
83.5743813718555 -211.680895401429 2805.74924811689 14 17 10
76.0119712629286 -211.880108711392 2802.73645431984 14 17 8
43.6389569133149 -206.792275949182 2822.52385748865 14 17 6
46.6635089509939 -209.228977567831 2809.88245997534 14 17 6
13.7455309008878 -203.962857439178 2830.51074701743 20 23 14
249.374608828544 -202.247997527226 2940.81076829821 10 15 11
215.552044878656 -197.414935245902 2958.31074045793 13 15 10
208.800959639943 -197.765122290757 2954.6502920329 14 17 10
206.122213865173 -198.903427680699 2947.76220531847 14 17 10
230.204048365902 -205.251682949484 2919.48759691075 15 18 11
210.422439389022 -203.081421384271 2926.15557428715 15 18 11
201.206837888611 -202.961584980943 2924.41633055467 17 20 13
183.95956085778 -201.256646915918 2929.2137379242 18 21 14
184.432421167948 -203.035244332698 2919.66663352018 18 21 14
176.864894908482 -203.229505522921 2916.64986152286 15 18 11
176.490256864904 -204.853667072167 2907.72420635301 14 17 10
176.880354735008 -206.639835454906 2898.11706734152 13 16 9
187.55621714197 -210.500407139868 2879.8988427255 13 16 9
196.555734798915 -214.049988276666 2862.93734298909 14 17 10
192.048968519992 -214.89189068295 2857.19595427428 14 17 10
199.343074733221 -218.133074973195 2841.47009521327 14 17 10
164.163563669299 -212.73644018659 2861.69464642181 11 13 8
169.859877622468 -215.659981940243 2847.28219583338 8 10 5
154.408767274762 -214.256884718376 2850.91008062182 13 15 10
151.466840426591 -215.419677132548 2843.83108429912 17 20 13
132.202694895167 -213.206539356293 2850.8743991468 16 19 12
137.78647761831 -216.139794832714 2836.38032306627 17 20 13
124.003824406923 -215.048476503224 2838.74576108249 16 19 12
114.11319008059 -214.760381960756 2837.75306053844 17 20 11
77.3778564983831 -208.814792199157 2860.55794773037 18 21 12
89.8032455631608 -213.207929251309 2839.90018488917 18 21 12
83.0423484273504 -213.560922945441 2836.23231491728 18 21 12
80.0900603878856 -214.724375500214 2829.14580420215 18 20 15
85.4664170486661 -217.675032239119 2814.50127240149 19 21 16
72.6171191489575 -216.730567096007 2816.3075391324 20 23 16
83.1937181900102 -220.826992667783 2796.78112510841 20 23 14
73.36268335402 -220.533114000881 2795.83165880455 19 22 13
35.8019007459718 -214.202732527062 2820.510477163 19 22 11
59.7469092954155 -221.245848514662 2788.42775673203 15 18 7
230.897835663447 -206.023284866857 2955.80534235304 11 16 12
206.93863898973 -203.013269215284 2965.6249228739 14 16 11
195.315517852374 -202.397832280766 2965.84803697958 14 17 10
226.040267356474 -210.118310924641 2932.50118685508 14 17 10
224.102998720526 -211.434367933353 2924.9146757663 15 18 11
221.334007799288 -212.591813462011 2917.9610714707 17 20 13
211.282222125736 -212.302774409592 2916.85125918301 16 19 12
197.226536073049 -211.206570580729 2919.01879461178 15 18 11
176.791507337597 -208.816463276638 2926.44953872875 12 15 8
178.052456642776 -210.779710861395 2916.23747046014 11 14 7
184.862725845724 -213.878281635917 2901.39662661956 10 13 6
196.379791558027 -217.954140410883 2882.552081131 14 17 10
189.536049568865 -218.311385607248 2878.82442809924 14 17 10
189.031477254739 -219.96639653702 2869.80413006853 15 18 11
201.919954370135 -224.385197377134 2849.48193964587 15 18 11
210.765199960291 -228.000179420186 2832.40827352742 14 17 10
189.684999649775 -225.436108972777 2840.6072367878 12 14 9
178.084861523512 -224.820871319671 2840.84701075931 8 10 5
169.638276977196 -224.855745141725 2838.42912908448 11 13 8
146.408581598329 -221.785765464319 2848.77784439191 15 18 11
127.15738061542 -219.525277578498 2855.83078285671 18 21 14
118.04637481649 -219.387030770013 2854.16716155573 19 22 15
111.268457664919 -219.739122651879 2850.48725245606 16 19 12
96.025161392443 -218.285624506548 2854.2657469162 16 19 10
78.5303142922103 -216.334623787051 2860.12026292109 17 20 11
68.7562735577898 -216.022964809433 2859.21190844153 17 20 11
75.0336936429603 -219.16777911148 2843.98455667133 18 21 12
75.150807062013 -220.999601342349 2834.17929415975 18 20 15
83.5805163065837 -224.650128393766 2816.80421683393 18 20 15
67.7096431458168 -223.019797529326 2821.3639942134 18 21 14
52.6496568111146 -221.549975152856 2825.27575112193 18 21 12
57.2030334458433 -224.381808139535 2811.27055650908 16 19 8
80.4483754554943 -231.364308172334 2779.91627100978 16 19 8
266.040029348838 -218.582503542733 2937.98753233934 132 136 137
278.876152337795 -222.835983423614 2918.86326330559 11 16 12
220.4169620725 -212.944129671816 2955.58328669993 14 16 11
218.551174231977 -214.267281089473 2948.04826315363 14 17 10
210.96542080039 -214.451089634406 2945.01862531198 13 16 9
217.188028162628 -217.409812071821 2930.98751785034 14 17 10
216.867880450139 -219.066839437236 2922.10119741255 13 16 9
215.709072938229 -220.563028892826 2913.84306037021 12 15 8
199.225645444483 -218.949323661241 2917.95840535202 11 14 7
186.813264404067 -218.150795138829 2918.84562661154 12 15 8
177.638851290551 -218.006363576984 2917.13607132203 14 17 10
192.439399251735 -222.792096754495 2895.72775554105 15 18 11
191.993635999377 -224.460973206369 2886.75031369968 17 20 13
174.8381638675 -222.672633659674 2891.61469484462 16 19 12
174.375951350379 -224.343141404517 2882.62532031735 15 18 11
195.997552990113 -230.640187750735 2855.03815820046 14 17 10
211.951786586329 -235.79335223397 2831.99394490976 13 16 9
208.931750502167 -236.984816554239 2824.8581803061 14 16 11
197.277907942611 -236.355229745003 2825.05909546911 8 10 5
148.163437375763 -227.760277210815 2857.43052344485 6 8 3
110.193827906516 -221.469815833349 2880.57744117743 9 12 5
103.470059255698 -221.814723481836 2876.93652739409 15 18 11
89.7794725534693 -220.661181173348 2879.36931604134 17 20 13
86.1719295014565 -221.670276885572 2873.04361546081 17 20 13
97.1819509094352 -225.850390988474 2853.83097466139 18 21 12
97.3443775624396 -227.700568296321 2844.05817323103 18 21 12
78.3284853402639 -225.373391597557 2851.28232430723 18 21 12
72.365976190496 -225.885636060114 2846.95737955912 18 21 12
69.4480706999903 -227.068299327344 2839.89540170442 20 22 17
64.2343164186214 -227.74913259393 2834.87735477491 20 22 17
59.772295426189 -228.598193891638 2829.168366612 19 22 13
45.4896352613936 -227.262006088513 2832.40761585837 19 22 13
41.7895947502189 -228.278415895045 2826.01482484838 16 19 8
68.0878828093778 -236.037112026167 2791.92931251338 16 19 8
121.876438539745 -250.054661263344 2732.04078503212 18 21 10
267.783489612599 -228.067291556833 2928.08744295382 10 16 12
274.004556625914 -231.066226879684 2914.05501517418 9 14 10
231.183032948832 -224.1354377995 2938.62865560942 12 15 8
202.963136539177 -221.841952944578 2942.8855668587 12 13 5
206.731822861753 -224.345536097967 2930.78326940097 12 15 8
208.832404296552 -226.521031633279 2919.94375667485 13 16 9
189.950557117263 -224.370730496669 2926.02885284748 14 17 10
191.216486023359 -226.382743838122 2915.82014738968 14 17 10
178.025655475766 -225.39383586343 2917.37905492717 14 17 10
188.037291334632 -229.247647311552 2899.91468365929 14 17 10
179.640132812697 -229.261609574716 2897.53273788551 16 19 12
165.695074502477 -228.10222615267 2899.7807897428 16 19 12
161.29930217047 -228.951248127986 2894.11953236979 15 18 11
175.063402587135 -233.661767953517 2873.19558572158 14 17 10
188.717425992929 -238.381872784886 2852.19149887206 13 16 9
204.617697996197 -243.616169203092 2829.10805119881 11 14 7
167.907444714266 -237.57714890005 2850.69655625056 8 11 4
128.242902969706 -230.849052287673 2875.08736584929 9 12 5
134.72756811233 -234.063825448464 2860.00989608865 11 14 7
126.381896964287 -234.073975123031 2857.66529392251 13 16 7
104.880401069401 -231.207129662678 2866.79542126721 16 19 10
105.866065773228 -233.244297026532 2856.38341889797 16 19 10
105.270976709049 -234.945702919289 2847.29756282081 17 20 11
102.340360008213 -236.140617415194 2840.2266027606 17 20 11
84.0748658152304 -233.938532754658 2846.75876866039 19 22 13
68.9335597732863 -232.410874835069 2850.6115736491 20 23 12
78.2101515287934 -236.328474863887 2832.61403012234 20 23 16
67.6577340546856 -235.820684774376 2832.37773828177 18 21 14
46.5324662991229 -232.921090373945 2841.78076731361 17 20 11
54.1782810847979 -236.506981368886 2825.07308666599 17 20 9
38.4123688019184 -234.796853617725 2829.70906213576 17 20 9
63.2269381800157 -242.329084975133 2797.01948528888 17 20 9
157.448151868921 -265.820428439313 2699.69648371582 17 20 11
136.932894287562 -263.103470669781 2708.30576042146 17 20 11
303.861722087433 -241.094448265568 2909.71078060706 139 145 145
291.981361120809 -240.443243361146 2909.74759724255 5 11 7
267.0335700396 -237.099729041198 2920.08725044547 11 16 12
239.737060320188 -233.242965502844 2932.43227145652 12 15 8
226.396028812364 -232.241192822455 2933.88236027476 9 12 5
219.590418310711 -232.585860034839 2930.18211880501 12 13 5
236.274378999405 -237.827774428038 2907.66645072101 11 14 7
218.106008353296 -235.810803479953 2913.033049286 13 16 9
203.224939537086 -234.465440669576 2915.83854580351 13 16 9
192.407857947087 -233.963259214045 2915.41036488828 14 17 10
190.428438335161 -235.324999671142 2907.79306626179 14 17 10
165.259137657062 -231.76414967483 2919.20827990793 13 16 9
163.298603092943 -233.124669309895 2911.60438316231 16 19 12
188.328504475055 -240.273626433446 2881.54291969851 16 19 12
179.909973513148 -240.281553406626 2879.14551115681 15 18 11
147.800673134718 -235.171400016809 2896.65383153423 14 17 10
166.262316330845 -240.977413838775 2871.71887627508 13 16 9
170.444355726548 -243.718219289862 2858.67998907454 11 14 7
149.495653069621 -240.987743939801 2866.97512066394 8 11 4
142.69390685355 -241.334069647859 2863.27767209667 10 13 6
152.257793921813 -245.281746779301 2845.48824272686 12 15 8
163.287222201695 -249.580612752946 2826.28906888141 14 17 8
148.652329266238 -248.215356336235 2829.27341879059 16 19 10
120.931728707682 -243.920774954322 2843.78329819389 14 17 8
93.3332382405268 -239.615574009036 2858.3820460756 15 18 9
74.3068972445218 -237.196949941385 2865.59879133459 18 21 12
64.5462109490755 -236.843583310946 2864.70032903032 19 22 13
62.4443916444024 -238.216733103575 2856.99424246389 20 23 12
56.5119767496185 -238.726599339672 2852.69112572965 19 22 15
80.9541739158512 -246.164840071257 2820.96712102983 18 21 14
63.5747039484031 -244.081221513008 2826.90565363902 17 20 11
45.5053309655669 -241.818381242034 2833.58029972862 17 20 9
49.3365102430912 -244.588924639532 2820.28691591212 17 20 9
65.1191759062986 -250.147797258584 2795.88123774446 17 20 9
318.650291900152 -253.488143283931 2889.49028241323 5 11 7
291.172621720254 -249.575677548939 2901.70425848292 13 18 14
264.625107976054 -245.824752276322 2913.35666993988 14 17 10
259.360736096842 -246.516447542332 2908.30157973827 15 18 11
271.147022279294 -250.808117123336 2889.65139926671 13 14 6
235.857479706369 -245.156188373204 2908.56244277124 12 15 8
209.611239656788 -241.380568210724 2920.4330845664 13 16 9
189.113185486044 -238.7994575964 2927.81910766971 14 17 10
187.975604522051 -240.343584933686 2919.57582091312 14 17 10
172.389224941458 -238.78798694988 2923.10641859427 14 17 10
184.021989782376 -243.094194863576 2904.34457910939 14 17 10
190.776653970206 -246.372469002501 2889.46251577371 16 19 12
