ply
format ascii 1.0
comment KinectMotionCapture
element vertex 758
property float x
property float y
property float z
property uchar red
property uchar green
property uchar blue
end_header
-21.7484080293984 680.077250147533 2796.90702091502 205 205 203
-22.5895569255401 680.788529459368 2787.6550115407 176 176 174
-25.6446072350229 680.997341968072 2780.50095705606 154 154 152
-25.8172482912926 681.870446459029 2770.49905185174 168 168 166
-26.7490486113644 682.574262506922 2761.18128952271 161 161 159
-26.9918780401992 683.441631571501 2751.12876869519 186 186 184
-28.7079002237229 683.974088595967 2742.47667586319 190 190 188
-29.7348759966738 684.670045011212 2733.08987900664 166 166 166
-32.2218750723475 685.032126386917 2725.113062215 180 180 180
-34.0198742324513 685.557673514879 2716.40150752321 190 190 190
-35.8453741539624 686.080823901401 2707.67029927964 198 198 198
-37.6980758499972 686.601670666724 2698.91906574388 173 173 173
-36.7566277429783 687.779908748177 2687.25625985327 184 184 184
-35.860144256477 688.954444450094 2675.56083939636 179 179 179
-35.0086669339271 690.125154919362 2663.83277363518 180 180 180
-34.9008712911614 691.12776070029 2652.79978229917 183 183 183
-30.65423043655 693.112548480099 2637.36129440078 199 199 199
-24.3918364814899 695.583940429704 2619.68142380167 189 189 189
-10.5959624178733 699.851967070077 2593.8852531853 170 172 171
7.21081438793192 705.092169405325 2563.59078709597 171 173 172
32.4272804537249 712.11922732569 2525.09052730535 171 173 170
31.3897564209453 712.920992516451 2514.46158310325 168 170 167
22.1163034244523 711.760900209748 2512.67362401838 171 173 170
16.2650845021508 711.416939228237 2507.19517169102 174 176 173
128.31024073895 683.534782255947 2913.11605962837 207 209 206
119.248241338239 682.407532672096 2911.4815541226 179 181 178
110.203230706218 681.281778855604 2909.85937171416 156 156 154
105.087141838859 680.997879429376 2904.9141350757 152 152 150
99.1860028869369 680.545780050596 2900.63398354043 148 148 146
94.840253758083 680.429266851258 2895.0126993563 150 150 148
90.4849265227061 680.312017948757 2889.38476254888 149 149 147
83.0256274921828 679.524485945364 2886.44344174587 147 147 145
74.8027689897461 678.570266351828 2884.18308718722 145 144 142
65.0536503581769 677.282790537016 2883.28499381592 146 145 143
55.3259054870741 675.997006004883 2882.40210882937 150 149 147
48.6787669761535 675.379880560002 2878.81566151003 153 152 150
41.2727765969061 674.596458048523 2875.91300610138 166 165 163
34.635212891462 673.980127783197 2872.33320931357 169 168 166
29.5177561430879 673.696476006243 2867.38698232337 151 150 148
25.1512459414238 673.578560134019 2861.7509353667 140 139 137
22.2832064449143 673.791728487158 2854.73217659758 161 160 158
14.8861390454291 673.008830091576 2851.83628677916 169 168 166
10.4953573442526 672.888967470738 2846.18234055683 164 163 161
4.60023493259554 672.437385370725 2841.90655316011 168 167 165
1.68468690745449 672.646595873962 2834.85362887444 172 171 169
-4.96392881223695 672.028981937427 2831.2658137436 170 170 168
-7.90533098500124 672.236097966373 2824.19413662563 170 170 168
-11.6036962447392 672.276960811822 2817.80791533557 163 163 161
-13.1072372235392 672.810331480359 2809.31015376825 183 183 181
-16.1060765613437 673.012694484279 2802.19652067155 205 205 203
-17.6595937991304 673.541946416294 2793.66221490831 161 161 159
-20.7000197658309 673.740831310233 2786.51871163653 145 145 143
-25.2141111406665 673.610362278957 2780.77561635366 161 161 159
-26.1110645339615 674.297584576605 2771.48303125491 157 157 155
-27.039511255714 674.982275076956 2762.16730866919 170 170 168
-27.2790183648965 675.827688587226 2752.11708505287 182 182 180
-27.5545864732778 676.670180754397 2742.04070525147 187 187 185
-27.8661943613052 677.509713067205 2731.93788997541 173 173 173
-29.6426471230158 678.020426785013 2723.2418795935 180 180 180
-32.8708458742093 678.203323319708 2715.96217483877 190 190 190
-34.6975975067176 678.709723292772 2707.22967988201 170 170 170
-35.844009657358 679.376169082788 2697.75615156924 177 177 177
-34.9055621463781 680.526562439879 2686.0910294435 183 183 183
-34.7153983234527 681.511166766322 2675.1176573782 177 177 177
-33.1636730971712 682.816083573657 2662.66285941882 186 186 186
-30.9622641223382 684.278671870916 2649.44449860467 190 190 190
-22.5444102029173 687.19059151148 2629.62399392849 201 201 201
-14.2201030410973 690.094932821415 2609.73563682561 175 175 175
-0.450723940900843 694.281353800065 2583.91984609606 163 165 164
19.4007240522081 699.90659813965 2551.40415173489 170 172 169
32.2045267026607 703.909936028089 2526.12279778478 171 173 170
31.8560357613809 704.850514976583 2514.75872038822 166 168 165
25.3155570746846 704.342977576439 2510.01481703052 169 171 168
21.4992186155971 704.476376177404 2502.30850653323 170 172 169
25.1342168007835 706.369823281028 2486.42616315214 173 175 172
131.105544703016 676.698758971708 2911.40240495642 211 213 210
122.8233833385 675.747352521417 2909.09907473659 164 166 163
114.553781354255 674.797083008624 2906.80485483836 162 162 160
107.079382815827 674.013226769542 2903.8526066983 149 149 147
101.954256603172 673.725727514428 2898.90080046153 148 148 146
96.0458542788714 673.272920233851 2894.61537996695 148 148 146
90.1367281211538 672.820084186603 2890.32943460437 147 147 145
81.9053935777014 671.873064122823 2888.06297204974 148 148 146
74.4580474256487 671.091589018556 2885.13064129983 147 146 144
65.4799426331496 669.982009207955 2883.55704228683 148 147 145
57.2858278825734 669.03794461867 2881.31757612442 153 153 151
50.6344040581856 668.423000769375 2877.72773886308 159 159 157
43.9864981582643 667.80828216738 2874.14045296118 160 160 158
37.342066541016 667.19379563559 2870.55598129343 152 152 150
30.7013359750363 666.579628443758 2866.97389973724 156 156 154
25.5766780134583 666.292406097464 2862.02243434826 164 164 162
21.9550822583541 666.331183738635 2855.69185434848 164 164 162
16.0637251008873 665.879727434757 2851.41879710207 165 165 163
10.9213467324198 665.591029307598 2846.45418385982 171 171 169
5.02614618546504 665.139112286771 2842.17833812472 164 164 162
2.85648659163806 665.499758493948 2834.43185470345 164 164 162
-3.05151406321968 665.046685033999 2830.14672403937 164 164 162
-7.47841182316566 664.917922228104 2824.46655143409 171 171 169
-10.4377261257871 665.112295593698 2817.38182488682 185 185 183
-11.206008515209 665.790734041055 2808.18247165282 193 193 191
-12.0059241659334 666.46663971337 2798.96017396361 154 154 152
-15.7659201533951 666.493876801253 2792.52920622661 152 152 150
-20.2699272401952 666.358508817044 2786.79310196817 154 154 152
-22.6006652597901 666.70580715626 2778.92978174889 159 159 157
-24.9541083987692 667.051255769214 2771.04969825777 170 170 168
-23.7140437734902 668.198900040381 2759.60321089035 193 193 191
-24.6822372566871 668.860904484409 2750.25885459669 159 159 157
-24.2443003325605 669.841325206325 2739.46507734941 158 158 156
-25.9970401471943 670.337381028584 2730.78618274376 180 179 177
-28.4917370715183 670.670948789382 2722.8039356673 175 174 172
-31.7216727062557 670.842442907976 2715.52291405314 175 175 173
-34.2598861364267 671.17226588476 2707.50880748781 180 180 178
-36.1131755471298 671.659698117855 2698.75697865396 181 181 179
-34.4654902791617 672.942218132071 2686.37163073251 183 183 181
-35.6811536984167 673.583338338003 2676.84777241815 174 174 172
-32.7208366351996 675.176700199802 2662.94518603785 189 189 187
-29.1196810344583 676.924249261758 2648.27290154893 206 208 205
-17.915526989789 680.413574162054 2625.53443449678 201 203 200
-6.1279578508473 684.052613554646 2601.98461920137 171 173 170
11.7760999207057 689.108600853652 2571.76003555173 175 176 171
31.5957929716419 694.627198962714 2539.22078117111 168 169 164
40.238123982836 697.602390693418 2518.32799410873 172 172 170
35.7513987740647 697.56851421659 2511.36989529778 169 169 169
28.5158956477658 696.9020219775 2507.35667985988 169 169 169
24.0097285840699 696.86597305545 2500.38447622952 172 172 172
132.322870027612 669.519375052369 2911.0134684391 211 213 210
125.612591473991 668.901784219079 2907.38095272101 163 165 162
118.905970329846 668.284519548652 2903.75108998919 160 160 158
113.768587623725 667.993040190121 2898.79037859873 149 149 147
108.626101491815 667.701147397185 2893.82596553188 148 148 146
101.143554837379 666.922067757017 2890.86783484305 147 147 145
92.8927172768645 665.981383786865 2888.5872662287 146 146 144
83.8804608641839 664.879791200894 2886.98895043427 148 148 146
76.4284462782019 664.103135613337 2884.05325984878 149 148 146
68.9845201406381 663.327135280307 2881.12343607115 149 148 146
61.5487260932852 662.551783378898 2878.19921622668 157 157 155
54.120832415979 661.777081853948 2875.28102130037 163 163 161
46.7010276349269 661.002935645704 2872.36839852334 150 150 148
38.5282455262077 660.068365934293 2870.14444494171 148 148 146
31.126406831246 659.295625793948 2867.24514776294 163 163 161
26.0019172230335 659.00537015158 2862.29378905267 160 160 158
23.1351172694438 659.196205118915 2855.27581573166 161 161 159
19.4977170750379 659.225218802488 2848.93372930018 166 166 164
14.3465531947324 658.932832118509 2843.96302304667 165 165 163
9.19009990862651 658.63989744604 2838.98847961434 166 166 164
6.26476279983645 658.82594086554 2831.92834166717 165 165 163
0.347963067328649 658.371945478819 2827.63682769418 173 173 171
-3.34647967260371 658.396158848603 2821.25336558956 197 197 195
-7.05503070226521 658.419259161486 2814.85967044678 203 203 201
-7.83109737792587 659.077620383 2805.65457252245 151 151 149
-10.1075926313883 659.415591427241 2797.83023232033 136 136 134
-13.8715957536846 659.433990398849 2791.39631495897 161 161 159
-18.3799482513021 659.292485596205 2785.65732401232 157 157 155
-19.2586097424614 659.942475749678 2776.37781051565 176 176 174
-20.8945812108197 660.431591432953 2767.783528623 196 196 194
-20.3874580776007 661.392763582272 2757.03980843738 180 180 178
-22.8059113807968 661.718816234617 2749.11249944647 159 159 157
-24.5284532197627 662.200660263621 2740.45571848932 181 181 179
-26.9949956511164 662.522667800743 2732.49352817383 173 172 170
-28.7699144232914 663.00007912421 2723.79846113047 165 164 162
-31.2847241580352 663.317858238858 2715.8015538759 178 178 176
-33.8223320021691 663.633720350201 2707.78781559828 182 182 180
-34.9668823942428 664.261393867826 2698.31544052482 181 181 179
-34.0256445652214 665.356720370836 2686.65206223571 184 184 182
-35.240333085975 665.978532686389 2677.12881284781 188 188 186
-31.5767908830999 667.692541254258 2662.50158384896 203 203 201
-25.8781435286999 669.870276145091 2645.64659050638 204 206 203
-13.9821007501528 673.446619637345 2622.17509250017 171 173 170
0.577765170691968 677.637405026552 2595.69703353712 173 175 172
20.5451468447944 683.063456114858 2563.26466749938 172 173 168
40.3440928084109 688.476180264773 2530.70983683992 159 160 155
39.328163844627 689.213439005909 2520.09622062631 168 168 166
34.8460736229912 689.171424521065 2513.14144059584 156 156 156
31.0336286277786 689.283033324403 2505.43784218398 166 166 166
31.9738199114989 690.477131421512 2492.53887442322 158 158 158
135.506663356395 661.985855637977 2918.22375040143 208 210 209
135.119421475262 662.65477579692 2909.30057335169 211 213 210
129.977203736653 662.359698094345 2904.33604423965 160 162 159
122.474310914633 661.583939282734 2901.36347547741 156 156 154
115.762635331287 660.968864002325 2897.72995976443 151 151 149
110.61598115433 660.673646360497 2892.76250835176 149 149 147
105.464309939499 660.378201514096 2887.79141883043 150 150 148
94.8730197371144 658.96620114389 2887.51722320239 150 150 148
83.533259369152 657.396999745665 2887.93468595318 148 148 146
73.7674261272572 656.148307346442 2887.02437777276 151 150 148
69.4110192285207 656.013914119931 2881.39557145496 158 157 155
64.2777782949588 655.720041589198 2876.4375559249 158 158 156
57.6082760942933 655.108512669124 2872.8349250371 153 153 151
50.1794199858954 654.338860786252 2869.91576352436 146 146 144
42.7583231120119 653.56978810247 2867.00252425708 153 153 151
36.8628518476548 653.117520559531 2862.72648049769 159 159 157
31.7233038501481 652.82313708628 2857.76389025437 156 156 154
25.824035691306 652.370442464913 2853.4850918819 161 161 159
20.6760235364736 652.075294043178 2848.5166563927 158 158 156
15.522718674795 651.779657109348 2843.54438163294 161 161 159
11.8598882368732 651.798067294018 2837.18380656642 161 161 159
10.4198637338371 652.286597445661 2828.73156784481 180 180 178
5.97872566038227 652.145250433327 2823.0413028679 198 198 196
1.52814986108529 652.003068757754 2817.34389757736 163 163 161
-4.41029225093303 651.546901890223 2813.03668358261 135 135 133
-8.13906885569993 651.559730724666 2806.62827446174 146 146 144
-9.67817190029185 652.040144793765 2798.10417048136 154 154 152
-11.2445220117232 652.518291802767 2789.56030303764 159 159 157
-12.8383570644144 652.994192711475 2780.99679427353 180 180 178
-12.2753151156449 653.935101225173 2770.29350819136 175 175 173
-13.9302239711354 654.405984372548 2761.68540583125 145 145 143
-14.8889569552262 655.02998148645 2752.34771514067 160 160 158
-20.2079740472132 654.719964112847 2747.25523920892 177 177 175
-24.8130026257571 654.564433626236 2741.44580018816 187 187 185
-27.2766990535778 654.872631924812 2733.48560305485 170 169 167
-26.9042874284202 655.797719279906 2722.64433932258 173 172 170
-28.7101044499667 656.255869360425 2713.92677591686 181 181 179
-32.6745869771425 656.248468253997 2707.34739607398 180 180 178
-36.6532143859113 656.239742022965 2700.75775559255 181 181 179
-34.9980057152144 657.462082184747 2688.37755672348 185 185 183
-32.6882989309107 658.834209335309 2675.23724509906 194 194 192
-27.6260840857279 660.816711499486 2659.15493598535 211 211 209
-21.2366749000616 663.10046183955 2641.5661909958 179 181 178
-10.047080342358 666.45128609981 2618.81646792777 153 155 152
7.28599320700862 671.171926267131 2589.41130365993 173 175 172
31.3961019709783 677.410791036204 2552.57510275509 168 169 164
46.3336092674722 681.647136492671 2525.13629270305 169 170 165
42.5476317294264 681.750225184201 2517.45183795969 162 162 160
35.3123839798171 681.089060474647 2513.43854015776 150 150 150
32.8682091308381 681.494122344226 2504.25794863745 168 168 168
32.4419288706803 682.353211898939 2492.83706734369 165 165 165
136.725440209579 654.808202391652 2917.83587489436 208 210 209
136.337528474273 655.457730802344 2908.91181955298 211 213 210
131.193124461976 655.15943941102 2903.94598376354 158 160 157
125.258492448628 654.703461716343 2899.64153274883 154 154 152
118.540180225807 654.090328162453 2896.0032158295 152 152 150
113.387189804596 653.791639895325 2891.03115355874 150 150 148
107.450475979955 653.335702654069 2886.7251935995 149 149 147
96.0775112697645 651.782690379418 2887.11866781509 151 151 149
84.7344980285021 650.232014892056 2887.53386632599 148 148 146
75.7375914646534 649.152825483982 2885.94708591809 154 153 151
70.6074557615621 648.856157576973 2880.99130727675 160 159 157
64.7042960677053 648.402998338332 2876.70968549412 154 154 152
59.5658356922981 648.105666398404 2871.74816323372 147 147 145
53.6588227058146 647.652224871994 2867.46374668719 150 150 148
47.7510410414332 647.198691202195 2863.17877244293 156 156 154
41.0835190478118 646.589731967114 2859.5772955884 154 154 152
35.176270285266 646.136181724491 2855.29270757211 155 155 153
27.7589403476952 645.372432685037 2852.38222600267 153 153 151
22.6066688083328 645.073862399171 2847.4106854623 155 155 153
18.1994437573856 644.929606570956 2841.7446955484 152 152 150
14.5304412864689 644.938973386548 2835.37960043699 196 196 194
13.0847401877494 645.410405018103 2826.92316002266 201 201 199
8.63727658264235 645.262780288994 2821.22827773498 156 156 154
5.66315461225964 645.422367685844 2814.13234611853 135 135 133
-0.286296320049395 644.96501026202 2809.81714556461 135 135 133
-5.49978751206415 644.661092166749 2804.80119850384 155 155 153
-8.51419453161006 644.817277024184 2797.67634063802 155 155 153
-8.61668354841294 645.585329451236 2787.72475803482 192 192 190
-8.75541999226259 646.350425918924 2777.74717840269 186 186 184
-8.93036187188967 647.112589342539 2767.74333782107 151 151 149
-10.5932550072789 647.566127277853 2759.12935962914 157 157 155
-13.7311420975985 647.712069897206 2751.91493654586 175 175 173
-18.3306108648917 647.551344026775 2746.10950163529 164 164 162
-25.0980179156224 646.932679905108 2742.43556681405 154 154 152
-26.1246267197819 647.531403117784 2733.04854347567 179 178 176
-26.468032411894 648.279530759027 2722.92250878717 185 184 182
-26.13475991346 649.176464135236 2712.05243518419 180 180 178
-28.6843260374865 649.463367515127 2704.02988141259 183 183 181
-30.5487072781068 649.89978648373 2695.27004795929 186 186 184
-29.6157252282838 650.939091531778 2683.60040111994 199 199 197
-26.6158382819639 652.428149999964 2669.72597147511 211 211 209
-23.6742057719432 653.912459337231 2655.80928789091 164 164 162
-17.9924457841956 655.995286861969 2638.94127733431 170 172 169
-7.50542910027496 659.126322605162 2616.91645840588 184 186 183
16.0824562659698 665.107703870899 2580.93571351674 168 170 167
36.70805298822 670.472798033967 2547.74486174935 164 165 160
43.3461581159116 672.82175258923 2529.10140092158 168 169 164
40.2600799408499 673.064456070322 2520.68998871027 131 131 129
35.7784523632194 673.005392333657 2513.73545770249 152 152 152
35.3873335946844 673.842656165649 2502.3399551728 163 163 163
37.6831219282856 675.274137099537 2487.95481777584 162 162 162
149.421332950554 649.16728440093 2917.1296496597 203 207 208
141.112680182501 648.245306457842 2914.80726431728 206 208 207
139.135227813409 648.56460725143 2907.19961211543 209 211 208
132.409192612972 647.953039057855 2903.55599905068 156 158 155
126.472505196702 647.49662600545 2899.25005582536 152 152 150
118.968649975189 646.731144422307 2896.27654697835 155 155 153
113.815922547873 646.42946039795 2891.30466018338 152 152 150
107.879273373991 645.97322967505 2886.99874560431 154 154 152
96.5052223391831 644.438918825869 2887.39152704641 149 149 147
85.935554899621 643.06081231317 2887.13317789966 149 149 147
76.9361271236826 641.992102443342 2885.54432841522 161 160 158
72.5738609818953 641.845644252653 2879.91121349566 157 156 154
64.362595059885 640.931764833536 2877.65946697689 143 143 141
59.2267025093784 640.631643366924 2872.69949758104 146 146 144
54.0853308241771 640.330998771952 2867.73584807078 152 152 150
49.7002790921006 640.182833695498 2862.08591226782 155 155 153
43.0280075898324 639.575889808233 2858.48129707828 153 153 151
36.3594437409249 638.96914630814 2854.87907618376 155 155 153
28.9396135686313 638.210362561804 2851.966807291 151 151 149
23.7854821162733 637.908614181198 2846.99360788531 162 162 160
20.1265758486811 637.910345152007 2840.6357930501 162 162 160
17.2017508047966 638.062764414614 2833.57585599672 206 206 204
15.0042682614617 638.365296185385 2825.8089087645 186 186 184
11.2965473817708 638.362983012494 2819.41568669083 130 130 128
6.8332707231189 638.208271741245 2813.70901081143 142 142 140
1.62080790185115 637.90150950853 2808.69379483244 158 158 156
-2.85974309760317 637.745219591581 2802.97458841858 157 157 155
-4.4102392264711 638.191284029194 2794.44205136061 172 172 170
-3.79003195551131 639.086947844206 2783.78027094417 191 191 189
-5.40176754330957 639.528021330776 2775.20331481536 166 166 164
-7.04094112952913 639.966782417754 2766.60645658318 158 158 156
-10.8858055063235 639.952940885423 2760.11375786827 183 183 181
-14.0209727179579 640.087782392304 2752.90125025377 169 169 167
-19.3399851703275 639.771581909688 2747.80874636672 164 164 162
-24.6641022511722 639.454897793045 2742.71224509882 171 171 169
-24.9724610228472 640.183699670262 2732.61151878208 181 180 178
-25.3167857053558 640.909517805405 2722.48441041877 182 181 179
-25.6974989504437 641.632308803817 2712.33120235384 183 183 181
-28.2464370661932 641.905283006628 2704.30903328482 185 185 183
-29.4013667481678 642.473805722389 2694.82883443213 190 190 188
-27.05660701758 643.782586763665 2681.71390705302 209 209 207
-22.6531832678472 645.532228489143 2666.3878833601 210 210 208
-19.7206900960436 646.979921277066 2652.46438900454 168 168 166
-13.3480269358464 649.16325975672 2634.86299585788 183 185 182
-0.0805044110503417 652.819254238774 2609.9157485011 170 172 169
23.4918706424905 658.681444705015 2573.92315613038 160 162 159
42.7151120139024 663.643114243777 2542.18403135158 174 175 170
43.1202914108702 664.611910388564 2530.13141196381 158 159 154
42.7917704818555 665.429690635624 2518.78118925569 146 146 144
41.0496237048714 665.949955163983 2508.87505976177 162 162 162
43.3812290681579 667.348670619048 2494.51572093039 167 167 167
42.2441965046332 668.008906825927 2483.81392399853 164 164 164
143.124651352394 641.197071661296 2913.75971672173 209 211 210
140.353554350082 641.349756871395 2906.81122175349 196 198 195
132.837580894412 640.5883522869 2903.82924326775 154 156 153
126.115445119979 639.979628744088 2900.18817691183 157 157 155
119.396960152929 639.371350316927 2896.54975935869 155 155 153
113.463270963475 638.91494117907 2892.24598963179 149 149 147
105.970780970977 638.15564812034 2889.28104550496 152 152 150
94.6022411991798 636.640543302896 2889.67791946157 149 149 147
88.6861650197361 636.185710374814 2885.38692576533 151 151 149
81.9968545911007 635.579825282536 2881.76966958041 162 161 159
77.621713475561 635.426588669128 2876.12718698357 154 153 151
67.8609352060082 634.218393879034 2875.22074838886 148 148 146
62.7161691052267 633.914427363969 2870.25462136813 146 146 144
56.0390378442222 633.309558792002 2866.64619927062 154 154 152
49.365286225362 632.704884751395 2863.0405226102 155 155 153
41.1766512238949 631.800635257111 2860.80523050617 153 153 151
34.5145031247087 631.196801256904 2857.20767526273 157 157 155
30.1205807501783 631.042032793686 2851.55127549429 157 157 155
25.7167946970136 630.886445748966 2845.88801566545 196 196 194
21.3035211219572 630.73004987888 2840.21757955563 197 197 195
17.6288602111128 630.721991054219 2833.84829425606 130 130 128
15.4321534136797 631.010545872489 2826.08183858258 128 128 126
11.7248514865271 630.999812889576 2819.68887756855 161 161 159
8.00345117278489 630.987788420582 2813.28568979157 159 159 157
3.52846328562784 630.82624364342 2807.57048957964 174 174 172
0.518284132679181 630.96027745878 2800.44858438514 186 186 184
-0.305050089769221 631.537052906388 2791.20880795938 156 156 154
-0.427186876197805 632.259153862201 2781.24274951541 150 150 148
-2.04709152121962 632.682817782248 2772.66007775682 175 175 173
-8.06523484624977 632.218820119861 2768.29504698733 164 164 162
-11.9053837650032 632.196697739017 2761.80572466445 154 154 152
-16.4837311594253 632.026182250917 2756.01555150147 158 158 156
-18.9062846346 632.295933147147 2748.08527950592 178 178 176
-22.7910993975737 632.269953359533 2741.56355842082 174 174 172
-24.5375999205577 632.682783677005 2732.88876525725 184 183 181
-26.31146952472 633.093366921766 2724.19412028078 184 183 181
-27.3996848930769 633.647967116735 2714.76221353748 192 192 190
-27.0978568152489 634.49234757088 2703.86907901203 194 194 192
-26.1280264390966 635.479434459067 2692.22587981554 202 202 200
-23.0838289850204 636.900330250499 2678.38322654603 163 163 161
-20.802019832532 638.170813545188 2665.22217648676 170 170 168
-17.1700803229971 639.72794366781 2650.57124340083 177 177 175
-8.7018098151701 642.297433486178 2630.78555231098 177 179 176
9.44029871633978 646.892145815676 2600.7309058118 173 175 172
37.8587626041598 653.649701539547 2559.61003650082 160 162 159
49.4177574625034 656.913463673853 2535.89262197809 165 166 161
45.6581893309433 656.985115797696 2528.22715274468 140 141 136
43.2577552176836 657.344044172346 2519.07803614192 155 155 153
45.6362768049905 658.710863435204 2504.75254632207 157 157 157
52.7473418055107 661.081813673389 2485.21701898286 159 159 159
54.9937171273096 662.437688639743 2470.79567807999 169 169 169
148.306178170572 634.736251117935 2910.0726765095 209 211 210
143.152502823324 634.428027611074 2905.09977494635 189 191 188
136.417577237352 633.820668061876 2901.44973836902 155 157 154
128.900828981126 633.064417935347 2898.46692984514 157 157 155
122.959213935588 632.607038123772 2894.15740957937 157 157 155
115.454021808362 631.851794274762 2891.18327791404 151 151 149
108.736170176308 631.246046523129 2887.54533229733 153 153 151
97.3600394822736 629.749205801929 2887.93679594366 152 152 150
91.4373871720047 629.29348167102 2883.64103055572 158 158 156
85.5140110283181 628.837728773439 2879.34474029978 154 153 151
80.3601195438035 628.530005937856 2874.37197906713 149 148 146
70.5919129127493 627.334532238424 2873.46021992947 146 146 144
63.9086873694081 626.731510328793 2869.84768378737 155 155 153
57.2292093723381 626.128841397641 2866.23757163243 150 150 148
50.5532957947374 625.52643135231 2862.63004471253 149 149 147
42.3618708759275 624.629752411491 2860.39276848423 161 161 159
35.6972826028339 624.028150712875 2856.79375009072 159 159 157
32.05636395082 624.014252150004 2850.44889569524 177 177 175
27.6487530801597 623.85254974396 2844.78253772204 196 196 194
23.9819304844731 623.83658254467 2838.41889452692 164 164 162
20.3010991911565 623.819450612734 2832.04509022833 138 138 136
17.3523401820304 623.947377667002 2824.96767887492 161 161 159
12.8970718424259 623.781694986852 2819.26675282454 163 163 161
9.17387908805845 623.761011816513 2812.86222181108 182 182 180
4.69686007639281 623.593457960102 2807.14581323349 192 192 190
1.68494403990049 623.716089359361 2800.02259117956 152 152 150
0.8604247693631 624.273262449197 2790.78185639734 145 145 143
1.47028832717311 625.118191864024 2780.11202614573 178 178 176
-0.152934985430786 625.524878180262 2771.52656814225 171 171 169
-6.17563232918128 625.06015312868 2767.15823238304 152 152 150
-12.1991623165028 624.595181392236 2762.78929177322 159 159 157
-17.4994995681894 624.274489555721 2757.7103031881 171 171 169
-20.6388316071142 624.386250785085 2750.49436501824 174 174 172
-23.0770925770516 624.640569914863 2742.55262815957 173 173 171
-23.3852129176313 625.324901478869 2732.4515549587 187 186 184
-24.4450602335451 625.862442806333 2723.04012641549 195 194 192
-27.6765359704658 625.966271776399 2715.75764561107 182 182 180
-28.7934001086194 626.498985002038 2706.30485990134 215 215 213
-27.1067477797129 627.602234043071 2693.94685199114 217 217 215
-22.6428808479793 629.274057028238 2678.66425068351 170 170 168
-18.2462172661797 630.94038640715 2663.33319888414 175 175 173
-9.70312025761455 633.458185250805 2643.60119481955 181 181 179
2.24641279229409 636.681594036726 2620.16668536872 175 177 174
28.734421987699 642.887504646103 2581.34899842662 173 175 172
52.231673463218 648.507770554248 2545.3007219754 167 169 166
56.8164701538767 650.275710731661 2528.87123545411 141 142 137
51.6529298002055 650.050529214058 2522.65656653212 143 144 139
48.5464234995803 650.249577887078 2514.23012441642 152 152 150
50.9112833702448 651.579354493689 2499.89454329827 168 168 168
54.5870370607817 653.187241901308 2484.04029803662 176 176 176
55.4660122792279 654.224402906955 2471.09645300344 165 165 165
161.035495669553 628.995878981396 2909.39017784038 202 206 207
153.489592264954 628.242206185831 2906.38654165896 203 205 204
146.742399111288 627.636202349162 2902.72732444993 168 170 167
139.998767076046 627.030516874706 2899.07069038421 160 162 159
134.044751941524 626.571744182835 2894.75217397409 155 155 153
125.738819678078 625.673943900852 2892.43188324814 160 160 158
116.663919993123 624.630993290113 2890.78845304193 153 153 151
108.384999020454 623.735351352013 2888.48775430954 149 149 147
99.3413037907991 622.694909136625 2886.86725206145 159 159 157
92.6394023731967 622.092813410945 2883.24088759382 160 160 158
86.7137831960525 621.636520339748 2878.94296857897 143 142 140
79.2461944069878 620.889520492415 2875.99613813347 144 143 141
71.0184492755643 619.997984137901 2873.73226417912 154 154 152
62.8028446215492 619.107381912013 2871.4774903245 150 150 148
57.6554816514419 618.797051408607 2866.50944854293 160 160 158
50.9793911875054 618.196957042303 2862.90180512372 162 162 160
44.3065807736147 617.597108883102 2859.2968352069 177 177 175
38.3949287506669 617.141857691439 2855.00904655753 195 195 193
33.9927896528209 616.974803409942 2849.34662808091 175 175 173
29.5810695952405 616.806972963857 2843.67726023068 130 130 128
25.1593928690204 616.638256659227 2838.00096456885 151 151 149
21.4767242905984 616.612402649227 2831.62578420403 168 168 166
18.5263761355539 616.728879511975 2824.54716284735 181 181 179
13.3250490803927 616.413957854124 2819.53968361674 178 178 176
10.3442297587701 616.527876596832 2812.43896010373 157 157 155
7.34487606004475 616.640263976385 2805.32479286856 138 138 136
5.80230603198384 617.036755839888 2796.79775051536 167 167 165
4.23243914103333 617.431006481166 2788.25090873148 177 177 175
3.36836118742267 617.96549839275 2778.98138213104 145 145 143
1.01038761498717 618.21272997916 2771.09781142044 146 146 144
-6.47206146899015 617.463261303716 2768.13990144789 176 176 174
-12.4935254651657 616.998098472705 2763.77245755121 172 172 170
-17.0672493448412 616.816258111461 2757.98587318706 170 170 168
-18.7617418960571 617.199994477686 2749.34863434553 185 185 183
-20.4836002274047 617.581424294807 2740.69154578284 187 187 185
-22.9506480072756 617.819301473178 2732.72856299257 172 171 169
-24.009558667075 618.337352580757 2723.31771472956 189 188 186
-26.5271415416413 618.570907235991 2715.31837055326 203 203 201
-24.8003468588647 619.647018166965 2702.98903075517 166 166 164
-22.4141776244606 620.859740131382 2689.90363545094 159 159 157
-17.2545884093029 622.629676027415 2673.89083840605 180 180 178
-10.7574358480986 624.674367308973 2656.37898800751 179 179 177
-0.828612159014197 627.412991292273 2635.18257205097 170 170 168
13.8992369789497 631.122825893302 2608.82385159639 174 176 173
41.0570876449641 637.337228089818 2569.25675341382 173 175 172
59.6530406167721 641.860053472642 2538.29570768418 174 176 173
61.4438727105586 643.024775106163 2524.77820217344 133 134 129
55.5757238756778 642.653424181409 2519.28733825569 134 135 130
53.1480070039398 642.976745555663 2510.11826344259 137 137 135
54.8145329854739 644.130859313454 2496.51059204726 153 153 153
56.4270059478469 645.280425300808 2482.86400790646 153 153 153
53.8904683526549 645.594273800892 2473.6159986466 179 179 179
164.644150647782 622.175402755925 2907.03118079609 203 207 208
156.296729366987 621.281858737275 2904.68083535485 196 198 197
150.333254321631 620.821871608513 2900.35545510212 161 163 160
142.004169884263 619.929932566309 2898.01841055954 160 162 159
137.6180612842 619.758112936668 2892.36758879544 155 155 153
128.519176937729 618.723823828058 2890.70681546845 158 158 156
119.436910602612 617.690831578259 2889.05838993841 154 154 152
111.930707930366 616.945861057391 2886.08328326684 152 152 150
104.432310987638 616.201503374136 2883.11413271635 158 158 156
95.3917839706122 615.171852244308 2881.49568735516 151 151 149
86.3679634512131 614.143554527103 2879.88935974593 147 146 144
76.5901524632575 612.973958867605 2878.97106375939 150 149 147
68.3705061082156 612.090825786743 2876.71339782213 157 157 155
61.6959653947973 611.493306463937 2873.10689089325 160 160 158
57.3174024381773 611.322337090827 2867.46154343384 148 148 146
53.6910995643778 611.292565709753 2861.12720392895 162 162 160
47.7714735398194 610.836339944047 2856.83362981923 184 184 182
41.8509808957879 610.380043972498 2852.53942712294 170 170 168
35.929578438326 609.923584680193 2848.24456405624 140 140 138
31.5135627659782 609.749591577802 2842.57234548515 151 151 149
29.3408873833094 609.998053076308 2834.82281313949 164 164 162
25.6477120240026 609.962834406217 2828.43996875114 193 193 191
21.9403851810096 609.926409564311 2822.04685954076 182 182 180
15.9858685045924 609.467088419524 2817.72797677419 136 136 134
12.2567909895386 609.428792401357 2811.31938503659 144 144 142
10.7335882920863 609.810065222561 2802.80630538722 161 161 159
8.4454134423475 610.04914010424 2794.97299746794 171 171 169
6.13409335080828 610.28620096205 2787.12319534454 157 157 155
2.33313996439399 610.241892606898 2780.66217432319 153 153 151
-1.48191841070311 610.196411718451 2774.19092235542 162 162 160
-6.76926493485719 609.87082776613 2769.12132624639 178 178 176
-10.6082882283891 609.823196348673 2762.63269070495 176 176 174
-13.0122748060346 610.052411238301 2754.71537844977 178 178 176
-16.1618098799021 610.140713360467 2747.49221953415 184 184 182
-17.8894361464157 610.504947642258 2738.83086257339 177 177 175
-20.3625868363884 610.728271106749 2730.86367641294 196 195 193
-21.4269753008973 611.226421480834 2721.44846189423 211 210 208
-23.9505692982469 611.445419499607 2713.44468639451 194 193 191
-21.5174360559227 612.628777896613 2700.39289309261 160 160 158
-19.1383607843301 613.807677737773 2687.30218390762 175 175 173
-11.8643853814493 615.94607863141 2669.11861251668 177 177 175
-6.08470228366786 617.802623751044 2652.32073682435 175 175 173
5.94203895641199 620.889260567847 2628.9415044613 166 166 164
22.7553923386798 624.926875235986 2600.39116092333 176 178 175
50.5923354346827 631.14507140496 2560.08103944681 172 174 171
64.2936829128331 634.609324128367 2534.212273218 165 167 164
63.2978991635125 635.193179656114 2523.61248368275 122 123 118
60.1914997516535 635.36450549969 2515.18568415438 125 126 121
58.4405296306318 635.806298663307 2505.27276095713 151 151 149
60.7803206551312 637.062321963664 2490.91863332237 151 151 151
57.5826752874411 637.225568813339 2482.42564673163 149 149 149
48.9004651202198 636.300273015539 2479.83244485286 174 174 174
166.663939074713 615.049058895956 2905.98890445919 203 207 208
160.690185644578 614.587791024785 2901.65606669877 172 174 173
154.715801371031 614.126561663985 2897.32277182156 157 159 156
144.010206941223 612.817828852517 2896.96623769023 155 157 154
137.261393376494 612.216622609233 2893.30587011139 158 158 156
126.595904170094 610.911138768127 2892.97842556907 153 153 151
117.519835914717 609.88924280073 2891.33425488714 157 157 155
109.240191203426 609.009254855126 2889.03311079175 162 162 160
103.305274707783 608.551431927847 2884.72844420328 151 151 149
94.268358220591 607.53262843296 2883.11296561465 145 145 143
85.2483828043997 606.515216867286 2881.50948054331 155 154 152
74.7033187634614 605.219249832342 2881.26938297793 157 156 154
69.5647665605508 604.90343925609 2876.30740607485 157 157 155
63.6543063417445 604.447627431886 2872.02047855002 154 154 152
58.5072866804621 604.131111383543 2867.05265430933 187 187 185
52.5929299750718 603.674924156656 2862.76290023673 184 184 182
47.437532992213 603.357729451839 2857.78899965933 157 157 155
43.0347393197263 603.178942226626 2852.12604723791 142 142 140
38.6220321725554 602.999362257783 2846.45619878874 171 171 169
34.1998342024468 602.819032939967 2840.77917196687 187 187 185
29.7680087776016 602.637893819042 2835.09516189578 194 194 192
26.075212477922 602.594102747621 2828.71254887494 129 129 127
23.1150884434141 602.687174621057 2821.62672222371 147 147 145
17.9027485071281 602.365127926706 2816.61151790786 181 181 179
14.9121035099928 602.455667517975 2809.50355313297 172 172 170
13.3832773139537 602.819756504824 2800.98630984995 159 159 157
11.8270596144963 603.181566730603 2792.44919833917 150 150 148
9.50779147329506 603.404023168526 2784.59326605366 159 159 157
3.49785406418368 602.939435656724 2780.23418094004 176 176 174
-1.05049581615924 602.748299547519 2774.46594364471 178 178 176
-7.06682337608289 602.282955386975 2770.10222234182 181 181 179
-7.9956066782445 602.772953757129 2760.78556408477 180 180 178
-10.4055578836697 602.987645648818 2752.86385438177 173 173 171
-12.1160107420675 603.336542899936 2744.21486910597 179 179 177
-15.2945538390812 603.411173595741 2736.97061240684 192 192 190
-20.6461144125483 603.076683472749 2731.85442105156 162 161 159
-23.8553080540598 603.148502541641 2724.58793087717 156 155 153
-24.2280289527832 603.760747410791 2714.43966221973 175 175 173
-18.9449783597813 605.452383696454 2698.51596835947 178 178 176
-15.1520943797274 606.867994866188 2683.98099053354 183 183 181
-7.88629908073291 608.953367626166 2665.79122061277 174 174 172
-2.1150773608658 610.762388128714 2648.98697036547 173 173 171
10.6071388920776 613.911510510855 2624.87718255391 176 176 174
35.1176512411771 619.336790627182 2588.32741626333 175 177 174
61.5281409477406 625.149539859782 2549.45124787251 165 167 164
72.416281456722 627.995314345334 2526.48073063157 141 143 140
67.9280209097621 627.885408971787 2519.52113371985 146 147 142
64.1170909960152 627.907853381815 2511.81818198765 160 161 156
60.2877508178636 627.928616765286 2504.10158127013 146 146 144
59.8758175237739 628.614695849435 2492.69051854313 145 145 145
56.683183057777 628.764338713367 2484.2010955551 153 153 153
168.683894254162 607.911088859214 2904.9469845929 202 206 207
162.705923823991 607.44912090112 2900.61108629308 164 166 165
155.936569465824 606.848550761374 2896.93583147671 156 158 155
145.227777719798 605.555600146015 2896.57705948255 153 155 152
136.117567747378 604.541512974067 2894.9081782944 160 160 158
126.239775444876 603.390523198458 2893.91749796171 152 152 150
116.38340174732 602.241288082248 2892.9420588435 160 160 158
110.447110488215 601.782965448998 2888.63639312855 164 164 162
104.510095395693 601.324614049076 2884.3302025456 149 149 147
97.0213424761299 600.59122395974 2881.36809870634 148 148 146
86.4476071839908 599.3090650638 2881.10728668004 155 154 152
76.6706353624427 598.166083153616 2880.18943935 157 156 154
70.7588966712276 597.70977942409 2875.90158254164 158 158 156
65.6128671383049 597.390236908797 2870.93446073647 169 169 167
61.2261853999443 597.20695977986 2865.2831654577 176 176 174
55.3052509132064 596.749911088343 2860.98863864754 148 148 146
50.1434296476568 596.429089266592 2856.01006259844 130 130 128
47.2498888819479 596.516263546288 2848.97247370726 180 180 178
43.5823562769007 596.466035494123 2842.60814227323 183 183 181
38.3938595365705 596.143012431137 2837.60992297644 167 167 165
33.1998820110222 595.819495977987 2832.60802251939 131 131 129
28.7497975660944 595.630992907008 2826.91073879512 167 167 165
25.7835587061961 595.712247958414 2819.82041952194 177 177 175
22.0542619929986 595.656896837046 2813.41128801845 166 166 164
18.3107191555867 595.600302005016 2806.99182289585 152 152 150
15.2933513972808 595.677385173538 2799.86441806166 146 146 144
12.9954249464923 595.887481344386 2792.02418869281 168 168 166
10.6746730125038 596.09571803816 2784.16710874843 173 173 171
4.66244607493183 595.63055671422 2779.8063610003 182 182 180
-0.619364025649993 595.299327404804 2774.74074976802 184 184 182
-4.44786226018024 595.235461903359 2768.25966183764 171 171 169
-5.38225834832717 595.705469347685 2758.93883349427 160 160 158
-7.79812273495972 595.905582665364 2751.01276335666 165 165 163
-10.2371389654852 596.103800911961 2743.07019483145 197 197 195
-13.4196062664429 596.166792250504 2735.8230344375 197 197 195
-18.7753809321247 595.828843702278 2730.70347620221 165 165 163
-23.4206424322072 595.623225107598 2724.86491224889 174 173 171
-24.5062596323309 596.080474132959 2715.43439587033 178 178 176
-19.2186237890788 597.728271451786 2699.51380390282 174 174 172
-13.2928887422419 599.502840259881 2682.82109468206 171 171 169
-6.73606152700712 601.403394650743 2665.35177363199 175 175 173
-0.259570073973148 603.29753056466 2647.8241829626 176 176 174
18.0853070365807 607.427612210467 2617.91417428766 183 183 181
50.9883362529311 614.311596732009 2572.63409374623 172 174 171
74.5635899796238 619.465787345674 2536.64000202828 162 164 161
77.0610013229414 620.663275406255 2522.39984023388 135 137 134
70.477647518929 620.150113866105 2517.62482730125 146 146 144
65.9687844852694 620.029757120537 2510.65024226899 159 159 157
62.8250241113872 620.169737741125 2502.19620021219 142 142 140
61.7202483848986 620.699716866553 2491.5171271721 158 158 158
57.1532668185482 620.573905073991 2484.50038314428 157 157 157
172.295182762235 601.034357715296 2902.58931723132 207 208 210
166.308514497035 600.571386416487 2898.24710860314 161 161 161
158.739180852753 599.836427126449 2895.22658212855 158 158 158
146.445492622999 598.287289246065 2896.18795494638 157 157 157
135.759497641222 597.012216278849 2895.84550488993 168 168 168
125.098881506062 595.739179767711 2895.52175729307 178 178 178
116.028292063938 594.738817212052 2893.88166739077 163 163 163
109.314131027892 594.145088586009 2890.24675252212 152 152 152
102.603858673649 593.551784115814 2886.61436431332 153 153 153
96.6725927050351 593.093539996153 2882.31234193638 149 149 149
86.8735607857238 591.962104201194 2881.37885573105 158 158 158
79.4094173116275 591.235715873493 2878.43433279228 165 165 165
73.4911024895881 590.77852094114 2874.14170429222 180 180 180
68.3386968195006 590.455355209238 2869.16994193685 163 163 163
63.1809951415199 590.131760441633 2864.19433821919 141 141 141
55.730963258199 589.406425694439 2861.26005041032 169 169 169
51.3294453358579 589.216072261722 2855.59825869931 192 192 192
47.6764000801677 589.158384865127 2849.24439167095 145 145 145
45.521026844408 589.366098768874 2841.50719562624 147 147 147
40.3281324372253 589.039623125816 2836.50606535592 155 155 155
34.3784382857009 588.57967701447 2832.19067537499 166 166 166
30.6756138568627 588.517897205881 2825.80070163281 166 166 166
27.7056176518391 588.587556289358 2818.7075998441 159 159 159
23.2275039460368 588.390838026046 2812.98995549888 157 157 157
18.7396199994421 588.193268520453 2807.26522418589 167 167 165
15.7227847994212 588.259013635341 2800.13814798509 172 172 170
14.9021636263269 588.718940864333 2790.89974644745 175 175 173
13.3137622278476 589.044567827429 2782.33912101105 182 182 180
8.76244018550931 588.841630511716 2776.56866935662 168 168 166
3.46991469613922 588.506445971446 2771.49497579929 163 163 161
-0.369277949812119 588.433110994021 2765.00608729708 162 162 160
-3.49540611049504 588.489613825427 2757.79973548268 203 203 201
-8.09032489233674 588.282726480903 2751.99765961371 198 198 196
-10.5262572449083 588.467114529152 2744.05696212774 174 174 172
-13.7060254388977 588.518943328665 2736.81170183357 145 145 143
-17.6227524688235 588.438819379021 2730.26657261426 171 173 170
-23.7024242819179 587.966760416433 2725.85689769862 176 176 174
-21.9288098101229 588.924797247851 2713.5611949732 175 177 174
-16.6454267217424 590.528099366677 2697.63729471596 178 180 177
-7.1756972729129 592.903847467855 2677.34127013842 178 180 177
0.781066383854778 595.012656583511 2658.41748000676 174 176 173
10.7644009700234 597.502382780979 2637.25931944648 185 187 184
29.0814478714574 601.533962583201 2607.32863712776 179 181 178
63.3615683627444 608.520317620484 2560.57728470857 163 165 162
79.9198833459411 612.265616206347 2531.84057775375 156 158 155
81.7073795286425 613.297436324139 2518.31998079748 146 148 145
75.1105888563082 612.782827784911 2513.53521986292 149 149 147
69.8968241521216 612.524542040615 2507.28397455797 140 140 140
67.4321134672526 612.777754685446 2498.08802150273 152 152 152
64.9401320906167 613.028598382198 2488.87199286482 154 154 154
63.1060196543927 613.404748689275 2478.89846553493 176 176 176
64.6558069237737 614.416266217317 2465.20544547782 215 215 213
176.318196431563 593.662851993026 2909.17375193045 205 206 208
171.134309067954 593.333551263943 2904.17913674863 202 203 205
163.56547011472 592.603620657965 2901.1589943574 158 158 158
157.587006395269 592.14095555597 2896.82273493048 163 163 163
147.663443438146 591.012893230088 2895.79869612849 163 163 163
137.760833240266 589.88644905403 2894.79014910209 161 161 161
127.879638346287 588.761819013764 2893.79684119845 181 181 181
119.584158025344 587.903997654638 2891.4843298098 153 153 153
112.861288889503 587.311972841535 2887.8428164069 150 150 150
104.586174126185 586.4558013197 2885.54507680234 148 148 148
97.8747681293379 585.864715507073 2881.91217250678 154 154 154
86.5257399196699 584.482538121462 2882.32386411483 159 159 159
81.3774089926715 584.156536066988 2877.35504126115 158 158 158
73.1473588898059 583.303915311125 2875.08969349899 152 152 152
69.5311948074591 583.240563206056 2868.76282820443 139 139 139
62.8420291905516 582.651238881951 2865.14576088019 176 176 176
57.6814211543466 582.324242244712 2860.16803305028 179 179 179
53.2760319195069 582.127739812151 2854.5031093193 154 154 154
50.3771944588038 582.191842094523 2847.46156387666 150 150 150
46.7039219774854 582.123912957684 2841.09298182435 159 159 159
43.0165893519634 582.054874664269 2834.71420165534 167 167 167
37.8118833147143 581.724245853336 2829.7044878457 162 162 162
34.8502097879329 581.783277227119 2822.6170710356 155 155 155
30.3753593149922 581.581008658457 2816.90205864115 157 157 157
25.8908768835804 581.377919563455 2811.1797652013 159 159 159
22.1394724656929 581.303511508864 2804.75451082376 163 163 161
19.8549413061788 581.486613254552 2796.92385525534 168 168 166
15.332385666603 581.280260573639 2791.17394520366 190 190 188
14.4810213933178 581.718131169183 2781.9131456154 176 176 174
9.92789994663479 581.509182829384 2776.14106461032 150 150 148
6.82850802964463 581.556679501259 2768.95404885158 166 166 164
2.25118544062886 581.345571854057 2763.16470746165 192 192 190
-1.60835314424346 581.261955647379 2756.66101767765 171 171 169
-5.48211047952152 581.177038203809 2750.14701382702 148 148 146
-10.0930025716333 580.962901975024 2744.3330273705 167 167 165
-13.2722639306238 581.003420508939 2737.08807720312 171 171 169
-16.4701045111961 581.042344302981 2729.82965048383 175 177 174
-19.686384380506 581.079674334895 2722.55755418089 175 177 174
-17.9222063411031 582.006447492395 2710.25485242757 174 176 173
-12.6474331777247 583.564901431848 2694.32448348709 177 179 176
-1.76601234931395 586.13325811665 2672.58272645964 177 179 176
8.30113303546831 588.566355863663 2651.48503530162 174 176 173
21.7927794400619 591.624339041489 2626.69723108319 163 165 162
45.0041217498458 596.442642382009 2591.67296198384 169 171 168
73.6371651624523 602.256472327061 2550.70257131558 156 158 155
83.8807094943159 604.773960443346 2528.4981463435 131 133 130
84.2656850035874 605.519918372158 2516.42975200687 135 137 134
78.356409206227 605.130180263353 2510.90898114161 143 143 143
74.5180801563174 605.116500422666 2503.18598421443 152 152 152
72.7311155915906 605.477401597718 2493.24626366588 155 155 155
70.912055668741 605.835474073941 2483.2835566564 175 175 175
68.3754996494681 606.065660226668 2474.03540475127 180 180 180
178.343103840136 586.499264710556 2908.13529228434 206 207 209
173.950733391723 586.297364612844 2902.47977880924 188 189 191
167.962085928022 585.833456307287 2898.13613067171 166 166 166
160.390265284802 585.108451991181 2895.11385174241 156 156 156
151.248312745433 584.123427667451 2893.42210689912 161 161 161
140.549524279955 582.879411072514 2893.07083435697 193 193 193
129.876161603932 581.637364634356 2892.73800349145 149 149 149
121.575869253541 580.786950015062 2890.42204127655 158 158 158
113.288088585731 579.937568495122 2888.11485980321 157 157 157
102.678281305471 578.700611008996 2887.82812737695 156 156 156
95.9732943593918 578.112375219861 2884.19989082421 165 165 165
87.7245724697611 577.266018895389 2881.92133369296 174 174 174
83.3458937869263 577.06576567772 2876.27575401269 181 181 181
76.6495685318467 576.478221223777 2872.65350552934 128 128 128
71.4909118840041 576.148305864276 2867.67717751859 156 156 156
64.0321402375825 575.432400033854 2864.73689630528 166 166 166
58.8697237349547 575.102169725807 2859.75754662327 143 143 143
