ply
format ascii 1.0
comment KinectMotionCapture
element vertex 798
property float x
property float y
property float z
property uchar red
property uchar green
property uchar blue
end_header
208.964642195122 301.00203415544 2964.60363819235 27 30 23
217.495507739651 301.845845022178 2978.67988601314 29 32 25
231.148313158473 302.768833540228 2996.16040099059 26 29 22
237.281015222634 303.552789229161 3008.37584137274 24 27 20
234.147285824898 304.176139126519 3014.22936878256 27 30 21
219.985592342748 304.619171480347 3012.63964374933 24 27 18
204.080271400416 305.040201959001 3009.95046194973 27 30 21
193.242661183082 305.547084370628 3010.71841119777 22 25 16
193.490877234442 306.227109520013 3018.87355315966 16 19 10
188.622958214701 306.827092550551 3023.61879147744 19 22 13
177.745046878669 307.338773752325 3024.42571323102 24 27 18
168.56237724202 307.87841090547 3026.37959735886 25 28 19
179.198818269662 308.69893171443 3041.2022384946 15 18 9
158.785768482701 309.083162950643 3035.90985255557 15 18 9
144.368556731529 309.557331261216 3034.56925905992 22 25 16
141.197417219287 310.184851836284 3040.45931884213 25 26 20
138.035076172386 310.811264929291 3046.34114314554 24 25 19
147.963623093699 311.600555874756 3060.45444003593 23 26 19
151.839870948585 312.306835907217 3070.67098743737 25 30 23
121.590292122546 312.600694825 3059.57242337107 24 29 22
84.2058675769977 312.826600371562 3044.2329598295 19 24 17
88.0341570243264 313.538823127876 3054.49625230661 198 203 197
149.698199910884 262.17139111219 2571.50042544479 195 195 195
157.155771477229 263.31939230893 2588.01442017191 196 196 198
159.294730174517 264.274479243673 2599.9193478372 202 202 204
157.616886315658 265.093885675855 2608.54958595189 199 199 201
151.319458074845 265.755421481222 2613.28800342527 182 182 184
144.24387988474 266.39156384036 2617.38631696601 192 192 194
132.498122841562 266.876110614234 2617.64212347478 215 215 215
113.710259089101 267.138074504625 2612.17088415686 133 133 131
146.883556730072 277.396265182285 2744.92061490829 17 18 13
204.136636734399 279.791782504178 2798.24043868385 9 10 5
206.996025074978 280.653969184095 2809.44369968054 19 22 15
205.863381147953 281.402328271263 2817.54270912795 21 24 17
203.942789518543 282.126542112569 2825.01082163092 19 22 15
184.214347685407 282.380594831328 2819.0578502014 15 18 11
176.024411198102 284.487818062254 2839.63232891498 10 13 6
185.588896156243 285.49152081783 2855.49236406245 4 7 0
197.683972002315 286.546567801274 2873.08330003188 33 36 29
204.930150291634 287.472313656469 2887.00590417303 26 29 22
198.231158827542 288.057588863257 2890.73744182877 9 12 5
193.17681230577 288.68228290358 2895.66415313552 16 21 14
217.091522532713 289.975703914417 2921.32086767733 17 22 15
216.254866189725 290.685984173121 2929.13192295451 16 21 14
219.596107362523 291.486776990119 2939.86577095184 14 19 12
207.140863338065 291.933144737485 2939.41484204689 15 20 13
189.639252691245 292.274620681457 2935.48840116939 16 21 14
198.038215797625 293.178519971483 2949.68674901842 17 22 15
202.303713026007 293.986172709423 2960.91903035593 17 22 15
213.342156738626 294.927891930437 2976.74147312814 21 26 19
219.396346651571 295.757126619426 2989.02818502064 22 27 20
221.276297274141 296.495195923996 2998.3885680085 25 30 23
220.646810639267 297.179106827391 3005.99746024019 22 25 16
212.397037554446 297.71211472957 3008.44285341944 23 26 17
191.369114226885 298.003219948518 3002.35756282069 22 25 16
172.827078123692 298.351244329314 2998.04640262786 13 16 7
171.319401368214 299.022078595514 3005.11271187689 15 18 9
179.251442303468 299.86167015262 3018.36697783935 20 23 14
172.645804897506 300.434057893639 3022.00805613915 21 24 15
170.335836744392 301.082478045049 3028.45678040075 16 19 10
172.351035107631 301.803423511875 3037.68539127853 17 20 11
160.566914569979 302.287248801902 3037.97939993943 23 26 17
153.951031876122 302.860780702185 3041.63048285532 23 26 17
150.801139472739 303.491534366434 3047.49896609517 21 22 16
148.530114043419 304.135091099652 3053.91007630945 18 21 14
136.677880458551 304.62728369275 3054.27082339138 18 21 14
138.780580633714 305.337314399193 3063.41381903123 19 24 17
108.502796637266 305.557083528896 3052.35455139641 26 31 24
82.5032502643226 305.855038376227 3044.11992133116 29 34 27
91.6066702710028 306.671205861694 3057.6316997868 29 34 28
154.355859532003 254.584344561849 2576.49879434519 200 200 198
160.289692075545 255.718668147186 2591.69374951451 198 198 198
161.666794881036 256.671102198089 2602.93869412001 203 203 203
157.680645271046 257.417246806782 2609.62087623897 205 205 205
150.609876149304 258.047901531752 2613.71488753167 210 210 210
144.307387813443 258.707526545053 2618.45895001046 149 149 149
131.784593823908 259.142714450797 2618.07675159512 95 95 93
108.320499417368 259.192283931052 2608.77833865485 138 139 133
180.563026525236 271.02641083633 2771.93244850824 40 41 36
203.391991048735 272.550805145436 2798.63284898923 32 33 28
205.444752395629 273.416042019115 2809.21974237976 37 40 33
201.08288666659 274.080985275196 2814.86977052379 23 26 19
237.946037059961 275.980198201781 2851.66810439782 15 18 11
173.91453878979 276.45168260433 2830.16200333178 11 14 7
176.0813367986 277.30192417213 2840.63787293091 15 18 11
186.463208409726 278.377732360283 2857.09248321504 2 5 0
196.919885694966 279.44418551993 2873.47453087006 40 43 36
201.698432963351 280.343558069402 2885.60069910321 13 16 9
197.462957283556 280.991712803536 2891.12770139616 7 10 3
232.865903914215 282.697759291174 2925.15352331251 13 18 11
216.318495857159 283.005818216031 2921.70173133821 14 19 12
215.479546637066 283.730302467079 2929.51262629039 15 20 13
217.98705666888 284.537503417448 2939.65652519849 18 23 16
191.359477072199 284.601835989459 2929.24625204327 20 25 18
188.858395310359 285.28326978722 2935.88021338299 20 25 18
201.441557044785 286.334146010733 2952.98675144455 20 25 18
203.196710687453 287.109899103219 2962.46549003089 23 28 21
189.842094560871 287.51913121383 2961.4962302317 26 31 24
189.939793922692 288.251375059471 2969.79311959084 24 29 22
195.977036119833 289.118171799834 2982.09110916088 20 25 18
213.076548765522 290.231062118197 3001.78890062007 22 25 16
206.507180698752 290.794261517746 3005.39498312075 19 22 13
188.86950595918 291.111995621414 3001.60716493238 17 20 11
161.793918409148 291.230993423084 2991.63369080054 13 16 7
155.987154818917 291.823908184363 2995.89535102488 16 19 10
159.600788317882 292.617619960553 3006.35975599037 22 25 16
173.557239845544 293.622301139319 3023.52667175344 21 24 15
153.17784979136 293.90631556199 3018.21533536146 14 17 8
137.904731030028 294.303902726281 3016.31907952179 15 18 9
132.094315704146 294.89704026726 3020.58399520488 22 25 16
149.672011109473 295.950488356537 3039.8157296504 24 27 18
178.638457978266 297.209771178917 3066.12901575068 22 23 17
171.20789216549 297.754963801107 3069.1760324201 19 22 15
117.543727333447 297.436512872796 3043.15974320244 18 21 14
113.485640059313 298.061274729644 3048.51439148532 17 22 15
102.423928342297 298.55874065392 3049.5059307461 25 30 23
99.2374580748612 299.199915672836 3055.409533916 30 35 28
94.2996353338987 299.80931560863 3060.22279584783 17 22 16
152.889971587734 246.77117420282 2576.27506943312 190 190 188
158.819623343802 247.946862459483 2591.46840034784 186 186 186
159.422995785524 248.892772724909 2602.06538769534 193 193 193
157.744623005044 249.739902215685 2610.69205358106 194 194 194
152.993421207877 250.459293632658 2616.72065078178 201 201 201
146.696672969565 251.115836262397 2621.4594688338 195 195 193
133.402716022628 251.495543884955 2620.43433727894 208 209 204
148.917878800032 260.903775927492 2729.75106970839 13 14 9
181.422458037431 263.739876895252 2773.57287616393 19 20 15
196.228796033192 265.082699989046 2794.09693066834 21 22 16
191.829039295034 265.755648552139 2799.78340196367 38 41 34
176.952421702519 266.074781538676 2797.50467225322 25 28 19
167.978822131953 269.855836338479 2835.61421159886 34 37 30
201.2426699266 271.705919732022 2868.90874521184 24 27 20
202.715138357122 272.539627783707 2878.65929083304 27 30 23
204.21976856385 273.369268294563 2888.37883835779 17 20 13
217.28843673388 274.544776825213 2906.40175006884 20 23 16
231.269128771206 275.734274634808 2924.93418814788 20 25 18
227.959998361226 276.397694328727 2930.95630689932 24 29 22
219.682197294822 276.914289397773 2933.43195808818 25 30 23
210.558061633627 277.408584526902 2935.33408080246 25 30 23
207.249699224961 278.07161255792 2941.35549480485 25 30 23
212.303606648482 278.969102478687 2953.20850458507 30 35 28
209.868924555325 279.650758545327 2959.77615937899 28 33 26
202.411591511202 280.192354242908 2962.85062577071 24 29 22
184.008083880839 280.43827990037 2958.41699490326 17 22 15
179.033390151055 281.053271511385 2963.26604382489 16 21 14
184.199993358279 281.936390469384 2975.00893120597 16 21 14
204.659679186971 283.211791326461 2997.01397714817 14 17 8
212.502704475804 284.14445515565 3010.34321876425 18 21 12
194.878829726683 284.420527655721 3006.54785454817 21 24 15
176.345350359286 284.682206105216 3002.24129712314 18 21 12
169.716633620648 285.247653864515 3005.90598142573 16 19 10
168.220998681214 285.939494455885 3012.95689040574 16 19 10
169.317436125171 286.691320185184 3021.67603320913 17 20 11
149.789326502539 286.948936710675 3016.94051152176 23 26 17
138.820974585328 287.416590392154 3017.84408719968 30 33 24
133.87693962791 288.027289453771 3022.66332594406 31 34 25
173.982133921487 289.66394546921 3056.28106809578 24 27 18
209.947690930387 291.178182478435 3086.94240246933 28 29 23
143.414799247373 290.397826032337 3052.51822754948 25 28 21
118.469601178419 290.563983486116 3044.67334078914 28 31 24
108.294952897209 291.06027552771 3046.20143360402 25 30 23
111.237338773574 291.837403928598 3055.91760123753 23 28 21
125.628058305117 292.848106100929 3072.65239255287 29 34 27
111.949865122288 293.270223243776 3072.00254515173 18 23 17
155.251526203068 239.121150980886 2579.31174667634 206 203 198
159.651740917251 240.267663524708 2593.19398686307 208 203 199
159.487531567842 241.200807225019 2603.13817185113 206 197 192
158.580049055622 242.096065530265 2612.40912820458 212 203 198
155.377100731171 242.886207067928 2619.72398645999 204 195 190
149.085882724843 243.539677324491 2624.45742916332 193 186 180
133.466724710968 243.791526739795 2621.50942607476 182 177 171
145.59913530407 252.434037758747 2718.71110079949 3 4 0
152.164782930281 253.568792384443 2733.27892838619 15 16 11
177.95307262319 255.435904647315 2762.65833461806 8 9 4
194.288684303296 256.916881992597 2784.4771972445 20 21 16
183.449597533927 257.35284888454 2785.25709401337 16 17 11
170.171253552319 257.701649293143 2784.22102662587 23 26 19
237.393035171132 265.077705853541 2887.83681557523 20 23 16
231.56161770215 265.670735960027 2892.12294041765 12 15 8
215.069308641303 265.897710223832 2888.6284186031 14 17 10
225.642237900183 267.053160429781 2904.8818726052 17 20 13
228.052443151424 267.922263499243 2915.11290965068 22 25 18
232.149998614956 268.841767278047 2926.49542810833 23 28 21
237.118445738367 269.782992697258 2938.42649930034 32 37 30
231.350595722987 270.36753736556 2942.65075486569 33 38 31
234.725799318413 271.246487098965 2953.33932611718 31 36 29
226.473008754868 271.749476972232 2955.79215234897 31 36 29
221.546946571882 272.359222336446 2960.59368481871 30 35 28
213.272665471663 272.864715042439 2963.06748155352 27 32 25
209.179759331005 273.500837730096 2968.45468851776 19 24 17
199.203544203051 273.957534077402 2969.79158650439 17 22 15
192.577587441797 274.518095002356 2973.45459022262 18 23 16
188.479560003461 275.15464217786 2978.84681997203 21 26 19
207.254339084085 276.460668746325 2999.68632027836 22 25 16
209.160514363812 277.261536070651 3009.01138027409 24 27 18
198.335990270745 277.693278868382 3009.77744040941 25 28 19
185.779642455908 278.080008120494 3009.43572360645 20 23 14
185.155047223203 278.804993345247 3017.03368783672 22 25 16
184.550857369683 279.527437336435 3024.61210265902 20 23 14
171.088291821821 279.89655758592 3023.7559667465 24 27 18
160.16938368522 280.339756725841 3024.61405838992 28 31 22
158.710933300427 281.038187401325 3031.62706854593 35 38 29
147.76081878428 281.485187921377 3032.51558674323 36 39 30
166.238427057239 282.698063790272 3052.24704036956 29 32 23
167.456625184156 283.454087816764 3060.84465250832 27 28 22
149.55935348324 283.723718427635 3057.32206545734 28 31 24
115.907249543347 283.609523068271 3043.99459425875 34 37 30
113.593175492765 284.284113977113 3050.4438655527 32 37 30
113.043155617794 284.999668308656 3057.96916923222 27 32 25
130.94876529471 286.153700816787 3076.86041362542 30 35 28
104.085233054692 286.236484289424 3068.09862721571 31 36 30
106.223379773746 287.008343803255 3077.19762348475 48 53 47
157.613129979561 231.486689331598 2582.34607510815 201 192 183
158.949483597643 232.518369537732 2593.619771712 157 143 134
159.552243073108 233.508200399782 2604.21087629905 166 144 133
158.644503216589 234.420031903194 2613.47963868774 162 138 128
157.760871663521 235.328706234237 2622.72492780342 165 143 132
150.70029853389 235.942669986475 2626.81128124371 157 140 130
136.639237993298 236.231579228715 2625.14440554047 154 140 131
152.811762685564 245.250120295425 2725.36383243661 32 33 27
157.801360505109 246.356120871477 2738.66679413818 27 28 22
175.61771796768 247.992133696484 2761.82649661441 23 24 18
180.741160057925 249.081231591103 2774.99904718553 39 40 34
172.643623099472 250.485273707883 2787.08357007233 10 13 6
249.688477858842 258.563163917819 2897.84543465511 21 24 17
236.525157456327 258.870249663207 2896.70131256222 18 21 14
248.738193528327 260.139237970515 2914.1431540073 18 21 14
254.459619614821 261.152788316559 2926.733063525 21 24 17
229.755598221016 261.035066266598 2917.27373270996 23 26 19
230.554057747144 261.86364163231 2926.27742842794 29 32 25
231.380536481775 262.688640504963 2935.25382926178 33 36 29
248.82525630547 264.103670343115 2955.98107811875 33 36 29
249.746736497091 264.916753445727 2964.86524008902 31 34 27
236.528449357175 265.229898831559 2963.77480516671 31 34 27
224.107643123682 265.576602040175 2963.30440940156 27 30 23
212.48997230887 265.956179714871 2963.44853877912 27 30 23
213.430481350283 266.766598568891 2972.31419859503 27 30 23
200.940630624031 267.121637377725 2971.91113303377 29 32 25
193.475277691647 267.64882205723 2974.99535539328 30 33 26
188.534248662618 268.260542683441 2979.81145821953 28 31 24
198.838905498 269.36749285391 2994.92123182831 30 33 26
200.725576857086 270.192843814028 3004.26204083488 29 32 25
191.583297143825 270.662639699789 3006.18580183855 24 27 20
182.422732737929 271.134712881471 3008.12772107096 39 42 35
178.371659021846 271.768377688785 3013.47375109283 62 65 58
182.891372290788 272.664660454581 3024.44015482266 52 55 48
192.60590031434 273.712076644624 3038.72816268588 36 39 32
183.456309535332 274.182587815497 3040.65907796708 31 34 25
163.077042124223 274.322512896058 3035.36925397254 27 30 21
153.001062331415 274.775289635357 3036.80579906252 28 31 22
142.036404894319 275.20572524781 3037.71120688142 21 24 15
147.541351456993 276.112265219872 3049.11465269326 20 23 16
136.56092082882 276.544615582653 3050.0354405248 24 27 20
122.066088336638 276.882532922194 3048.79206340644 33 36 29
111.899379090782 277.346511675375 3050.31704853177 33 38 31
118.352991070481 278.267979488725 3062.19349639193 26 31 24
102.033187739606 278.567097629299 3059.93392032165 28 33 26
88.3033102616255 278.942702681566 3059.34227065631 35 40 34
60.4282439217876 278.951467542326 3050.17898316175 30 35 29
164.567015852135 224.109952523074 2589.28423950355 153 141 129
166.687823700341 225.204238533631 2601.18661766768 156 136 125
165.771132711543 226.133914427504 2610.46129342794 184 152 139
161.793957192735 226.901881325119 2617.13133881693 183 151 138
157.825307844241 227.668611199218 2623.79310042428 179 151 139
152.314918935809 228.355823721052 2629.16342835826 171 149 136
139.811856917708 228.692640786412 2628.77617497084 155 137 125
152.87330612565 237.78377820277 2726.40624099142 23 24 18
155.473000567674 238.815953368599 2737.84225764437 29 30 24
146.934287761607 239.335749704015 2740.57652490193 13 14 8
186.403797548581 242.016927891173 2780.33910635789 26 27 21
171.486125993872 244.006509665096 2796.27542473585 9 12 5
149.67071246183 244.820662672476 2797.98003958927 6 9 2
231.295364523628 249.170888314331 2867.90269994748 14 17 10
235.194917679479 250.175870188322 2879.46920399853 24 27 20
239.137841187455 251.17535335159 2890.99311551384 23 26 19
223.495815148047 251.35752279959 2888.07778153943 23 26 19
262.730780760756 253.795837326185 2925.27534533517 25 28 21
256.158691695938 254.340745601605 2928.8868332473 29 32 25
228.987980269006 254.058852447533 2917.65016072187 31 34 27
212.446210869178 254.216933983726 2914.21459822815 33 36 29
226.470682595334 255.588566215982 2932.67664304086 37 40 33
233.949426976951 256.689867569617 2946.3426964304 37 40 33
234.83561462738 257.526666217577 2955.25806142656 31 34 27
229.91623933767 258.136615289313 2960.05292360454 29 32 25
214.974122304499 258.366426855469 2957.85243747385 24 27 20
210.870674402409 259.01030780604 2963.24930373714 23 26 19
205.093454253719 259.59112286943 2967.48307737537 22 25 18
198.472327008932 260.141345100726 2971.14281336676 23 26 19
189.315028044947 260.600238166339 2973.08310014048 23 26 19
184.364215762389 261.213663877719 2977.90866587127 22 25 18
192.118194941768 262.280267511795 2991.30653534571 24 27 20
198.233347312712 263.2795194729 3003.50758213765 25 28 21
199.294899388955 264.093945288841 3012.25211436142 24 27 20
181.624374411991 264.255823518452 3008.51995237451 32 35 28
172.443521455415 264.717348572635 3010.4835774463 43 46 39
178.662669977789 265.70357861966 3022.58327915575 41 44 37
199.52781651027 267.172747506686 3044.15705779507 33 36 29
196.417064457759 267.828185705189 3049.98336356651 30 33 26
178.65419558753 268.001336794665 3046.34123430695 30 33 26
136.633290220571 267.395676505289 3027.22663823791 24 27 20
134.294612100575 268.090529076529 3033.69734707165 21 24 17
132.836466480939 268.811417938824 3040.70673528115 17 22 15
134.875190098104 269.639684121318 3049.89612327911 18 23 16
114.272176587302 269.759164966782 3044.83116627617 18 23 16
111.080176945639 270.424550870736 3050.73668183817 18 23 16
98.2615574805328 270.795959709562 3050.65766901141 21 23 18
103.843666148274 271.725796419351 3061.98138630659 22 24 19
62.2471664013275 272.013174284597 3052.23239944178 25 27 22
169.224539993338 216.652107304444 2594.26330919511 174 156 144
170.589439714259 217.729530986293 2605.50189823111 190 163 152
168.91323770172 218.63199442065 2614.11823017949 182 146 134
164.1723613178 219.362408639954 2620.13494492684 185 149 137
160.982446652518 220.176278415375 2627.43335354285 172 144 130
154.704704305181 220.821034264949 2632.15504054513 157 134 120
143.761476658548 221.216333752948 2633.04402352716 146 128 114
133.866539893344 229.370612513223 2712.51551452725 6 7 1
126.065062961295 229.926711329033 2715.92923949053 19 20 14
158.173624113334 232.431072573432 2750.27428783727 15 16 10
169.6562996297 233.906298081796 2768.41090634256 24 25 19
183.628647049852 235.486498681522 2788.31113220776 13 14 8
175.197694277467 237.778882567781 2809.09723914932 14 17 10
188.613963026238 239.289503756667 2828.14269600238 25 28 21
217.548699827298 241.496604946682 2858.59844932302 31 34 27
227.112596952962 242.794932800449 2874.41586057798 33 36 29
242.458249494288 244.341788218677 2894.37387403566 36 39 32
263.62685059478 246.132070012929 2918.43301393304 36 39 32
257.867943746448 246.709236557316 2922.6494792848 35 38 31
237.315085713361 246.637838972127 2916.14601958202 36 39 32
219.160384937596 246.682848453852 2911.49501515294 35 38 31
214.154099199609 247.304343656809 2916.37447417768 35 38 31
217.423937311085 248.278926349834 2927.15354040266 34 37 30
221.56291088983 249.283576739394 2938.48200758575 31 34 27
215.768656412852 249.864609725758 2942.73300219686 21 24 17
214.13803922165 250.618961424373 2949.90871143392 18 21 14
225.888358538018 251.921016537777 2966.38824088034 19 22 15
200.879526844739 251.711886055597 2957.24510132496 17 20 13
197.596610154954 252.395072646927 2963.23826792594 18 21 14
191.798917739737 252.97616878057 2967.4923292854 18 21 14
187.684600768685 253.624397875723 2972.89934604098 19 22 15
186.954605286102 254.404597312341 2980.59381364108 19 22 15
198.948419132975 255.676088751066 2996.83606671697 17 20 13
205.078722624018 256.709033101728 3009.01708850222 20 23 16
194.244881111548 257.086755686637 3009.8003851366 22 25 18
179.121384699276 257.306692268923 3007.78180877093 26 29 22
177.626315292108 258.043616944842 3014.82549276103 26 29 22
168.43848370119 258.492973209613 3016.79750841965 31 34 27
184.987339246311 259.889090976625 3035.58334030897 32 35 28
180.983103523232 260.523249228369 3040.88278658053 31 34 27
172.671866170687 261.001778823978 3043.39726655615 27 30 23
153.974348630377 261.112919199644 3039.27551308133 23 26 19
132.617113819764 261.140021873579 3033.55625311422 18 21 14
126.814363854932 261.721256060984 3037.81565413292 17 22 15
128.839113367083 262.573307053848 3047.01506539716 16 21 14
122.175583498171 263.123316997769 3050.71693919711 16 21 14
105.017696720275 263.319356118832 3047.88791809522 19 22 15
91.3099429766975 263.63933605432 3047.28252060254 21 24 17
74.0529534519538 263.847631071698 3044.54976073516 22 25 18
85.7743314278028 265.01464216998 3059.66107948928 30 32 27
86.9897029290412 265.829136316049 3068.252856651 30 32 27
173.882152736049 209.226169497816 2599.23791284449 173 151 138
177.560216940583 210.463413150467 2612.40693982668 182 154 142
174.362824322072 211.286982511445 2619.71134056627 185 147 136
168.864352051511 211.973724706191 2625.06990461683 176 138 125
164.139669575043 212.704986898648 2631.07041324463 166 138 124
158.644601638611 213.390975594439 2636.42570810788 156 133 119
144.603414841459 213.589250524362 2634.7524931954 152 133 119
152.410571398208 223.768942725651 2737.43926156951 22 23 17
173.404613071595 225.809879985074 2763.0516041079 18 19 13
165.715643836866 226.344011532867 2766.35685401719 24 25 19
202.943588422604 229.184534525791 2804.07072596655 13 14 8
183.69875839286 230.028403369797 2807.46938720945 10 13 6
197.884628793768 231.646948049468 2827.15157651805 10 13 6
221.885319735371 233.73604431589 2854.02221980161 20 23 16
223.290855481704 234.688771587792 2863.82163957889 26 29 22
243.44894951247 236.550838400037 2887.45670882252 33 36 29
267.807504379246 238.595144561013 2913.9786078962 37 40 33
253.869383242847 238.777933289537 2912.20499827081 36 39 32
257.924253527259 239.823645338867 2923.61125021506 33 36 29
248.053706102979 240.205118067536 2924.85433662787 33 36 29
233.219032813297 240.358214287248 2922.55849576628 31 34 27
232.373574760702 241.167448166638 2930.36366596929 31 34 27
223.273055035504 241.593841453838 2932.2523735726 27 30 23
229.913682240558 242.740372934409 2945.32675755539 24 27 20
232.452615824201 243.692228631707 2955.41807250358 17 20 13
240.860521637273 244.900739174556 2969.56251870253 17 20 13
216.756228671041 244.655841439321 2960.94335452175 19 22 15
214.330803352694 245.379261552387 2967.49598233562 19 22 15
197.65266580281 245.479144520337 2964.20477499575 20 23 16
201.94784926331 246.494161531527 2975.37659127491 22 25 18
202.914531636929 247.359319184312 2984.20783237248 26 29 22
200.529435185617 248.077507780822 2990.72118624107 26 29 22
203.238204753385 249.007820273879 3000.64703562256 31 34 27
195.796870772231 249.509052851642 3003.71124251773 35 38 31
181.538884857295 249.730457226272 3002.24989381226 35 38 31
180.029341258523 250.480528618712 3009.30600780963 32 35 28
191.355396075566 251.748443486321 3024.79497477136 32 35 28
193.33359981461 252.628490365603 3034.03646889658 26 29 22
169.589330871757 252.479050774795 3026.46259618411 32 35 28
162.969211176874 253.018914897021 3030.12286258755 30 33 26
153.754968834324 253.458465350587 3032.12255380758 12 15 8
153.165234917653 254.234945162123 3039.67862720024 13 16 9
142.20099554708 254.610236444509 3040.5917701808 14 17 10
141.628143930091 255.384542043006 3048.13106270606 18 21 14
136.72511446677 255.9926515967 3052.90996511677 21 24 17
120.486825551021 256.178076970597 3050.58624776853 23 26 19
111.190736851192 256.627755513593 3052.66605454604 24 27 20
83.4829643850936 256.407137686042 3043.37054442294 23 26 19
67.9645743665991 256.643921088107 3041.74127545125 22 25 18
72.6341829915977 257.611971733246 3052.54822361543 23 25 20
80.8737617179047 258.699943670059 3065.46072733548 32 34 29
85.6375014375419 259.65633398593 3076.17592532274 112 114 109
177.774554172319 201.783657643637 2603.55792295235 170 140 129
177.62566299467 202.811328502918 2613.47292569659 165 129 117
173.658979163215 203.595368560448 2620.13017707892 147 107 95
167.387147156817 204.234954951352 2624.84642122702 149 110 95
164.977686878117 205.112288587989 2632.77735648666 167 138 122
157.934514779999 205.703893029354 2636.8500729838 160 137 121
143.114415074026 205.825962448167 2634.54434608577 141 123 109
159.640705834276 216.718933013648 2744.05481693547 34 35 29
122.370178660701 215.609640280574 2724.5481897053 22 23 17
164.176333235585 218.886465410933 2766.15347778199 18 19 13
158.408769598693 220.467564994703 2780.14919949599 21 24 17
149.094775181119 220.908517893999 2782.24807656225 21 24 17
170.469355937447 222.991114771751 2807.47638089248 17 20 13
216.273852081596 226.344559301414 2850.76790748366 11 14 7
224.973296213729 227.705014902601 2866.0173037265 11 14 7
256.529150870717 230.244774879209 2898.07214724073 15 18 11
262.96917070123 231.455095379449 2911.33630932272 22 25 18
259.650832206075 232.155217654678 2917.36180937138 30 33 26
231.749496627975 231.603364838339 2905.47364803114 28 31 24
242.358773504957 233.013128111045 2921.65342095095 31 34 27
263.749450958059 234.94927416188 2945.47013923188 29 32 25
236.55793635292 234.45252654691 2934.28587996543 27 30 23
228.294816010933 234.905397836192 2936.75637132474 24 27 20
233.287971889902 236.00781929234 2948.63941949535 21 24 17
245.810569696196 237.466537244431 2965.74581960347 19 22 15
231.750037162745 237.634707590692 2964.09626473743 22 25 18
225.164801970437 238.165889651757 2967.72283567698 26 29 22
222.758621941925 238.895507781117 2974.25543656944 26 29 22
226.238716034186 239.898506457698 2984.82151562738 29 32 25
223.030117450105 240.584169433956 2990.74051724215 31 34 27
212.243335491757 240.919472452938 2991.48335263694 34 37 30
196.360753205785 241.026575802971 2988.81798930794 33 36 29
195.671955888136 241.829621233279 2996.46816989336 33 36 29
183.969428188338 242.135005174122 2996.70786705558 38 41 34
168.833761544161 242.292706888484 2994.7102363544 36 39 32
185.200978236238 243.847351419949 3013.65300812336 26 29 22
187.137569134453 244.754669115709 3022.9317937999 24 27 20
183.966962118255 245.435269920352 3028.81381741291 24 27 20
173.078781459065 245.782839879503 3029.65553016818 27 30 23
156.141513726824 245.877125222769 3026.62213241453 25 28 21
141.738092191858 246.08722486177 3025.30687426467 12 15 8
138.528370874686 246.772594481279 3031.227034128 15 18 11
174.305413499333 249.073417463361 3061.95930900861 18 21 14
157.309853576677 249.174898374581 3058.98307060195 16 19 12
129.820315104167 248.857649848804 3049.48513287213 21 24 17
102.231160622185 248.552775226271 3040.08428645481 24 27 20
100.759653200093 249.309189291373 3047.10169252221 25 28 21
84.4151334769436 249.473274107683 3044.88661806119 23 26 19
61.876925340421 249.402076804772 3038.93770144064 21 24 17
59.4952402412425 250.128054126333 3045.44651661597 19 21 16
67.7053669703729 251.2605657923 3058.38134581008 26 28 23
99.830321491527 253.297531680425 3085.69431169791 60 62 57
181.070808565974 193.266847082727 2597.29240869815 171 149 138
179.370906677963 194.21410545664 2605.92531645872 159 127 116
173.855206613077 194.90393350541 2611.30053187584 161 123 112
169.878627690548 195.694955714772 2617.96657727089 124 82 68
163.597163244874 196.333399378937 2622.69289331009 128 91 75
161.950752918052 197.273368829971 2631.27376045926 146 119 102
154.899740199492 197.860890387049 2635.35486625692 133 112 95
139.295119221811 197.902096859092 2632.42322276956 112 94 80
160.754068559462 210.333166385043 2755.22899503549 19 20 14
182.644744415308 212.588019168329 2781.33625927272 26 27 21
147.709869655385 211.519433994738 2763.75568174614 21 22 16
139.974125512845 212.043828152762 2767.1088190123 18 21 14
145.125559825463 213.306900721782 2780.2278595119 23 26 19
181.034823659803 216.305700511574 2816.39398906419 26 29 22
207.422824059922 218.732324381 2845.09484028536 13 16 9
229.091610730855 220.867693048929 2870.02319414569 9 12 5
241.122887704566 222.445455440374 2887.60022622947 10 13 6
254.868159240124 224.102607961372 2906.2973211848 18 21 14
234.357253537576 223.873605139525 2899.77549618277 19 22 15
226.069246317683 224.319544888082 2902.27172505843 19 22 15
238.307648597578 225.87114991268 2919.6466068567 27 30 23
244.863413372418 227.105002269896 2932.79235449976 25 28 21
235.789445786921 227.502140514152 2934.6593571604 24 27 18
228.351837449389 227.988345486301 2937.72208550992 24 27 18
248.273772880479 229.90115507599 2960.16691681404 26 29 20
248.360790772681 230.768494160159 2968.45444601317 27 30 21
220.140382419213 230.180631882284 2956.88811299633 30 33 24
220.20984214031 231.05002965974 2965.19277344495 27 30 21
231.186397592389 232.465347344025 2981.0070123707 26 29 20
230.490261385791 233.283516407167 2988.662583157 27 30 21
223.086053638562 233.765142149029 2991.69282103484 27 30 21
204.712634415517 233.708479640888 2987.27403433286 22 25 16
196.41702436607 234.154530170033 2989.77779655733 20 23 14
186.413057411498 234.520308613744 2991.15569014449 23 26 19
188.269472140763 235.459788130651 3000.5093384389 18 21 14
194.411258660967 236.597996325649 3012.66339945623 16 19 12
176.730540956016 236.601333581805 3008.96512912752 19 22 15
176.938377562405 237.453041803445 3017.13465595009 22 25 18
186.592158902751 238.739775112959 3031.44761520199 24 27 20
176.568253691514 239.107816473216 3032.84497331468 23 26 19
160.49946980257 239.203225960033 3030.36623927788 23 26 19
138.345246745881 239.031021043317 3024.05094867791 27 30 23
143.769824580084 240.111884096841 3035.50843694988 24 27 20
160.501978825837 241.688955774177 3054.0855056109 17 20 13
179.067576683703 243.330676087755 3073.66620125705 19 22 13
108.12559094314 241.030681782266 3036.75970145411 20 23 14
97.9278369925289 241.420212014472 3038.32651788907 23 26 17
102.563983928514 242.45280047988 3049.15749318543 24 27 20
87.099405696462 242.619253769593 3047.48518307421 25 28 21
62.8117464967346 242.419568680454 3040.45833118232 25 28 21
109.693972699102 245.222729561869 3077.09301246392 27 30 23
65.9991139250749 244.21707223752 3058.28288694305 20 25 19
82.2155007129526 245.711956738555 3075.96702038323 23 28 22
178.084020840679 185.369388899405 2595.75759881985 157 133 121
174.845758941627 186.223680839964 2603.09804257534 149 115 103
169.318278663234 186.915318300372 2608.48468848836 146 108 97
163.791479870951 187.606737168767 2613.8706899834 89 50 35
159.80745466019 188.404268950883 2620.54282969874 77 41 25
158.924254810041 189.412273444843 2629.77300917234 129 103 86
151.090287327964 189.943020653014 2633.22274468863 123 104 89
132.368469284944 189.740903114646 2627.75451203739 84 71 55
135.077687721195 200.313194110801 2726.94345080581 17 18 12
208.715941166273 205.913116462743 2793.27606819737 17 18 12
201.912839751178 206.46308256754 2797.11654508533 21 22 16
222.377823510271 208.689310109232 2821.80961697102 21 22 16
175.41932828463 206.780692028345 2795.03783767174 22 25 18
182.267949477625 208.166315905461 2809.28725211572 26 29 22
189.175900504484 209.544491503017 2823.47918985207 23 26 19
213.152571047456 211.929735216583 2850.3299152832 10 13 6
208.040694079143 212.566856398337 2855.31191844774 8 11 4
236.298025914429 215.164696275958 2884.96534674619 9 12 5
239.425616241845 216.267350588048 2895.86673819417 13 16 9
226.127400850908 217.327157068725 2903.24744861325 20 23 16
235.900371628951 218.795440756726 2918.83178940064 22 25 18
231.743798589963 219.462309113242 2924.27801218165 24 27 20
234.195703024195 220.499531059072 2934.44279342549 25 28 19
239.993306397205 221.716790406433 2946.92694967014 25 28 19
254.965544006927 223.432428850087 2965.81425214182 25 28 19
250.911207262452 224.086274313054 2971.16053970703 25 28 19
221.030771291115 223.331681840072 2958.43346266904 26 29 20
204.398147876719 223.3141400707 2955.11441444471 22 25 16
217.848666433083 224.920639379057 2972.69444282862 21 24 15
219.638569855435 225.890758768211 2982.10994711628 21 24 15
194.548099032335 225.434482708137 2973.08406659014 22 25 16
195.496775886968 226.360053505596 2981.92425839784 20 23 14
201.54270170883 227.545897296049 2994.1664699855 19 22 13
196.631322189545 228.156887540595 2998.95323836036 19 22 15
193.418429647069 228.854701326251 3004.87470805498 17 20 13
188.512705447801 229.464919659024 3009.65597470169 17 20 13
189.576093719114 230.376014517515 3018.38439591434 19 22 15
181.267569274852 230.813196660215 3020.90229306742 21 24 17
182.365566442376 231.719935888528 3029.59699089475 22 25 18
178.341018080247 232.369465848732 3034.91433598536 23 26 19
170.879783301221 232.85023150926 3038.00132966844 24 27 20
146.16233039573 232.496268722091 3030.00716213856 24 27 20
149.875955823185 233.52477297158 3040.33790925788 24 27 20
159.691730328285 234.837616539612 3054.48580997568 23 26 19
137.45547097879 234.622150937835 3048.25837653755 25 26 18
121.232668549326 234.702074734766 3045.9348739665 25 26 18
113.679853974167 235.194149608433 3049.11113624417 29 30 22
112.233267201309 235.970088172405 3056.10091002608 30 33 24
77.5227785714447 235.219409428446 3042.50159311899 26 29 22
84.8125905053765 236.39923012142 3054.92640693824 26 29 22
82.4810024958302 237.136214001601 3061.38384819844 24 27 20
73.990678940925 237.595850431358 3064.07895582205 19 24 17
52.2328779924246 237.469912556007 3058.78008327767 23 28 21
172.04447767841 177.222338628218 2591.62279686522 142 118 106
171.851265421233 178.31346002479 2601.57243313491 142 110 97
168.617402523074 179.175512005923 2608.90736168688 138 102 90
163.088559878283 179.867520234052 2614.29530565056 75 38 22
158.331619164915 180.61519002107 2620.32575999115 77 41 25
154.352113255372 181.41776885418 2626.99266602164 121 98 80
144.181547895651 181.776060359706 2628.53710085409 113 96 80
190.886435417816 196.490748274809 2771.28024208557 14 15 9
155.291039031861 195.153582250961 2752.97835911259 31 32 26
187.569629730691 198.273976325791 2787.06351622257 22 23 17
220.834065786439 201.423377948747 2821.58267417642 31 32 26
218.099921406764 202.220855054316 2828.43091899074 30 33 26
201.674879003152 202.141164340655 2824.91458749892 23 26 19
194.084598236445 202.631918118366 2828.12824951605 17 20 13
195.393321786204 203.685098659054 2838.00929612841 10 13 6
196.733766391716 204.734204841307 2847.85910760989 8 11 4
188.340228207079 205.172868324346 2850.46120572244 8 11 4
215.010710070356 207.775713388116 2878.85584110128 11 14 7
235.291581507096 209.959130390045 2902.3211573061 18 21 14
227.825134779184 210.433963333185 2905.41420338451 18 21 14
212.132179320383 210.414417103865 2902.57959440744 21 24 17
224.389860633532 212.077932254537 2919.91879157293 23 26 19
251.588635694175 214.614582977228 2947.79860749188 24 27 18
254.944356778584 215.71586880245 2958.47366398754 22 25 16
262.486461733675 217.055125077787 2972.04129191547 19 22 13
236.83597612393 216.452741195748 2962.17653754757 18 21 12
213.588999094154 216.006584898662 2954.15270121371 18 21 12
202.785372699214 216.28897876921 2954.92008333207 19 22 13
197.815228481915 216.908033265869 2959.76401402782 18 21 12
197.880323961808 217.811254385615 2968.06800915726 20 23 14
183.672702488923 217.909881240986 2966.57445643804 21 24 15
196.397048020178 219.514729820546 2983.45925787197 21 24 15
205.823965364539 220.922634923649 2997.97924944538 20 23 14
203.462577088045 221.672220924957 3004.46442022319 17 20 13
203.65990085021 222.558779939806 3012.63957336546 19 22 15
196.22539190959 223.028775796023 3015.70161966829 20 23 16
191.337902924849 223.637203896388 3020.46504307298 22 25 18
179.615038266551 223.881758441227 3020.7335878518 23 26 19
174.713859565916 224.491823894561 3025.51036334669 22 25 18
169.813488691211 225.101787508601 3030.28635171029 22 25 18
173.51721443296 226.159010168513 3040.62234695335 22 25 18
166.051117064227 226.632789228224 3043.71520187643 22 25 18
177.586503844879 228.08163412737 3058.96955772416 23 26 19
172.739747168943 228.684831448657 3063.69330645093 23 26 19
151.400856706695 228.456077685445 3057.99364574439 23 24 16
136.079329297412 228.541158959518 3056.19164864185 22 23 15
132.918853340873 229.238075702419 3062.06086263231 26 27 19
120.154890007085 229.460274709029 3061.94996644921 27 28 20
98.5990377379622 229.258518615995 3056.46176178032 24 27 20
96.2801260506119 230.002536006321 3062.90557571546 24 27 20
94.853163641885 230.78734473537 3069.87455120717 25 28 21
65.2325294228051 230.223002889418 3059.69552470645 20 25 18
45.2227381832788 230.132436747005 3055.48944338948 23 28 21
169.058638878245 169.269735531595 2590.09519508434 109 89 78
171.152982874677 170.559072757153 2601.9950237601 134 106 94
169.451339550482 171.547977971666 2610.62384324969 134 100 88
162.386115649214 172.122421854457 2614.72065599441 98 65 50
156.084967010217 172.756226538162 2619.46720436785 161 132 116
150.553614978253 173.44864693876 2624.85757927118 123 104 87
139.598496819167 173.734187685721 2625.77492984384 92 79 63
162.280688286653 187.172294793402 2750.05098351266 23 24 18
193.233185644943 191.360399102111 2792.38038607936 28 29 23
188.808266694069 192.067959221842 2798.08706609292 30 31 25
201.274228458932 193.918210564454 2816.60874748101 33 36 29
200.929832321244 194.890325104205 2825.30919142271 20 23 16
194.953720338042 195.481591078926 2829.73926079463 14 17 10
192.214355587747 196.288026157487 2836.59136552965 10 13 6
208.160663092583 198.322842041246 2857.29804654527 8 11 4
187.586992123791 197.949199424402 2850.85992607899 7 10 3
186.518661023524 198.856443203358 2858.87158885066 11 14 7
216.543311033357 201.765665806867 2889.55817832255 16 19 12
222.966284874593 203.131124178402 2902.81667585624 15 18 11
211.369539590875 203.339678373395 2902.9653030677 17 20 13
201.389805980917 203.656000723629 2904.32644217444 19 22 15
219.453337593987 205.735731428106 2925.7582064388 22 25 16
241.763312050805 208.059446138247 2950.02201388646 21 24 15
242.63939570102 209.033213196815 2958.92716843293 19 22 13
221.930399496359 208.675878623645 2952.62101760461 18 21 12
215.313452772004 209.191467738899 2956.28172103684 18 21 12
207.019039518276 209.606694527757 2958.78851271883 19 22 13
187.828141116768 209.369347157382 2953.79129075164 19 22 13
182.835671623957 209.991628891538 2958.65691379172 20 23 14
192.981426469409 211.511102024934 2973.86384655373 21 24 15
204.883480223173 213.120951775551 2990.14720954781 20 23 14
207.570794513389 214.177936262723 3000.07564227167 20 23 14
206.059883604128 214.984790099798 3007.12472160805 18 21 14
207.111522468843 215.936219243228 3015.85884876543 21 24 17
211.593613826556 217.078714822057 3026.82622146303 23 26 19
198.215236882412 217.199267803286 3025.92322315617 25 28 21
181.381110613592 217.131847592357 3022.81164225691 25 28 21
178.196724885549 217.837809808672 3028.7035999289 21 24 17
174.162423982233 218.494989462636 3034.02949881568 21 24 17
177.875592353979 219.578538057657 3044.35222642586 21 24 17
175.592612929788 220.326760372693 3050.75973760646 21 24 17
183.691975809818 221.636918301908 3063.7783009 22 25 18
177.12667047731 222.14552544856 3067.38875559863 22 25 18
146.249569307106 221.353551768344 3055.65690676264 22 23 15
132.656570345837 221.500660030011 3054.96310643263 21 22 14
121.641259447141 221.79047769854 3055.9392593164 24 25 17
111.473862831891 222.129331877923 3057.48375820905 25 26 18
92.5263880452745 222.015793269498 3053.64342343057 18 21 12
87.5608781304718 222.634270909795 3058.48283745456 18 21 12
119.539759169543 225.14422762248 3085.87094863215 22 27 20
60.8827948269108 223.019852176028 3057.99427571816 22 27 20
82.3868630197744 224.97934467377 3078.86112608819 11 18 10
166.836394867436 161.357284038784 2589.22030731784 129 109 100
171.220102682323 162.860840390544 2603.06616818071 138 110 99
167.983938520043 163.740062309165 2610.4008442127 140 108 97
158.607559226668 164.125317085171 2612.56956469915 94 62 49
146.12858551819 164.26767158769 2612.18747058804 156 129 112
142.890702440271 165.146778503291 2619.52387052607 106 89 73
131.141177449747 165.355347057154 2619.82420812265 68 56 42
174.288958923734 180.623015959382 2760.3499027824 25 26 20
172.181060685675 181.517203402212 2767.97889149258 29 30 24
184.493197929009 183.446812399658 2786.64193171976 31 32 26
179.244613837524 184.102752473686 2791.75690565445 32 33 27
188.4703192979 185.787317037009 2807.85272277344 28 31 24
180.840360824403 186.267785151849 2811.10730555644 16 19 12
182.087456397139 187.372895158199 2821.04187450867 11 14 7
193.085333196566 189.151055812086 2838.19822230659 9 12 5
211.468577696349 191.424976387839 2860.70071508777 8 11 4
218.571986515369 192.901467095014 2874.68369157485 7 10 3
193.105393761185 192.142535224405 2864.65946660729 9 12 5
199.43182624092 193.558366892696 2878.00604814684 12 15 8
202.535089386127 194.746371658896 2888.91898208654 10 13 6
201.570434042518 195.654485922042 2896.82790248405 11 14 7
176.744473017418 194.972817473401 2887.57267271492 13 16 9
203.003497246046 197.680902246706 2914.9434279066 18 21 12
220.309618777425 199.77369329415 2935.70813410596 19 22 13
235.233408415746 201.69122891623 2954.61336797265 20 23 14
232.794883365962 202.468001377206 2961.17111855975 21 24 15
228.702680911966 203.136108728778 2966.55323727536 23 26 17
210.41799967017 202.897809995169 2962.07317820101 21 24 15
192.909190937172 202.720132549338 2958.23061577379 22 25 16
184.572331799005 203.130296651687 2960.78064295134 21 24 15
189.675870882901 204.383133928132 2972.53184757514 19 22 13
200.726728489123 205.996174088474 2988.24274222584 17 20 11
201.714414655429 206.975044116307 2997.03631960741 18 21 12
196.802936033322 207.587587414931 3001.82295685213 16 19 12
205.471246507824 209.025408359563 3015.67492539555 20 23 16
208.248045281669 210.095937781672 3025.51249676887 22 25 18
208.50288717431 211.008666304656 3033.62666571543 23 26 19
189.128861850223 210.748453534603 3028.81467098556 24 27 20
173.115505664238 210.698807342652 3026.30233558632 21 24 17
165.63623841884 211.159135912792 3029.4102563681 20 23 16
167.609150551561 212.17234546513 3038.6373237517 19 22 15
160.129671124272 212.632656557548 3041.74545781644 19 22 15
149.182848769125 212.895657349356 3042.65790192868 20 23 16
155.531327836509 214.150314204866 3054.58950313001 22 25 18
150.646764390479 214.759265398092 3059.34994411861 21 22 14
127.494430653855 214.340399006165 3052.64533931921 21 21 11
121.698880191818 214.905495178112 3056.89963847485 24 24 14
100.172266985384 214.598738925937 3051.39825580414 24 25 17
96.0873851833144 215.265361484865 3056.77298661388 17 20 11
93.7625763012666 216.027355949823 3063.21999954675 17 20 11
113.439672616591 217.981191374309 3083.06773963431 21 27 17
95.3205389926524 217.879203695378 3079.82038977355 22 27 20
99.2302235208191 218.965708397021 3089.94753702408 16 23 15
165.377671197292 153.493145975484 2588.9970011801 142 124 114
173.582898529046 155.356416888525 2606.08009328779 135 108 97
168.818179712127 156.114382599372 2612.11641182515 142 112 101
156.36782549097 156.229254157148 2611.70996010729 104 75 61
139.256976040101 155.964301486428 2607.48511747011 158 132 117
139.093150632903 157.109094871789 2617.39763946686 78 62 46
128.108992514746 157.361131464127 2618.34877904758 51 39 25
120.87271284933 168.059111616222 2710.39090446947 18 19 13
190.278233871202 174.45869878868 2773.72361318673 22 23 17
206.568376462327 176.752861004996 2795.46743892187 34 35 29
155.749605906707 173.964628448716 2765.57375445336 30 31 25
162.462840069003 175.531350878519 2779.93118177521 27 28 22
183.708337747611 178.168075395591 2805.20576768672 23 26 19
184.126793316097 179.238526881783 2814.55106376715 15 18 11
171.646122250104 179.355405363854 2814.17408265985 11 14 7
171.279845746066 180.363448236344 2822.89094393689 8 11 4
194.480737259359 183.076175246996 2849.04638036461 8 11 4
184.4540703654 183.367250962919 2850.45819419968 6 9 2
240.477481371253 188.391761413958 2900.35912979508 8 11 4
246.098507077972 189.773713011119 2912.99428883006 11 14 7
212.430507009735 188.369076654784 2897.03951070226 10 13 6
181.092047988881 187.154250967172 2882.99413789667 10 13 6
173.511186310191 187.620369839547 2886.20208764842 14 17 10
181.602439405422 189.174434916533 2900.60990186793 19 22 13
224.505485173474 193.112480981461 2939.6113232917 18 21 10
229.486807810133 194.413694823828 2951.47640277698 19 22 11
228.697195717472 195.313695602434 2959.21270180816 19 22 11
222.928594816215 195.873757969099 2963.44098364578 20 23 12
211.311615064323 196.04227450969 2963.61595937308 18 21 10
197.153364788345 196.047301986874 2962.08755211471 20 23 12
192.182123122863 196.667946941666 2966.93233752372 20 23 12
190.575384683394 197.509488535413 2974.0714481789 18 21 10
197.413501692432 198.899092377941 2986.91379587796 16 19 8
198.393315017475 199.898363017525 2995.71217590578 17 20 11
194.320898564641 200.566931841691 3001.0745786243 18 21 14
194.496296691088 201.506303018484 3009.26336079049 21 24 17
201.500737077478 202.875066169581 3021.94396500421 23 26 19
200.887320676837 203.752631844178 3029.50827716514 22 25 18
193.458546964868 204.199127974466 3032.56810155037 20 23 16
182.593523473489 204.433646950106 3033.40352778167 20 23 16
168.269036105756 204.45908579246 3032.03717962199 19 22 15
147.880934927163 204.119784858278 3026.82661924284 17 20 13
138.632782045477 204.472881067772 3028.87309987103 16 19 12
138.007164298593 205.351866978281 3036.4493182389 18 21 14
105.35798414398 204.299921467319 3023.68177511817 21 24 15
108.173123398733 205.39027209888 3033.47800641909 23 23 15
116.24354663079 206.786009848142 3046.51299639283 22 22 12
108.679358475208 207.249282276563 3049.70480979282 25 25 15
96.7356422689067 207.458126719773 3050.19827920301 25 26 18
84.7616571748366 207.670704250805 3050.72091647546 19 22 13
99.9643570853839 209.457942119875 3067.95153695205 19 22 13
87.9901564833965 209.670585378918 3068.47471635448 18 24 14
84.8005643213332 210.388914927831 3074.36967836406 21 29 18
101.055041675745 212.205148420178 3091.96882991001 15 22 14
154.761312154592 144.805561656176 2580.98514200044 164 144 135
173.650397184093 147.665537349905 2607.14977476257 124 96 85
168.885586858296 148.426551491464 2613.18573361287 135 102 93
157.204344412417 148.584328825663 2613.42611039529 106 68 57
143.179569380365 148.545682364964 2611.77127739353 164 128 116
137.614853149727 149.243348178506 2617.19400816961 73 45 34
125.852087089761 149.411071159969 2617.51386914364 63 43 32
208.655702234559 168.592916918445 2788.93275463322 24 27 20
213.814962459795 170.068868098269 2802.0125605202 20 23 16
154.213133730991 166.431023267144 2765.37880111541 29 32 25
144.078125474406 166.720299929659 2766.89846542446 22 25 18
189.399282227923 171.329370751746 2810.48437415793 19 22 15
184.189232464933 171.98127115385 2815.56167999654 11 14 7
176.556310587751 172.446744102409 2818.82142176223 9 12 5
155.954780599753 171.92409805901 2812.43298835524 8 10 5
161.258283367057 173.381526103734 2825.37229697692 7 9 4
167.426873192575 174.89382736779 2838.86136044133 7 9 4
