ply
format ascii 1.0
comment KinectMotionCapture
element vertex 789
property float x
property float y
property float z
property uchar red
property uchar green
property uchar blue
end_header
405.347287654877 367.603182792664 2881.00004196167 194 199 195
413.453966379166 367.837399244308 2882.99989700317 200 205 201
424.200594425201 370.367825031281 2903.00011634827 210 215 211
-183.56853723526 346.210241317749 2769.00005340576 192 198 194
-174.881413578987 343.969762325287 2750.99992752075 179 184 180
-166.900187730789 342.979192733765 2743.00003051758 168 173 169
-158.961921930313 341.988027095795 2734.99989509583 166 171 167
-151.454463601112 341.871798038483 2733.99996757507 164 169 165
-143.846571445465 341.505110263824 2730.99994659424 164 166 163
-136.45426928997 341.638147830963 2732.00011253357 165 167 164
-129.150435328484 342.020809650421 2734.99989509583 165 167 164
-122.36376106739 343.903869390488 2750 159 164 160
-69.3537965416908 341.316044330597 2729.00009155273 32 38 28
-62.2081086039543 342.94581413269 2742.00010299683 8 14 4
-54.552149027586 341.823548078537 2733.00004005432 15 21 11
-46.5142205357552 337.573945522308 2698.99988174438 19 25 15
-39.7495701909065 342.704474925995 2740.00000953674 22 25 14
-17.0440413057804 336.955934762955 2694.00000572205 15 18 9
-9.70860663801432 337.331920862198 2697.00002670288 18 21 12
-2.3637565318495 338.708132505417 2707.99994468689 24 27 18
5.03738597035408 339.833736419678 2717.00000762939 15 18 9
12.5196613371372 341.834485530853 2733.00004005432 13 16 7
19.9722237884998 341.833561658859 2733.00004005432 9 12 5
27.3544676601887 340.956658124924 2726.0000705719 9 12 5
34.6984304487705 340.079307556152 2719.00010108948 152 155 148
42.0815348625183 339.826941490173 2717.00000762939 147 149 144
49.4717806577683 339.69920873642 2716.00008010864 147 149 144
56.8982735276222 339.821189641953 2717.00000762939 137 139 134
64.3063336610794 339.817672967911 2717.00000762939 145 147 142
71.7405378818512 339.938819408417 2717.99993515015 133 135 130
79.2381912469864 340.309679508209 2720.99995613098 121 123 118
86.7200419306755 340.555042028427 2723.00004959106 121 123 118
94.1778942942619 340.67490696907 2723.99997711182 124 126 121
101.491659879684 340.294122695923 2720.99995613098 132 134 129
108.788676559925 339.912861585617 2717.99993515015 140 142 137
116.239950060844 340.03147482872 2719.00010108948 148 150 145
123.696245253086 340.149641036987 2720.00002861023 139 141 140
131.302133202553 340.642601251602 2723.99997711182 137 139 138
138.725623488426 340.634912252426 2723.99997711182 148 150 149
146.416887640953 341.252058744431 2729.00009155273 141 145 144
154.022082686424 341.618657112122 2732.00011253357 119 124 120
161.702170968056 342.109829187393 2736.00006103516 119 124 120
169.217988848686 342.225521802902 2736.99998855591 135 140 134
176.738619804382 342.340767383575 2737.99991607666 119 126 119
184.129565954208 342.205584049225 2736.99998855591 107 114 107
191.724359989166 342.445075511932 2739.00008201599 111 118 111
199.474826455116 342.934221029282 2743.00003051758 123 130 122
207.623526453972 344.048023223877 2752.00009346008 108 113 107
215.50789475441 344.661325216293 2756.99996948242 89 94 88
223.499611020088 345.39920091629 2763.00001144409 33 38 32
231.272324919701 345.761597156525 2766.00003242493 29 34 28
238.974288105965 345.998615026474 2767.99988746643 18 23 17
248.111173510551 348.235160112381 2786.00001335144 15 22 15
256.978094577789 349.971175193787 2799.99995231628 15 22 15
269.700288772583 356.706112623215 2854.00009155273 43 50 43
354.974657297134 364.411592483521 2917.00005531311 98 102 101
361.656725406647 363.143593072891 2907.00006484985 84 88 87
368.791848421097 362.375110387802 2901.00002288818 111 115 114
375.893145799637 361.606359481812 2894.99998092651 111 115 114
383.093297481537 360.962331295013 2890.00010490417 123 127 126
390.129864215851 360.193192958832 2884.0000629425 140 144 143
397.54655957222 359.798461198807 2881.00004196167 151 156 152
405.227214097977 359.653204679489 2880.00011444092 165 170 166
413.188070058823 359.757483005524 2881.00004196167 177 182 178
422.614485025406 361.110121011734 2891.99995994568 203 208 204
-183.711364865303 338.925749063492 2770.99990844727 193 202 199
-174.89118874073 336.489409208298 2750.99992752075 184 193 188
-166.848704218864 335.398077964783 2742.00010299683 168 175 168
-159.028992056847 334.673225879669 2736.00006103516 174 179 173
-151.463001966476 334.437221288681 2733.99996757507 172 177 171
-143.960043787956 334.323167800903 2733.00004005432 165 166 160
-136.461973190308 334.20866727829 2732.00011253357 170 171 165
-129.15775179863 334.583103656769 2734.99989509583 165 165 157
-122.103706002235 335.691154003143 2743.99995803833 164 160 151
-78.0367851257324 339.273065328598 2773.00000190735 12 19 12
-69.5102512836456 334.62792634964 2734.99989509583 31 38 31
-62.7108067274094 338.179886341095 2763.99993896484 17 20 13
-54.3556585907936 333.166778087616 2723.00004959106 24 25 17
-46.5513616800308 330.477863550186 2700.99997520447 18 20 9
-38.5767109692097 325.341403484344 2658.99991989136 16 19 8
-17.5701640546322 339.784204959869 2776.99995040894 13 19 9
-2.40841205231845 337.582945823669 2759.0000629425 17 20 11
4.98019810765982 328.650802373886 2686.00010871887 16 19 10
12.360037304461 330.118536949158 2697.99995422363 15 18 11
19.9295207858086 333.665996789932 2726.99999809265 15 18 11
27.3560378700495 333.542287349701 2726.0000705719 14 17 10
34.7387082874775 333.051115274429 2721.99988365173 12 15 8
42.1304181218147 332.80423283577 2720.00002861023 16 19 12
49.4563989341259 332.189828157425 2714.99991416931 142 147 140
56.7968152463436 331.819742918015 2711.99989318848 140 145 138
64.1443282365799 331.571608781815 2710.00003814697 113 118 111
71.6126784682274 331.934839487076 2713.00005912781 97 102 95
79.1262239217758 332.419961690903 2717.00000762939 92 97 90
86.6612792015076 332.904607057571 2720.99995613098 103 108 101
94.1832661628723 333.266526460648 2723.99997711182 114 116 111
101.534724235535 333.016335964203 2721.99988365173 114 116 111
108.914941549301 332.888036966324 2720.99995613098 126 128 123
116.289302706718 332.759410142899 2720.00002861023 149 151 146
123.703263700008 332.752645015717 2720.00002861023 144 146 143
131.116732954979 332.745492458344 2720.00002861023 136 138 135
138.580664992332 332.860231399536 2720.99995613098 147 149 146
146.264165639877 333.463907241821 2726.0000705719 142 147 143
153.805211186409 333.700180053711 2727.9999256134 117 122 118
161.297515034676 333.813726902008 2729.00009155273 118 123 117
168.918311595917 334.171533584595 2732.00011253357 131 136 130
176.361203193665 334.161967039108 2732.00011253357 114 121 114
184.005260467529 334.518909454346 2734.99989509583 101 108 101
191.31501019001 334.263950586319 2733.00004005432 102 109 102
199.267700314522 335.109323263168 2740.00000953674 112 119 111
207.559555768967 336.443424224854 2750.99992752075 118 123 117
215.285241603851 336.798757314682 2753.99994850159 51 56 50
222.702950239182 336.664527654648 2753.00002098084 12 17 11
229.696288704872 335.918456315994 2746.99997901917 10 15 9
238.728329539299 338.106870651245 2765.00010490417 16 21 15
246.966913342476 339.071959257126 2773.00000190735 14 21 14
255.615323781967 340.525716543198 2785.00008583069 35 40 34
363.043963909149 356.588989496231 2917.99998283386 77 81 80
369.827836751938 355.470448732376 2908.99991989136 132 137 133
376.301944255829 354.10737991333 2898.00000190735 130 135 131
383.245408535004 353.232860565186 2891.00003242493 134 139 135
390.149623155594 352.358132600784 2884.0000629425 149 154 150
397.566616535187 351.97189450264 2881.00004196167 153 158 154
404.966115951538 351.585417985916 2878.00002098084 174 179 175
412.921786308289 351.687282323837 2878.99994850159 192 197 193
421.612411737442 352.399677038193 2884.99999046326 210 212 207
-184.450760483742 332.705587148666 2782.00006484985 201 210 205
-174.9007999897 329.007923603058 2750.99992752075 176 182 178
-166.918754577637 328.060507774353 2743.00003051758 172 177 171
-159.154012799263 327.471375465393 2737.99991607666 168 171 164
-151.526778936386 327.121049165726 2734.99989509583 166 167 161
-143.915355205536 326.770395040512 2732.00011253357 173 173 165
-136.419609189034 326.658457517624 2730.99994659424 175 172 163
-129.164963960648 327.144235372543 2734.99989509583 173 169 158
-121.932506561279 327.749222517014 2740.00000953674 181 171 161
-115.048334002495 329.430431127548 2753.99994850159 159 152 142
-79.2794749140739 336.993724107742 2816.99991226196 6 15 10
-70.4545751214027 331.614553928375 2772.0000743866 26 33 26
-63.0320012569427 332.336097955704 2778.00011634827 17 20 13
-54.3786771595478 325.879216194153 2723.99997711182 22 23 17
-46.53674736619 323.010832071304 2700.00004768372 19 21 10
-39.2753072082996 323.850691318512 2707.00001716614 18 21 10
-32.3643311858177 328.638076782227 2746.99997901917 15 21 11
-25.0630248337984 331.152051687241 2767.99988746643 14 20 10
5.01385470852256 323.497503995895 2703.9999961853 14 17 8
12.1408272534609 317.036688327789 2650.00009536743 15 18 11
19.7260025888681 322.8979408741 2698.99988174438 15 18 11
27.2572226822376 324.930459260941 2716.00008010864 15 18 11
34.7279086709023 325.526922941208 2720.99995613098 12 15 8
42.2102399170399 326.003283262253 2724.99990463257 1 4 0
49.5320595800877 325.28293132782 2719.00010108948 16 21 14
56.9047331809998 325.04066824913 2717.00000762939 43 48 41
64.2189532518387 324.558794498444 2713.00005912781 70 75 68
71.643091738224 324.674636125565 2713.99998664856 93 98 91
79.0432989597321 324.670433998108 2713.99998664856 95 100 93
86.5705832839012 325.144320726395 2717.99993515015 100 105 98
94.1539630293846 325.737446546555 2723.00004959106 93 98 91
101.540416479111 325.612396001816 2721.99988365173 89 94 87
109.041139483452 325.845807790756 2723.99997711182 79 84 77
116.295792162418 325.361102819443 2720.00002861023 114 119 112
123.528234660625 324.876010417938 2716.00008010864 141 146 139
130.882978439331 324.749350547791 2714.99991416931 137 142 135
138.384640216827 324.981212615967 2717.00000762939 129 134 127
146.164953708649 325.810641050339 2723.99997711182 137 142 135
153.700962662697 326.041638851166 2726.0000705719 129 134 127
161.188200116158 326.152592897415 2726.99999809265 111 116 109
168.803960084915 326.502412557602 2730.00001907349 119 124 117
176.435425877571 326.851785182953 2733.00004005432 120 125 118
184.284463524818 327.559530735016 2739.00008201599 94 99 92
191.535472869873 327.190607786179 2736.00006103516 11 16 9
199.205830693245 327.538788318634 2739.00008201599 11 16 9
207.193583250046 328.364908695221 2746.00005149841 18 19 13
214.827865362167 328.592717647552 2747.99990653992 20 21 15
221.663296222687 327.624410390854 2740.00000953674 8 11 4
228.788837790489 327.134102582932 2736.00006103516 16 19 12
237.79134452343 329.273790121078 2753.99994850159 16 19 12
245.19881606102 329.141438007355 2753.00002098084 14 17 10
253.517836332321 330.204218626022 2762.00008392334 20 22 17
365.053176879883 350.570946931839 2934.00001525879 156 161 157
369.973689317703 347.684890031815 2910.00008583069 109 112 105
376.061081886292 345.99357843399 2895.99990844727 133 134 128
382.469087839127 344.660580158234 2884.99999046326 149 151 140
389.898419380188 344.283103942871 2881.99996948242 146 149 140
397.448301315308 344.024837017059 2880.00011444092 143 148 142
405.267506837845 344.005197286606 2880.00011444092 175 177 172
412.79861330986 343.746393918991 2878.00002098084 197 198 192
421.340614557266 344.323426485062 2882.99989700317 195 195 187
-184.195473790169 324.671298265457 2778.00011634827 210 209 205
-175.037413835526 321.759045124054 2753.00002098084 216 212 209
-167.110338807106 320.95006108284 2746.00005149841 201 194 188
-159.278899431229 320.257514715195 2740.00000953674 160 151 142
-151.535019278526 319.681465625763 2734.99989509583 120 111 102
-143.975853919983 319.455653429031 2733.00004005432 123 111 99
-136.526957154274 319.463193416595 2733.00004005432 126 112 101
-129.219233989716 319.821059703827 2736.00006103516 120 104 91
-121.716655790806 319.710940122604 2734.99989509583 128 112 97
-114.469759166241 320.301860570908 2740.00000953674 113 101 89
-70.2297016978264 323.020845651627 2763.00001144409 20 25 19
-62.0143860578537 319.517195224762 2733.00004005432 20 23 16
-55.10039255023 322.676986455917 2759.99999046326 13 16 9
-47.2632683813572 320.575386285782 2742.00010299683 19 20 12
-31.9301784038544 316.838443279266 2710.00003814697 18 24 14
-24.7384328395128 319.412142038345 2732.00011253357 18 24 14
-17.2241013497114 318.244099617004 2721.99988365173 11 17 7
-9.64904483407736 313.334405422211 2680.0000667572 11 14 5
4.96777426451445 313.217729330063 2678.99990081787 12 15 6
12.251459993422 312.63267993927 2674.00002479553 13 16 9
19.8074970394373 316.840797662735 2710.00003814697 14 17 10
27.168408036232 316.488772630692 2707.00001716614 14 17 10
35.1382680237293 321.865141391754 2753.00002098084 13 16 9
42.4449369311333 320.343106985092 2740.00000953674 18 21 14
49.6076680719852 318.353086709976 2723.00004959106 20 25 18
56.907881051302 317.648679018021 2717.00000762939 23 28 21
64.1751512885094 316.943883895874 2710.99996566772 11 16 9
71.5150460600853 316.706359386444 2709.00011062622 16 21 14
78.9311528205872 316.819190979004 2710.00003814697 43 48 41
86.4798054099083 317.399144172668 2714.99991416931 47 52 45
94.0554141998291 317.978799343109 2720.00002861023 47 52 45
101.4713793993 317.973434925079 2720.00002861023 70 75 68
109.007075428963 318.318426609039 2723.00004959106 74 79 72
116.302162408829 317.961633205414 2720.00002861023 94 99 92
123.489491641521 317.370623350143 2714.99991416931 107 112 105
130.649089813232 316.779315471649 2710.00003814697 118 123 116
138.34123313427 317.473381757736 2716.00008010864 139 144 137
146.065562963486 318.167060613632 2721.99988365173 150 155 148
153.822064399719 318.860292434692 2727.9999256134 118 123 116
161.019593477249 318.384319543839 2723.99997711182 84 89 82
168.565720319748 318.609237670898 2726.0000705719 11 16 9
176.12212896347 318.833768367767 2727.9999256134 1 6 0
183.957949280739 319.525390863419 2733.99996757507 8 13 6
190.915688872337 318.697363138199 2726.99999809265 6 11 4
198.198214173317 318.453282117844 2724.99990463257 9 14 7
206.751897931099 320.195496082306 2740.00000953674 28 29 23
214.52659368515 320.651829242706 2743.99995803833 25 26 20
222.079560160637 320.757180452347 2744.99988555908 21 24 17
229.386314749718 320.511639118195 2743.00003051758 18 21 14
239.271804690361 323.770999908447 2770.99990844727 10 13 6
244.766339659691 321.071088314056 2747.99990653992 23 26 19
251.144498586655 319.656163454056 2736.00006103516 22 24 19
370.373517274857 340.126305818558 2913.00010681152 113 116 109
376.33940577507 338.356584310532 2898.00000190735 122 123 117
383.018165826797 337.287247180939 2888.99993896484 134 134 124
390.45861363411 336.918264627457 2885.99991798401 147 148 140
397.881597280502 336.549043655396 2882.99989700317 155 157 152
405.70917725563 336.529701948166 2882.99989700317 167 166 161
412.961840629578 336.043268442154 2878.99994850159 163 160 153
421.3607609272 336.490362882614 2882.99989700317 191 188 179
-175.55533349514 315.183013677597 2760.99991798401 177 170 164
-167.484372854233 314.16466832161 2752.00009346008 90 77 69
-159.461796283722 313.145786523819 2743.00003051758 108 94 83
-151.543080806732 312.240660190582 2734.99989509583 130 113 103
-143.930852413177 311.905980110168 2732.00011253357 134 115 101
-136.534258723259 312.02757358551 2733.00004005432 129 110 96
-129.131704568863 312.148809432983 2733.99996757507 142 120 106
-121.72319740057 312.269598245621 2734.99989509583 127 108 93
-114.308804273605 312.390089035034 2736.00006103516 116 100 85
-107.239983975887 313.537776470184 2746.00005149841 111 99 85
-68.9117014408112 309.564828872681 2710.99996566772 21 26 20
-62.8800466656685 316.419720649719 2770.99990844727 22 25 18
-54.843831807375 313.682287931442 2746.99997901917 12 15 8
-47.8002056479454 316.654056310654 2773.00000190735 17 18 10
-39.8455187678337 313.573211431503 2746.00005149841 17 20 9
-32.2029180824757 312.090635299683 2733.00004005432 17 23 13
-24.5586670935154 309.694081544876 2711.99989318848 18 24 14
-17.1427763998508 309.35263633728 2709.00011062622 17 23 13
-9.71437990665436 308.097213506699 2697.99995422363 18 21 12
-2.34769727103412 307.069778442383 2688.99989128113 11 14 5
12.5453714281321 312.664777040482 2737.99991607666 12 15 8
19.8231916874647 309.694826602936 2711.99989318848 10 13 6
26.8988870084286 306.039392948151 2680.0000667572 9 12 5
35.0508242845535 313.574522733688 2746.00005149841 12 15 8
42.2613397240639 311.516940593719 2727.9999256134 5 8 1
49.4463853538036 309.915781021118 2713.99998664856 19 24 17
56.7852854728699 309.570372104645 2710.99996566772 15 20 13
64.0839338302612 309.110373258591 2707.00001716614 10 15 8
71.5189278125763 309.335112571716 2709.00011062622 8 13 6
78.7897855043411 308.874309062958 2704.99992370605 6 11 4
86.5481868386269 310.240119695663 2717.00000762939 8 13 6
94.4754555821419 311.94806098938 2732.00011253357 6 11 4
101.551458239555 310.800999403 2721.99988365173 13 18 11
108.932867646217 310.681194067001 2720.99995613098 16 21 14
116.222880780697 310.332655906677 2717.99993515015 15 20 13
123.450621962547 309.869587421417 2713.99998664856 12 17 10
130.656093358994 309.406191110611 2710.00003814697 14 19 12
138.195812702179 309.74155664444 2713.00005912781 20 25 18
146.180689334869 310.989886522293 2723.99997711182 17 22 15
153.830260038376 311.438620090485 2727.9999256134 12 17 10
160.673439502716 310.288727283478 2717.99993515015 14 19 12
167.647063732147 309.480965137482 2710.99996566772 10 15 8
175.808623433113 310.841858386993 2723.00004959106 9 14 7
182.756468653679 310.033410787582 2716.00008010864 8 13 6
189.455449581146 308.882206678391 2706.00008964539 16 21 14
197.408497333527 309.785276651382 2713.99998664856 18 23 16
205.479875206947 310.802102088928 2723.00004959106 16 17 11
214.772313833237 313.530504703522 2746.99997901917 16 17 11
223.142921924591 314.774692058563 2757.99989700317 20 23 16
230.819910764694 314.991265535355 2759.99999046326 34 37 30
237.470775842667 313.838005065918 2750 105 108 101
243.086531758308 311.42920255661 2729.00009155273 32 35 28
253.635913133621 315.296471118927 2763.00001144409 30 32 27
261.912018060684 316.196292638779 2770.99990844727 33 38 32
370.26435136795 332.094073295593 2911.99994087219 100 103 96
376.747250556946 330.821663141251 2901.00002288818 133 134 128
383.566975593567 329.891175031662 2892.99988746643 145 142 133
391.15384221077 329.644680023193 2891.00003242493 153 150 141
398.590683937073 329.28392291069 2888.00001144409 117 113 104
406.150668859482 329.036951065063 2885.99991798401 89 82 72
413.268238306046 328.447699546814 2881.00004196167 105 97 86
421.965152025223 329.112231731415 2887.00008392334 131 123 110
-176.83619260788 309.899628162384 2780.99989891052 196 183 174
-168.040826916695 307.679802179337 2760.99991798401 152 134 122
-159.237548708916 305.236577987671 2739.00008201599 156 134 120
-151.440188288689 304.575949907303 2733.00004005432 142 116 99
-143.83302628994 304.249256849289 2730.00001907349 143 114 96
-136.391535401344 304.256528615952 2730.00001907349 151 122 104
-128.85507941246 304.040491580963 2727.9999256134 152 124 103
-121.596090495586 304.492861032486 2732.00011253357 142 116 99
-114.273026585579 304.833322763443 2734.99989509583 138 119 104
-107.284680008888 306.176602840424 2746.99997901917 106 90 75
-77.1812573075294 305.638641119003 2742.00010299683 19 24 17
-68.7120035290718 301.295310258865 2703.00006866455 14 19 13
-61.5671724081039 302.413374185562 2713.00005912781 23 26 19
-54.9865141510963 306.986659765244 2753.99994850159 11 14 7
-46.9752848148346 303.756684064865 2724.99990463257 16 19 10
-39.7315472364426 305.208086967468 2737.99991607666 18 21 10
-32.133936882019 303.983837366104 2726.99999809265 17 23 13
-24.6143080294132 302.982062101364 2717.99993515015 17 23 13
-17.2196310013533 303.317606449127 2720.99995613098 15 21 11
-9.80851706117392 303.652703762054 2723.99997711182 16 19 10
-2.35131476074457 300.197392702103 2693.00007820129 13 16 7
4.98314574360847 299.528449773788 2687.00003623962 13 16 7
12.4314855784178 302.426338195801 2713.00005912781 13 16 9
27.2717047482729 302.870094776154 2717.00000762939 9 12 5
34.6697419881821 302.757024765015 2716.00008010864 16 17 11
41.9847294688225 302.086174488068 2710.00003814697 16 19 12
49.0117408335209 299.85436797142 2690.00005722046 8 13 6
56.3065148890018 299.628615379334 2687.99996376038 12 17 10
63.8032406568527 300.405770540237 2694.9999332428 10 15 8
71.285106241703 300.959557294846 2700.00004768372 9 14 7
78.7648260593414 301.40146613121 2703.9999961853 11 16 9
86.4890515804291 302.623212337494 2714.99991416931 12 17 10
94.1691994667053 303.510218858719 2723.00004959106 12 17 10
101.706080138683 303.839504718781 2726.0000705719 12 17 10
108.938612043858 303.276658058167 2720.99995613098 13 18 11
116.186261177063 302.825003862381 2717.00000762939 17 22 15
123.821027576923 303.375989198685 2721.99988365173 19 24 17
131.000459194183 302.81212925911 2717.00000762939 11 16 9
138.712480664253 303.473830223084 2723.00004959106 9 14 7
145.490661263466 302.129060029984 2710.99996566772 9 14 7
152.710452675819 301.78701877594 2707.99994468689 6 11 4
160.268008708954 302.113264799118 2710.99996566772 12 17 10
167.222872376442 301.324754953384 2703.9999961853 7 12 5
172.976762056351 298.530131578445 2678.99990081787 8 13 6
181.554645299911 300.638258457184 2697.99995422363 7 12 5
189.535215497017 301.631599664688 2707.00001716614 9 14 7
197.855114936829 303.070276975632 2720.00002861023 19 24 17
207.150667905807 305.845499038696 2744.99988555908 11 12 6
215.33066034317 306.837528944016 2753.99994850159 10 11 5
224.529817700386 309.166073799133 2775.00009536743 12 15 8
231.166213750839 307.929068803787 2763.99993896484 12 15 8
237.741902470589 306.691825389862 2753.00002098084 88 91 84
245.77122926712 307.348132133484 2759.0000629425 25 28 21
251.353681087494 304.996371269226 2737.99991607666 32 34 29
263.626605272293 310.664534568787 2789.00003433228 30 35 29
371.426463127136 325.179517269135 2921.0000038147 122 123 117
377.934068441391 323.937326669693 2910.00008583069 123 122 117
384.91103053093 323.140174150467 2903.00011634827 127 127 119
391.578197479248 322.120279073715 2894.00005340576 57 53 42
398.471295833588 321.322798728943 2887.00008392334 70 61 52
405.747324228287 320.859044790268 2882.99989700317 131 119 107
413.57421875 320.840209722519 2882.99989700317 130 118 104
422.861576080322 321.933925151825 2892.99988746643 169 157 143
-177.608296275139 303.636610507965 2792.99998283386 166 154 142
-168.171122670174 300.38383603096 2763.00001144409 151 132 117
-159.361958503723 298.000305891037 2740.9999370575 155 132 116
-151.39251947403 297.029703855515 2732.00011253357 155 128 107
-143.682330846786 296.49356007576 2726.99999809265 159 128 108
-136.248648166656 296.500653028488 2726.99999809265 160 129 108
-128.767237067223 296.398669481277 2726.0000705719 150 119 98
-121.557831764221 296.948701143265 2730.99994659424 138 107 87
-114.237159490585 297.280937433243 2733.99996757507 124 99 79
-107.016839087009 297.939002513886 2740.00000953674 120 99 82
-99.509097635746 297.835558652878 2739.00008201599 91 79 65
-78.9305120706558 304.917484521866 2803.99990081787 18 21 12
-70.0883567333221 299.810349941254 2756.99996948242 19 22 15
-61.6611540317535 295.463889837265 2717.00000762939 20 23 16
-53.7514165043831 292.748183012009 2691.99991226196 13 16 9
-39.2837524414063 294.384211301804 2707.00001716614 18 21 10
-31.9824144244194 295.147329568863 2713.99998664856 16 22 12
-24.552196264267 294.822514057159 2710.99996566772 16 22 12
-17.2711610794067 296.781122684479 2729.00009155273 16 22 12
-9.81623213738203 296.455562114716 2726.0000705719 19 22 13
-2.36540846526623 294.607102870941 2709.00011062622 19 22 13
4.97227860614657 291.562020778656 2680.99999427795 17 20 11
12.3863108456135 293.954074382782 2703.00006866455 15 18 11
19.8764558881521 295.693278312683 2719.00010108948 10 13 6
27.2831656038761 295.583307743073 2717.99993515015 13 16 9
34.5566608011723 294.385433197021 2707.00001716614 26 27 21
42.2193147242069 296.340942382813 2724.99990463257 19 22 15
49.7431308031082 296.882331371307 2730.00001907349 15 18 11
56.5189346671104 293.399661779404 2697.99995422363 12 15 8
63.664510846138 292.417854070663 2688.99989128113 16 19 12
71.5528428554535 294.698059558868 2710.00003814697 19 22 15
79.176738858223 295.564085245132 2717.99993515015 19 22 15
86.4616855978966 295.124858617783 2713.99998664856 18 21 14
93.6899110674858 294.576585292816 2709.00011062622 19 22 15
100.890472531319 294.027835130692 2703.9999961853 17 20 13
108.343668282032 294.239968061447 2706.00008964539 14 17 10
115.550763905048 293.799310922623 2701.99990272522 21 24 17
123.236030340195 294.554382562637 2709.00011062622 15 18 11
130.862534046173 295.091539621353 2713.99998664856 21 24 17
138.464882969856 295.519590377808 2717.99993515015 16 19 12
145.659148693085 295.077502727509 2713.99998664856 11 14 7
151.815921068192 292.678028345108 2691.99991226196 11 14 7
160.985633730888 296.0404753685 2723.00004959106 10 13 6
167.726159095764 294.836282730103 2711.99989318848 9 12 5
174.27696287632 293.414384126663 2698.99988174438 12 15 8
180.756315588951 291.992247104645 2686.00010871887 20 23 16
189.964950084686 294.918030500412 2713.00005912781 17 20 13
198.447063565254 296.538919210434 2727.9999256134 17 20 13
207.689374685287 299.137592315674 2752.00009346008 22 23 17
215.576022863388 299.670547246933 2756.99996948242 12 13 7
221.061676740646 296.942412853241 2732.00011253357 15 18 11
229.755893349648 298.561602830887 2746.99997901917 28 31 24
239.999130368233 302.0279109478 2779.00004386902 19 22 15
245.872467756271 299.951076507568 2759.99999046326 42 45 38
253.936648368835 300.590932369232 2766.00003242493 38 40 35
261.938035488129 301.121652126312 2770.99990844727 30 35 29
380.159586668015 317.871689796448 2927.00004577637 47 46 41
386.520028114319 316.55091047287 2914.99996185303 35 32 25
392.13752746582 314.687103033066 2898.00000190735 86 79 69
398.627609014511 313.583225011826 2888.00001144409 107 95 83
405.48437833786 312.804996967316 2881.00004196167 126 110 95
413.306087255478 312.786608934402 2881.00004196167 133 117 101
422.880679368973 314.070641994476 2892.99988746643 150 137 121
-187.018647789955 298.887997865677 2819.9999332428 208 204 195
-177.426353096962 295.717239379883 2789.99996185303 144 132 118
-168.727338314056 293.817907571793 2772.0000743866 152 136 121
-159.544363617897 290.858089923859 2743.99995803833 152 130 109
-151.344686746597 289.487808942795 2730.99994659424 154 128 105
-143.531456589699 288.753092288971 2723.99997711182 159 128 107
-136.105611920357 288.76006603241 2723.99997711182 155 125 101
-128.773719072342 288.978666067123 2726.0000705719 145 115 91
-121.653005480766 289.727002382278 2733.00004005432 132 101 80
-114.368289709091 290.156960487366 2736.99998855591 123 96 77
-107.100382447243 290.692567825317 2742.00010299683 108 85 67
-99.5867997407913 290.591716766357 2740.9999370575 100 88 74
-86.2114056944847 296.007990837097 2792.00005531311 238 234 223
-78.0900120735168 294.103711843491 2773.9999294281 23 26 17
-70.1936110854149 292.729169130325 2760.99991798401 15 18 11
-61.0061213374138 284.992754459381 2687.99996376038 15 18 11
-54.0936142206192 287.222176790237 2709.00011062622 10 13 6
-46.549130231142 286.270499229431 2700.00004768372 15 18 9
-39.0535555779934 285.318404436111 2690.99998474121 19 22 11
-31.8544171750546 286.592572927475 2703.00006866455 18 24 14
-24.6259104460478 288.290441036224 2719.00010108948 19 25 15
-17.1707775443792 287.655293941498 2713.00005912781 19 25 15
-9.73390694707632 286.595672369003 2703.00006866455 19 22 13
-2.355050528422 285.959810018539 2697.00002670288 16 19 10
4.99107968062162 285.323560237885 2690.99998474121 18 21 12
12.4098546802998 287.125617265701 2707.99994468689 14 17 10
19.8043677955866 287.230879068375 2709.00011062622 10 13 6
27.174137532711 287.017613649368 2707.00001716614 20 23 16
34.5711894333363 287.122070789337 2707.99994468689 27 28 22
49.9096624553204 290.40464758873 2739.00008201599 14 17 10
56.9827072322369 288.387477397919 2720.00002861023 10 13 6
63.8098120689392 285.733789205551 2694.9999332428 14 17 10
70.9491744637489 284.882217645645 2687.00003623962 14 17 10
79.2390331625938 288.37713599205 2720.00002861023 13 16 9
86.6890922188759 288.479000329971 2720.99995613098 16 19 12
93.3833792805672 286.248117685318 2700.00004768372 18 21 14
100.485146045685 285.50112247467 2693.00007820129 20 23 16
107.948750257492 285.813927650452 2696.00009918213 19 22 15
115.257233381271 285.702347755432 2694.9999332428 17 20 13
122.832797467709 286.226481199265 2700.00004768372 17 20 13
130.772694945335 287.492245435715 2711.99989318848 21 24 17
138.522788882256 288.227587938309 2719.00010108948 23 26 19
146.095812320709 288.538485765457 2721.99988365173 18 21 14
154.023051261902 289.485096931458 2730.99994659424 9 12 5
161.466658115387 289.47725892067 2730.99994659424 9 12 5
168.105617165565 288.091212511063 2717.99993515015 12 15 8
175.25427043438 287.658780813217 2713.99998664856 15 18 11
183.255344629288 288.603872060776 2723.00004959106 15 18 11
191.164746880531 289.336591959 2730.00001907349 17 20 13
198.893323540688 289.750963449478 2733.99996757507 18 21 14
205.888256430626 289.105236530304 2727.9999256134 21 22 16
212.145999073982 287.505447864532 2713.00005912781 21 22 16
219.777777791023 287.812888622284 2716.00008010864 20 23 16
227.759659290314 288.543820381165 2723.00004959106 21 24 17
238.369837403297 292.453229427338 2759.99999046326 29 32 25
245.795324444771 292.335659265518 2759.0000629425 33 36 29
252.571761608124 291.47607088089 2750.99992752075 25 27 22
262.801468372345 294.53632235527 2779.99997138977 23 28 22
387.996226549149 309.789538383484 2926.00011825562 225 220 214
391.478568315506 306.27828836441 2892.99988746643 85 75 65
397.679269313812 304.990351200104 2881.00004196167 104 86 72
404.376477003098 304.125666618347 2872.99990653992 169 148 129
412.607163190842 304.425269365311 2875.99992752075 163 142 123
422.168403863907 305.677115917206 2888.00001144409 177 160 142
-185.104385018349 288.217514753342 2790.99988937378 222 216 202
-176.862627267838 287.193536758423 2780.99989891052 138 126 110
-167.944252490997 284.929871559143 2759.0000629425 153 132 113
-159.435883164406 283.182114362717 2742.00010299683 149 127 104
-151.352107524872 282.053619623184 2730.99994659424 152 126 103
-143.591210246086 281.441062688828 2724.99990463257 152 124 102
-136.162266135216 281.447887420654 2724.99990463257 146 118 96
-129.016280174255 282.07403421402 2730.99994659424 133 102 81
-122.015126049519 283.113062381744 2740.9999370575 126 94 73
-114.499308168888 283.015549182892 2740.00000953674 88 59 41
-107.066616415977 283.12423825264 2740.9999370575 107 81 64
-99.5554104447365 283.02600979805 2740.00000953674 86 72 59
-93.1246727705002 286.2329185009 2770.99990844727 216 208 195
-84.8261117935181 283.758133649826 2746.99997901917 62 58 47
-78.2909616827965 287.274271249771 2780.99989891052 26 27 19
-71.036122739315 288.620859384537 2793.99991035461 18 21 14
-61.3950081169605 279.430359601974 2704.99992370605 18 21 12
-55.2345514297485 285.7346534729 2766.00003242493 13 16 7
-46.3273152709007 277.576237916946 2687.00003623962 14 17 8
-39.5054221153259 281.193971633911 2721.99988365173 19 22 11
-31.8795777857304 279.439568519592 2704.99992370605 17 23 13
-24.5365705341101 279.854208230972 2709.00011062622 18 24 14
-17.1399880200624 279.751896858215 2707.99994468689 18 24 14
-9.6875773742795 277.89306640625 2690.00005722046 18 21 12
-2.34905583783984 277.893364429474 2690.00005722046 13 16 7
4.99132927507162 277.996569871902 2690.99998474121 16 19 10
12.4013125896454 279.545783996582 2706.00008964539 16 19 12
19.805358722806 279.854893684387 2709.00011062622 17 20 13
27.1855350583792 279.750406742096 2707.99994468689 24 27 20
34.5346182584763 279.438972473145 2704.99992370605 27 28 22
42.1615988016129 281.089931726456 2720.99995613098 20 23 16
49.8574934899807 282.637238502502 2736.00006103516 11 14 7
57.0693537592888 281.394958496094 2723.99997711182 9 12 5
63.6472553014755 277.673125267029 2687.99996376038 11 14 7
71.9033256173134 281.285285949707 2723.00004959106 12 15 8
79.7965154051781 282.934367656708 2739.00008201599 12 15 8
86.5340903401375 280.554413795471 2716.00008010864 11 14 7
93.6301350593567 279.620349407196 2707.00001716614 10 13 6
100.378170609474 277.859568595886 2690.00005722046 11 14 7
107.75388777256 277.957767248154 2690.99998474121 13 16 9
114.878006279469 277.435839176178 2686.00010871887 18 21 14
122.474893927574 278.049767017365 2691.99991226196 17 20 13
130.248665809631 278.973191976547 2700.99997520447 24 27 20
138.274848461151 280.309349298477 2713.99998664856 24 27 20
146.102979779243 281.12867474556 2721.99988365173 20 23 16
154.030591249466 282.050907611847 2730.99994659424 14 17 10
164.076134562492 286.58738732338 2775.00009536743 13 16 9
168.917894363403 282.035320997238 2730.99994659424 20 23 16
177.07097530365 283.162981271744 2742.00010299683 22 25 18
184.610292315483 283.25754404068 2743.00003051758 17 20 13
192.224398255348 283.455014228821 2744.99988555908 15 18 11
199.266716837883 282.826125621796 2739.00008201599 16 19 12
206.20009303093 282.093644142151 2732.00011253357 20 21 15
212.781757116318 280.947893857956 2720.99995613098 23 24 18
219.221845269203 279.698640108109 2709.00011062622 22 25 18
226.181238889694 279.171854257584 2703.9999961853 18 21 14
233.371734619141 278.954535722733 2701.99990272522 21 24 17
243.490561842918 282.143712043762 2733.00004005432 25 28 21
387.350410223007 301.316797733307 2921.0000038147 185 178 172
390.683978796005 297.792583703995 2887.00008392334 94 81 72
396.454304456711 296.22820019722 2871.99997901917 147 128 114
403.268098831177 295.488923788071 2865.00000953674 189 166 148
411.333829164505 295.67763209343 2867.00010299683 180 158 137
420.432448387146 296.587944030762 2875.99992752075 173 154 137
-184.449926018715 279.614239931107 2780.99989891052 204 196 183
-175.726249814034 277.812898159027 2763.00001144409 137 124 108
-166.978269815445 275.809973478317 2743.00003051758 144 123 104
-158.86202454567 274.711608886719 2732.00011253357 143 118 98
-151.082262396812 274.115592241287 2726.0000705719 143 117 94
-143.492713570595 273.820906877518 2723.00004959106 143 115 94
-135.968953371048 273.626446723938 2720.99995613098 136 108 87
-129.022493958473 274.63835477829 2730.99994659424 123 92 72
-122.28811532259 276.253372430801 2746.99997901917 123 90 71
-114.922747015953 276.560753583908 2750 80 51 33
-107.423357665539 276.566058397293 2750 98 75 57
-99.9235808849335 276.571035385132 2750 91 77 64
-63.3500218391418 280.714243650436 2790.99988937378 19 22 13
-55.037546902895 277.196854352951 2756.00004196167 13 16 7
-48.0365492403507 280.216723680496 2786.00001335144 11 14 5
-39.2606146633625 272.071778774261 2704.99992370605 18 21 10
-31.9518521428108 272.677004337311 2710.99996566772 16 22 12
-24.6374048292637 273.583590984344 2720.00002861023 17 23 13
-17.0965194702148 271.673530340195 2700.99997520447 17 23 13
-9.70605853945017 271.070688962936 2694.9999332428 17 20 11
-2.36139679327607 271.976232528687 2703.9999961853 9 12 3
5.00641250982881 271.473258733749 2698.99988174438 12 15 6
12.4202501028776 272.579252719879 2710.00003814697 14 17 10
19.8136363178492 272.578477859497 2710.00003814697 16 19 12
27.2270198911428 272.778481245041 2711.99989318848 21 24 17
34.5873758196831 272.475272417068 2709.00011062622 22 23 17
42.0396961271763 272.875726222992 2713.00005912781 19 22 15
49.7141294181347 274.382203817368 2727.9999256134 11 14 7
57.4702098965645 275.888323783875 2743.00003051758 8 11 4
64.1239359974861 272.365152835846 2707.99994468689 10 13 6
71.8804150819778 273.769944906235 2721.99988365173 12 15 8
79.6838626265526 275.073826313019 2734.99989509583 12 15 8
87.0480984449387 274.768084287643 2732.00011253357 13 16 9
93.4617221355438 271.746546030045 2701.99990272522 11 14 7
100.793525576591 271.641314029694 2700.99997520447 9 12 5
107.839204370975 270.831793546677 2693.00007820129 11 14 7
114.969097077847 270.323604345322 2687.99996376038 14 17 10
122.389800846577 270.519077777863 2690.00005722046 19 22 15
129.869163036346 270.814776420593 2693.00007820129 23 26 19
137.415334582329 271.210640668869 2697.00002670288 21 24 17
144.714400172234 271.103411912918 2696.00009918213 17 20 13
154.658436775208 275.721907615662 2742.00010299683 8 11 4
163.197040557861 277.524352073669 2759.99999046326 7 10 3
171.647578477859 279.024720191956 2775.00009536743 13 16 9
176.562711596489 274.894028902054 2733.99996757507 10 13 6
184.215232729912 275.187194347382 2736.99998855591 9 12 5
191.25309586525 274.575144052505 2730.99994659424 15 18 11
198.766842484474 274.666577577591 2732.00011253357 20 23 16
206.511706113815 275.059282779694 2736.00006103516 21 22 16
213.652014732361 274.647384881973 2732.00011253357 24 25 19
219.879508018494 273.129403591156 2717.00000762939 24 27 20
224.937051534653 270.304471254349 2688.99989128113 21 24 17
232.864364981651 270.997554063797 2696.00009918213 24 27 20
240.918040275574 271.79080247879 2703.9999961853 28 31 24
252.228111028671 276.101529598236 2746.99997901917 27 29 24
260.367900133133 276.793390512466 2753.99994850159 35 40 34
389.212161302567 288.8363301754 2875.99992752075 102 85 77
395.367026329041 287.614524364471 2864.00008201599 152 129 113
402.44072675705 287.09551692009 2858.99996757507 170 144 127
410.777390003204 287.480056285858 2862.99991607666 176 151 131
419.573038816452 288.165479898453 2869.99988555908 174 153 134
-184.25951898098 271.749168634415 2778.00011634827 179 165 154
-175.41640996933 269.800931215286 2757.99989700317 129 111 97
-166.803434491158 268.047958612442 2740.00000953674 145 119 104
-159.102037549019 267.664134502411 2736.00006103516 140 113 96
-151.31102502346 267.084300518036 2730.00001907349 137 106 88
-143.710225820541 266.797631978989 2726.99999809265 136 105 87
-136.075288057327 266.412794589996 2723.00004959106 131 99 84
-129.075840115547 267.299503087997 2732.00011253357 120 88 73
-122.471958398819 269.164323806763 2750.99992752075 97 64 49
-115.13714492321 269.561260938644 2755.00011444092 76 48 34
-107.584707438946 269.468605518341 2753.99994850159 102 80 66
-100.11001676321 269.571304321289 2755.00011444092 140 128 116
-79.1994482278824 275.259256362915 2812.99996376038 40 41 33
-70.0513124465942 269.587278366089 2755.00011444092 30 33 24
-62.1726959943771 268.024682998657 2739.00008201599 21 22 14
-54.900374263525 269.006013870239 2749.00007247925 19 20 12
-47.1594445407391 267.638385295868 2734.99989509583 20 22 11
-39.7559888660908 268.031865358353 2739.00008201599 19 22 11
-32.507348805666 269.892901182175 2757.99989700317 16 22 12
-24.7110445052385 266.958475112915 2727.9999256134 16 22 12
-17.2492545098066 266.665905714035 2724.99990463257 17 23 13
-9.72813181579113 264.317899942398 2700.99997520447 18 21 12
-2.36762291751802 265.296787023544 2710.99996566772 18 21 12
5.03262225538492 265.49243927002 2713.00005912781 18 21 12
12.4437604099512 265.687763690948 2714.99991416931 18 21 14
19.8950096964836 266.274124383926 2720.99995613098 16 19 12
27.3688808083534 266.762346029282 2726.0000705719 14 17 10
34.5762595534325 264.99941945076 2707.99994468689 12 13 7
42.0572012662888 265.584766864777 2713.99998664856 16 17 11
49.5160259306431 265.876144170761 2717.00000762939 13 14 8
56.8653233349323 265.580087900162 2713.99998664856 9 10 4
64.4111558794975 266.164362430573 2720.00002861023 10 11 5
71.8310177326202 266.161173582077 2720.00002861023 14 15 9
79.3962702155113 266.646862030029 2724.99990463257 15 16 10
86.6380035877228 266.055911779404 2719.00010108948 13 14 8
93.7428846955299 265.171021223068 2710.00003814697 12 13 7
99.9399721622467 262.035340070724 2677.99997329712 11 12 6
122.077070176601 262.509018182755 2683.00008773804 19 20 14
129.537686705589 262.796700000763 2686.00010871887 22 23 17
136.810332536697 262.692630290985 2684.99994277954 22 23 17
143.754929304123 262.001305818558 2677.99997329712 16 17 11
152.296602725983 264.14680480957 2700.00004768372 13 14 8
163.027256727219 269.715875387192 2756.99996948242 11 12 6
169.923543930054 268.72992515564 2746.99997901917 15 16 10
175.473034381866 265.787243843079 2717.00000762939 13 14 8
182.473719120026 265.192061662674 2710.99996566772 12 13 7
189.511090517044 264.694482088089 2706.00008964539 16 17 11
198.339447379112 266.641944646835 2726.0000705719 19 20 14
207.426995038986 268.784582614899 2747.99990653992 20 21 15
214.756712317467 268.579393625259 2746.00005149841 20 21 15
221.022620797157 267.10245013237 2730.99994659424 19 22 15
227.289646863937 265.7231092453 2717.00000762939 21 24 17
235.811799764633 266.984045505524 2730.00001907349 27 30 23
242.800071835518 266.484349966049 2724.99990463257 30 33 26
250.127583742142 266.375571489334 2723.99997711182 33 35 30
262.175977230072 271.155655384064 2773.00000190735 33 38 32
381.813585758209 281.323075294495 2878.99994850159 66 53 47
388.55192065239 280.525267124176 2871.00005149841 103 86 78
394.555300474167 279.238790273666 2858.00004005432 152 129 113
401.894479990005 278.929173946381 2855.00001907349 170 144 127
410.22053360939 279.303282499313 2858.99996757507 172 146 129
418.567001819611 279.677093029022 2862.99991607666 178 157 140
429.763227701187 281.906545162201 2885.99991798401 176 158 144
-185.395479202271 265.80137014389 2795.00007629395 201 184 174
-176.18764936924 263.431936502457 2769.99998092651 109 89 78
-167.602464556694 261.822909116745 2753.00002098084 124 96 82
-159.690842032433 261.164516210556 2746.00005149841 120 88 73
-151.7613530159 260.410666465759 2737.99991607666 117 84 69
-144.033029675484 259.941786527634 2733.00004005432 119 86 71
-136.131510138512 259.09212231636 2723.99997711182 119 85 73
-129.176244139671 260.049283504486 2733.99996757507 115 81 69
-122.522115707397 261.767119169235 2752.00009346008 140 108 93
-115.309625864029 262.438386678696 2759.0000629425 83 57 42
-107.785016298294 262.443453073502 2759.0000629425 120 98 84
-100.405350327492 262.828677892685 2763.00001144409 160 148 136
-79.2594328522682 267.787605524063 2815.00005722046 27 28 20
-70.1562762260437 262.46377825737 2759.0000629425 22 25 16
-62.5160858035088 261.991173028946 2753.99994850159 17 18 10
-55.1026426255703 262.469530105591 2759.0000629425 16 17 9
-46.9202287495136 258.85683298111 2720.99995613098 19 21 10
-39.3949523568153 258.192867040634 2713.99998664856 21 24 13
-31.9666527211666 258.004248142242 2711.99989318848 17 23 13
-24.748433381319 259.908258914948 2732.00011253357 18 24 14
-17.060149461031 256.389200687408 2694.9999332428 18 24 14
-9.72138065844774 256.770342588425 2698.99988174438 19 22 13
-2.3694799747318 258.102536201477 2713.00005912781 18 21 12
5.04398718476295 258.673310279846 2719.00010108948 17 20 11
12.481008656323 259.053438901901 2723.00004959106 17 20 13
19.8886264115572 258.767277002335 2720.00002861023 18 21 14
27.2396299988031 258.100271224976 2713.00005912781 18 21 14
34.7055569291115 258.574515581131 2717.99993515015 20 21 15
41.7802035808563 256.479799747467 2696.00009918213 16 17 11
49.2085032165051 256.858259439468 2700.00004768372 14 15 9
57.2241805493832 259.804904460907 2730.99994659424 13 14 8
64.5325556397438 259.231299161911 2724.99990463257 12 13 7
71.7287138104439 258.372038602829 2716.00008010864 13 14 8
78.9920389652252 257.892936468124 2710.99996566772 14 15 9
86.4189490675926 257.98425078392 2711.99989318848 10 11 5
93.7818065285683 257.885009050369 2710.99996566772 10 11 5
100.616350769997 256.453692913055 2696.00009918213 10 11 5
123.038232326508 257.19940662384 2703.9999961853 8 9 3
129.495412111282 255.386471748352 2684.99994277954 12 13 7
136.510863900185 254.809737205505 2678.99990081787 14 15 9
144.35201883316 255.754500627518 2688.99989128113 16 17 11
152.698412537575 257.459819316864 2707.00001716614 14 15 9
163.38948905468 262.778729200363 2763.00001144409 13 14 8
167.394980788231 257.350295782089 2706.00008964539 9 10 4
174.512192606926 256.962239742279 2701.99990272522 10 11 5
181.674242019653 256.668925285339 2698.99988174438 14 15 9
188.539117574692 255.995005369186 2691.99991226196 18 19 13
197.402492165565 257.983416318893 2713.00005912781 16 17 11
207.964733242989 261.968195438385 2755.00011444092 14 15 9
216.174095869064 262.814521789551 2763.99993896484 13 14 8
222.084641456604 260.903209447861 2743.99995803833 13 16 9
229.809507727623 261.178493499756 2746.99997901917 14 17 10
238.932028412819 262.97464966774 2766.00003242493 20 23 16
245.038464665413 261.442929506302 2750 22 25 18
252.066969871521 260.956734418869 2744.99988555908 31 33 28
259.918302297592 261.325865983963 2749.00007247925 29 34 28
384.084016084671 275.10592341423 2895.99990844727 69 56 50
388.161897659302 272.430390119553 2868.00003051758 76 59 51
394.433408975601 271.36966586113 2857.00011253357 140 119 102
401.347786188126 270.783722400665 2851.0000705719 162 139 123
409.519702196121 271.052360534668 2854.00009155273 161 138 122
417.852848768234 271.415740251541 2858.00004005432 169 147 133
428.142338991165 273.013323545456 2875 169 151 137
-186.133340001106 259.205728769302 2805.99999427795 201 181 172
-176.958754658699 256.996631622314 2782.00006484985 108 84 74
-168.40136051178 255.526065826416 2766.00003242493 109 81 69
-160.279497504234 254.60946559906 2756.00004196167 118 89 75
-152.322426438332 253.877252340317 2747.99990653992 106 74 59
-144.513815641403 253.329485654831 2742.00010299683 110 77 62
-136.637359857559 252.596527338028 2733.99996757507 117 84 67
-129.323780536652 252.879589796066 2736.99998855591 112 79 62
-122.527621686459 254.27109003067 2752.00009346008 118 86 71
-115.314804017544 254.923135042191 2759.0000629425 81 53 41
-107.789866626263 254.928082227707 2759.0000629425 89 62 51
-78.1367272138596 256.423085927963 2775.00009536743 23 19 10
-70.4137459397316 255.871951580048 2769.00005340576 26 23 16
-62.7913251519203 255.597710609436 2766.00003242493 19 20 14
-55.1251173019409 255.045890808105 2759.99999046326 15 16 8
-47.0948033034801 252.368330955505 2730.99994659424 17 19 8
-39.2806120216846 250.060051679611 2706.00008964539 18 21 10
-31.9681018590927 250.616103410721 2711.99989318848 14 20 10
-24.5502553880215 250.432550907135 2710.00003814697 15 21 11
-17.1685460954905 250.618308782578 2711.99989318848 16 22 12
-9.6641918644309 247.939005494118 2683.00008773804 17 20 11
-2.35124584287405 248.770952224731 2691.99991226196 17 20 11
5.0386511720717 250.988781452179 2716.00008010864 16 19 10
12.4953277409077 251.912504434586 2726.0000705719 14 17 10
19.8749043047428 251.172482967377 2717.99993515015 14 17 10
27.2308234125376 250.616937875748 2711.99989318848 12 15 8
34.3751274049282 248.767361044884 2691.99991226196 15 16 10
41.5961295366287 248.026371002197 2684.00001525879 17 18 12
49.3200942873955 250.057369470596 2706.00008964539 16 17 11
57.2686828672886 252.550005912781 2733.00004005432 15 16 10
64.5117908716202 251.715570688248 2723.99997711182 13 14 8
71.3093876838684 249.494835734367 2700.00004768372 12 13 7
78.8207650184631 249.953478574753 2704.99992370605 13 14 8
86.4547342061996 250.689059495926 2713.00005912781 14 15 9
93.8206315040588 250.592619180679 2711.99989318848 13 14 8
101.143404841423 250.403493642807 2710.00003814697 10 11 5
107.974261045456 249.105244874954 2696.00009918213 10 11 5
116.482205688953 251.595020294189 2723.00004959106 10 11 5
122.315682470798 248.355880379677 2687.99996376038 13 14 8
129.597648978233 248.257905244827 2687.00003623962 14 15 9
