ply
format ascii 1.0
comment KinectMotionCapture
element vertex 765
property float x
property float y
property float z
property uchar red
property uchar green
property uchar blue
end_header
164.206279648609 911.675193486828 2789.8439201068 134 106 92
170.713376147339 909.253919088226 2803.57856004772 135 103 88
173.950040784765 907.696375629007 2814.76481516229 136 104 89
173.060012308536 907.223214764001 2822.80344399602 139 106 89
172.18972898396 906.747728577461 2830.82314712578 142 107 88
167.991023092279 907.142989136073 2836.35101412427 139 102 83
164.635372810094 907.319426689535 2842.49130354419 131 94 75
158.764981360232 908.151209262694 2846.78050477346 109 72 53
156.262189342538 908.107601068497 2853.5233253123 150 113 95
153.771257995346 908.062674554804 2860.25456287705 126 90 74
154.678711489428 907.138430352863 2869.40909194023 117 84 67
147.127552463978 908.408102710565 2872.46878166401 119 86 69
136.162870336325 910.55923705015 2873.11989548059 128 92 76
124.318861400162 912.933930824415 2873.19424251233 135 99 83
121.842335290629 912.888072834024 2879.91131313498 100 64 48
116.808569666838 913.502904417275 2884.81904497264 126 90 74
108.341727116383 915.001499184111 2887.33694018124 150 118 105
96.4189274313809 917.386833410118 2887.48795493719 165 136 122
88.7758769885187 918.669387455263 2890.6369902891 170 143 132
-12.409045015513 918.960510416434 3144.10944087998 252 252 252
-12.5706022352583 918.427711153875 3151.43350151635 253 253 255
-17.4308781197832 919.051099513317 3156.16769079048 247 247 249
-18.5104315399354 918.748785447735 3162.95269813715 238 238 240
-12.9448354099546 916.821792366692 3173.29780366216 229 229 231
-7.33775384612922 914.890807732893 3183.60230348785 209 208 213
-5.49343535564484 913.885476197102 3191.83883427472 200 199 204
-6.48284998287973 913.576470279628 3198.53498367832 178 177 182
-3.63775334068617 912.334758166187 3207.22923538819 181 180 185
-1.71986805428626 911.323762503168 3215.39321257273 179 179 181
-3.61194173950707 911.24485451957 3221.5347980728 160 160 162
-9.33727325834655 912.100912438325 3225.67670260271 147 147 149
-15.0679323456466 912.959057233571 3229.82358904742 160 160 160
-15.9800777368728 912.647917279756 3236.44332436706 156 156 156
-19.7785125919099 913.040010312991 3241.57418446793 134 134 134
-24.5433187172894 913.667933432583 3246.21290062436 132 132 130
-31.2508497599615 914.767772692021 3249.8772037076 132 132 130
-34.0778635213992 914.929119004609 3255.49444188455 136 136 134
-27.1532952698963 912.735423373005 3265.9467336838 146 147 142
130.577390718727 916.223252436577 2729.04293100465 140 124 109
129.453468825053 915.791653124772 2737.30801452206 123 100 86
133.289611135248 914.073898822458 2749.33956785602 92 66 51
150.374504812055 908.923428006957 2771.39450752539 123 95 81
160.118565757005 905.690183680472 2787.7027778337 124 98 83
167.444745303328 903.092466682139 2802.066705815 134 105 91
169.842406220173 901.777163728731 2812.63339166817 135 103 88
169.77586300196 901.102978907225 2821.30124588004 132 101 83
168.897577263041 900.641428763075 2829.32649794256 133 100 81
165.528257152315 900.824307121748 2835.4794097561 123 88 68
161.327807237073 901.222205264127 2841.00861876204 114 79 59
154.609133768414 902.267900568862 2844.69198889186 111 79 58
152.939444823589 902.016702814482 2852.05511672787 87 54 35
149.596140903176 902.196773169598 2858.18260910154 69 37 22
149.647129115583 901.508846120551 2866.7354461186 73 44 28
140.387485712929 903.205455043556 2868.59476641165 86 57 43
130.25802189543 905.121961316466 2869.86808334296 67 38 22
122.662890489301 906.388921455739 2872.97183915549 74 45 27
119.3282955849 906.56866049575 2879.09073231574 98 69 51
116.001353526671 906.747742654945 2885.20178533132 128 96 81
105.816694606981 908.671783797855 2886.52913600653 130 102 88
97.3289062276286 910.162050917513 2889.06906155548 148 122 107
87.9640231751715 911.872988409442 2891.03076862029 161 139 126
-14.7714281761577 913.922626916386 3128.77874676379 147 147 145
-13.0997769869765 912.949218513559 3137.18168266623 255 255 255
-11.4018598896335 911.973560314538 3145.55886865249 252 252 254
-12.5021840263964 911.681248869037 3152.36268540293 244 243 248
-15.4746841724815 911.845885963431 3158.1242451764 246 245 250
-13.7138707663276 910.865483001932 3166.43967547205 243 242 247
-7.19058002960971 908.736409357808 3177.28089067392 223 223 225
-3.46944318219977 907.291293657215 3186.55253163082 205 205 207
-4.47045642632027 906.992123503054 3193.25874491093 193 193 195
-6.41013534800816 906.922342263732 3199.44625418573 182 182 184
-6.4295309206277 906.391965511832 3206.62878815895 181 181 183
-7.38772026078527 906.091052791375 3213.29273421991 160 160 162
-11.208273462608 906.482029213211 3218.44606104278 154 154 156
-15.9872614447676 907.105017734971 3223.09958932405 153 153 155
-20.7678354858181 907.729621456491 3227.75445385942 149 149 149
-21.6907399209996 907.429390801011 3234.38326067922 136 136 136
-26.4664923163331 908.056158212321 3239.03301745671 131 131 131
-31.2438732877114 908.684546183353 3243.68415191626 130 130 128
-36.0228828351348 909.314554714108 3248.33666405789 141 142 137
-27.1878135608086 906.689801824296 3259.78932880903 146 147 142
123.752804590967 910.04977314704 2733.89846482291 126 104 90
129.222089639173 907.940041785303 2747.20037379137 104 81 67
147.122000093705 902.651250061384 2769.88334283987 119 93 80
156.030608774567 899.678563647918 2785.5654720912 119 93 80
163.346985184519 897.121696504175 2799.93343498316 130 102 88
165.734843080005 895.831216907966 2810.50618650011 130 101 85
166.491547239365 894.961417319689 2819.80236499103 129 98 80
164.770513934354 894.726540131761 2827.21406636312 130 99 79
162.228365214975 894.702635681784 2833.99305648374 128 96 75
159.698077704605 894.677353875598 2840.76047182113 123 91 70
154.657147145046 895.290847897443 2845.67551623691 111 78 59
153.830163124383 894.836275248994 2853.64879366401 90 57 40
148.799433989296 895.448778063322 2858.55385441453 80 51 35
148.848662471362 894.776568619701 2867.1064536566 89 61 47
139.587231269066 896.459663186687 2868.96954667705 79 51 39
131.156993420621 897.930645506882 2871.45517398299 83 56 39
120.154312465409 900.048063558766 2872.14900444966 76 49 30
115.105208919104 900.66364935433 2877.07185559886 92 65 46
110.912718005945 901.064010260886 2882.59313504459 120 91 75
102.432858330478 902.541719951446 2885.12704325591 132 106 91
93.9378579431298 904.021561206712 2887.67600921561 141 118 102
87.1517479847919 905.071571165813 2891.42570707254 160 141 127
-3.75834437208233 906.171066217948 3113.32029391615 227 227 225
-2.131937971936 905.218044877483 3121.76514536403 249 249 247
-7.94854938802114 906.061845640592 3125.99950378352 251 251 249
-9.09200479187611 905.781694022855 3132.84435330255 255 255 255
-9.28327516509597 905.275225635956 3140.19402784764 244 243 249
-9.45580707889393 904.767384400645 3147.5256355739 240 239 245
-11.4928524377484 904.710113623123 3153.80798211937 239 238 244
-12.5760567509845 904.426553184743 3160.59350523694 237 236 242
-7.97290120138827 902.784015696589 3170.43537675563 211 210 215
-6.17382461029958 901.817659077126 3178.71073509979 214 214 216
-4.34856822237295 900.849181454822 3186.96041000197 187 187 189
-6.30177785570085 900.786884921692 3193.16024923715 183 183 185
-7.29158116072881 900.497210809488 3199.85392737117 177 177 177
-9.22193810540151 900.434392084898 3206.03115072836 160 160 160
-10.1849370773857 900.14368457576 3212.69870234103 144 144 146
-14.9694302107761 900.764949387421 3217.35795208245 140 140 142
-20.7162454698433 901.616062763461 3221.52158324325 133 133 135
-24.5425767215317 902.011954386972 3226.6799212904 135 135 135
-27.4019272145072 902.179971886745 3232.32828432124 141 141 141
-31.2217762005118 902.577830890422 3237.47955676281 134 134 134
-36.9762976180139 903.435445781958 3241.6502171737 132 132 130
-34.97191330323 902.458008037165 3249.72333969871 148 149 144
109.509813024743 905.743354398054 2733.0910989458 135 119 104
135.616185279813 898.446093443028 2762.09222553294 120 98 84
152.769917225226 893.430946344241 2784.05880699774 130 104 89
162.565910477682 890.286861530601 2800.30233001993 132 103 89
164.120367032128 889.229968417578 2810.25089024855 133 104 90
166.539278198909 887.959456437829 2820.78985420305 124 95 79
163.983264811018 887.944729921755 2827.58125564984 123 92 74
162.27606163516 887.718428770931 2834.9779559647 131 98 79
156.390320168603 888.542698407448 2839.28384823822 117 84 65
153.863961715678 888.524600266493 2846.0459623789 91 59 38
150.506920396484 888.716191264199 2852.18539344669 94 61 42
149.692017337921 888.273114691261 2860.14531302688 99 63 47
148.896417902799 887.827794534256 2868.08605758239 95 59 43
138.786516458983 889.708753147475 2869.34520271603 91 55 41
128.653698807558 891.59254174396 2870.62668571229 90 59 41
115.940814604487 894.115825305744 2870.12496790498 87 58 40
110.882193677731 894.731903292422 2875.05719720803 92 65 48
106.679948323918 895.135747754529 2880.58731024755 115 88 71
97.3327127327273 896.816214435674 2882.53599669497 138 117 100
89.6864122881063 898.073290880355 2885.69202492488 145 126 109
-3.16650497530357 900.352569064485 3099.42245328121 186 186 184
-8.0793998145805 900.971386802223 3104.20956949116 255 255 255
-5.55497587658804 899.817570483743 3113.2092629766 253 253 253
-5.79527372201083 899.326881669536 3120.60562815439 250 250 250
-6.95071308967776 899.056909238347 3127.46087344731 255 255 255
-8.09149319377411 898.78609124411 3134.30168684865 245 245 247
-8.28003153224977 898.291766794125 3141.64719141627 238 237 243
-9.38957983726585 898.01901647546 3148.45727677615 230 229 235
-10.4846405628516 897.745619143741 3155.25307138372 239 238 244
-9.67843691682413 897.024566325781 3163.06120212723 230 229 235
-6.0140806196638 895.63071739796 3172.38164980327 213 212 217
-6.10496055251231 895.129401786511 3179.63087357907 204 204 206
-5.22812301411646 894.402687729548 3187.36970055195 180 180 182
-8.1335236266189 894.572015909871 3193.0639361562 178 178 180
-9.12639144770644 894.292399016152 3199.75917094747 158 158 158
-12.9699499025882 894.686937310676 3204.9344780415 149 149 149
-16.8108830640628 895.082324021781 3210.10705278476 139 139 141
-20.6490238529744 895.478584017402 3215.27706343171 135 135 137
-26.4065620260703 896.327334151067 3219.45169189084 140 140 142
-31.2064598319766 896.95201518713 3224.12573378331 149 149 149
-36.0077741666647 897.578349019816 3228.80093802719 134 134 134
-37.9107571394934 897.52682157774 3234.94930977905 129 129 127
-39.8035053253274 897.475301192322 3241.08751719316 147 147 145
124.935884626046 893.959767370853 2754.93982650187 119 97 83
146.200242373603 887.987513005212 2780.05117808755 128 102 87
157.638592348048 884.479845983042 2797.55137253339 131 102 88
160.843619083937 883.031609308111 2808.7528890569 131 102 88
164.087633511726 881.578516583955 2819.91640794797 130 101 85
162.360714968859 881.364961444213 2827.33080205884 130 99 81
161.486620699397 880.941789286306 2835.34655752261 125 92 73
157.276541419056 881.347800715858 2840.88412949014 106 73 54
154.752364995364 881.336962467326 2847.6433416766 92 60 39
151.397110207121 881.533176726101 2853.77997753479 84 49 30
147.20547930523 881.937026312986 2859.2998873512 74 37 19
145.557615487027 881.714153726164 2866.63715606644 70 33 15
137.13727373172 883.161467294604 2869.11679247877 68 31 15
131.252960399528 883.98309323929 2873.42131948826 76 43 26
117.693599489482 886.690544638164 2872.3156984786 76 45 27
112.638978406268 887.305764568049 2877.2440826983 98 71 54
103.303392051688 888.970846034771 2879.18347520953 123 96 79
94.8067696751633 890.428306707003 2881.73735966885 139 118 101
85.4346188648862 892.098246617566 2883.71200530724 147 130 114
4.95499418217538 894.368413759421 3066.73574532981 152 152 150
10.1104065797495 892.592893071894 3077.46611965311 218 218 218
0.586708940287117 894.2976235761 3079.58611149861 255 255 255
-1.58090500857089 894.26129467481 3085.99501938394 255 255 255
-1.88948060699223 893.787999711403 3093.45661457623 254 254 254
-4.95712687162708 893.968772341613 3099.3099331848 250 251 253
-5.23412784119515 893.493206990506 3106.74050986619 253 254 255
-4.56298856139714 892.797390886785 3114.67869370465 243 244 248
-3.86911259415834 892.099520988001 3122.59494106838 240 241 245
-5.01983936663297 891.838730246594 3129.44448747686 243 244 248
-6.15616060452462 891.577256904272 3136.27949202267 235 236 240
-8.2152121533694 891.534789997264 3142.58150303451 227 226 232
-9.32408508039817 891.271802330496 3149.38947481837 234 233 238
-10.4185124066425 891.00811397392 3156.18320546875 225 224 229
-8.66838023533312 890.081303932053 3164.50132137838 212 211 216
-7.83732459225295 889.373334552265 3172.28283999499 196 195 200
-7.93108367769735 888.8847523194 3179.53337866608 185 184 189
-8.00682434746713 888.395149962203 3186.76583771597 176 176 178
-9.96620012003602 888.347724318429 3192.96960210762 163 163 165
-13.8212414375998 888.744064023208 3198.15604560638 142 142 144
-17.6734053482916 889.141266292576 3203.33984215291 145 145 147
-21.5231551774111 889.539474580697 3208.52075494963 145 145 147
-24.411334238339 889.715712910083 3214.19686798157 151 151 153
-32.0970207957036 891.007356950988 3217.38689812805 153 153 153
-36.9076657484855 891.632331396804 3222.07156873041 129 129 129
-42.6845389950996 892.482398616004 3226.26520253871 122 122 122
-42.6668025603529 891.992026117136 3233.40528911057 137 137 135
125.8097320968 886.55473150374 2756.58345343053 114 95 80
137.976037471343 882.908619865861 2774.79848661636 118 95 79
150.223762416098 879.252610848322 2792.93379395177 128 100 86
152.580190605666 878.03697399537 2803.52669390655 124 95 81
157.470554416474 876.203933109996 2815.94533833049 126 97 81
158.233215766116 875.388446369251 2825.22791167024 129 98 80
159.859883712832 874.364789480253 2835.09985261946 125 94 74
157.323753738537 874.363124114152 2841.86957911036 109 78 58
153.958590812885 874.565422894851 2848.01515460578 120 88 67
147.230901139772 875.589256993093 2851.71070903668 122 87 68
141.340324051252 876.408239353945 2856.02218461132 119 84 65
139.678845539161 876.197402660251 2863.37119401911 112 77 58
135.487578202302 876.603578204956 2868.89006119253 108 71 55
129.599719519113 877.422512711756 2873.1988444233 132 99 80
117.741447768843 879.689689373981 2873.3029077805 129 98 78
110.978422032521 880.718449895068 2877.03282332138 115 88 69
102.495380987361 882.162876409998 2879.57514776065 124 97 78
93.9968645334996 883.609443790479 2882.13218524854 152 131 114
85.4832509619259 885.058019302274 2884.70425543856 168 151 135
19.8404398543914 885.659620638756 3053.24143354991 116 114 115
6.68775786933073 888.20113836955 3053.17374643931 144 142 143
5.38472633128295 887.960740478306 3060.17118183515 187 185 186
3.18058850648217 887.933851435691 3066.61496326222 248 248 248
1.90560375050319 887.691509960237 3073.58483504975 255 255 255
1.56563943062604 887.232976377071 3081.07508013891 246 246 248
0.322609506934857 886.988303545325 3088.01390272104 247 247 249
-0.90562899673996 886.742545652713 3094.93785973396 250 250 252
-3.04475434815821 886.711706510329 3101.31766663693 246 247 251
-3.31748884054139 886.248235668758 3108.74188123818 241 242 246
-3.57135624502503 885.78325782546 3116.14792111844 225 226 230
-3.80690545972362 885.316986191235 3123.53562414519 235 236 240
-4.02350309072164 884.84925587207 3130.90506140416 229 230 235
-7.96380309973088 885.248324029209 3136.17576477981 217 218 223
-10.0261091330824 885.213461598515 3142.4798836046 226 225 230
-12.0776255024038 885.178300398107 3148.77333229153 235 234 239
-10.3529870297008 884.271510357575 3157.11380487329 214 213 218
-7.65885185232396 883.144463734094 3165.941353882 203 202 207
-6.82546615982993 882.45136864087 3173.71802247004 190 189 194
-7.86372115804479 882.193500004894 3180.45545085814 180 180 182
-8.88778266894175 881.934916531103 3187.17855271424 160 160 162
-13.7014113117155 882.551775607437 3191.86738561293 154 154 156
-18.5163267777781 883.17003525365 3196.55728934256 152 152 154
-24.2875790940027 884.009133289455 3200.7469627244 155 155 157
-30.0636070911131 884.850058683164 3204.94144618726 158 158 160
-35.8447484553905 885.692867043409 3209.14072899767 133 133 133
-42.5921353207914 886.757998811447 3212.84940141213 122 122 122
-45.4976818688841 886.943325941246 3218.54141729484 124 124 122
-47.432285832139 886.908463125144 3224.7187261332 134 134 132
125.032907824785 879.556547765407 2756.97227059878 112 95 79
130.579144147121 877.574984589172 2770.17882261263 113 92 75
137.834208115121 875.1847219094 2784.58270775681 127 100 83
140.992389545466 873.794991022795 2795.82209523126 124 95 79
147.521795863883 871.593334530417 2809.5021217608 127 98 82
153.270554034165 869.587183758533 2822.51120062173 125 96 78
155.722320652096 868.383777207414 2833.00728263251 128 97 77
154.854173531147 867.986037475897 2841.01337358839 121 90 70
149.801884711053 868.599312259817 2845.93972932806 120 88 67
145.592401184423 869.009848153613 2851.47604098951 113 80 61
141.387379508032 869.41980852238 2857.00834487205 97 62 43
138.879240607925 869.422588266102 2863.74928098521 91 56 37
135.534773521357 869.627749070395 2869.87422004264 93 57 41
128.796421519046 870.647515230523 2873.58062572153 108 76 55
116.936603900863 872.892996301427 2873.68976858934 123 92 71
107.608966249819 874.529360359323 2875.62551234093 119 92 71
98.2620713173805 876.168106172607 2877.57968899323 130 103 84
92.3287865676978 876.990054790861 2881.93313549519 159 140 123
29.2874248336754 879.313326946535 3020.70926963836 125 124 122
23.4120037269281 880.137533883071 3025.00492290905 218 217 215
14.3680259163648 881.157121816524 3035.25194123593 250 248 249
13.0279339096457 880.929120902492 3042.28434595719 254 252 255
10.7926277548098 880.911173473372 3048.75775643017 254 252 255
7.65640961468472 881.104056800902 3054.677715811 252 250 253
6.35571054662298 880.87333059643 3061.67140555858 255 254 255
5.98639073424856 880.429570841002 3069.18895536245 255 255 255
6.55372828360301 879.772020283652 3077.22456022267 254 253 255
5.30411030513012 879.537259180168 3084.16845989147 242 241 246
3.1473327706526 879.514129476803 3090.56465622144 237 236 241
1.00139202234217 879.490472225832 3096.94983159187 231 230 235
-2.05906972857095 879.679466264124 3102.79513859357 231 232 237
-1.40142498854079 879.014822736891 3110.74245325831 198 199 204
-2.58079950972689 878.775583060563 3117.61692422475 212 213 218
-2.8135321938807 878.32150368004 3125.00036622725 220 221 226
-3.96133316322933 878.080111689441 3131.84380230109 206 207 212
-7.90101210866467 878.480929585269 3137.11363034082 214 215 220
-8.08759701171935 878.023863047353 3144.45168841506 231 230 235
-9.19524673423533 877.780416764264 3151.25555733079 223 222 227
-6.5230555964062 876.675609286293 3160.10127231717 206 205 210
-6.6504001274037 876.214199905991 3167.38114569643 200 199 204
-6.75951150292509 875.751507454688 3174.64276507811 185 184 189
-9.69145687076445 875.935032287272 3180.36126175781 169 169 171
-13.5658957037856 876.334878795965 3185.56644897209 148 148 150
-20.2903386061863 877.384544714952 3189.25496137985 153 153 155
-26.0710275516591 878.219937975218 3193.45455303824 160 160 162
-33.7665053153926 879.490879949811 3196.65736575374 147 147 149
-38.6042643404343 880.113316703785 3201.36933610042 135 135 137
-46.3194095591808 881.389142757562 3204.59129486671 118 118 118
-49.2443280409023 881.580109381942 3210.30137600906 118 118 118
-47.3493455598364 880.682213718139 3218.47137988737 137 137 135
121.780167036472 873.147297058636 2755.48159962846 115 102 85
124.009466828298 871.994756921648 2766.19107645244 110 91 74
126.274158623033 870.83785996008 2776.8663902731 119 93 76
129.405058430354 869.477927420982 2788.12846461976 115 88 71
135.073956824669 867.51581028683 2801.21033726634 123 94 76
143.298304943752 864.949544439727 2816.09496927081 118 90 69
148.237510368535 863.174078556366 2828.45694153191 117 89 67
149.029365765406 862.391779996554 2837.70528171056 117 89 67
144.804152225511 862.806480755041 2843.25659794253 123 92 71
142.268561436662 862.820197248585 2850.02351558217 123 92 72
139.744918506653 862.832348555852 2856.77880015521 93 58 39
138.926012934425 862.441918043877 2864.73457538383 85 50 31
133.884544191569 863.053887753963 2869.65037951619 85 49 33
125.441802532774 864.470707799196 2872.15676629323 96 64 43
114.426815796285 866.493911816136 2872.87674137584 118 88 64
101.676352096444 868.923821781248 2872.42580329917 117 90 69
88.8915751407136 871.357985470744 2872.00864793622 130 105 85
80.3625664729526 872.785929756399 2874.59871712855 161 142 127
15.6069484201971 878.834500997403 2964.9313310196 129 128 124
26.5788350977392 875.745087865274 2979.99909403713 127 126 122
23.3331119130673 875.949961047922 2986.02568360863 155 154 150
20.9900898818374 875.947774763136 2992.60372804895 226 225 221
15.9679346472363 876.565447396682 2997.49951069252 255 255 253
17.2368833159524 875.733735975673 3006.2813933988 227 226 224
18.5325677355572 874.899479652022 3015.03710324471 251 250 248
18.0500403083412 874.477598493855 3022.66383623652 255 254 255
13.9683277558396 874.885235843297 3028.07369783544 253 251 252
12.609737209162 874.668988938483 3035.12307248491 255 254 255
12.1745149777617 874.243221155572 3042.70306731741 255 254 255
10.8479724306316 874.024303412113 3049.72067473636 252 250 253
9.53664402410759 873.804234279231 3056.72334446364 247 245 248
8.2405283842526 873.582882954572 3063.7114350381 247 245 248
6.95916057024437 873.360570002439 3070.68468508961 245 244 249
7.52920430597293 872.717997144271 3078.71572681135 245 244 249
6.28170758565227 872.49306532973 3085.65572943284 227 226 231
5.04929906999818 872.266821095514 3092.58094321911 221 220 225
1.98416848478278 872.46017771945 3098.43024165404 230 229 234
0.777679277963461 872.232435009309 3105.32993865757 208 209 214
-0.413937541005716 872.00376089959 3112.21500482056 197 198 203
-1.5908089850809 871.774112433469 3119.08557261775 215 216 221
-4.61587712732614 871.965838741838 3124.89532941451 203 204 209
-5.76700040819844 871.734831313071 3131.7405297591 204 205 210
-10.6452884379813 872.3495221879 3136.49389084417 226 227 232
-8.9624127555501 871.481786148238 3144.87006232976 224 223 228
-9.13181703361632 871.036116549643 3152.18937532676 214 213 218
-6.45904960321886 869.951934478931 3161.03146961992 195 195 197
-8.47232214892779 869.928286401823 3167.28523999006 187 187 189
-10.4748039535911 869.90422148157 3173.52835660407 159 159 161
-14.3611120732365 870.306330897182 3178.74499573876 155 155 157
-20.142386837696 871.135829119854 3182.94637825005 151 151 151
-28.7816251871704 872.608084484921 3185.63969582962 142 142 142
-35.531740589728 873.655751642825 3189.35365898357 118 118 118
-42.2905857685119 874.70574463518 3193.07628501904 118 118 118
-49.0586660274688 875.758153239395 3196.80738675727 122 122 122
-53.9182390451574 876.383634837885 3201.54056869442 124 124 124
-51.0933213759452 875.291344913472 3210.23311173047 131 131 129
121.002841032964 866.12990680318 2755.87341589635 118 105 88
120.748671450071 865.588585532845 2764.70794868712 110 93 75
120.51809942627 865.044230446409 2773.51949714958 124 98 81
122.804278671112 863.908448056232 2784.17035289021 116 89 70
127.624323713103 862.17921177962 2796.64348261526 121 93 72
131.656538408562 860.64081750822 2808.45416167992 117 89 68
136.568225945401 858.900382051952 2820.83794428672 121 93 71
139.010521179893 857.745685355443 2831.33657006802 123 95 73
139.80645973927 856.981329290806 2840.57820371299 124 93 72
140.629755933349 856.213760236926 2849.79314570068 124 93 73
139.791470783138 855.838556026122 2857.76625253805 133 102 82
136.433267374804 856.055119399578 2863.90314667131 132 101 81
130.537461023149 856.86569283077 2868.22071997569 128 95 78
122.087082481737 858.272389487023 2870.73618652253 127 97 73
111.064575155344 860.277376725212 2871.46632209403 133 103 79
89.7642293412946 864.673649610039 2865.0448090633 135 108 87
68.3906286245764 869.078921564015 2858.69470917533 159 136 118
53.8088277866873 871.897652973712 2857.17102967373 179 160 143
25.4239549597215 877.916707614311 2846.20876003484 171 157 144
42.7451725901769 868.304321904432 2942.37318559077 198 197 193
41.2085829155835 868.11324022191 2949.59525875471 255 255 251
44.987029295223 866.705463285852 2960.22138116354 253 252 248
41.7227817721324 866.915607159111 2966.26592451315 251 250 248
34.0306157494092 868.140076982648 2969.4723171845 252 251 249
25.4378440025556 869.569736915233 2972.12578832709 255 254 252
20.3933037679951 870.187872780648 2977.04373114106 254 253 251
18.0272613805359 870.195559936978 2983.64283800315 253 251 252
15.6729475071313 870.202168271629 2990.23079556877 255 255 255
13.3299803288227 870.207935863336 2996.80760995986 255 255 255
14.5933204029172 869.395152862178 3005.59226447132 250 250 252
16.7842928130959 868.375056894373 3014.90365428577 254 254 255
18.1032759948776 867.556556509541 3023.63389939554 252 252 254
15.8311192396479 867.555932981827 3030.14134259441 253 253 255
13.5702230681902 867.554597504522 3036.63770909296 239 238 243
12.2289695357942 867.346851389087 3043.66827357601 234 233 238
10.9028456482028 867.137905567442 3050.68399141415 234 233 238
9.59193590121821 866.927808356376 3057.68477156063 232 231 236
9.21035971499418 866.510124743433 3065.21063808244 232 231 237
9.7637296508073 865.884396089301 3073.25574756798 235 234 240
8.50373499127022 865.67012103786 3080.20658576294 220 219 225
6.33879570384233 865.661818958535 3086.60869531789 215 214 220
4.18503196587805 865.652815649546 3092.99981102845 226 225 231
1.11828869330788 865.850988184723 3098.84966125419 194 193 199
-0.0893143839677535 865.633338589417 3105.74931043158 193 194 199
-1.28242473832252 865.414759526413 3112.63436765378 205 206 211
-2.46062018767335 865.19524370387 3119.50475260749 213 214 219
-5.48700530963853 865.391676638098 3125.31512154733 200 201 206
-7.57291761802703 865.379426772679 3131.63933962492 213 214 219
-9.64799666821614 865.366754704155 3137.95286251841 224 223 228
-8.90019446218471 864.725962823107 3145.80678638175 217 217 219
-9.06899065077216 864.292776925211 3153.12365045139 206 206 208
-9.21959620103774 863.858313316278 3160.42230195141 181 181 183
-12.1811109407917 864.052406221901 3166.16859949797 168 168 170
-17.9711764995703 864.877233718883 3170.37940172917 151 151 153
-23.7663938761941 865.703785161149 3174.59472715131 151 151 151
-30.5152437042753 866.742788224359 3178.3090519625 134 134 134
-36.3221737615995 867.573057051541 3182.53545882185 129 129 129
-44.0396293216052 868.827473832398 3185.76287607235 120 120 120
-52.7249957440246 870.296181368504 3188.50218603584 117 117 115
-56.6428783008472 870.709570340192 3193.74884978194 117 117 115
-54.8060234063619 869.852319969248 3201.97056785648 126 126 124
-31.808572998957 864.324572994733 3221.04416901768 137 137 135
114.449066665788 860.456436503439 2751.88399693239 117 104 87
113.352146642352 860.125807999719 2760.10734375216 110 93 75
109.787509002837 860.372477575057 2766.44444260315 117 91 74
112.879280368102 859.070077991025 2777.73686872557 116 89 70
115.177232431823 857.956575887038 2788.37274086645 117 90 69
120.015032760656 856.256931402789 2800.82420351719 118 90 69
125.736192737703 854.357468305929 2813.8445815582 120 92 70
129.830788821553 852.840517376084 2825.59014566551 124 96 74
134.808722218023 851.123868587038 2837.90462949537 122 94 72
136.463124322637 850.18114568837 2847.73740584938 124 96 75
134.77036049956 850.015354277285 2855.11082436037 119 90 72
128.861017804176 850.824436825148 2859.44239764807 114 85 67
121.251200044911 852.025375293311 2862.57049520053 118 87 69
112.779750277171 853.42352423542 2865.10814913502 124 93 72
99.1792404861522 856.000298928358 2864.06270353252 130 102 78
74.4353891586247 861.133683862291 2855.28372242922 155 130 110
50.4589523643566 866.081676963256 2847.18699749959 166 145 128
35.8368658773029 868.875294979985 2845.70703399166 181 164 148
34.9328122966663 868.52201676168 2853.74187135857 200 187 178
35.7723413277085 867.771978951163 2862.93810278908 191 182 175
43.5503650649745 865.439020692421 2876.8145494252 187 179 176
42.9936007870912 863.380721873587 2910.26291945164 106 105 103
39.7851005449033 863.033013661078 2924.83634897017 205 205 203
37.3268445901833 863.056027800933 2931.52509778824 255 255 253
36.6389974174162 862.67913635887 2939.34906686217 255 255 253
37.7329539208509 861.901151740625 2948.29677857744 249 249 247
37.0875757584739 861.519803975304 2956.07889609688 254 254 252
34.6912500651877 861.536897824122 2962.70702226628 255 255 255
30.5325445730795 861.953343786661 2968.19237492522 254 254 254
23.7103746409515 862.971528950399 2971.98224671806 255 255 255
20.44437042689 863.188027040422 2978.02759533731 254 254 254
18.0786444573697 863.2029274729 2984.62532187265 255 255 255
17.5142724605433 862.814538871997 2992.32837754662 249 249 251
16.0722817636736 862.625684003572 2999.4561834051 255 254 255
17.3416629433985 861.830360792443 3008.23225846002 248 247 252
18.6379515581523 861.032294128678 3016.98201951529 253 252 255
18.1560407616721 860.635927705102 3024.60436911703 247 246 251
16.7886864932516 860.440258357312 3031.6590670758 244 243 248
15.436462408144 860.243330266599 3038.69892658053 226 225 231
15.007977365241 859.842233617984 3046.26892274439 227 226 232
10.9572474075241 860.251979939361 3051.64770646355 227 226 232
10.5591066885404 859.848473158401 3059.18792648169 227 226 232
8.35143386662462 859.850629639183 3065.63092529749 236 235 241
8.90313616234106 859.240397181551 3073.67506260123 215 214 220
5.80571564584886 859.444605879436 3079.55482148346 203 202 208
3.6355230291587 859.444219231394 3085.96097777473 220 219 225
2.39825399541171 859.238696112543 3092.88795555552 213 212 218
0.252153526941523 859.236923393551 3099.27039284815 189 188 194
-0.0311984397449727 858.824429767308 3106.69795419017 192 193 198
-4.00682215124082 859.23172504331 3112.00251856001 206 207 212
-6.11982491241481 859.228315491951 3118.35233126312 194 195 200
-10.0851341876842 859.636197471825 3123.64656653073 221 222 227
-9.37963422933796 859.014170315781 3131.5400615752 224 225 230
-10.5226131641931 858.802834220885 3138.37426704924 214 213 218
-9.77597329431301 858.177448758926 3146.22740590955 197 197 199
-12.7640413556165 858.377365823358 3151.9992104888 177 177 177
-14.8041369154184 858.370485136987 3158.27713829543 151 151 151
-18.7198367742991 858.777656131353 3163.52221576255 143 143 143
-25.4680538833121 859.808100957167 3167.2368393361 135 135 135
-30.3307354499172 860.425188082495 3171.97434880776 134 134 134
-36.1433646933946 861.251444838619 3176.20734586755 127 127 125
-40.0591894361542 861.662995269742 3181.45190006736 125 125 123
-48.7364046341918 863.117748003588 3184.18551610022 124 124 122
-55.5208975168227 864.158368005581 3187.93465816664 122 122 120
-15.4295483893798 854.528033074668 3223.23140511434 140 141 136
112.021223952596 853.789327727785 2751.02921060693 126 113 96
112.572552251275 853.091720688533 2760.50388037997 111 92 75
106.518832352088 853.915466147407 2764.9766551935 114 89 69
106.278704025551 853.403805138115 2773.79286103552 113 86 65
106.062151461022 852.889172029418 2782.58609507234 117 91 68
108.373599662303 851.797863935481 2793.20494724213 116 90 67
110.72050471924 850.702072903592 2803.78959064837 111 85 60
113.10250445593 849.602211442648 2814.33998612646 112 86 61
118.882359149528 847.730009576208 2827.29838809031 106 80 57
121.342227735547 846.620757329216 2837.77250876198 102 76 53
116.236530112392 847.239231951903 2842.75113169872 99 72 53
106.052425791288 849.014012047854 2844.0999923669 98 71 52
99.2388610679593 850.019967280087 2847.88312663872 101 74 55
92.4178127869824 851.026924902497 2851.67354404109 103 76 55
77.0667878118831 853.968710349598 2849.47861882826 134 107 88
58.2526263175569 857.690961080664 2844.9389739906 121 100 83
46.2258811994394 859.869871377063 2845.22337962289 128 110 96
39.3172451298422 860.887857794031 2849.09948078511 156 142 131
33.2610740321959 861.712619891336 2853.57453941622 245 236 231
27.2010352474532 862.538000547617 2858.05300945306 255 251 248
27.1846962188644 862.000427125686 2866.65081905727 255 254 253
28.0575128507841 861.265180846287 2875.81180922619 253 251 252
31.5608094741933 859.940976066105 2886.69880748228 255 254 255
26.4062004299603 860.567444784211 2891.72481865938 255 253 254
29.0962237429673 859.432526062073 2901.97452362065 255 255 255
28.3268951019795 859.077536550493 2909.87583005929 255 255 255
35.4565322133413 856.954414910636 2922.94821112149 255 255 255
40.8853183904028 855.218079325523 2934.81790117526 251 251 251
41.9641437752745 854.459797772885 2943.77806405245 252 252 252
43.0698812001582 853.698549349683 2952.71160353625 250 250 252
38.0203067341096 854.314548325123 2957.63486124791 253 253 255
36.511285821422 854.141337877299 2964.82691686305 250 250 252
31.4695269726397 854.757177133568 2969.74243715765 250 250 252
27.3166240102554 855.175617198965 2975.22139524928 241 241 243
24.0586538978613 855.395937906587 2981.2582009056 241 241 243
20.8081224303442 855.615805643349 2987.2873489845 241 240 245
19.3551571142869 855.437933180859 2994.42476744925 247 246 252
17.0205565858614 855.457624105334 3000.99121577083 234 233 239
17.3934322195777 854.879193695644 3009.20823026468 239 238 244
16.8888758602712 854.497888652167 3016.85084117966 229 228 234
15.5008146108258 854.314264760592 3023.92432116353 227 226 232
14.1279260618474 854.129376766131 3030.98292126539 221 220 226
13.676882105949 853.743153667548 3038.57312045914 227 226 232
13.244711216871 853.355330951666 3046.14447699927 222 221 227
11.011091058764 853.366714357936 3052.61187816792 226 225 231
9.70101863085748 853.176560990498 3059.60887915279 232 231 237
7.49191794654269 853.186268579334 3066.05217980659 218 217 223
8.04224424332123 852.591587414034 3074.09572286539 207 206 212
4.94346315293948 852.800626171168 3079.97611893696 206 205 211
2.77175710103439 852.807860387818 3086.3826517313 217 216 222
-0.310793448180302 853.016340285917 3092.24667539269 201 200 206
-0.614534337474382 852.618269741458 3099.69235151108 187 186 192
-2.75084460172526 852.623341540892 3106.06405536936 196 197 202
-6.73163119814202 853.033292620674 3111.3733540336 198 199 204
-9.77947837826143 853.240745792884 3117.20340632809 196 197 202
-9.09434660726305 852.635805739716 3125.11426397536 223 224 229
-9.31976715390803 852.232107427113 3132.48299861739 222 223 228
-9.52657326462525 851.826947001488 3139.83346494903 200 200 202
-13.4643734275706 852.235960589117 3145.10021601031 182 182 184
-17.3989067702416 852.645328936888 3150.36367063737 159 159 159
-22.2717149337006 853.259859706933 3155.11161379759 140 140 140
-27.1452959450436 853.875313470304 3159.86018798917 137 137 137
-31.0748408044272 854.287178288296 3165.11832000138 132 132 132
-37.8424013365404 855.314918334132 3168.85288948731 128 128 126
-42.7207733485711 855.934160395896 3173.60566130456 128 128 126
-48.5509815380594 856.760097597945 3177.85616174755 124 124 122
-52.4807357771224 857.176293535905 3183.11386153924 121 121 119
-53.5432868957457 856.97504454431 3189.86671013336 127 127 125
107.1177935195 847.66812225918 2748.30096941773 140 124 108
106.003161463782 847.365731891039 2756.53773096328 115 94 77
101.591962506481 847.81254748407 2762.26898690558 114 87 68
96.354106233056 848.447034147448 2767.37647876308 112 85 64
94.4482796957931 848.327739296131 2774.95459952767 114 88 65
97.5674581957842 847.074897582292 2786.21248532858 114 88 65
97.3786313057712 846.572572857276 2794.97636818702 110 84 59
98.890859591672 845.689287281348 2804.94154043438 110 84 59
98.7528399208433 845.18092434993 2813.65552557538 100 74 51
97.7960484920604 844.859107413392 2821.73842028339 96 70 47
90.1026297217662 846.053307251201 2824.95053084227 98 72 49
83.2443073841973 847.058831102751 2828.77817384456 103 76 57
76.3788380982455 848.065419809274 2832.61309432913 106 79 60
72.0567077324392 848.501537610543 2838.25748497235 113 86 69
60.9207412686974 850.462861819356 2839.10674052115 109 83 66
54.8831808623795 851.281916520198 2843.56416201136 102 83 69
49.6981042508264 851.910339156827 2848.6201391449 121 103 93
44.5134092166457 852.538831627218 2853.67572704507 178 165 157
35.8887619478692 853.93419327652 2856.36558248143 251 243 240
29.8348706462734 854.755778496811 2860.8388467824 247 243 242
29.8244268875458 854.233029652632 2869.42861123037 253 251 252
29.8373207384164 853.707810482557 2877.99556620012 255 253 254
32.4768378555103 852.602079804773 2888.29111058034 255 253 254
33.4119382489697 851.878028598537 2897.3885974264 251 249 250
36.1172232384521 850.764963374563 2907.61957953785 253 253 253
35.3637176076429 850.420939225048 2915.50389065974 253 253 253
40.7577775682633 848.720162902593 2927.40314655828 253 253 253
45.3208225013761 847.207855922461 2938.68250981759 255 255 255
45.529992743361 846.660664529427 2947.05780691442 255 255 255
44.8810236289767 846.305185024877 2954.83966698464 255 255 255
38.0693853433587 847.309174265149 2958.62151669009 249 249 251
35.6754738983653 847.340941841534 2965.24507670472 242 242 244
31.5190689126128 847.76153348859 2970.72719435449 243 243 245
29.1444952336759 847.79168879587 2977.33178997423 232 232 234
26.7816089255768 847.82090144379 2983.92491918659 234 233 238
24.4301129067437 847.849149915375 2990.50688017818 236 235 241
21.1953068377433 848.072342410171 2996.51992130609 239 238 244
18.8650166472133 848.099037957855 3003.08105411817 231 230 236
17.4447736316763 847.928375382043 3010.18457539469 233 232 238
16.9405255877377 847.559827705861 3017.82499461464 226 225 231
14.6503559740561 847.583175513311 3024.34678189536 223 222 228
14.1803253815453 847.21156556695 3031.95333744042 225 224 230
11.9167601977352 847.232797808644 3038.44901880869 213 212 218
13.2976851886588 846.462980810324 3047.11055940305 218 217 223
11.0645499015845 846.481733163033 3053.57638996053 232 231 237
10.6671544418151 846.103606963346 3061.11211868643 221 220 226
7.54619474711937 846.318698009324 3067.0133060723 199 198 204
5.3487550218092 846.33501427822 3073.44405046139 205 204 210
1.32674318262849 846.748085508058 3078.7941630863 209 208 214
-0.852468233774495 846.763650036378 3085.20657976012 190 189 195
-3.02020893158694 846.778463086367 3091.60805475097 183 182 188
-1.48160213878468 845.994710605023 3100.1154124854 206 205 210
-3.61959399442213 846.007496474644 3106.48730821059 203 204 208
-8.52936890125555 846.619493293237 3111.27233441037 195 196 200
-10.6510086431841 846.631796839505 3117.62840137409 215 216 220
-9.96699669118284 846.042257845464 3125.53843259035 216 217 219
-10.1938510487667 845.651418585206 3132.90669046551 199 200 204
-14.1437766782762 846.062845312958 3138.18512563328 144 144 144
-18.090522137344 846.47481463092 3143.46032265019 137 137 137
-23.9125217736209 847.290105095691 3147.70424546163 131 131 131
-30.6806755835378 848.308674865774 3151.44042160195 136 136 136
-37.4570882499392 849.329157290432 3155.18485406134 136 136 136
-41.407186127052 849.74550014533 3160.46273367208 130 130 128
-48.1953929804941 850.769605330329 3164.21800464915 127 127 125
-53.0943777347002 851.39056142337 3168.99099189102 119 119 117
-56.0924487107699 851.60695347138 3174.77029451712 123 123 121
-50.5086660903715 849.995450700152 3185.05071125829 143 144 139
102.214363261089 841.514307007508 2745.57754776675 146 129 113
106.877678870313 839.931480967595 2758.18501060837 126 103 87
104.126437106127 840.010064773254 2765.15648549402 117 90 69
99.7252926355561 840.458030560359 2770.87758718419 110 84 61
92.8297745166891 841.462569485906 2774.74264956078 102 76 53
91.7706154653235 841.166407919179 2782.92306713685 102 76 51
88.2210809936801 841.426138544243 2789.24357574343 100 74 49
88.0344476885737 840.939399897319 2798.00297672409 102 76 51
86.1900034863989 840.823040184932 2805.51971011029 101 75 50
84.3614171057285 840.704799279827 2813.02097448477 98 72 49
78.326183320677 841.520199449981 2817.47662574371 101 75 52
74.8266482422881 841.773993707936 2823.74802376413 101 76 56
69.6385173962324 842.40203478461 2828.80709019208 100 74 57
64.4507261489027 843.030092018294 2833.86581700547 91 68 54
58.4110689642907 843.846226734727 2838.32575219994 100 78 65
54.0760327449279 844.286507183441 2843.98234330906 135 116 109
51.4574789414084 844.34924809573 2850.82439866101 197 182 177
46.2767412336156 844.976887869292 2855.87618290579 218 207 203
40.2363138936583 845.793650395481 2860.3367900859 238 234 235
37.63986362525 845.854194494224 2867.15722098881 244 244 246
38.5106047945878 845.1555936258 2876.31485594702 254 255 255
38.5428271820181 844.64374143207 2884.86064176096 250 251 253
41.2016851714392 843.559336967087 2895.13382836411 253 253 255
40.4168193351273 843.231603792413 2903.0465349927 251 251 251
44.0094221462033 841.949802180355 2913.83858371451 251 251 253
44.1468195874659 841.426047282936 2922.28168835964 255 255 255
48.6846027191561 839.945583803936 2933.58143050564 253 253 255
50.6331585855442 839.033415393659 2943.11759188578 251 251 253
47.3366902572652 839.265737679019 2949.19051516963 249 249 251
43.1670508309701 839.688987169732 2954.68571982837 244 243 248
39.0011521341518 840.112131932925 2960.17688752412 246 245 250
36.6094671479908 840.151225807414 2966.79715380855 237 236 241
34.2293435967278 840.189215992288 2973.40610254206 235 234 239
30.9717590782714 840.418759233335 2979.4408243695 229 228 233
27.7221190471448 840.647700689397 2985.46808398912 233 232 238
26.2656578284051 840.490213442248 2992.605623169 233 234 239
23.035268913504 840.717730459272 2998.6139766771 227 228 233
19.8122330706636 840.944864262075 3004.61474727284 233 234 239
15.6985505024121 841.365246288394 3010.05480975433 227 228 233
16.0912026033202 840.815975962689 3018.24821391822 229 230 235
14.7019356955198 840.652789339817 3025.31987051927 222 223 227
14.2321698242078 840.294060194142 3032.92425941555 223 224 228
11.9690044771223 840.3226721022 3039.41845302857 213 214 218
12.4420322837899 839.765922738858 3047.53314832697 226 227 231
10.207341044346 839.792301316223 3053.99939681548 224 225 229
7.98408207281476 839.817769394004 3060.45442746439 204 205 209
4.85772159756381 840.03831776913 3066.36017131433 204 203 209
3.57104610695913 839.866843367392 3073.33151589361 210 209 215
-1.37244595522068 840.478550169522 3078.15006659139 205 204 209
-2.63681149011452 840.305809470775 3085.099106371 179 178 183
-4.80802033521943 840.328371870319 3091.5028799329 187 186 191
-3.2731064141478 839.563319339427 3100.01080305705 206 205 210
-5.41427124795213 839.583804309936 3106.3850495147 189 190 194
-6.61680232587436 839.406334774355 3113.27338568448 204 205 207
-8.73395950725975 839.425385357124 3119.62400419026 225 226 228
-9.90874357722404 839.246245903929 3126.48503398406 195 197 196
-13.869010568345 839.660037763507 3131.77338871133 162 163 165
-19.6965309476211 840.470658042445 3136.0234839536 135 135 135
-26.4660170375306 841.481362969279 3139.76248333004 134 134 132
-31.3655437196316 842.09654946712 3144.53686145796 134 134 132
-37.2073318200004 842.91192989824 3148.80008336779 136 136 134
-43.0535516944675 843.728681550564 3153.0678412709 132 132 130
-47.9595253922396 844.347629238493 3157.84806547844 128 128 126
-56.6542918977073 845.766441762787 3160.6044221663 124 125 120
-60.6210915022705 846.18872310953 3165.89800913279 124 125 120
-60.7813899445562 845.810958071458 3173.19824363586 132 133 128
63.8942393387776 843.236668219552 2708.27383375119 178 173 154
94.8357420729038 835.87425296167 2740.98536566408 145 128 112
104.443680499078 833.231535979353 2757.34119012023 130 107 91
104.173570328672 832.771006625537 2766.17961114007 124 97 76
98.1105790472396 833.586898659007 2770.66275330607 116 90 67
92.8768523228505 834.220275038848 2775.76630855975 103 77 52
90.1480321272379 834.303698196966 2782.71480324218 99 73 48
86.5944141267265 834.569086941543 2789.0381927437 93 67 42
86.4037679790273 834.098598853859 2797.79917671083 93 67 42
83.714828335554 834.177053403532 2804.7088037736 88 64 38
83.5655492248679 833.701586218843 2813.42944556981 88 64 40
76.6838618886729 834.698615647387 2817.28154583314 91 67 43
73.1805779782366 834.958058724009 2823.55616944826 94 69 49
69.6852052479433 835.216458539754 2829.82275349606 95 69 52
66.1982048690608 835.473907787315 2836.08150201071 99 75 63
61.8668052001743 835.91591163764 2841.73422725344 94 72 61
57.5397812702034 836.357468756289 2847.38301119148 187 170 163
53.2167553266651 836.798652840786 2853.02754236218 207 193 190
47.1820118476338 837.611514509363 2857.48308192942 212 202 200
46.3032476216281 837.307176608684 2865.48557323576 243 241 244
46.3060803489888 836.814125468167 2874.05776462916 247 247 249
48.0599132312838 835.944798358174 2883.78061904357 254 255 255
44.6504926576301 836.194000628083 2889.96354856447 248 252 255
48.1905215240057 834.944596174292 2900.80301570472 254 255 255
50.0300592960445 834.065526040029 2910.44220391139 254 254 254
53.6438909415242 832.807584167998 2921.20964562767 255 255 255
53.8026582812563 832.296879931994 2929.62960076565 254 254 255
53.1094116939053 831.971854113317 2937.45126582159 238 238 240
50.6808949800757 832.021547063784 2944.10654001727 234 233 238
46.5052872938818 832.447566926499 2949.60692394454 239 238 243
40.5714918996622 833.251004739269 2953.96361341305 240 239 244
38.1663919061541 833.298866047767 2960.59590517517 235 234 239
36.65802580834 833.15629580872 2967.78278193998 232 231 237
35.1652172194115 833.012177080265 2974.95443873455 227 226 232
29.2431414815368 833.815788571276 2979.29946474148 233 232 238
24.2080632110424 834.430195946238 2984.20856275452 232 231 237
23.6368083042189 834.093637149493 2991.91045499546 226 227 232
23.085103452301 833.755190408045 2999.59355062227 224 225 230
21.6559209644052 833.605468320463 3006.70285393198 223 224 229
17.5462169963088 834.027602634331 3012.13836877537 223 224 228
17.9430642194172 833.493312248179 3020.32539309238 222 223 227
16.5579553266952 833.339862017246 3027.39148168851 215 216 220
16.9968816082839 832.801682148999 3035.53729574216 206 207 211
13.8336374616128 833.028931167982 3041.47901311282 229 230 234
11.5860430361958 833.06383574966 3047.95681451603 228 229 233
8.43945675626445 833.290236163124 3053.8817779603 192 193 197
7.1249373263127 833.131058287508 3060.87895456177 195 196 200
3.99713070435626 833.356506478524 3066.78541026611 204 203 208
0.876926816972823 833.581572874398 3072.68471061378 193 192 197
-3.15400635202456 833.999909635377 3078.04256616588 181 180 185
-4.42190839973611 833.837757408417 3084.99355278349 191 190 195
-5.67467918711895 833.674228365106 3091.92971732877 201 200 205
-5.98858995352547 833.315592725983 3099.37966382369 187 187 189
-5.3581110179568 832.761166424804 3107.33766447596 200 201 203
-6.56009588487771 832.593652731149 3114.22398678105 209 211 210
-7.7473359154121 832.425223717806 3121.09580252948 174 176 175
-12.6454207588691 833.035982693469 3125.86940327616 127 129 128
-17.5441939544085 833.647712979248 3130.64354400743 135 137 134
-24.3141681463968 834.651403179927 3134.38406484991 142 142 140
-28.2809747266057 835.069793463514 3139.67823384076 137 137 135
-36.0013558597152 836.27275849878 3142.91582293214 132 132 130
-41.851829040171 837.085564717093 3147.1883875644 126 126 124
-49.5932739353679 838.293131145534 3150.44621319901 124 124 122
-53.5671728276683 838.716189532647 3155.74673501694 128 129 124
-58.4849248541715 839.336740003716 3160.53841838838 131 132 127
-54.8635299012741 838.183179871839 3169.86601273525 146 147 142
53.3719132721058 839.16276326858 2682.48243545993 183 181 169
58.6318992273531 837.492376074979 2695.92724664552 154 145 130
65.5891390246777 835.45736986332 2710.57470668498 156 143 127
