ply
format ascii 1.0
comment KinectMotionCapture
element vertex 808
property float x
property float y
property float z
property uchar red
property uchar green
property uchar blue
end_header
-132.710933685303 213.529318571091 2808.00008773804 64 51 42
-125.585868954659 214.446634054184 2819.9999332428 69 60 51
-95.2495187520981 215.451672673225 2832.99994468689 22 23 17
-86.6855829954147 213.401690125465 2805.99999427795 23 26 19
-78.1841278076172 211.123198270798 2776.00002288818 17 22 15
-69.0067112445831 206.334590911865 2713.00005912781 13 21 10
-61.9439631700516 207.477852702141 2727.9999256134 16 22 10
-54.2996563017368 206.71945810318 2717.99993515015 17 23 11
-46.5544685721397 205.276265740395 2698.99988174438 15 21 7
-39.2612852156162 205.658197402954 2703.9999961853 13 19 7
-31.9170616567135 205.887719988823 2707.00001716614 13 19 9
-24.1848137229681 202.99856364727 2668.99991035461 14 20 10
-17.0588158071041 204.900801181793 2694.00000572205 15 21 11
-9.80349350720644 206.954851746559 2720.99995613098 16 22 12
-2.35969084315002 205.433920025826 2700.99997520447 17 23 13
4.99350763857365 204.673305153847 2690.99998474121 17 23 13
12.3883821070194 205.509588122368 2701.99990272522 18 23 16
19.7774264961481 205.661132931709 2703.9999961853 18 23 16
27.1873455494642 205.888420343399 2707.00001716614 16 21 14
34.6135310828686 206.115409731865 2710.00003814697 14 20 10
41.7149215936661 204.668909311295 2690.99998474121 16 19 10
49.1317361593246 204.971432685852 2694.9999332428 17 20 9
55.9413954615593 202.991992235184 2668.99991035461 17 20 9
63.0116388201714 202.305287122726 2660.00008583069 17 20 9
71.4062079787254 205.573096871376 2703.00006866455 17 20 9
78.8693279027939 205.798462033272 2706.00008964539 17 20 9
85.8384966850281 204.806700348854 2693.00007820129 20 23 12
92.5287678837776 203.358396887779 2674.00002479553 19 22 11
99.89894926548 203.506916761398 2676.00011825562 20 23 12
108.401320874691 205.784484744072 2706.00008964539 22 25 14
116.253964602947 206.616818904877 2717.00000762939 22 25 14
124.484777450562 207.981154322624 2734.99989509583 25 28 21
131.558984518051 207.368090748787 2726.99999809265 19 22 15
139.353588223457 207.89535343647 2733.99996757507 17 20 13
147.239536046982 208.498403429985 2742.00010299683 16 19 12
152.178004384041 205.071181058884 2697.00002670288 16 19 12
159.177362918854 204.609215259552 2690.99998474121 16 19 12
165.277093648911 203.082621097565 2671.0000038147 15 18 11
172.300800681114 202.772289514542 2667.00005531311 16 19 12
181.187301874161 204.590529203415 2690.99998474121 15 18 11
189.223140478134 205.344051122665 2700.99997520447 13 16 9
198.986783623695 207.845792174339 2733.99996757507 12 15 8
206.437781453133 207.838445901871 2733.99996757507 11 14 7
213.575080037117 207.52677321434 2730.00001907349 13 16 9
220.851674675941 207.366913557053 2727.9999256134 22 25 18
228.785961866379 207.814887166023 2733.99996757507 24 27 20
236.060902476311 207.654550671577 2732.00011253357 21 24 17
256.913244724274 212.577298283577 2796.99993133545 23 26 19
263.30029964447 211.58005297184 2783.99991989136 24 27 20
394.949346780777 217.173531651497 2859.99989509583 74 58 45
402.858823537827 217.236310243607 2861.00006103516 84 62 49
411.202937364578 217.526644468307 2865.00000953674 75 42 27
419.128715991974 217.589005827904 2865.9999370575 67 31 15
425.122261047363 216.66431427002 2854.00009155273 94 58 44
433.779329061508 217.105895280838 2859.99989509583 141 111 101
-142.124623060226 208.43568444252 2842.99993515015 88 79 70
-94.5133343338966 206.114932894707 2811.00010871887 20 23 16
-86.1635729670525 204.505056142807 2789.00003433228 27 30 23
-78.6094814538956 204.654663801193 2790.99988937378 17 22 15
-70.1793283224106 202.310889959335 2759.0000629425 14 20 10
-62.1733143925667 200.773373246193 2737.99991607666 15 21 9
-54.2417243123055 199.08894598484 2714.99991416931 17 23 11
-46.3491976261139 197.037532925606 2687.00003623962 17 21 7
-39.0594527125359 197.259083390236 2690.00005722046 20 23 12
-32.0833139121532 199.533626437187 2720.99995613098 17 20 11
-24.5753582566977 198.874652385712 2711.99989318848 16 19 10
-17.0974414795637 197.995454072952 2700.00004768372 17 20 11
-9.72098577767611 197.849243879318 2697.99995422363 18 21 12
-2.3755042348057 199.389457702637 2719.00010108948 17 20 11
5.02709532156587 198.656111955643 2709.00011062622 17 20 11
12.4484449625015 199.095740914345 2714.99991416931 17 20 13
19.7488982230425 197.995200753212 2700.00004768372 17 20 13
27.0477402955294 197.481051087379 2693.00007820129 17 20 13
34.3848951160908 197.406575083733 2691.99991226196 15 20 13
41.7009554803371 197.258546948433 2690.00005722046 16 19 10
49.2976270616055 198.283493518829 2703.9999961853 16 19 8
56.6770769655705 198.281586170197 2703.9999961853 17 20 9
64.2694979906082 198.939383029938 2713.00005912781 17 20 9
71.1710751056671 197.543695569038 2694.00000572205 17 20 9
78.6098912358284 197.760969400406 2697.00002670288 18 21 10
85.6503844261169 197.02473282814 2687.00003623962 20 23 12
93.1896418333054 197.461470961571 2693.00007820129 20 23 12
100.275933742523 196.944713592529 2686.00010871887 19 22 11
108.20497572422 198.040783405304 2700.99997520447 22 25 14
116.172626614571 199.063256382942 2714.99991416931 21 24 15
123.806565999985 199.425548315048 2720.00002861023 25 28 21
132.046222686768 200.66736638546 2736.99998855591 22 25 18
138.237252831459 198.829635977745 2711.99989318848 18 21 14
145.848661661148 199.117824435234 2716.00008010864 18 21 14
154.496997594833 200.725331902504 2737.99991607666 18 21 14
160.602793097496 199.033603072166 2714.99991416931 18 21 14
163.302853703499 193.456441164017 2638.99993896484 14 17 10
173.017665743828 196.309417486191 2677.99997329712 13 16 9
182.338461279869 198.502242565155 2707.99994468689 12 15 8
190.631106495857 199.448600411415 2720.99995613098 11 14 7
206.973701715469 200.900599360466 2740.9999370575 10 13 6
214.677944779396 201.113104820251 2743.99995803833 11 14 7
220.454692840576 199.566408991814 2723.00004959106 19 22 15
229.04509305954 200.584635138512 2736.99998855591 20 23 16
235.809966921806 199.990287423134 2729.00009155273 19 22 15
242.352113127708 199.249237775803 2719.00010108948 21 24 17
253.064274787903 201.878756284714 2755.00011444092 20 23 16
395.928919315338 209.899812936783 2867.00010299683 75 57 45
403.435081243515 209.74063873291 2865.00000953674 84 62 49
411.646783351898 209.947302937508 2868.00003051758 70 38 23
418.26468706131 209.348604083061 2859.99989509583 70 37 22
424.986749887466 208.822980523109 2852.9999256134 95 62 47
433.793038129807 209.321916103363 2859.99989509583 133 106 97
-86.6609439253807 198.030069470406 2805.0000667572 23 26 19
-78.1616196036339 195.914968848228 2775.00009536743 17 22 15
-70.9449425339699 196.905970573425 2789.00003433228 14 20 10
-62.4934546649456 194.296047091484 2752.00009346008 15 21 9
-54.0039092302322 190.838605165482 2703.00006866455 18 22 8
-45.9195971488953 187.94558942318 2661.99994087219 17 21 7
-39.3367372453213 191.265463829041 2709.00011062622 19 22 11
-32.3556587100029 193.737849593163 2743.99995803833 18 21 12
-24.6306080371141 191.903129220009 2717.99993515015 17 20 11
-17.1107146888971 190.774187445641 2701.99990272522 16 19 10
-9.72133316099644 190.492227673531 2697.99995422363 16 19 10
-2.36335676163435 190.986692905426 2704.99992370605 13 16 7
5.06067788228393 192.539945244789 2726.99999809265 13 16 7
12.4259637668729 191.339373588562 2710.00003814697 13 16 9
19.8227502405643 191.338792443275 2710.00003814697 13 16 9
26.9884392619133 189.714089035988 2687.00003623962 13 16 9
34.1689735651016 188.865751028061 2674.99995231628 14 17 10
41.6404344141483 189.641088247299 2686.00010871887 15 18 9
49.2264591157436 190.627917647362 2700.00004768372 14 17 8
56.6790960729122 190.908491611481 2703.9999961853 14 17 8
63.8690516352654 190.341576933861 2696.00009918213 14 17 8
71.3849440217018 190.762788057327 2701.99990272522 14 17 8
78.5543918609619 190.265983343124 2694.9999332428 16 19 10
86.067833006382 190.616130828857 2700.00004768372 18 21 12
92.950701713562 189.624637365341 2686.00010871887 18 21 12
101.399496197701 191.739156842232 2716.00008010864 17 20 11
108.889855444431 191.876709461212 2717.99993515015 20 23 14
116.048350930214 191.449239850044 2711.99989318848 19 22 13
123.810924589634 192.009821534157 2720.00002861023 19 22 15
131.327152252197 192.146569490433 2721.99988365173 16 19 12
138.547956943512 191.859573125839 2717.99993515015 15 18 11
146.337077021599 192.348763346672 2724.99990463257 15 18 11
154.953837394714 193.825915455818 2746.00005149841 13 16 9
165.041282773018 188.238903880119 2667.00005531311 8 11 4
173.928201198578 189.997598528862 2691.99991226196 7 10 3
184.634193778038 193.520352244377 2742.00010299683 8 11 4
196.88992202282 190.896153450012 2704.99992370605 11 14 7
206.225693225861 192.72418320179 2730.99994659424 12 15 8
223.538815975189 194.826662540436 2760.99991798401 14 17 10
228.383421897888 192.561089992523 2729.00009155273 15 18 11
235.299527645111 192.129999399185 2723.00004959106 17 20 13
241.290688514709 190.993115305901 2707.00001716614 20 23 16
247.010052204132 189.715042710304 2688.99989128113 21 24 17
391.401320695877 203.797817230225 2891.00003242493 104 87 79
396.49373292923 202.375769615173 2871.00005149841 81 58 50
404.010981321335 202.222481369972 2868.99995803833 87 60 51
411.516010761261 202.069014310837 2867.00010299683 72 44 30
417.838931083679 201.35161280632 2857.00011253357 85 57 43
425.297796726227 201.197862625122 2855.00001907349 102 79 65
435.323089361191 202.241942286491 2869.99988555908 112 95 85
-79.5444846153259 191.673427820206 2823.99988174438 16 21 14
-70.2096670866013 187.332078814507 2759.99999046326 14 20 10
-62.3139217495918 186.248317360878 2743.99995803833 17 20 9
-54.3254390358925 184.553399682045 2719.00010108948 18 21 10
-46.2489351630211 181.975811719894 2680.99999427795 17 19 6
-39.3526069819927 183.945655822754 2710.00003814697 19 21 10
-31.991221010685 184.150487184525 2713.00005912781 20 21 13
-24.4773961603642 183.336928486824 2700.99997520447 20 21 13
-17.0163121074438 182.387351989746 2687.00003623962 17 18 10
-9.72527079284191 183.202311396599 2698.99988174438 16 17 9
-2.36518564634025 183.745548129082 2707.00001716614 13 14 6
5.01074455678463 183.270364999771 2700.00004768372 13 14 6
12.3117584735155 182.251900434494 2684.99994277954 12 13 7
19.8673214763403 184.355586767197 2716.00008010864 12 13 7
27.200298383832 183.811768889427 2707.99994468689 13 14 8
34.5150455832481 183.403447270393 2701.99990272522 14 15 9
41.4248183369637 181.365877389908 2671.99993133545 14 17 10
48.9364303648472 182.178869843483 2684.00001525879 12 15 8
56.0312233865261 181.430473923683 2673.00009727478 12 15 8
63.7527853250504 182.650193572044 2690.99998474121 12 15 8
71.0175186395645 182.444304227829 2687.99996376038 12 15 8
79.9562409520149 186.174780130386 2743.00003051758 12 15 8
87.0271176099777 185.289651155472 2730.00001907349 16 19 12
93.9920917153358 184.336423873901 2716.00008010864 16 19 12
102.224342525005 185.826271772385 2737.99991607666 15 18 11
109.093874692917 184.804692864418 2723.00004959106 18 21 14
116.009503602982 183.986514806747 2710.99996566772 17 20 13
124.315850436687 185.339838266373 2730.99994659424 16 18 13
131.765857338905 185.33556163311 2730.99994659424 13 15 10
139.368265867233 185.534656047821 2733.99996757507 12 14 9
147.255003452301 186.072796583176 2742.00010299683 11 13 8
155.071914196014 186.474919319153 2747.99990653992 8 10 5
162.09277510643 185.926824808121 2740.00000953674 7 9 4
168.017283082008 184.224978089333 2714.99991416931 7 9 4
176.001608371735 184.830024838448 2723.99997711182 7 9 4
184.438347816467 185.841873288155 2739.00008201599 9 11 6
190.78417122364 184.750124812126 2723.00004959106 11 13 8
197.988301515579 184.54022705555 2720.00002861023 13 15 10
205.628409981728 184.73719060421 2723.00004959106 13 14 8
216.335475444794 187.579691410065 2765.00010490417 12 13 7
220.064654946327 184.384137392044 2717.99993515015 14 15 9
230.232119560242 186.615496873856 2750.99992752075 14 15 9
235.393643379211 184.776455163956 2723.99997711182 16 17 11
244.418427348137 185.989737510681 2742.00010299683 20 21 15
386.476159095764 197.427988052368 2913.00010681152 77 58 51
391.413301229477 195.925325155258 2891.00003242493 76 56 49
397.610664367676 195.1003074646 2878.99994850159 69 41 37
403.741538524628 194.27527487278 2867.00010299683 67 40 33
410.380065441132 193.721145391464 2858.99996757507 88 62 49
417.705118656158 193.505719304085 2855.99994659424 98 75 61
427.0980656147 194.238632917404 2867.00010299683 98 79 65
-79.1245847940445 182.994604110718 2809.00001525879 18 21 14
-69.6777701377869 178.436771035194 2739.00008201599 15 18 9
-62.520369887352 179.350972175598 2753.00002098084 17 19 8
-54.4870756566525 177.659004926682 2726.99999809265 19 21 10
-46.7680059373379 176.618292927742 2710.99996566772 17 19 6
-39.1070432960987 175.4469871521 2693.00007820129 20 20 10
-31.838983297348 175.90419948101 2700.00004768372 18 18 10
-24.3241414427757 174.862697720528 2684.00001525879 17 17 9
-17.0612074434757 175.514876842499 2694.00000572205 16 16 8
-9.74000710994005 176.101684570313 2703.00006866455 16 16 8
-2.36875913105905 176.623061299324 2710.99996566772 15 15 7
5.03318104892969 176.68816447258 2711.99989318848 15 15 7
12.4268047511578 176.557600498199 2710.00003814697 16 15 10
19.6997299790382 175.449520349503 2693.00007820129 15 14 9
35.4231633245945 180.659726262093 2773.00000190735 12 13 7
42.2633960843086 177.59644985199 2726.0000705719 11 14 7
48.7739443778992 174.272358417511 2674.99995231628 8 11 4
56.1169199645519 174.400970339775 2677.00004577637 7 10 3
63.7785792350769 175.376236438751 2691.99991226196 7 10 3
71.3897570967674 176.025524735451 2701.99990272522 8 11 4
79.7839760780334 178.303197026253 2736.99998855591 8 11 4
88.2732644677162 180.385127663612 2769.00005340576 12 15 8
95.9678292274475 180.64272403717 2773.00000190735 12 15 8
103.571802377701 180.704638361931 2773.9999294281 11 14 7
109.417982399464 177.90013551712 2730.99994659424 14 17 10
117.08315461874 178.222194314003 2736.00006103516 13 16 9
124.638579785824 178.348585963249 2737.99991607666 11 13 8
132.349148392677 178.670153021812 2743.00003051758 7 9 4
139.117911458015 177.753910422325 2729.00009155273 6 8 3
147.098675370216 178.400695323944 2739.00008201599 6 8 3
155.020534992218 178.916931152344 2746.99997901917 7 9 4
161.033138632774 177.283614873886 2721.99988365173 7 9 4
168.45591366291 177.278384566307 2721.99988365173 10 12 7
175.231918692589 176.621690392494 2711.99989318848 10 12 7
181.683346629143 175.704285502434 2697.99995422363 12 14 9
189.108729362488 175.763562321663 2698.99988174438 12 14 9
199.232116341591 178.232043981552 2736.99998855591 12 14 9
208.806708455086 180.04897236824 2765.00010490417 13 14 8
215.168714523315 179.065585136414 2750 12 13 7
223.067507147789 179.384335875511 2755.00011444092 13 14 8
228.147104382515 177.489101886749 2726.0000705719 13 14 8
236.783757805824 178.393393754959 2740.00000953674 14 15 9
244.426116347313 178.516179323196 2742.00010299683 17 18 12
256.396144628525 181.698501110077 2790.99988937378 21 22 16
377.400696277618 188.92003595829 2904.00004386902 103 86 78
384.762704372406 188.648790121078 2900.00009536743 85 62 54
391.424775123596 188.052117824554 2891.00003242493 88 63 56
398.174703121185 187.520429491997 2882.99989700317 80 51 47
404.598236083984 186.858549714088 2872.99990653992 85 56 50
411.253184080124 186.326667666435 2865.00000953674 97 73 61
420.496016740799 186.965242028236 2875 94 75 61
-85.9897509217262 173.707708716393 2782.99999237061 23 26 19
-77.5496289134026 171.837702393532 2753.00002098084 18 21 14
-69.9598118662834 171.652734279633 2750 15 18 9
-62.6131892204285 172.091722488403 2756.99996948242 17 19 8
-54.568737745285 170.470625162125 2730.99994659424 18 20 9
-46.3727042078972 167.788103222847 2687.99996376038 17 19 8
-39.0211530029774 167.727008461952 2687.00003623962 18 20 9
-31.6159352660179 167.353570461273 2680.99999427795 14 14 6
-24.5333649218082 168.977439403534 2707.00001716614 11 12 4
-17.1314161270857 168.853223323822 2704.99992370605 11 12 4
-9.70067735761404 168.042153120041 2691.99991226196 14 14 6
5.02220634371042 168.916240334511 2706.00008964539 13 14 6
12.422613799572 169.103235006332 2709.00011062622 15 16 10
20.0295485556126 170.912966132164 2737.99991607666 15 14 9
27.804771438241 172.78490960598 2767.99988746643 13 14 8
35.3093184530735 172.534227371216 2763.99993896484 10 11 5
42.3732735216618 170.597955584526 2733.00004005432 10 13 6
49.2495745420456 168.599039316177 2700.99997520447 7 10 3
57.5022809207439 171.219050884247 2743.00003051758 6 9 2
63.9938414096832 168.595522642136 2700.99997520447 6 9 2
71.4977085590363 168.905511498451 2706.00008964539 6 8 3
80.8942466974258 173.210024833679 2775.00009536743 7 10 3
88.7223780155182 173.706725239754 2782.99999237061 11 14 7
96.3515564799309 173.766270279884 2783.99991989136 11 13 8
103.239044547081 172.577291727066 2765.00010490417 10 12 7
112.186007201672 174.758449196815 2799.99995231628 12 14 9
118.670240044594 173.069730401039 2773.00000190735 12 14 9
124.824590981007 171.13122344017 2742.00010299683 8 10 5
130.616247653961 168.942928314209 2707.00001716614 4 6 1
137.847796082497 168.751567602158 2703.9999961853 3 5 0
146.24397456646 169.932976365089 2723.00004959106 4 6 1
152.993723750114 169.179528951645 2710.99996566772 7 9 4
162.221387028694 171.109229326248 2742.00010299683 7 9 4
169.265702366829 170.667350292206 2734.99989509583 11 13 8
173.492714762688 167.542114853859 2684.99994277954 12 14 9
180.746182799339 167.474359273911 2684.00001525879 12 14 9
197.927981615067 169.646754860878 2719.00010108948 10 13 6
209.341779351234 172.947391867638 2772.0000743866 14 15 9
216.035977005959 172.25469648838 2760.99991798401 13 14 8
223.479136824608 172.185719013214 2759.99999046326 15 16 10
230.413794517517 171.742260456085 2753.00002098084 15 16 10
237.136617302895 171.173840761185 2743.99995803833 15 16 10
245.235785841942 171.603336930275 2750.99992752075 18 19 13
258.976191282272 175.83754658699 2819.00000572205 19 20 14
375.332057476044 180.012613534927 2888.00001144409 98 83 76
383.31413269043 180.064380168915 2888.99993896484 83 64 57
391.02965593338 179.991319775581 2888.00001144409 89 68 63
398.462116718292 179.793462157249 2884.99999046326 89 65 61
406.158685684204 179.720118641853 2884.0000629425 78 54 50
-91.5023386478424 162.41317987442 2720.99995613098 26 27 19
-83.4277272224426 161.162286996841 2700.00004768372 20 23 14
-76.5096917748451 162.119716405869 2716.00008010864 18 21 12
-69.1987201571465 162.360653281212 2720.00002861023 15 18 9
-61.2070001661778 160.870298743248 2694.9999332428 15 18 9
-53.751140832901 160.573542118073 2690.00005722046 16 19 10
-46.581145375967 161.171987652779 2700.00004768372 15 18 9
-39.0513837337494 160.516619682312 2688.99989128113 16 19 12
-32.124001532793 162.606984376907 2723.99997711182 14 17 10
-24.7788187116385 163.204774260521 2733.99996757507 13 16 9
-17.3282772302628 163.324803113937 2736.00006103516 11 14 7
-9.88476071506739 163.743078708649 2743.00003051758 10 13 6
5.03720762208104 162.012055516243 2713.99998664856 10 13 6
12.4917794018984 162.608742713928 2723.99997711182 11 14 7
20.0667399913073 163.742452859879 2743.00003051758 9 12 5
27.6248045265675 164.1596108675 2750 8 11 4
35.0165665149689 163.621410727501 2740.9999370575 9 12 5
41.6303351521492 160.277426242828 2684.99994277954 10 12 7
49.451656639576 161.887779831886 2711.99989318848 9 11 6
57.2734363377094 163.08006644249 2732.00011253357 10 12 7
72.7946013212204 164.449095726013 2755.00011444092 10 12 9
80.0512954592705 163.90959918499 2746.00005149841 9 11 8
87.3860567808151 163.608655333519 2740.9999370575 7 9 6
97.7388843894005 168.560087680817 2823.99988174438 6 8 5
104.100964963436 166.408330202103 2788.00010681152 7 9 8
109.785355627537 163.540199398994 2740.00000953674 7 9 8
117.175966501236 163.417458534241 2737.99991607666 5 7 4
122.734226286411 160.907194018364 2696.00009918213 6 8 5
131.971269845963 163.231059908867 2734.99989509583 5 7 2
141.471594572067 165.614306926727 2775.00009536743 6 8 3
145.442709326744 161.611512303352 2707.99994468689 9 12 5
153.167605400085 161.96520626545 2713.99998664856 10 13 6
162.699535489082 164.108961820602 2750 11 14 7
169.146969914436 163.089632987976 2733.00004005432 12 15 8
175.113320350647 161.712124943733 2710.00003814697 11 14 5
183.175936341286 162.303626537323 2720.00002861023 10 13 4
205.067858099937 168.080225586891 2816.99991226196 11 14 5
210.178688168526 166.045621037483 2782.99999237061 13 15 4
217.450812458992 165.800794959068 2779.00004386902 15 17 6
223.323732614517 164.541587233543 2757.99989700317 16 17 9
231.173828244209 164.773747324944 2762.00008392334 15 16 8
238.699153065681 164.767026901245 2762.00008392334 17 18 10
249.165400862694 166.728645563126 2795.00007629395 20 21 13
383.191883563995 172.135278582573 2888.00001144409 73 62 58
391.581773757935 172.363385558128 2891.99995994568 76 65 61
-82.5031474232674 152.088016271591 2670.00007629395 19 22 13
-75.8358165621758 153.343439102173 2691.99991226196 17 20 11
-71.3632628321648 159.782379865646 2805.0000667572 15 18 9
-62.457948923111 156.651273369789 2750 15 18 9
-54.0324635803699 154.032573103905 2703.9999961853 15 18 9
-47.0483340322971 155.34420311451 2726.99999809265 15 18 9
-39.5898818969727 155.288472771645 2726.0000705719 15 18 11
-32.1367308497429 155.232533812523 2724.99990463257 16 19 12
-24.7704815119505 155.689090490341 2733.00004005432 15 18 11
-17.3921193927526 156.430244445801 2746.00005149841 13 16 9
-9.9174827337265 156.772449612617 2752.00009346008 11 14 7
-2.40130815654993 156.544730067253 2747.99990653992 10 13 6
5.07447589188814 155.747160315514 2733.99996757507 10 13 6
12.5013180077076 155.291199684143 2726.0000705719 10 13 6
27.4347420781851 155.57487308979 2730.99994659424 7 10 3
34.647099673748 154.491618275642 2711.99989318848 7 10 3
41.8021082878113 153.579100966454 2696.00009918213 8 10 5
56.7509867250919 154.20289337635 2707.00001716614 9 11 6
63.713327050209 153.175830841064 2688.99989128113 12 14 9
72.1096992492676 155.452415347099 2729.00009155273 11 13 10
78.537680208683 153.456583619118 2694.00000572205 7 9 6
87.5161215662956 156.359285116196 2744.99988555908 6 8 5
97.1187204122543 159.831285476685 2805.99999427795 4 6 3
105.485565960407 160.910665988922 2825.00004768372 4 6 3
117.692925035954 156.632468104362 2750 4 6 3
125.059589743614 156.458169221878 2746.99997901917 6 8 5
131.444275379181 155.144557356834 2723.99997711182 8 10 5
140.506982803345 156.963258981705 2756.00004196167 9 11 6
148.454651236534 157.414823770523 2763.99993896484 9 12 5
154.752269387245 156.157657504082 2742.00010299683 10 13 6
163.295850157738 157.178282737732 2759.99999046326 10 13 6
170.637220144272 157.002791762352 2756.99996948242 10 13 6
176.216840744019 155.289560556412 2726.99999809265 10 13 4
186.750471591949 157.903954386711 2773.00000190735 10 13 4
196.272924542427 159.493044018745 2801.00011825562 10 13 4
202.962517738342 158.747285604477 2788.00010681152 11 14 5
211.770609021187 159.652560949326 2803.99990081787 14 16 5
218.70893239975 159.134224057198 2795.00007629395 15 17 6
225.678309798241 158.672645688057 2786.99994087219 16 17 9
232.603177428246 158.210903406143 2779.00004386902 15 16 8
240.175008773804 158.204466104507 2779.00004386902 17 18 10
248.726576566696 158.824011683464 2789.99996185303 19 20 12
-77.1619901061058 148.548170924187 2739.00008201599 19 22 13
-71.5942233800888 152.617797255516 2813.99989128113 17 20 11
-64.0949904918671 153.053522109985 2822.00002670288 15 18 9
-55.4927252233028 150.614529848099 2776.99995040894 15 18 9
-47.1186563372612 148.121044039726 2730.99994659424 12 15 6
-39.6926552057266 148.230716586113 2733.00004005432 14 17 10
-32.1965962648392 148.068964481354 2730.00001907349 17 20 13
-24.7077252715826 147.852793335915 2726.0000705719 18 21 14
-17.2342602163553 147.582158446312 2720.99995613098 19 22 15
-9.8096439614892 147.636756300926 2721.99988365173 18 21 14
-2.38564610481262 148.070856928825 2730.00001907349 16 19 12
5.07461791858077 148.287773132324 2733.99996757507 17 20 13
12.4558061361313 147.311240434647 2716.00008010864 16 19 12
19.7459813207388 146.388739347458 2698.99988174438 15 18 11
27.0939450711012 146.279618144035 2697.00002670288 13 16 9
34.5969647169113 146.875396370888 2707.99994468689 13 16 9
42.8421534597874 149.857416749001 2763.00001144409 11 13 8
49.2903627455235 146.601945161819 2703.00006866455 9 11 6
56.8154640495777 146.980151534081 2710.00003814697 9 11 6
64.4970238208771 147.62932062149 2721.99988365173 9 11 6
72.5080743432045 148.820638656616 2743.99995803833 8 10 5
79.239547252655 147.408485412598 2717.99993515015 8 10 7
85.8925357460976 146.104633808136 2694.00000572205 6 8 5
97.2598642110825 152.39317715168 2809.99994277954 4 6 3
105.115078389645 152.661591768265 2815.00005722046 4 6 3
110.833384096622 150.001361966133 2766.00003242493 5 7 4
118.637748062611 150.323644280434 2772.0000743866 5 7 4
125.108554959297 149.018868803978 2747.99990653992 7 9 4
132.4612647295 148.852720856667 2744.99988555908 10 12 7
139.644131064415 148.523718118668 2739.00008201599 11 13 8
148.781001567841 150.200828909874 2769.99998092651 11 14 7
158.594369888306 152.365654706955 2809.99994277954 10 13 6
164.720311760902 150.951564311981 2783.99991989136 10 13 6
171.632185578346 150.350660085678 2773.00000190735 10 13 6
177.320182323456 148.773655295372 2743.99995803833 10 13 4
185.004487633705 148.931503295898 2746.99997901917 11 14 5
193.895697593689 150.01080930233 2766.99995994568 12 15 6
203.186377882957 151.306688785553 2790.99988937378 12 15 6
210.945531725883 151.409655809402 2792.99998283386 14 16 5
218.949571251869 151.675075292587 2798.00009727478 15 17 6
226.899012923241 151.886060833931 2802.00004577637 15 16 8
235.036790370941 152.205258607864 2808.00008773804 14 15 7
240.6135648489 150.898188352585 2783.99991989136 16 17 9
244.721338152885 148.778036236763 2744.99988555908 18 19 11
-86.3085389137268 143.854215741158 2792.99998283386 22 23 15
-78.6008313298225 143.70185136795 2789.99996185303 19 22 13
-70.9854960441589 143.703773617744 2789.99996185303 18 21 12
-63.4607151150703 143.91154050827 2793.99991035461 16 19 10
-55.494200438261 143.0374532938 2776.99995040894 15 18 9
-47.3269484937191 141.287505626678 2743.00003051758 12 15 6
-39.9987101554871 141.855239868164 2753.99994850159 13 16 9
-32.4451252818108 141.701638698578 2750.99992752075 16 19 12
-24.5542973279953 139.539003372192 2709.00011062622 18 21 14
-17.1333756297827 139.333501458168 2704.99992370605 20 23 16
-9.77026298642159 139.642909169197 2710.99996566772 20 23 16
-2.36561009660363 139.437019824982 2707.00001716614 17 20 13
5.07289683446288 140.776231884956 2733.00004005432 18 21 14
12.5065855681896 140.466943383217 2726.99999809265 19 22 15
19.8781974613667 139.951437711716 2717.00000762939 17 20 13
27.2152256220579 139.538764953613 2709.00011062622 15 18 11
34.8917357623577 140.671133995056 2730.99994659424 16 19 12
42.8277850151062 142.266929149628 2762.00008392334 16 18 13
49.2551997303963 139.123722910881 2700.99997520447 13 15 10
66.0863295197487 143.653407692909 2789.00003433228 11 13 8
70.8187967538834 138.037398457527 2680.0000667572 10 12 7
80.028809607029 141.383334994316 2744.99988555908 9 11 6
88.8281092047691 143.492892384529 2786.00001335144 7 9 6
96.9163030385971 144.211545586586 2799.99995231628 5 7 4
105.864703655243 146.011590957642 2835.00003814697 4 6 3
111.677788197994 143.536642193794 2786.99994087219 6 8 5
118.341267108917 142.400667071342 2765.00010490417 6 8 5
126.158997416496 142.706528306007 2770.99990844727 7 9 4
132.850781083107 141.776233911514 2753.00002098084 13 15 10
140.208601951599 141.618236899376 2750 13 15 10
148.570045828819 142.438516020775 2766.00003242493 12 15 8
157.187476754189 143.413037061691 2785.00008583069 11 14 7
164.428770542145 143.09997856617 2779.00004386902 12 15 8
170.089244842529 141.499474644661 2747.99990653992 13 16 9
177.19554901123 141.186147928238 2742.00010299683 14 17 8
185.076609253883 141.490489244461 2747.99990653992 15 18 9
194.671541452408 143.030345439911 2778.00011634827 15 18 9
202.390804886818 143.128335475922 2779.99997138977 15 18 9
211.102023720741 143.895417451859 2795.00007629395 13 15 4
217.859610915184 143.323749303818 2783.99991989136 13 15 4
226.499900221825 143.987461924553 2796.99993133545 14 15 7
234.373107552528 144.136160612106 2799.99995231628 14 15 7
242.521107196808 144.439116120338 2805.99999427795 17 18 10
247.758775949478 143.043264746666 2779.00004386902 17 18 10
-105.119787156582 141.008675098419 2891.00003242493 14 15 7
-96.7924520373344 140.377059578896 2878.00002098084 16 17 9
-86.8360474705696 137.06248998642 2809.99994277954 21 22 14
-78.7436738610268 136.332884430885 2795.00007629395 18 21 12
-70.6310719251633 135.4079246521 2776.00002288818 17 20 11
-63.2124692201614 135.751008987427 2782.99999237061 19 22 13
-55.4156675934792 135.264694690704 2773.00000190735 19 22 13
-47.8457659482956 135.265946388245 2773.00000190735 16 19 10
-40.1304326951504 134.77922976017 2763.00001144409 15 18 11
-32.858744263649 135.90207695961 2786.00001335144 15 18 11
-24.6093012392521 132.439360022545 2714.99991416931 15 18 11
-17.3111632466316 133.317947387695 2733.00004005432 16 19 12
-9.84258949756622 133.220717310905 2730.99994659424 16 19 12
-2.37965234555304 132.830619812012 2723.00004959106 18 21 14
5.08973095566034 133.757412433624 2742.00010299683 20 23 16
12.6353204250336 134.391367435455 2755.00011444092 21 24 17
19.9445486068726 132.976308465004 2726.0000705719 18 21 14
27.3867007344961 132.975727319717 2726.0000705719 17 20 13
34.6881933510304 132.438361644745 2714.99991416931 18 21 14
42.1930998563766 132.73012638092 2720.99995613098 18 21 14
49.6941097080708 132.924094796181 2724.99990463257 14 16 11
57.5312525033951 133.849576115608 2743.99995803833 13 15 10
65.0216713547707 133.848085999489 2743.99995803833 12 14 9
73.0139017105103 134.773179888725 2763.00001144409 11 13 8
79.0978595614433 132.332429289818 2713.00005912781 9 11 6
90.4883369803429 138.42748105526 2838.00005912781 7 9 4
96.4687466621399 135.937601327896 2786.99994087219 4 6 3
105.008460581303 137.154534459114 2812.00003623962 4 6 3
111.159645020962 135.298445820808 2773.9999294281 5 7 4
118.215829133987 134.710401296616 2762.00008392334 6 8 5
135.411769151688 136.850193142891 2805.99999427795 10 12 7
140.976890921593 134.847268462181 2765.00010490417 13 15 10
147.338300943375 133.770868182182 2743.00003051758 11 14 7
156.457632780075 135.181456804276 2772.0000743866 11 14 7
162.953585386276 134.299829602242 2753.99994850159 13 16 9
169.722080230713 133.710652589798 2742.00010299683 14 17 10
178.363159298897 134.584218263626 2759.99999046326 15 18 9
186.832308769226 135.262489318848 2773.9999294281 16 19 10
195.026680827141 135.696768760681 2782.99999237061 16 19 10
203.56060564518 136.325880885124 2796.0000038147 15 18 9
210.200771689415 135.687112808228 2782.99999237061 13 15 4
217.70840883255 135.633304715157 2782.00006484985 13 15 4
225.45263171196 135.725572705269 2783.99991989136 14 15 7
235.215842723846 136.987656354904 2809.99994277954 16 17 9
241.662636399269 136.299580335617 2796.0000038147 19 20 12
247.051477432251 135.075181722641 2770.99990844727 19 20 12
251.843750476837 133.606985211372 2740.9999370575 17 18 10
259.215176105499 133.552297949791 2740.00000953674 23 24 18
-95.583975315094 130.866020917892 2842.00000762939 14 15 7
-87.0235338807106 129.670903086662 2815.99998474121 25 26 18
-78.0693739652634 127.600640058517 2770.99990844727 19 22 13
-70.5818682909012 127.740502357483 2773.9999294281 17 20 11
-62.7824068069458 127.281561493874 2763.99993896484 17 20 11
-54.9373626708984 126.592189073563 2749.00007247925 18 21 12
-47.3120249807835 126.271024346352 2742.00010299683 18 21 12
-40.116872638464 127.193048596382 2762.00008392334 16 19 12
-32.199040055275 125.720262527466 2730.00001907349 14 17 10
-25.2081416547298 128.069534897804 2780.99989891052 13 16 9
-17.4636002629995 126.964807510376 2756.99996948242 13 16 9
-9.8716588690877 126.136183738708 2739.00008201599 14 17 10
-2.38407892175019 125.629737973213 2727.9999256134 15 18 11
5.09170908480883 126.320496201515 2743.00003051758 16 19 12
12.6493815332651 127.011075615883 2757.99989700317 17 20 13
20.0840402394533 126.412019133568 2744.99988555908 19 22 15
27.2969324141741 125.122010707855 2717.00000762939 18 21 14
34.8295718431473 125.535771250725 2726.0000705719 17 20 13
42.1941056847572 125.304609537125 2720.99995613098 16 19 12
49.9141439795494 126.040354371071 2736.99998855591 11 14 7
57.5116686522961 126.315414905548 2743.00003051758 9 12 5
65.3549656271935 127.004712820053 2757.99989700317 9 12 5
72.4871307611465 126.312404870987 2743.00003051758 9 11 6
81.9570198655128 129.441916942596 2811.00010871887 8 10 5
89.9165570735931 129.854366183281 2819.9999332428 7 9 4
97.5787192583084 129.806146025658 2819.00000572205 5 7 2
105.832509696484 130.494490265846 2834.00011062622 3 5 0
111.482873558998 128.097608685493 2782.00006484985 4 6 3
115.436509251595 124.18121099472 2697.00002670288 8 10 7
127.531051635742 128.966957330704 2801.00011825562 6 8 3
135.656252503395 129.42436337471 2811.00010871887 8 10 5
142.305880784988 128.50034236908 2790.99988937378 15 17 12
149.544104933739 128.174737095833 2783.99991989136 17 20 13
156.969293951988 128.033101558685 2780.99989891052 14 17 10
163.134902715683 126.92454457283 2756.99996948242 13 16 9
171.582996845245 127.611294388771 2772.0000743866 15 18 11
179.7244399786 128.021612763405 2780.99989891052 16 19 10
188.453122973442 128.80003452301 2798.00009727478 17 20 11
196.993455290794 129.394099116325 2811.00010871887 17 20 11
202.618822455406 128.100737929344 2782.99999237061 17 20 11
211.338639259338 128.786519169807 2798.00009727478 15 18 7
217.79166162014 128.091290593147 2782.99999237061 15 18 7
225.862726569176 128.362491726875 2789.00003433228 14 17 8
233.71447622776 128.495439887047 2792.00005531311 15 18 9
240.112379193306 127.845883369446 2778.00011634827 18 21 12
246.611312031746 127.288237214088 2766.00003242493 19 22 13
251.390099525452 125.902205705643 2736.00006103516 24 27 18
-85.7584401965141 120.210058987141 2775.00009536743 20 23 14
-77.9865980148315 119.908593595028 2767.99988746643 19 22 13
-70.6852376461029 120.343431830406 2778.00011634827 17 20 11
-62.1478110551834 118.525415658951 2736.00006103516 16 19 10
-54.0992319583893 117.27038025856 2707.00001716614 15 18 9
-47.1750497817993 118.44115704298 2733.99996757507 15 18 9
-39.9144291877747 119.048625230789 2747.99990653992 16 19 12
-32.4002727866173 119.006089866161 2746.99997901917 15 18 11
-24.9005146324635 119.006723165512 2746.99997901917 14 17 10
-17.4259878695011 119.180470705032 2750.99992752075 14 17 10
-9.86467301845551 118.574254214764 2736.99998855591 14 17 10
-2.38238507881761 118.097841739655 2726.0000705719 12 15 8
5.08254254236817 118.617683649063 2737.99991607666 14 17 10
12.5716952607036 118.74745041132 2740.9999370575 17 20 13
19.9820622801781 118.313878774643 2730.99994659424 21 24 17
27.3779258131981 118.053413927555 2724.99990463257 20 23 16
34.8559096455574 118.182711303234 2727.9999256134 18 21 14
42.3191227018833 118.225194513798 2729.00009155273 13 16 9
50.1705855131149 119.177244603634 2750.99992752075 10 13 6
58.1000372767448 120.042480528355 2770.99990844727 10 13 6
65.8066868782043 120.30104547739 2776.99995040894 10 13 6
73.4401196241379 120.38616836071 2779.00004386902 10 12 7
79.1598334908485 117.612048983574 2714.99991416931 9 11 6
97.4078327417374 121.896751224995 2813.99989128113 6 8 3
113.168463110924 122.325345873833 2823.99988174438 6 8 5
117.365211248398 118.770949542522 2742.00010299683 9 11 8
125.667110085487 119.547985494137 2759.99999046326 9 11 6
135.321453213692 121.45096808672 2803.99990081787 10 12 7
142.971903085709 121.4479804039 2803.99990081787 14 16 11
150.084584951401 121.011689305305 2793.99991035461 15 18 11
157.029211521149 120.488665997982 2782.00006484985 17 20 13
164.262801408768 120.225362479687 2776.00002288818 18 21 14
171.462967991829 119.961902499199 2769.99998092651 17 20 13
180.697813630104 121.084116399288 2796.0000038147 17 20 11
187.716349959373 120.690435171127 2786.99994087219 18 21 12
195.105567574501 120.556458830833 2783.99991989136 18 21 12
201.676771044731 119.946010410786 2769.99998092651 18 21 12
208.246350288391 119.378753006458 2756.99996948242 16 19 8
217.248573899269 120.196953415871 2776.00002288818 15 18 7
225.705653429031 120.668560266495 2786.99994087219 14 17 8
233.049854636192 120.533853769302 2783.99991989136 15 18 9
239.771798253059 120.09596824646 2773.9999294281 17 20 11
245.725005865097 119.311638176441 2756.00004196167 18 21 12
-85.8220532536507 112.717837095261 2776.99995040894 19 22 13
-69.8979273438454 111.503303050995 2746.99997901917 17 20 11
-61.9674026966095 110.733434557915 2727.9999256134 17 20 11
-54.1403517127037 109.96337980032 2709.00011062622 15 18 9
-47.2105592489243 111.060410737991 2736.00006103516 14 17 8
-39.8862287402153 111.467227339745 2746.00005149841 15 18 11
-32.1768596768379 110.737301409245 2727.9999256134 14 17 10
-24.8557217419147 111.306190490723 2742.00010299683 13 16 9
-17.3503458499908 111.184850335121 2739.00008201599 13 16 9
-9.78919398039579 110.251478850842 2716.00008010864 13 16 9
-2.37107393331826 110.129818320274 2713.00005912781 18 21 14
5.01953531056643 109.764441847801 2703.9999961853 19 22 15
12.475642375648 110.413759946823 2720.00002861023 20 23 16
19.9459008872509 110.65699160099 2726.0000705719 18 21 14
27.3282714188099 110.412947833538 2720.00002861023 15 18 11
34.894984215498 110.858827829361 2730.99994659424 11 14 7
42.6766909658909 111.710481345654 2752.00009346008 10 13 6
50.5728796124458 112.561956048012 2773.00000190735 11 14 7
58.6044974625111 113.45386505127 2795.00007629395 12 15 8
66.0924538969994 113.209031522274 2789.00003433228 14 17 10
73.3095332980156 112.598732113838 2773.9999294281 12 15 8
81.2899768352509 113.16542327404 2788.00010681152 11 14 7
87.1463343501091 110.931247472763 2733.00004005432 7 9 4
105.986498296261 115.189142525196 2838.00005912781 6 8 3
113.651752471924 115.105733275414 2835.99996566772 8 10 5
118.908606469631 112.749315798283 2778.00011634827 11 13 8
128.219559788704 114.289082586765 2815.99998474121 11 13 8
134.938210248947 113.474704325199 2796.0000038147 10 12 7
143.433794379234 114.161811769009 2812.99996376038 8 10 5
149.067088961601 112.616702914238 2775.00009536743 10 13 6
156.637370586395 112.613618373871 2775.00009536743 16 19 12
164.029523730278 112.488642334938 2772.0000743866 19 22 15
172.82834649086 113.296844065189 2792.00005531311 18 21 14
179.538264870644 112.725220620632 2778.00011634827 18 21 12
186.91198527813 112.599819898605 2775.00009536743 17 20 11
194.478869438171 112.59601265192 2775.00009536743 17 20 11
201.025635004044 112.024016678333 2760.99991798401 16 19 10
207.419723272324 111.411362886429 2746.00005149841 16 19 8
216.861709952354 112.421452999115 2770.99990844727 16 19 8
231.631487607956 112.250328063965 2766.99995994568 15 18 9
240.727469325066 112.975887954235 2785.00008583069 16 19 10
-87.6780599355698 107.410155236721 2836.99989318848 18 19 11
-78.9477676153183 106.086626648903 2802.00004577637 19 22 13
-69.8738694190979 103.967823088169 2746.00005149841 18 21 12
-61.8323311209679 103.060387074947 2721.99988365173 19 22 13
-54.4012412428856 103.061512112617 2721.99988365173 19 22 13
-47.4703349173069 104.160495102406 2750.99992752075 18 21 12
-39.5674556493759 103.139027953148 2723.99997711182 16 19 12
-32.2600640356541 103.556208312511 2734.99989509583 16 19 12
-25.0375159084797 104.579091072083 2762.00008392334 16 19 12
-17.2430016100407 103.064954280853 2721.99988365173 15 18 11
-9.72450990229845 102.156475186348 2697.99995422363 15 18 11
-2.35538929700851 102.042995393276 2694.9999332428 21 24 17
5.0233481451869 102.459482848644 2706.00008964539 20 23 16
12.4391969293356 102.686487138271 2711.99989318848 16 19 12
27.6000928133726 104.010954499245 2746.99997901917 12 15 8
35.1128987967968 104.048207402229 2747.99990653992 10 13 6
42.8015999495983 104.501821100712 2759.99999046326 11 14 7
50.9568825364113 105.788268148899 2793.99991035461 12 15 8
58.6056597530842 105.825074017048 2795.00007629395 13 16 9
66.0700723528862 105.558849871159 2788.00010681152 15 18 11
73.8659724593163 105.822533369064 2795.00007629395 12 15 8
79.8628628253937 103.700831532478 2739.00008201599 10 13 6
89.5396023988724 106.311604380608 2808.00008773804 7 9 4
97.2733348608017 106.38552904129 2809.99994277954 6 8 3
105.951227247715 107.405789196491 2836.99989318848 6 8 3
113.734140992165 107.441574335098 2838.00005912781 8 10 5
121.307991445065 107.287906110287 2834.00011062622 9 11 6
126.628398895264 105.279132723808 2780.99989891052 12 14 9
135.857820510864 106.563746929169 2815.00005722046 11 13 8
140.224188566208 104.100540280342 2750 10 12 7
150.574117898941 106.104075908661 2802.99997329712 11 14 7
155.906617641449 104.549214243889 2762.00008392334 14 17 10
163.914367556572 104.849018156528 2769.99998092651 15 18 11
171.903163194656 105.110801756382 2776.99995040894 18 21 14
179.153963923454 104.918278753757 2772.0000743866 18 21 12
185.905233025551 104.460686445236 2759.99999046326 17 20 11
193.010851740837 104.230061173439 2753.99994850159 17 20 11
200.155779719353 104.037180542946 2749.00007247925 16 19 10
209.614276885986 105.017326772213 2775.00009536743 16 19 8
218.274593353271 105.543181300163 2789.00003433228 16 19 8
226.03851556778 105.614766478539 2790.99988937378 15 18 9
233.644992113113 105.610527098179 2790.99988937378 15 18 9
244.189560413361 106.892667710781 2825.00004768372 16 19 10
257.949978113174 109.46100205183 2892.99988746643 16 19 10
-88.081456720829 100.123360753059 2849.99990463257 23 24 16
-78.5547643899918 97.9466959834099 2788.00010681152 19 22 13
-69.7479322552681 96.2968170642853 2740.9999370575 16 19 10
-61.2428560853004 94.7170332074165 2696.00009918213 17 20 11
-55.1017597317696 96.8611538410187 2756.99996948242 18 21 12
-47.0398142933846 95.7729443907738 2726.0000705719 20 23 14
-39.553664624691 95.6683158874512 2723.00004959106 21 24 17
-32.3786176741123 96.4418947696686 2744.99988555908 22 25 18
-24.9201320111752 96.5829491615295 2749.00007247925 22 25 18
-17.3826850950718 96.4076519012451 2743.99995803833 20 23 16
-9.75712947547436 95.1079279184341 2707.00001716614 19 22 15
-2.37029115669429 95.283716917038 2711.99989318848 14 17 10
5.02344127744436 95.0728878378868 2706.00008964539 14 17 10
12.3935611918569 94.9321910738945 2701.99990272522 13 16 9
20.1588682830334 96.7940166592598 2755.00011444092 13 16 9
27.8517976403236 97.3908603191376 2772.0000743866 14 17 10
35.2157689630985 96.8281552195549 2756.00004196167 15 18 11
42.7868850529194 96.9328582286835 2759.0000629425 13 16 7
50.4653938114643 97.2130969166756 2766.99995994568 13 16 9
58.1454336643219 97.4229127168655 2773.00000190735 13 16 9
65.858006477356 97.632609307766 2779.00004386902 15 18 11
73.5766291618347 97.8070273995399 2783.99991989136 13 16 9
80.5932879447937 97.1030294895172 2763.99993896484 12 15 8
112.614087760448 98.7121760845184 2809.99994277954 8 10 5
120.411306619644 98.815493285656 2812.99996376038 9 11 6
136.970371007919 99.6891558170319 2838.00005912781 12 14 9
143.847152590752 99.089540541172 2821.00009918213 14 16 11
149.126440286636 97.5063368678093 2776.00002288818 14 17 10
156.756162643433 97.5387692451477 2776.99995040894 13 16 9
164.509102702141 97.6413413882256 2779.99997138977 12 15 8
171.34915292263 97.2169265151024 2767.99988746643 15 18 11
179.738849401474 97.6704582571983 2780.99989891052 15 18 9
185.032919049263 96.4732021093369 2746.99997901917 16 19 10
191.402360796928 95.9080457687378 2730.99994659424 16 19 10
204.163998365402 98.4682142734528 2803.99990081787 16 19 10
213.168323040009 99.0967154502869 2822.00002670288 14 17 6
221.878632903099 99.5494648814201 2835.00003814697 14 17 6
228.067278862 98.8784506917 2815.99998474121 16 19 10
235.490903258324 98.7691432237625 2812.99996376038 16 19 10
246.268436312675 100.029028952122 2848.99997711182 16 19 10
257.865369319916 101.534456014633 2891.99995994568 16 19 10
-77.7953341603279 89.4615650177002 2760.99991798401 19 22 13
-69.1638514399529 88.0694761872292 2717.99993515015 14 17 8
-62.2207261621952 88.7510254979134 2739.00008201599 14 17 8
-54.4231683015823 88.2335305213928 2723.00004959106 18 21 12
-46.781774610281 87.8455191850662 2710.99996566772 18 21 12
-39.3945574760437 87.8786370158196 2711.99989318848 20 23 16
-32.4499495327473 89.1429781913757 2750.99992752075 21 24 17
-25.1199956983328 89.791513979435 2770.99990844727 21 24 17
-17.3449739813805 88.7225344777107 2737.99991607666 20 23 16
-9.78252850472927 87.9450589418411 2713.99998664856 19 22 15
-2.36421381123364 87.6535251736641 2704.99992370605 13 16 9
5.03466604277492 87.8803282976151 2711.99989318848 13 16 9
12.7102686092258 89.7920355200768 2770.99990844727 14 17 10
19.9689641594887 88.4307995438576 2729.00009155273 15 18 11
28.2240398228168 91.0227298736572 2809.00001525879 15 18 11
35.2930463850498 89.499220252037 2762.00008392334 15 18 11
42.679063975811 89.1745463013649 2752.00009346008 13 16 7
50.2473972737789 89.2709866166115 2755.00011444092 12 15 8
58.062557131052 89.7237360477448 2769.00005340576 13 16 9
66.1435127258301 90.4355645179749 2790.99988937378 14 17 10
73.0228796601295 89.5271748304367 2763.00001144409 14 17 10
96.549816429615 90.365432202816 2789.00003433228 10 12 7
104.871906340122 90.9793898463249 2808.00008773804 9 11 6
111.774392426014 90.3620347380638 2789.00003433228 9 11 6
117.844998836517 89.1937911510468 2753.00002098084 10 12 7
128.363192081451 91.3300812244415 2819.00000572205 9 11 6
144.053548574448 91.5200412273407 2825.00004768372 12 14 9
150.149628520012 90.5457735061646 2795.00007629395 12 15 8
157.32330083847 90.2841165661812 2786.99994087219 12 15 8
165.162801742554 90.4110968112946 2790.99988937378 12 15 8
174.818679690361 91.4773344993591 2823.99988174438 11 14 7
179.483339190483 89.9520516395569 2776.99995040894 12 15 6
185.911685228348 89.3984586000443 2759.99999046326 13 16 7
195.750892162323 90.464286506176 2792.99998283386 13 16 7
204.167410731316 90.8173769712448 2803.99990081787 13 16 7
213.171854615211 91.3970395922661 2822.00002670288 13 16 7
222.273617982864 91.9765383005142 2839.99991416931 14 17 8
229.933828115463 91.9405668973923 2838.99998664856 16 19 10
236.583068966866 91.5158912539482 2825.99997520447 17 20 11
244.54365670681 91.6092544794083 2828.9999961853 17 20 11
-75.119748711586 79.1057646274567 2665.99988937378 19 20 12
-69.0122544765472 80.4717764258385 2711.99989318848 14 15 7
-62.4488666653633 81.5706625580788 2749.00007247925 9 11 0
-54.4839836657047 80.8890610933304 2726.0000705719 21 23 12
-47.1449047327042 81.067867577076 2732.00011253357 18 20 9
-40.1214919984341 81.9587334990501 2762.00008392334 18 21 12
-32.6273962855339 82.0779800415039 2766.00003242493 19 22 15
-25.0750668346882 82.0784196257591 2766.00003242493 20 23 16
-17.3262432217598 81.1588391661644 2734.99989509583 18 21 14
-9.79710090905428 80.6545838713646 2717.99993515015 16 19 12
-2.35725869424641 80.031506717205 2697.00002670288 14 17 10
5.00875478610396 80.0611600279808 2697.99995422363 14 17 10
12.522405013442 81.0106098651886 2730.00001907349 13 16 9
20.3351490199566 82.4643969535828 2779.00004386902 13 16 9
27.6115629822016 81.5441384911537 2747.99990653992 13 16 9
35.6641672551632 82.8196331858635 2790.99988937378 13 16 9
50.3211431205273 81.8687900900841 2759.0000629425 17 18 10
58.0215305089951 82.1053460240364 2766.99995994568 18 19 11
65.8127665519714 82.4011489748955 2776.99995040894 16 17 9
74.6626481413841 83.8243812322617 2825.00004768372 12 13 7
