ply
format ascii 1.0
comment KinectMotionCapture
element vertex 792
property float x
property float y
property float z
property uchar red
property uchar green
property uchar blue
end_header
3.58309276529756 -78.5559303193296 2779.31443164662 18 21 14
3.42865860348152 -79.9665414396249 2769.31445201587 18 21 14
217.088704774586 -73.913484972775 2892.11853096552 20 24 23
220.633620093843 -75.7443783379222 2879.85742443836 8 13 9
201.783025945758 -74.5048490600955 2885.96056336126 25 27 24
205.282654480523 -76.3397397508228 2873.66660723032 3 5 2
196.825626670567 -76.5262828551524 2871.24038677599 12 14 9
194.711786862277 -77.5948466998269 2863.52712907783 13 16 9
184.683815170685 -77.5597313378524 2862.43329388033 12 15 8
167.594169336005 -76.5260900719452 2867.34157121733 11 14 5
169.399783392584 -78.149879466986 2856.29102484419 11 12 4
175.856098425299 -80.4442255907247 2841.19796010528 8 11 4
168.974839400582 -80.8523154959032 2837.4425581583 9 12 5
172.213832533454 -82.7096349248069 2824.95954825631 9 12 5
131.942849722839 -78.3168637397873 2850.13423800669 8 11 4
71.7451959522943 -70.9989353719238 2892.99148891814 15 18 9
50.4346875615855 -69.2579935111321 2902.2543642568 19 22 13
8.43685319057741 -64.4789249410145 2929.88428901823 17 20 11
29.5566227477626 -68.9020451089298 2901.9428299206 18 21 12
31.3962060891075 -70.5226942782696 2890.91692451279 17 20 11
77.4352664407525 -78.6900838548792 2840.26157764254 16 19 10
53.9569373046804 -76.6001408835262 2851.66012558335 15 18 7
16.1684012323535 -72.3511340469964 2876.16329802216 16 19 10
2.00700449241831 -71.6008580072867 2879.48748595452 17 20 11
12.0222478550516 -74.4802934523851 2860.79562862046 19 22 13
1.64474038210916 -74.2964641825898 2860.68419737006 19 22 13
12.2824389196396 -77.3004428593238 2841.20790361091 18 21 12
31.0444481065337 -81.5678559925054 2814.02811564899 18 21 12
10.9075376579706 -79.903701974293 2822.90633160697 16 19 10
33.8537972861608 -86.301537749035 2781.45701988168 14 17 8
36.6757534223865 -88.1925418514961 2768.67181481832 17 20 11
18.8237197063503 -86.8665124821593 2775.49897517175 20 23 14
1.04089735249602 -85.53438791172 2782.37663366908 18 21 14
2.36070819399981 -87.1972639378453 2770.97372019629 14 17 10
241.244496070342 -83.38207126375 2882.40875214814 68 72 71
224.708297677144 -82.4434342621476 2886.4827175021 9 14 10
201.826311830609 -80.601210484138 2895.84194493811 10 15 11
195.795246503681 -81.1147072069109 2891.46729601118 20 22 17
188.171514993904 -81.4028282945646 2888.40959868656 9 11 6
199.604697124539 -84.4003855317008 2869.50970600936 13 15 10
208.565946471968 -87.0669362030314 2852.5252319591 12 15 8
185.081720810549 -85.0958131801857 2862.68357243016 12 15 8
175.074003987243 -85.0456341031034 2861.60479119665 11 14 7
183.925652827495 -87.7216415624365 2844.54052302223 11 12 4
186.43122819446 -89.4940451858833 2832.76160415134 8 11 4
162.34951547324 -87.3932989426749 2843.72280117513 9 12 5
157.82656425201 -88.1397378875501 2837.96986871447 8 11 4
153.29393412947 -88.8869310594661 2832.20991599138 8 11 4
78.3218675456334 -79.2064186413186 2887.83630952379 14 17 8
45.4145339804644 -75.6911042600515 2907.2284081747 18 21 12
33.4381706555411 -75.2670063965766 2908.42981141616 20 23 14
21.4961655284767 -74.839896519018 2909.65584242791 19 22 13
48.6120337370397 -80.2924742928194 2876.17469233536 16 19 10
49.5971236964077 -81.8330677535938 2865.76478856631 15 18 9
33.8046534767042 -80.8311335410707 2870.37821895803 15 18 7
10.4825255927161 -78.665237954096 2881.89038523494 15 18 9
-6.68842428716032 -77.4194713488599 2887.97612909735 16 19 10
-12.4814859106017 -77.912313009608 2883.77411875629 18 21 12
2.02835401925627 -81.5497713548278 2860.92554765156 18 21 12
2.92209991373538 -83.0974556261032 2850.44968518116 18 21 12
-21.6425488875351 -80.6758575450429 2863.53248997037 17 20 11
-48.3345457774829 -77.8937246119921 2878.78065975198 16 19 10
17.2514946273545 -89.6358261813103 2807.69384782077 16 19 10
23.8761667453296 -92.138929980301 2791.48614574386 17 20 11
-7.25357238168489 -88.6512340142148 2810.93168401682 18 21 12
11.8537497045557 -93.1595397580832 2782.76566947019 19 22 13
-4.44048448990308 -92.0182262699655 2788.25139753816 22 25 18
-7.4945739857688 -92.9982677188899 2781.09201778814 24 27 20
252.107266206402 -92.4525004854997 2874.18080844289 1 5 4
229.922339679358 -90.6769782836322 2882.80997456976 11 16 12
216.628963511281 -90.1600195256264 2884.2921540827 5 10 4
185.015222207315 -86.9886837384239 2900.91485868637 18 20 15
190.954610959656 -89.2318268702779 2886.68206456049 6 8 3
211.910206085429 -93.6777071129434 2859.85651325881 13 16 9
225.591351543168 -97.0940957416533 2838.87869134315 12 15 8
208.373468766667 -95.9954464033994 2843.69433626301 11 14 7
181.769076276152 -93.4972874507469 2856.53420622373 10 13 6
186.680465904441 -95.6449069710524 2842.79200854638 11 12 6
164.129258607278 -93.7178453251362 2852.39145413253 10 13 6
154.159987856419 -93.6510794570968 2851.34062729278 8 11 4
120.857356701422 -90.0741401587752 2870.44647842711 6 9 2
110.220165373041 -89.8810879349521 2870.14684352405 8 11 4
82.5780312579449 -87.1047419575681 2884.70620924215 13 16 7
49.654745867465 -83.4954583387258 2904.08722004717 14 17 8
36.8968254451598 -82.933130634308 2905.95749818306 22 25 16
51.0402571535069 -86.4933409362786 2884.07903232181 24 27 18
75.0175658675789 -91.5981106414901 2853.2651706588 24 27 18
67.5350591504129 -91.8690360261696 2850.30964282284 20 23 14
23.5362354380686 -86.4539738271621 2880.19763350524 18 21 10
10.105085981015 -85.7653807596445 2882.81584421159 16 19 10
-4.03961700502542 -84.9541773975707 2886.15273688833 16 19 10
-4.55887381232789 -86.2809103077972 2877.12375102504 16 19 10
6.17215523409032 -89.3981106532493 2857.71424657646 16 19 10
23.5549205208421 -93.5978780728671 2832.0053256511 17 20 11
-31.7297847279372 -86.2113612148242 2873.4839842139 17 20 11
-56.9035193452083 -83.5902337355647 2887.36129698149 20 23 14
-5.37554989824396 -94.7758514367399 2819.6728889286 19 22 13
-17.2095121957903 -94.3165394375992 2820.97740560331 18 21 12
-14.2745635482302 -96.2641781854183 2808.27352988013 17 20 11
-4.78266234691249 -99.3023313902419 2789.20148670792 16 19 10
-15.8893606765365 -98.9637917030409 2789.79756418878 21 24 17
7.34987128373232 -104.312354573668 2757.21208896894 24 26 21
249.763004845806 -98.2544334141986 2886.03830177173 1 5 4
248.484339506698 -99.4793276557242 2877.6946513963 11 16 12
228.715729481074 -98.0016088529735 2884.36854412425 9 14 10
217.026603665665 -97.6956747966304 2884.54224233711 20 25 19
218.939552311252 -99.3930062545451 2873.56913259313 9 11 6
168.260601045384 -93.2948817172546 2906.02882482564 14 16 11
207.546197997322 -100.550468898832 2864.06894749906 13 16 9
203.032926984374 -101.307504835674 2858.32297875211 12 15 8
176.401373416251 -98.740839427936 2871.14350606672 11 14 7
179.804555677973 -100.683554489012 2858.77908782249 10 13 6
161.168251455318 -99.2958562540314 2865.03832059049 11 12 6
159.827764126876 -100.526665281757 2856.64952969908 10 13 6
144.405300169 -99.6092049934278 2860.29572102004 8 11 4
121.248429704362 -97.4906008366385 2870.6924097574 5 8 1
83.4350753783419 -93.086587575409 2893.94304494634 8 11 4
42.7037665194687 -88.1871013449339 2920.0216377613 13 16 7
39.9993645811954 -89.162024674069 2913.11577990876 13 16 7
60.3722072255137 -93.75107329235 2885.86675924365 20 23 14
69.8476327725679 -96.6643132475805 2868.01844185749 26 29 20
80.7653821855188 -99.8267284143235 2848.74406596544 28 31 22
-6.52434124897172 -88.8494283734171 2907.79923986004 19 22 11
5.93265750728644 -92.2524497812765 2887.1691122127 20 23 14
-10.4702208482692 -91.0458955812874 2892.57611778976 18 21 12
-17.0044792247019 -91.4164844267311 2889.07274844536 18 21 12
25.3627868577482 -99.7111324248047 2840.69543595422 18 21 12
-10.5601740106027 -95.331155775018 2864.08129932425 19 22 13
-8.16653322935945 -97.1728192420451 2852.22088586861 20 23 14
-22.2269960420105 -96.3241233957292 2855.61874147461 20 23 14
-19.140200903681 -98.2923992400575 2843.02513245922 18 21 12
-13.8829750929625 -100.633701237189 2828.29732666487 16 19 10
6.82790094946251 -105.564331870747 2798.82155018539 15 18 9
-5.78023806492789 -104.963214101925 2800.80089901671 15 18 9
-16.8802904106278 -104.605436201753 2801.4018917585 11 14 5
-12.5684778898796 -106.840461634319 2787.22460511211 25 28 19
223.122783489754 -103.234412771891 2898.81432037837 13 18 12
196.195700448504 -100.621758411632 2911.42084501411 18 23 17
199.808388015578 -102.579214813995 2899.20852144602 14 19 13
201.770999018283 -104.299975350214 2888.27129433166 13 16 9
171.83646932496 -101.188921918297 2903.6406221906 14 17 10
173.003548651009 -102.788824669699 2893.36234598405 15 18 11
164.627236320401 -102.937015338446 2890.9948321659 14 17 10
164.950653298203 -104.420228273366 2881.34059480459 12 15 8
152.637295056041 -103.960251671896 2882.29788497159 10 13 6
175.699227762957 -108.979672367938 2853.29095327386 10 11 5
182.935010753805 -111.572681563676 2837.52580312189 8 11 4
170.571068068733 -111.117101585291 2838.44640127694 9 12 5
123.975425984113 -105.273421613461 2868.92444167137 8 11 4
64.4054649463048 -97.3265712580375 2911.00486942506 10 13 6
58.5698437674305 -97.8246231599617 2906.7719803631 14 17 8
47.3282123092638 -97.4620644291019 2907.27036360067 12 15 6
73.8460902784666 -103.130688074965 2874.58965993613 18 21 12
81.7514390157483 -105.855227292825 2858.07448390532 21 24 15
64.3122003306047 -104.510642412175 2863.96594554425 22 25 16
40.8306882240779 -102.170780070806 2875.36345197272 21 24 15
12.1208264117048 -98.9551080673716 2891.62109762796 22 25 14
32.1185926523833 -103.669016542669 2864.09983811055 22 25 16
-5.55182178786118 -98.9516080359292 2888.69101198811 23 26 17
-35.4921994010868 -95.4630106723611 2906.52808615795 23 26 17
-14.8809100092753 -100.313059347197 2878.21585645989 22 25 16
-2.67665696040931 -103.80311058618 2857.40206723214 20 23 14
-4.79144928260844 -104.926835392712 2849.68783963518 19 22 13
-6.92897244747837 -106.052382137471 2841.95683025976 18 21 12
23.5739469781651 -114.210823585951 2793.62562942789 14 17 8
7.95814095307179 -113.086859504657 2798.36774556983 17 20 11
-6.12725142982606 -112.209863245343 2801.74767254551 17 20 11
-13.5519127715975 -112.463784925198 2798.83445866079 16 19 10
1.74270854299374 -116.632853672731 2774.08202636003 23 26 17
204.19327006146 -107.797606087883 2914.71203356157 12 17 10
199.80008053 -108.555488740827 2909.05311015444 16 21 14
186.587967850603 -107.95864107272 2910.59460395765 16 21 14
202.965097805411 -111.925356886731 2887.86296685877 17 20 13
184.97074153609 -110.587317089702 2893.35227323901 16 19 12
165.453077835623 -108.996247715725 2900.20865645651 14 17 10
188.781201325157 -114.094204752087 2871.39429433585 13 16 9
168.502992081483 -112.37654575127 2878.93501968886 12 15 8
167.207478526401 -113.636928963038 2870.57868144646 11 14 7
172.954207762922 -116.02053387965 2856.2058073364 12 13 7
184.900851951724 -119.407794845488 2836.44112370757 8 11 4
188.153763642821 -121.429626443573 2823.9673703789 9 12 5
160.196331627353 -118.45152776752 2838.29919183742 8 11 4
102.845776445319 -110.70175309845 2878.28211166861 11 14 7
52.7546841935576 -104.056597594001 2912.40576289487 16 19 10
52.3422715843167 -105.433223871513 2903.45397795118 14 17 8
62.6800648475641 -108.574494366712 2884.99461767749 17 20 11
62.1738784051127 -109.959056319871 2875.97451940809 18 21 12
34.8348118652688 -106.927965569047 2890.75487561177 17 20 11
35.1056313366129 -108.437594085634 2881.06266987243 16 19 10
29.2496960466861 -108.937351400918 2876.81504603959 15 18 7
20.3563247369223 -108.929907280527 2875.30853008295 14 17 8
17.5351626081777 -109.936812905565 2868.31786827993 14 17 8
8.65761797238074 -109.927847672819 2866.82283312174 15 18 9
2.80685764144639 -110.426737680098 2862.5789651202 15 18 9
-1.5438441481388 -111.180730273499 2856.9508616878 17 20 11
0.0809072406648959 -112.95720964667 2845.76843070215 17 20 11
-22.2101825182284 -110.643931614485 2856.79372841133 19 22 13
-25.0674660304449 -111.653106292454 2849.77686995336 17 20 11
3.94429475353419 -118.180546044297 2812.72391299042 17 20 11
-14.571202999816 -116.502494902057 2820.30722827007 19 22 13
-33.0130890268976 -114.817902464426 2827.94423387102 17 20 11
-19.7772438889825 -118.667820395571 2805.40637170976 19 22 13
2.86919468606595 -124.204944186835 2773.62524944509 20 23 14
48.7211103999581 -133.891971646339 2719.12113580298 27 30 23
200.558850126762 -114.615703777276 2918.21830760261 14 19 12
203.405242367186 -116.510275177763 2906.6858353528 13 18 11
223.824617059584 -121.180251272948 2880.70546795498 15 20 13
212.146910053753 -120.816904388418 2880.88773471389 18 21 14
193.329726899444 -119.314095797522 2887.01642754083 18 21 14
196.031206224757 -121.221462635391 2875.37854553783 16 19 12
186.800280733189 -121.232451981397 2873.62753045893 15 18 11
179.166420832608 -121.495893330951 2870.56232137838 13 16 9
162.874377449889 -120.360754845265 2874.81427522872 11 14 7
167.065310987315 -122.529868129884 2861.78473131485 11 12 6
177.465885669274 -125.723556052133 2843.3706171268 9 12 5
186.21110297723 -128.6699233069 2826.2278250376 9 12 5
166.826062049997 -127.021599449112 2833.18063933898 8 11 4
108.671453281801 -118.965963228937 2873.81756392148 11 14 7
53.9088996883583 -111.398100859701 2911.97025554865 17 20 11
66.6274774005382 -114.976936685518 2891.52886153414 16 19 10
69.2261089008697 -116.893252295884 2879.81667209765 17 20 11
44.892708953153 -114.306796386591 2891.8329125241 18 21 12
17.6002122546972 -111.195490747714 2906.64743450388 18 21 12
12.5769103744959 -111.818865471833 2901.76774162327 17 20 11
54.7610886102499 -120.46112891167 2854.49127521026 16 19 8
45.7947386489512 -120.449320939722 2852.93187757545 14 17 8
32.3024012824007 -119.657727701207 2855.50625357657 13 16 7
21.8727347303651 -119.38186625386 2855.35777173474 13 16 7
10.7158652185841 -118.973696995898 2855.91783174246 13 16 7
4.84244319947136 -119.474691699818 2851.65752513883 16 19 10
-5.52177844726032 -119.192931047127 2851.55651558616 16 19 10
-25.5598083161357 -117.210467581478 2860.50773000965 17 20 11
-44.027490955745 -115.482480400261 2868.12596042157 17 20 11
-32.7527600697803 -118.988756901243 2847.87358966302 19 22 13
-29.7149311825922 -121.060293778852 2835.24396092969 19 22 13
-33.3664224010894 -121.953730999467 2828.88698721844 18 21 12
-33.3564253603789 -123.506037045464 2819.00519508578 14 17 8
20.8525562891957 -134.812066832431 2756.96510444787 17 20 11
35.9722090551893 -139.15506494553 2732.08495272569 26 29 22
214.207652070294 -122.689332195341 2916.95550779786 21 26 19
208.199960150593 -123.202219903488 2912.59780583742 17 23 13
200.584845229092 -123.458247576512 2909.546517421 9 15 5
229.82992225218 -129.632889115435 2876.37018221315 10 15 8
228.522081041544 -130.927339206495 2868.0047348347 14 17 10
213.642537240875 -130.030319801597 2870.80906592079 14 17 10
183.713968894449 -126.673774047992 2886.18395875432 17 20 13
177.687103221265 -127.18887222597 2881.81234613433 15 18 11
161.387284961969 -126.019084869123 2886.05883931407 11 14 7
180.602608652245 -130.685645709466 2860.44097805425 10 13 6
180.032533684666 -132.114605160339 2851.37434074746 10 11 5
186.482921652289 -134.717799144569 2836.27541497727 9 12 5
187.392821148113 -136.414590207111 2825.81021286491 9 12 5
164.886396969711 -134.198235576794 2835.44358801557 8 11 4
121.492028173147 -128.444138253521 2863.30140498746 12 15 8
93.8039060009439 -125.290661358158 2877.82904874696 20 23 14
73.9638528394293 -123.437784042297 2885.68838217908 19 22 13
85.0190510445126 -126.830309849753 2866.51248029399 16 19 10
47.5783882752907 -121.94720890222 2890.03600869669 16 19 10
22.5736147828397 -119.155605324395 2902.80163185532 18 21 12
35.8693877105534 -122.947895009213 2881.54283563245 18 21 12
53.6244566591404 -127.541842485958 2856.10151450018 18 21 10
55.2941745321087 -129.370420052007 2844.95141679092 18 21 12
42.5313523583739 -128.686571830843 2846.81905154498 18 21 12
24.5218390313804 -127.070926259188 2853.53381300782 16 19 10
26.1559193117473 -128.902211636233 2842.35786713154 15 18 9
4.47503797143867 -126.614468171268 2852.59005750201 14 17 8
0.0999310080382898 -127.381848924625 2846.94419442461 14 17 8
-18.4638175354046 -125.615959647884 2854.49327107129 12 15 6
-2.72702501869837 -129.987137340817 2830.0603543897 13 16 7
-34.5973579163883 -125.809653927371 2850.20725649482 16 19 10
-1.22503903701832 -133.404643677696 2808.89943955072 17 20 11
-3.48477867050079 -134.581841887853 2801.07986570115 18 21 12
-23.4134807692239 -132.537518531109 2810.11094196796 21 24 13
30.7790209952712 -144.069530476059 2748.05746558845 19 22 11
29.7958227510522 -145.531330209562 2738.69118005943 23 26 19
191.980365803607 -126.481227159497 2935.40694284458 20 25 18
222.288529034366 -132.885154098332 2901.76476903408 18 24 14
228.294665079119 -135.369711169206 2887.57943311275 14 20 10
219.811750490258 -135.49502294722 2885.13475692868 14 20 10
232.117413360964 -139.040496256564 2865.62953222749 15 18 11
199.69588988186 -135.215633482332 2882.9050051657 14 17 10
173.775991923236 -132.434149694047 2895.00718381035 14 17 10
169.362503682618 -133.21135057973 2889.33374206212 12 15 8
180.745839429869 -136.636141244742 2870.39555065629 11 14 7
164.447882001349 -135.431043904609 2874.643571644 9 12 5
185.930645384122 -140.591221287916 2846.96122670008 10 11 5
197.070433642434 -144.03689666167 2827.84667121381 9 12 5
171.518389997379 -142.823794839529 2830.32668914927 8 11 4
135.871252989564 -138.275458542757 2851.44298816156 12 15 8
95.7401797296984 -132.911090782215 2876.7240226593 21 24 15
78.9843176686125 -131.545267772086 2881.8759495431 20 23 14
59.9775036131946 -129.772117194923 2889.10358084756 17 20 11
61.0220981890883 -131.482103083247 2878.73595523888 16 19 10
35.976364370363 -128.625968288125 2891.47250672322 18 21 12
38.5427668888463 -130.60553477787 2879.73663343182 18 21 12
54.7722014273462 -135.015097242747 2855.66064903888 16 19 8
48.845362351535 -135.521733687918 2851.36159069434 17 20 11
34.5863851453982 -134.541671985474 2854.61620437396 17 20 11
19.6196388506724 -133.422101835113 2858.59377888074 17 20 11
28.8005205074739 -136.634741605971 2840.53042382356 16 19 10
28.1322701961542 -138.090612657516 2831.39277527938 14 17 8
-7.75151287207088 -133.161762161024 2854.80981962706 13 16 7
5.80181440474403 -137.199634253294 2832.5011550188 14 17 8
10.3094603005349 -139.611827265374 2818.46493477656 14 17 8
11.7867117272881 -141.483359427371 2807.1750964595 14 17 8
1.38242663327759 -141.172144980269 2807.04489877115 15 18 9
55.6606198245082 -154.519227435586 2735.16346625802 18 21 12
57.572481982068 -156.552655407621 2722.95282987138 14 17 6
23.6163228003794 -151.857503191011 2745.29569844866 22 25 18
267.511618224942 -146.280253966435 2875.19422179537 24 29 23
235.575982536979 -142.526126480044 2891.58623576834 25 28 21
248.781669748727 -146.260106123609 2871.4974664685 20 23 16
239.442047431262 -146.248038157707 2869.6674770536 17 20 13
187.760327652206 -139.116548798734 2902.64080629352 11 14 7
191.323237694047 -141.243777437498 2890.39124352821 10 13 6
174.961757821064 -140.00863701664 2894.59336791442 11 14 7
175.3021621758 -141.600899868587 2884.95118718287 11 14 7
186.673380567012 -145.087073171735 2866.00390073188 10 13 6
184.546994272107 -146.282573870643 2858.28061038061 10 13 6
181.611660940718 -147.344582014529 2851.20690433113 9 12 5
187.280677895777 -149.899942988788 2836.77682495148 10 13 6
181.939770266354 -150.559781693838 2831.66641371095 11 14 7
155.547390287841 -147.548274978106 2844.66257627381 10 13 6
119.163516631991 -142.756761528728 2866.48136201364 10 13 6
58.9220058004418 -133.723257789737 2909.31550973309 21 24 17
54.6359653384334 -134.495481055474 2903.73448281207 27 30 23
51.8819952822818 -135.542000568317 2896.79203484724 21 24 17
35.2760854128795 -134.125215792003 2902.05321788334 19 22 15
32.5248032535845 -135.171368195686 2895.11272029179 16 19 12
36.6320362082799 -137.454790669932 2882.02221551769 16 19 12
46.7769322321172 -140.843086147394 2863.42147421126 18 21 14
43.9131998313052 -141.898576891605 2856.39970621631 17 20 13
36.4858195151063 -142.128343362113 2853.4846436399 18 21 14
16.9811609720192 -140.148414041106 2861.58746085503 19 22 15
33.0249074327682 -146.273781709791 2827.48729433249 17 20 11
25.5743929539332 -146.505074200958 2824.55515910126 16 19 10
10.6662771068766 -145.347447153501 2828.57542883647 15 18 9
17.3959036248812 -148.216153887966 2812.44225307006 15 18 9
22.5657413286524 -150.812800720374 2797.64980440011 16 19 10
0.29068451810943 -148.258173191122 2808.68794721849 17 20 11
60.7386771516567 -161.325857890203 2741.28054919585 18 21 10
43.557879123 -159.753742321228 2747.36051246986 18 21 12
53.5758483479305 -163.353486990512 2727.4316515571 25 26 21
66.4203489225343 -167.521808406418 2704.60877707079 23 24 19
247.322286859647 -148.894576405884 2901.30445610223 9 15 13
250.942385064172 -151.049254594449 2889.09621121912 17 19 14
216.629937997463 -146.794956987107 2907.47345620189 16 19 12
237.125300655299 -151.819779212953 2881.54637673627 13 16 9
222.207065174243 -150.836457774325 2884.32309653434 12 15 8
193.747025319603 -147.519732583919 2898.29228205412 12 15 8
210.848177418473 -152.013681533254 2874.84779688989 13 16 9
182.507514159044 -148.686937402797 2888.90327732204 13 16 9
183.622335427131 -150.440582537212 2878.58633939855 12 15 8
193.393363385653 -153.713072231109 2860.95049083818 11 14 7
201.499173999333 -156.717342661832 2844.5792170059 11 14 7
204.021764270409 -158.761456867537 2832.81125633445 11 14 7
191.599308942742 -158.181461295684 2833.68977313865 12 15 8
168.265416507872 -155.659110673968 2843.96017992739 10 13 6
141.908838246489 -152.573787711242 2856.98266981289 9 12 5
71.3518522962025 -141.561528140487 2908.40558635169 12 15 8
56.2005122094442 -140.393325213034 2912.24929673677 18 21 14
64.2922709315368 -143.398853491317 2895.86783001715 20 23 16
50.7204784143904 -142.506247754485 2898.38511893216 19 22 15
10.2888085765724 -136.722116739041 2924.68540736833 17 20 13
39.0354455084267 -143.506575424925 2889.90932235081 16 19 12
26.3132751064998 -142.746546502347 2891.80681231208 17 20 13
25.0609030188067 -144.086269573895 2883.48134636805 21 24 17
47.337231572925 -149.780781044213 2853.90149398648 21 24 17
44.4470154880507 -150.849678971351 2846.86045949374 21 24 17
35.4945669128091 -150.793818900884 2845.31136240292 20 23 16
28.0653908368622 -151.018334391061 2842.39473016217 20 23 16
3.36925159983803 -147.995511860044 2855.38555452575 20 23 14
-0.99801985194059 -148.779464068351 2849.74528764025 21 24 15
6.57191398808177 -151.828580345573 2832.98531814552 22 25 16
25.2291293751776 -157.010169311649 2805.72493244089 20 23 14
34.8329693326508 -160.501173894388 2786.73144780338 19 22 13
28.6724285131186 -162.668896503069 2772.37367836084 16 19 8
50.5778660294971 -168.598873158577 2741.28843536699 16 19 10
59.8457391741674 -172.117741623552 2722.05155455795 24 25 20
69.7516076396418 -175.787237548864 2702.04107610846 21 21 19
238.803870262823 -154.907883162215 2908.68510188722 16 22 18
215.776576689886 -152.506608648301 2917.94182435354 15 17 12
226.696106151407 -155.943084084789 2899.90268179361 14 17 10
210.994546897833 -154.788646750958 2903.34775131399 12 15 8
234.628710124711 -160.467982262867 2874.75200465652 12 15 8
216.52530351222 -158.89478301855 2880.16344924471 16 19 12
192.108615325517 -156.196790911218 2890.88484057289 18 21 14
190.85076087477 -157.553626639752 2882.5553136679 15 18 11
173.707325530552 -156.106763527704 2887.42669089163 14 17 10
189.044873213413 -160.414934329512 2865.17503998742 13 16 9
202.686189611476 -164.452021399791 2844.16549565345 12 15 8
209.926560132387 -167.371666726891 2828.40201662352 13 16 9
176.315010725646 -162.962907454618 2847.28813965668 13 16 9
160.059689688949 -161.648549794546 2851.56762209979 9 12 5
138.402220179056 -159.33926327485 2860.58185669638 8 11 4
84.173392088116 -151.074515385437 2897.88995056392 14 17 10
79.0650136671012 -151.720405265835 2892.94846983956 15 18 11
87.8690668096716 -154.922578811807 2875.84703339319 11 14 7
70.3751987037422 -153.297770115999 2881.700312388 16 19 12
62.9405250885906 -153.518120336015 2878.7800104387 15 18 11
27.9162033581111 -148.605633795897 2900.34994050686 15 18 11
9.87515978337639 -146.819325692169 2907.04241498258 17 20 13
12.4829663565964 -148.88613948747 2895.33611444926 21 24 17
59.8825030160306 -159.401373658822 2843.18504033439 24 27 20
84.2391181886928 -165.643575895506 2811.40505359179 23 26 19
48.7252214749718 -160.564385971423 2833.85596132125 22 25 18
25.4366162918922 -157.769510129059 2845.39561482846 22 25 18
11.2629771635651 -156.692351801561 2848.71258371543 24 27 18
4.62706378835698 -157.051739582126 2845.13528475158 25 28 19
0.235074766043564 -157.84335949337 2839.4773552103 23 26 17
33.8096575093347 -166.002026675092 2798.31301404335 22 25 16
47.7001160686403 -172.097033833338 2765.12240468501 17 20 11
59.3256914482434 -176.096699779329 2743.88683284329 16 19 8
39.9400934059364 -174.007293314771 2752.07651407962 16 19 10
46.3096613862115 -176.9992354433 2735.68169998361 24 25 20
61.3807260322372 -181.744212904709 2710.7642895917 21 21 19
244.062433443423 -163.266538521569 2905.04399959363 54 60 58
260.631115080727 -167.753180098343 2882.44888334783 18 20 15
208.547499514499 -160.189452256376 2915.13276465086 18 21 14
238.724746576715 -167.097020699761 2881.39313587238 18 21 14
222.518539367909 -167.429709944406 2875.81899737255 15 18 11
222.006932948744 -168.950050231066 2866.79457677936 14 17 10
203.172798917178 -167.188012328397 2872.9122946012 15 18 11
183.615235807824 -165.277140442762 2879.74137374847 16 19 12
167.294992805355 -163.932793334984 2883.97394477556 15 18 11
176.269228794101 -167.172380622103 2866.99568799829 13 16 9
165.496927885748 -166.829612303612 2866.59916209588 10 13 6
161.809059790184 -167.778660630049 2860.21553632891 8 11 4
140.900856226641 -165.561778018906 2868.53742512692 7 10 3
125.534758042703 -164.346837906766 2872.22568951725 12 15 8
93.8883621222746 -160.09641670996 2890.0652245021 17 20 13
87.9784466036888 -160.602996522193 2885.77843469221 17 20 13
85.9342657587106 -161.833080408891 2878.1148561323 13 16 9
88.4944717997271 -163.93461841708 2866.37357859534 11 14 7
60.2477396801753 -160.236644319274 2881.73436317457 11 14 7
24.4600815337899 -155.074960960092 2903.98723324465 11 14 7
2.60471272222063 -152.517051623267 2914.09459684388 12 15 8
17.4341082972305 -156.942721495169 2891.4736859992 15 18 11
30.6233702423131 -161.08671861617 2870.13589622447 19 22 15
31.5748092265387 -162.903694726708 2859.70019821278 20 23 16
23.4166735547321 -162.969388613433 2857.49126317318 23 26 19
22.8065280979401 -164.497980508248 2848.39536773266 23 26 19
30.4299234062517 -167.641682054748 2831.67338002715 20 23 14
25.9864167083226 -168.443539469501 2825.97805236841 19 22 13
4.35313266445547 -165.865797089837 2836.24621593652 12 15 6
-14.209693078457 -163.868724465266 2843.79683805321 13 16 7
88.8167922275676 -187.739086825733 2726.91750990846 16 19 10
61.2018620472323 -183.985359322933 2742.73658359874 19 22 11
37.3935749568997 -180.960142433607 2755.13571195283 20 23 14
42.3069896271904 -183.701639937217 2740.15693753338 25 26 21
53.006115612579 -187.634875981992 2719.48513586413 24 24 22
248.093467515551 -173.043846905307 2893.09533524307 15 17 12
240.386979624651 -173.276130766627 2889.97763440121 17 20 13
217.409177969205 -170.756576450513 2899.27112820226 19 22 15
214.572778377133 -171.854133457826 2892.26866679274 19 22 15
218.916324024293 -174.25992555321 2879.3485558293 16 19 12
225.594868479727 -177.106822050428 2864.41379116495 15 18 11
221.862439861475 -178.067724922652 2857.9978024785 15 18 11
182.42151443297 -172.471600975503 2881.30965154601 16 19 12
158.193537661449 -169.632500664175 2892.16855854723 14 17 10
159.308336021812 -171.460578089725 2881.85152148024 12 15 8
163.529551858907 -173.877295908842 2868.84267568588 9 12 5
156.710887439895 -174.24817278031 2865.13283839576 7 10 3
159.282829078593 -176.378950214411 2853.40021461757 7 10 3
103.301561120041 -167.498808465092 2891.91111777579 13 16 9
84.1599742721342 -165.506293451489 2899.0421605309 18 21 14
76.7271335512252 -165.716099762787 2896.12324069273 20 23 16
96.3739997963407 -171.08537736788 2869.57932333532 18 21 14
91.1942726944437 -171.743200900098 2864.58605998322 13 16 9
54.476973332418 -166.341252735361 2887.40126691436 12 15 8
21.7691225835828 -161.664320210958 2906.94356426389 12 15 8
24.3898590281013 -163.790696642998 2895.24633517372 12 15 8
25.4365368681553 -165.624482180217 2884.87959269806 14 17 10
17.3193191642707 -165.67891532779 2882.7003770045 16 19 12
17.5534028050532 -167.36839142122 2872.98062971417 17 20 13
10.1927778007376 -167.571521399066 2870.11379993004 21 24 17
-6.20467201638553 -165.984307428658 2875.52696336427 21 24 17
26.3068646219589 -174.097239554053 2836.06259678181 16 19 10
34.615416299713 -177.445211181833 2818.60122225304 14 17 8
39.8509453402323 -180.201508470633 2803.855880451 13 16 7
7.04431946022677 -177.026856326949 2814.67311889524 15 18 9
59.5999553390918 -189.405163953825 2755.13416121294 19 22 13
46.097105105221 -188.42372011671 2757.70187784289 20 23 12
39.2622556496276 -188.793926252364 2753.98060554877 21 24 15
34.6328370686515 -189.616202032828 2748.15010849838 22 23 18
233.125261654492 -177.80547097461 2905.6876131523 15 17 12
230.298893976612 -178.912899069538 2898.69266856949 15 18 11
222.628558008157 -179.13683704831 2895.60151177829 15 18 11
214.164415787724 -179.212623899619 2893.17069493823 16 19 12
210.51243251969 -180.174746625391 2886.81301662415 18 21 14
223.599547310954 -184.247978816077 2866.63627878818 18 21 14
216.691727673599 -184.623558655903 2862.86208163318 17 20 13
182.813685870864 -179.95142059962 2881.55605822969 14 17 10
165.702752024923 -178.387743714534 2886.45188264494 9 12 5
159.698315004194 -178.902638004541 2882.0965300665 9 12 5
175.723242217871 -183.59028711464 2859.10592201491 10 13 6
196.331988279228 -189.183805352594 2832.02311941161 11 14 7
179.236034741894 -187.619134357176 2836.92951393061 7 10 3
133.333213293327 -180.514513818009 2866.681145073 10 13 6
82.9856340626209 -172.492191087579 2900.62583903802 18 21 14
75.5570721708945 -172.696403668635 2897.70975487076 23 26 19
79.7405613329771 -175.152163059445 2884.67365692832 20 23 16
84.6379624774229 -177.763223803286 2870.91867680233 19 22 15
71.0116162302699 -176.766901221486 2873.39694390049 18 21 14
34.417433895177 -171.245349303648 2896.30200680849 18 21 14
56.1253618572106 -177.17745646612 2867.54423634464 18 21 14
26.5778852034737 -172.999916799598 2884.43458580433 18 21 14
19.9789847766336 -173.349136860742 2880.88416981814 18 21 14
24.7573380919364 -175.970040551379 2867.04313400075 18 21 14
25.693120402051 -177.837782778016 2856.59582899148 17 20 13
19.0498791481764 -178.19052483846 2853.0135460309 16 19 12
26.6918233682811 -181.431420498941 2836.30451252006 14 17 8
32.005253548443 -184.222391183873 2821.61546728905 13 16 7
10.3508307322966 -181.532160977769 2831.86887668303 16 19 10
69.9990023613486 -195.467219951719 2766.34735118191 17 20 11
16.3448528119901 -186.211636774283 2806.54742829999 18 21 12
7.41094699487643 -186.110392701354 2805.01200312918 20 23 14
8.83214337438742 -188.151777083961 2793.68066897711 22 25 14
12.4173008748132 -190.656914527755 2780.21028305752 24 25 19
29.1575153296448 -195.930484816496 2754.02982982113 21 22 17
266.33554217652 -189.731742341944 2888.94289179573 59 65 63
249.696188237013 -188.30776907317 2892.9445358166 17 19 14
229.886784144298 -186.278902567904 2899.59164772649 16 19 12
220.609255193104 -186.196971948987 2897.80731946308 12 15 8
213.755708686802 -186.564998996098 2894.07220983838 12 15 8
222.107601882123 -189.794473225431 2877.87789134253 14 17 10
214.422076716803 -190.014862193328 2874.77574155481 15 18 11
205.949088145852 -190.083748361249 2872.3385467598 17 20 13
176.064025848211 -186.069841819028 2887.74830771855 14 17 10
168.466552248401 -186.28297814051 2884.71002512586 13 16 9
168.768596920028 -188.011109670324 2875.03905396273 12 15 8
198.150806771972 -195.356622840365 2840.72116194423 10 13 6
195.1612635459 -196.490244740756 2833.60750077038 7 10 3
147.548553036975 -188.954726935975 2864.5921471571 5 8 1
146.988525242437 -190.537698550855 2855.53201315849 10 13 6
93.4828078295622 -181.753814840664 2892.13189828459 15 18 11
72.8340430190948 -179.359624976634 2900.64275786759 21 24 17
83.218633726601 -183.073164581416 2882.21412892706 24 27 20
72.6778209351906 -182.662055777214 2881.98575985887 15 18 11
58.3158347431589 -181.48249021836 2885.16671065265 16 19 12
83.1271594911871 -188.123955887374 2853.71433023722 17 20 13
61.8633706748923 -185.56309883258 2863.01522662452 16 19 12
50.6027021829558 -184.994253094237 2863.50114887141 15 18 11
27.2027640422894 -181.95881667509 2874.96131322845 15 18 11
25.1379955432114 -183.231951341768 2867.28229770101 14 17 10
40.4426394430732 -188.057549708481 2843.76913664047 13 16 9
63.9175099925504 -194.593958500166 2812.58350081815 14 17 10
38.3533886270202 -191.085974799987 2826.18260047929 17 20 11
18.1499946114023 -188.652757974183 2835.0162220584 18 21 12
-19.7733889049814 -184.230511033976 2850.77667284407 19 22 13
24.1626623273881 -195.149629059416 2799.81820284195 21 24 15
12.2432029733601 -194.416835678733 2801.06212611293 22 25 16
60.9232136526026 -206.463214410854 2744.89109839881 21 24 13
28.272819183393 -201.369654529541 2765.71219396051 20 21 15
-8.62537161055466 -195.324791240103 2790.86989305951 26 27 22
245.643592483177 -193.36350029383 2906.0377684803 6 12 8
243.621029753339 -194.645871152951 2898.38959650958 18 20 15
266.586753387971 -200.666018785481 2870.54288855212 19 22 15
220.198183480715 -193.545953976454 2898.70713739247 20 23 16
234.209445195754 -197.892904529505 2877.96391031715 19 22 15
245.709600091714 -201.78945761367 2859.10830851262 17 20 13
224.393858442588 -199.40029086992 2867.13534243118 16 19 12
205.548088001301 -197.465191784463 2873.24550136029 15 18 11
178.835530880027 -193.985392276827 2886.01193267476 15 18 11
164.108004316912 -192.807110637875 2888.92818342624 12 15 8
177.841623425258 -197.178524884328 2867.98356338672 10 13 6
179.658858795496 -199.242610770465 2856.93921136333 10 13 6
175.937513673794 -200.228066621135 2850.53113297439 10 13 6
153.418045715123 -197.498732896568 2860.1576507506 9 12 5
109.136333261469 -190.420925374631 2888.61395485094 14 17 10
92.3090447108623 -188.757081048091 2893.71590716191 17 20 13
73.2142836658651 -186.621868251912 2900.88161773327 16 19 12
64.2542271064799 -186.502997349827 2899.32732461466 17 20 13
71.5167218036274 -189.653870764699 2883.57900713342 15 18 11
79.4734612412955 -192.967214486869 2867.09780843013 14 17 10
58.1923293585627 -190.353544901585 2876.38639996433 11 14 7
66.8377228084598 -193.829522278472 2859.16885532741 11 14 7
44.8822673272677 -191.051659421962 2869.20448359479 12 15 8
30.625470766823 -189.832923752647 2872.46188700171 9 12 5
19.4503370823647 -189.237712487519 2873.00965432552 11 14 7
21.1627695449876 -191.310467809414 2861.8892845254 17 20 13
12.2723760936299 -191.184927415438 2860.3858199398 17 20 13
31.220645247259 -196.884306361871 2833.3338026136 16 19 10
23.0323725964565 -196.920239763603 2831.10317137749 14 17 8
-13.5500300453151 -190.956814923284 2855.25404843924 18 21 12
-15.6672391448458 -192.247520734221 2847.53692860008 19 22 13
19.3497202190969 -201.451245242978 2804.94312482451 20 23 14
83.7618358177816 -217.012180919001 2734.22100323011 20 23 14
51.4994635899075 -213.783440350588 2744.19802010106 20 23 14
40.2293641006151 -213.194637882713 2744.67691222446 22 23 18
-6.88596465994618 -204.803893130642 2779.7315630359 2 2 2
288.227320696348 -208.951668781871 2872.60204834656 90 96 94
307.128825101643 -214.295149508961 2847.98830068634 22 24 19
225.026321910196 -200.21519659257 2904.64374468434 21 24 17
222.200973238522 -201.355889543885 2897.64907583079 19 22 15
243.434205554886 -207.173997443494 2871.01783905003 17 20 13
251.711882338647 -210.5082899418 2854.76948304541 14 17 10
235.96512486618 -209.162610329074 2858.18246161516 13 16 9
220.270214726133 -207.812540914382 2861.63334213489 13 16 9
194.308302904612 -204.422206099446 2873.70814798419 13 16 9
177.162668102684 -202.747408923218 2878.57937978208 9 12 5
174.287353997497 -203.893195148645 2871.54846412103 8 11 4
183.201656961733 -207.398229842635 2854.52571054883 9 12 5
155.921533752295 -203.671864646899 2868.11698662655 9 12 5
169.465833776603 -208.128127779483 2847.0346953664 8 11 4
139.184453916859 -203.7603626953 2863.39428073604 15 18 11
97.3620272209272 -197.012156306384 2889.92629970658 18 21 14
63.5032074200246 -191.827811026924 2909.87213627922 16 19 12
67.7298124916752 -194.386939720067 2896.86647591685 16 19 12
78.0734389137496 -198.2189540926 2878.40755099354 18 21 14
75.2399644736044 -199.361280736356 2871.40727779906 17 20 13
67.0160149295968 -199.39311433794 2869.15080438799 14 17 10
40.438189983186 -195.606360137456 2883.25149734658 13 16 9
53.6574420456679 -200.090289657451 2861.93372622334 13 16 9
18.0708265024068 -194.379773595073 2884.33482183571 10 13 6
2.38002654165337 -192.804725185067 2889.02485810429 14 17 10
1.11847208978944 -194.261234133152 2880.69243860204 16 19 12
20.949708186353 -200.200009362549 2853.04395916063 17 20 13
12.8037447721652 -200.224479701125 2850.84405685575 16 19 10
9.16940957784362 -201.210056035138 2844.49905320978 15 18 9
0.287301249441985 -201.07268271874 2843.00136014569 19 22 13
-7.08715408111082 -201.255265615866 2840.12490301495 19 22 13
0.412067435070274 -204.655847838447 2823.31189240328 19 22 13
55.0706497461593 -220.188351587701 2751.69484801432 19 22 11
29.0602179279147 -216.351241045671 2766.20711142508 26 27 21
318.653757490358 -222.454407292406 2848.89083315069 116 122 120
237.128475286955 -208.295779607616 2904.72978435842 17 19 14
246.403455349889 -211.820734722222 2887.96839241144 15 18 11
234.667653748319 -211.234978034381 2888.10967170759 12 15 8
243.02962634928 -214.611202942974 2871.92191666687 11 14 7
250.511512229449 -217.835651518731 2856.33226786355 14 17 10
232.609067467292 -217.779602454025 2852.00053285636 14 17 10
193.113711441757 -211.615711115783 2875.27609435327 14 17 10
191.805276524149 -213.092905890589 2866.90929094612 13 16 9
192.838624457855 -215.051620227777 2856.53225254787 11 14 7
184.383572028343 -215.095125970226 2854.10818860142 11 14 7
193.999626786574 -218.819466494771 2836.35770794732 9 12 5
156.549533502643 -212.935424612965 2858.6441388256 9 12 5
171.58576628773 -217.786969932525 2836.17130602255 18 21 14
140.566863425732 -213.170665070393 2853.23254076052 22 25 18
88.7254265839221 -204.199828640729 2888.56947760705 20 23 16
70.4322545254477 -202.130795279335 2895.08090530041 20 23 16
72.2803533220446 -204.247315321809 2884.05866124411 18 21 14
71.0046639644135 -205.721976828697 2875.71560862371 20 23 16
50.5118431812326 -203.159192529759 2884.34036932416 20 23 16
48.4715224535877 -204.471988093491 2876.6788756177 18 21 14
25.8017245370183 -201.413526589548 2887.43341420255 15 18 11
23.7753561088612 -202.725012629975 2879.78204144874 16 19 12
-13.1795163550288 -196.570490421205 2903.6641696104 14 17 10
12.844358415018 -203.890603762679 2870.61698736335 13 16 9
6.24290798900429 -204.229605106443 2867.06477458817 14 17 10
41.7692739640652 -213.690990177953 2824.83894543473 17 20 11
19.3015022864858 -210.614649186681 2835.73973323778 18 21 12
4.40766597345377 -209.162732308473 2839.77184514795 19 22 13
10.443442825097 -212.283539294135 2824.36944264264 18 21 12
14.92112061967 -215.08291022647 2810.30953675177 18 21 12
46.7620665937187 -223.949946981668 2770.35522499703 18 21 12
19.994216976333 -219.876950609542 2785.55494599556 19 22 11
4.40126078022596 -218.256725494642 2790.31614012613 26 27 21
249.262933362483 -216.411104979815 2904.83936089818 5 11 7
271.517855340077 -222.556893912859 2877.71207235855 15 17 12
252.450589579047 -220.509437157551 2883.66223371718 14 17 10
243.918502607258 -220.550531062213 2881.18204352644 14 17 10
241.821715728309 -221.881034294894 2873.47982108605 14 17 10
230.89529122159 -221.437298201654 2872.97207911971 15 18 11
235.964073606348 -224.224998180382 2859.34044219973 16 19 12
215.49008165558 -221.83867464132 2866.74292188488 15 18 11
208.593917888729 -222.20041591994 2862.97694993717 14 17 10
187.447675120316 -219.641934623408 2871.12800930025 14 17 10
194.023123176083 -222.760992253124 2856.11683482879 13 16 9
206.040214345134 -227.024544171608 2836.39878113292 12 15 8
172.408373596475 -221.854589820035 2855.27405014243 9 12 5
176.518581059616 -224.494930211525 2842.18359931634 9 12 5
114.19353703636 -213.270395894856 2885.98881509756 16 19 12
114.481245637991 -215.087900549352 2876.30699871884 19 22 15
86.7781968324417 -211.020586245885 2890.82874508693 16 19 12
84.7502931649244 -212.346236454392 2883.17618766105 16 19 12
68.8012778840963 -210.723072386556 2887.67928184881 17 20 13
53.6785576482717 -209.259198441025 2891.54553148364 18 21 14
47.0529687185337 -209.598094111168 2887.97582072722 19 22 15
34.3066454442496 -208.620732166946 2889.85690259046 18 21 14
34.576006851478 -210.439563430887 2880.16207369646 17 20 13
31.765114354779 -211.601967152028 2873.17777446333 17 20 13
29.6945467010317 -212.930854157492 2865.49456708534 16 19 12
21.5472287048102 -212.939631993202 2863.29376230066 14 17 10
38.312920499183 -218.40666020223 2838.36612933513 15 18 11
-3.73841087840399 -210.966147172525 2867.20579034488 17 20 11
20.4350724004843 -218.099148953309 2835.28853530895 18 21 12
17.5049694823075 -219.271080202055 2828.21806411543 18 21 12
66.0145770630334 -231.911575754595 2773.15553486899 18 21 12
64.3832660368933 -233.432133313783 2764.55445203919 18 21 12
-35.7928893467994 -214.634440341456 2839.00979320479 19 22 11
39.4272925340498 -233.498913257765 2757.57920910041 27 28 22
-79.082501989689 -208.448758274342 2860.76996410986 9 9 7
326.774317834089 -239.449350241575 2843.57530481483 132 138 138
263.822158921072 -228.546575986316 2884.45420859263 16 18 13
226.204860045669 -222.690248186178 2905.38425156282 17 20 13
210.498060379002 -221.242813994307 2908.82671180574 17 20 13
224.553439180576 -225.859119832673 2888.11439628735 17 20 13
223.283910329844 -227.365484186188 2879.7756489687 15 18 11
216.397316810125 -227.723642208746 2876.01663284728 14 17 10
227.831980950607 -231.866726786697 2857.11201218882 15 18 11
205.018236082966 -228.933508863642 2866.52652954423 13 16 9
182.296190735006 -225.992633639947 2876.00726614713 14 17 10
195.2077847354 -230.475040976021 2855.7015114683 13 16 9
200.924944106064 -233.478772917104 2841.30376598877 11 14 7
183.79755852394 -231.688386663532 2846.18881251701 9 12 5
129.135466370452 -221.939134542121 2883.19004884888 8 11 4
116.14034613946 -220.958747325761 2884.89078781222 13 16 9
76.7029240226913 -214.328453211173 2909.44574588718 12 15 8
94.1500153954089 -219.819500754117 2885.01195235512 10 13 6
83.5837880327199 -219.32952781594 2884.76555918421 10 13 6
69.9542271983509 -218.170723498969 2887.24231896152 12 15 8
34.3779062463976 -214.004712323319 2899.76217213344 13 16 9
38.5128407629427 -216.678417886313 2886.68947747489 14 17 10
42.5899673571104 -219.35707538288 2873.57485153722 16 19 12
45.0865492390102 -221.705480775408 2861.78649553455 17 20 13
31.5930927867978 -220.534724456467 2864.36198082234 17 20 13
22.6842506767051 -220.367912396293 2862.84505698242 16 19 12
-4.3208363509597 -216.163819461121 2877.87346354927 16 19 12
1.1542869260257 -219.187875950838 2863.30015799228 16 19 10
-8.44364470867642 -218.84691424422 2862.51991165858 17 20 11
11.9042374592597 -225.252802221491 2834.00855733272 17 20 11
75.3602070564141 -241.468501826967 2765.06035632368 18 21 12
-14.7984257524372 -222.885185381973 2839.36571879968 19 22 13
17.0775223847852 -233.890460888227 2789.54506827155 19 22 11
285.27274126082 -240.462955515999 2867.83052652188 18 20 17
229.020026274123 -230.679689584616 2903.67915318006 15 17 12
225.384425341633 -231.698227555892 2897.33306501629 18 20 15
224.947639328635 -233.385076565417 2888.36203993277 18 21 14
219.67421914277 -234.073203290481 2883.30040849593 15 18 11
211.20085615584 -234.093518196612 2880.8631883018 17 20 13
221.060690540452 -237.960523414314 2863.28870607658 15 18 11
218.12254003019 -239.155630026096 2856.21228362404 15 18 9
192.19352793348 -235.490098195163 2868.31262759013 13 16 7
192.442780650288 -237.354510421738 2858.60269612371 12 15 6
205.260681955906 -241.910704058214 2838.22864786878 10 13 4
164.553043962135 -235.036489468491 2863.09907148124 8 11 4
130.304856593992 -229.49305236869 2882.76446606574 11 14 7
86.8396044450446 -221.912862397936 2910.58014770203 18 21 14
80.1975629810965 -222.248102298264 2906.99852866965 16 19 12
78.9968119751423 -223.76592186665 2898.70958185555 15 18 11
43.3002268572782 -219.525971858108 2911.14292195883 15 18 11
30.5596275914604 -218.499345866729 2913.02810833306 14 17 10
16.3215045205867 -217.129876899685 2916.30010652196 14 17 10
32.7643432358102 -222.553389240342 2892.37368751499 14 17 10
46.7881399820032 -227.477504367432 2870.40158726971 15 18 11
48.5140867510623 -229.686575654734 2859.2903238115 14 17 8
42.6027879360458 -230.194372789985 2855.00252505453 14 17 8
31.3916139077941 -229.50747686328 2855.52463036487 14 17 8
1.33907645702536 -224.546039875065 2873.28815217495 14 17 8
-4.48872618137108 -225.046415706867 2869.06091916867 15 18 9
21.2016754529603 -232.739162062224 2835.7701076692 16 19 10
5.55266364150153 -231.018657553561 2840.49117382282 17 20 11
0.40479595216647 -231.695885842046 2835.52090774989 18 21 12
1.94646241826657 -233.919826145224 2824.27598025283 18 21 12
4.18515759362403 -236.319363965881 2812.30012320017 17 20 11
7.85350534099116 -239.06731198797 2798.8888137825 18 21 12
29.1579663663359 -245.95716747265 2768.59837923554 22 27 21
250.412082528345 -242.573268481124 2887.01315979061 15 17 12
261.2180765117 -246.65148955926 2868.88816789438 18 20 15
239.800695031644 -243.960177297031 2876.84334583403 18 21 14
224.073649978136 -242.44937157797 2880.27174523027 17 20 13
209.996583675241 -241.273797558689 2882.42418368505 18 21 14
209.506540611499 -242.984855673722 2873.41442880499 15 18 11
212.16338528581 -245.379374984366 2861.74172266762 14 17 8
193.379101562578 -243.177975341373 2867.89780349566 13 16 7
186.516019148689 -243.529199863302 2864.15616067318 11 14 5
210.385734922336 -250.539791982785 2834.48939137743 9 12 3
175.158725093148 -244.743943476688 2854.68153181355 8 11 4
126.773230515705 -236.024824278854 2886.34700234056 12 15 8
92.6882369954583 -230.369350387054 2906.13126711657 19 22 15
86.0305988725729 -230.703284806642 2902.53834834578 20 23 16
72.3841764270285 -229.491628955935 2905.00315248474 17 20 13
47.9344579755452 -225.869856046389 2916.94031523016 17 20 13
58.3544047050686 -229.982447577419 2898.53558982488 16 19 12
34.0153398080849 -226.351113057764 2910.55301612486 16 19 12
15.158036384749 -223.917898904337 2917.89237422937 17 20 13
25.4815225868921 -228.03872302055 2899.41768082955 17 20 13
45.6412578615759 -234.414398184789 2872.0054189456 18 21 14
45.0883718493089 -236.131274563657 2862.94978392334 14 17 8
47.5413973464946 -238.543609506261 2851.12952915208 14 17 8
29.5012902415559 -236.278278885165 2857.82540331525 14 17 8
10.0209138225713 -233.6597224747 2865.94905793246 14 17 8
17.7192146394356 -237.290291700418 2849.2791992249 15 18 9
19.3329087101421 -239.535879119337 2838.08637642866 16 19 10
5.18569493348853 -238.127959188181 2841.42417698974 16 19 10
-3.69063340454168 -237.936139091076 2839.9309497477 17 20 11
2.32966893084274 -241.233328320992 2824.51673050148 17 20 11
11.24610100281 -245.235308586029 2806.25767213141 17 20 11
-3.59326799763982 -243.647762316372 2810.32966107145 17 20 11
247.197446148356 -247.55850655765 2899.4788730428 12 14 11
