ply
format ascii 1.0
comment KinectMotionCapture
element vertex 798
property float x
property float y
property float z
property uchar red
property uchar green
property uchar blue
end_header
106.757998466492 268.116414546967 2665.99988937378 17 18 13
113.985359668732 268.010556697845 2664.99996185303 25 26 21
118.886440992355 262.77557015419 2612.99991607666 21 23 18
125.336036086082 261.36189699173 2598.99997711182 185 187 182
131.912603974342 260.35013794899 2588.99998664856 159 161 156
138.487815856934 259.438693523407 2579.99992370605 152 154 149
145.182624459267 258.828639984131 2573.99988174438 164 166 161
151.962459087372 258.419424295425 2569.9999332428 168 170 165
158.781737089157 258.110404014587 2566.99991226196 160 162 157
165.648639202118 257.901698350906 2565.00005722046 163 165 160
172.840595245361 258.195400238037 2568.00007820129 166 168 163
180.398374795914 258.991420269012 2575.99997520447 168 170 165
188.435599207878 260.390341281891 2589.99991416931 191 193 188
199.265688657761 265.40806889534 2640.00010490417 34 37 30
233.720377087593 280.859291553497 2793.99991035461 5 7 2
243.747487664223 283.662855625153 2822.00002670288 9 11 6
251.609653234482 283.852487802505 2823.99988174438 18 20 15
-55.1999360322952 270.473837852478 2763.99993896484 25 30 23
-48.1767766177654 273.411959409714 2793.99991035461 32 37 30
-39.8140475153923 268.423289060593 2743.00003051758 23 29 19
-31.8944491446018 264.804303646088 2706.00008964539 20 26 16
-24.294363334775 262.456983327866 2681.99992179871 20 26 16
-17.0593559741974 263.730138540268 2694.9999332428 15 21 11
-9.74253844469786 264.70935344696 2704.99992370605 15 18 9
-2.34404276125133 262.654572725296 2684.00001525879 14 17 8
4.91761183366179 259.425163269043 2651.00002288818 13 16 7
12.1045941486955 258.44618678093 2641.00003242493 15 18 9
19.4270648062229 260.011166334152 2657.00006484985 18 21 12
26.8970020115376 262.162983417511 2678.99990081787 19 22 13
34.0016931295395 260.595828294754 2663.00010681152 18 19 11
41.2203967571259 260.300487279892 2660.00008583069 11 12 4
48.7870462238789 261.961907148361 2677.00004577637 12 13 5
55.7338856160641 260.295897722244 2660.00008583069 18 19 11
63.0140006542206 260.390937328339 2661.00001335144 16 17 9
70.510596036911 261.268496513367 2670.00007629395 16 17 11
77.6772350072861 260.873585939407 2665.99988937378 14 15 9
84.9173441529274 260.771960020065 2664.99996185303 15 16 10
91.7365774512291 259.495764970779 2651.99995040894 16 17 11
98.74577075243 258.904218673706 2645.99990844727 14 15 10
106.242448091507 259.584337472916 2653.00011634827 15 16 11
113.34915459156 259.285718202591 2650.00009536743 21 22 17
119.438052177429 256.834208965302 2625 26 28 23
125.631287693977 254.871696233749 2605.00001907349 148 150 145
132.122606039047 253.691613674164 2592.99993515015 158 160 155
138.547986745834 252.511352300644 2581.00008964539 139 141 136
145.189419388771 251.819938421249 2573.99988174438 144 146 141
151.9695520401 251.42177939415 2569.9999332428 156 158 153
158.850997686386 251.218944787979 2568.00007820129 155 157 152
165.85011780262 251.211494207382 2568.00007820129 167 169 164
172.915905714035 251.301527023315 2569.00000572205 171 173 168
180.406704545021 251.978158950806 2575.99997520447 179 181 176
188.226014375687 253.045737743378 2586.99989318848 204 206 201
197.085842490196 255.384504795074 2611.00006103516 105 106 100
227.578043937683 275.024563074112 2812.00003623962 9 10 4
235.738769173622 275.60093998909 2818.00007820129 15 17 12
246.609047055244 279.208600521088 2855.00001907349 7 9 4
-72.1905305981636 270.074188709259 2838.99998664856 17 22 16
-54.8829473555088 261.423051357269 2747.99990653992 27 32 25
-47.3685674369335 261.330276727676 2746.99997901917 21 26 19
-39.6271981298923 259.715020656586 2730.00001907349 25 31 21
-31.8369977176189 256.957799196243 2700.99997520447 26 32 22
-24.3317317217588 255.532056093216 2686.00010871887 28 34 24
-17.0474890619516 256.198942661285 2693.00007820129 18 24 14
-9.73578914999962 257.150918245316 2703.00006866455 16 19 10
-2.36423965543509 257.531732320786 2707.00001716614 13 16 7
5.02172578126192 257.531672716141 2707.00001716614 13 16 7
12.1922446414828 253.059923648834 2660.00008583069 14 17 8
19.5230264216661 254.010528326035 2670.00007629395 16 19 10
27.0488616079092 256.292700767517 2694.00000572205 18 21 12
34.4757176935673 256.862103939056 2700.00004768372 21 22 14
41.4547622203827 254.481971263885 2674.99995231628 19 20 12
48.6070662736893 253.718882799149 2667.00005531311 11 12 4
55.7993426918983 253.335952758789 2663.00010681152 13 14 6
63.2063820958138 253.903985023499 2668.99991035461 12 13 5
70.5402716994286 254.091203212738 2671.0000038147 11 12 6
77.6225700974464 253.421902656555 2664.00003433228 14 15 9
83.9653164148331 250.659495592117 2634.99999046326 13 14 8
90.9797698259354 250.17985701561 2630.00011444092 18 19 13
98.8249555230141 251.887768507004 2648.00000190735 18 19 14
105.967000126839 251.692861318588 2645.99990844727 15 16 11
112.88383603096 251.022011041641 2638.99993896484 18 19 14
119.671069085598 250.160694122314 2630.00011444092 22 24 19
125.829994678497 248.157650232315 2608.99996757507 10 12 7
132.179632782936 246.725082397461 2594.00010108948 140 142 137
138.607993721962 245.577603578568 2582.00001716614 167 169 164
145.196050405502 244.810312986374 2573.99988174438 180 182 177
152.035608887672 244.518309831619 2571.00009918213 160 162 157
159.043803811073 244.511321187019 2571.00009918213 158 160 155
166.051387786865 244.504049420357 2571.00009918213 157 159 154
172.923728823662 244.306236505508 2569.00000572205 171 173 168
180.2047342062 244.678720831871 2572.99995422363 195 197 192
187.725186347961 245.336219668388 2579.99992370605 211 213 208
196.717262268066 247.800022363663 2605.99994659424 96 97 91
226.455122232437 266.037613153458 2798.00009727478 4 5 0
234.578028321266 266.597926616669 2803.99990081787 4 6 1
243.510261178017 268.013566732407 2819.00000572205 18 20 15
250.91940164566 267.71754026413 2815.99998474121 12 14 9
-63.018336892128 256.521791219711 2776.00002288818 32 29 24
-54.6657405793667 252.920508384705 2736.99998855591 22 25 18
-47.1465364098549 252.645581960678 2733.99996757507 17 22 15
-39.5709350705147 251.908242702484 2726.0000705719 18 24 14
-31.8973809480667 250.06166100502 2706.00008964539 23 29 19
-24.4234278798103 249.138817191124 2696.00009918213 28 34 24
-17.0482657849789 248.862519860268 2693.00007820129 18 24 14
-9.70741547644138 249.047935009003 2694.9999332428 14 17 8
-2.37308139912784 251.081258058548 2717.00000762939 14 17 8
5.03122992813587 250.619113445282 2711.99989318848 15 18 9
12.3990681022406 249.971866607666 2704.99992370605 15 18 9
19.7432842105627 249.50909614563 2700.00004768372 16 19 10
27.3011103272438 251.263827085495 2719.00010108948 18 21 12
34.4900526106358 249.599054455757 2700.99997520447 25 26 18
41.7356081306934 248.858064413071 2693.00007820129 32 33 25
48.7368553876877 247.100293636322 2674.00002479553 17 18 10
56.0323670506477 247.097939252853 2674.00002479553 17 18 10
63.3513405919075 247.187659144402 2674.99995231628 17 18 10
70.8075761795044 247.739121317863 2680.99999427795 16 17 11
77.6552110910416 246.257320046425 2664.99996185303 16 17 11
83.6823135614395 242.650002241135 2625.99992752075 14 15 9
91.0876542329788 243.292897939682 2632.99989700317 17 18 12
99.4639024138451 246.245503425598 2664.99996185303 17 18 12
106.732711195946 246.240898966789 2664.99996185303 13 14 8
113.573357462883 245.312064886093 2654.99997138977 14 15 10
120.495513081551 244.66010928154 2648.00000190735 20 22 17
125.98030269146 241.328477859497 2611.99998855591 3 5 0
132.032662630081 239.382579922676 2591.00008010864 6 7 2
138.506814837456 238.360330462456 2579.99992370605 162 163 157
145.202502608299 237.799763679504 2573.99988174438 168 167 162
152.219757437706 237.793236970901 2573.99988174438 170 167 160
159.298300743103 237.878814339638 2575.00004768372 171 168 161
166.510850191116 238.148838281631 2578.00006866455 187 184 177
173.402562737465 237.956687808037 2575.99997520447 201 198 191
180.702954530716 238.31844329834 2579.99992370605 150 145 139
188.315540552139 239.049404859543 2588.00005912781 122 117 111
197.480782866478 241.627335548401 2615.9999370575 150 145 139
226.626843214035 258.603662252426 2799.99995231628 9 9 1
234.337240457535 258.686095476151 2801.00011825562 16 15 10
244.471028447151 261.354148387909 2829.99992370605 12 13 8
248.078718781471 257.095515727997 2783.99991989136 18 20 15
-72.0189660787582 253.977805376053 2832.00001716614 49 39 37
-63.1119310855865 249.317273497581 2779.99997138977 21 18 13
-54.8878647387028 246.449992060661 2747.99990653992 22 21 16
-47.2348481416702 245.645076036453 2739.00008201599 17 20 13
-39.5581647753716 244.391351938248 2724.99990463257 17 20 11
-32.1699194610119 244.751676917076 2729.00009155273 19 22 13
-24.4879275560379 242.421105504036 2703.00006866455 18 21 12
-17.0047041028738 240.897327661514 2686.00010871887 15 18 9
-9.74026415497065 242.512255907059 2703.9999961853 14 17 8
-2.33038724400103 239.283815026283 2667.99998283386 15 18 9
5.00919064506888 242.153733968735 2700.00004768372 14 17 8
12.4271204695106 243.139877915382 2710.99996566772 15 18 9
19.890408962965 243.946358561516 2720.00002861023 14 17 8
27.2019077092409 242.958813905716 2709.00011062622 14 17 8
34.5298871397972 242.509007453918 2703.9999961853 29 32 23
41.8304391205311 242.058902978897 2698.99988174438 48 49 41
49.0488670766354 241.339489817619 2690.99998474121 18 19 11
56.2653504312038 240.799084305763 2684.99994277954 19 20 12
63.9935955405235 242.321074008942 2701.99990272522 21 22 14
71.3653489947319 242.318108677864 2701.99990272522 18 19 11
78.4745588898659 241.50775372982 2693.00007820129 17 18 10
85.1519331336021 239.620938897133 2671.99993133545 17 18 10
92.5793051719666 239.975795149803 2676.00011825562 18 19 11
100.14009475708 240.599364042282 2683.00008773804 18 19 11
107.177965342999 239.967152476311 2676.00011825562 18 19 11
114.476688206196 239.962354302406 2676.00011825562 18 19 11
121.729448437691 239.867597818375 2674.99995231628 16 18 13
127.288103103638 236.634135246277 2638.99993896484 15 14 9
132.089361548424 232.414215803146 2592.00000762939 16 13 6
138.512834906578 231.332436203957 2579.99992370605 118 109 100
145.321637392044 230.967700481415 2575.99997520447 119 106 97
152.285501360893 230.871692299843 2575.00004768372 117 99 87
159.428909420967 231.044337153435 2576.99990272522 113 93 82
166.776403784752 231.485679745674 2582.00001716614 107 85 74
173.813924193382 231.478452682495 2582.00001716614 121 97 87
181.130960583687 231.829509139061 2585.99996566772 149 122 113
188.541904091835 232.26997256279 2591.00008010864 144 120 110
197.413712739944 234.413281083107 2615.00000953674 182 160 149
231.167867779732 247.652605175972 2763.00001144409 14 7 0
242.408007383347 251.496851444244 2805.99999427795 20 17 10
249.247610569 250.679969787598 2796.99993133545 26 31 27
-79.2980641126633 244.866564869881 2815.99998474121 31 23 20
-71.6151520609856 244.869783520699 2815.99998474121 23 18 14
-54.7304265201092 238.266319036484 2740.00000953674 25 28 21
-46.9609424471855 236.790210008621 2723.00004959106 15 20 13
-39.9663560092449 239.4008487463 2753.00002098084 18 21 12
-32.2538204491138 237.924039363861 2736.00006103516 20 23 14
-24.697357788682 237.055629491806 2726.0000705719 19 22 13
-17.2840058803558 237.404391169548 2730.00001907349 16 19 10
-9.75509360432625 235.491797327995 2707.99994468689 15 18 9
-2.36630067229271 235.579013824463 2709.00011062622 16 19 10
4.97229909524322 233.05706679821 2680.0000667572 15 18 9
12.5651797279716 238.361343741417 2740.9999370575 15 18 9
19.730381667614 234.621345996857 2697.99995422363 15 18 9
27.0926188677549 234.620332717896 2697.99995422363 12 15 6
34.429207444191 234.445124864578 2696.00009918213 15 18 9
41.801244020462 234.530448913574 2697.00002670288 27 28 20
48.9780604839325 233.65892469883 2687.00003623962 17 18 10
56.2258549034595 233.308881521225 2683.00008773804 18 19 11
63.9489740133286 234.784603118896 2700.00004768372 18 19 11
71.5004801750183 235.390439629555 2707.00001716614 17 18 10
78.5653442144394 234.430760145187 2696.00009918213 16 17 9
85.4742676019669 233.209937810898 2681.99992179871 16 17 9
93.2752192020416 234.423533082008 2696.00009918213 16 17 9
100.219011306763 233.462929725647 2684.99994277954 16 17 9
107.502959668636 233.371630311012 2684.00001525879 16 17 9
114.609882235527 232.932224869728 2678.99990081787 17 18 10
122.781299054623 234.579220414162 2697.99995422363 16 17 12
128.981754183769 232.487305998802 2674.00002479553 13 12 7
132.451698184013 225.9611338377 2598.99997711182 27 24 17
138.733461499214 224.651381373405 2584.00011062622 118 109 100
145.497009158134 224.210754036903 2578.9999961853 116 103 94
152.291908860207 223.856821656227 2575.00004768372 130 112 100
159.435614943504 224.024221301079 2576.99990272522 138 118 107
166.912585496902 224.625989794731 2584.00011062622 141 117 105
174.225121736526 224.966675043106 2588.00005912781 143 116 105
181.348666548729 225.046277046204 2588.99998664856 155 127 116
188.404187560081 225.038662552834 2588.99998664856 155 128 117
196.440458297729 226.160749793053 2601.99999809265 141 119 106
205.563694238663 228.412345051765 2628.00002098084 94 77 67
219.198852777481 235.356733202934 2707.99994468689 14 1 0
226.575568318367 235.347673296928 2707.99994468689 13 4 0
239.912524819374 241.334795951843 2776.99995040894 16 15 11
250.148952007294 243.932008743286 2806.99992179871 8 10 7
-71.1857825517654 235.763788223267 2799.00002479553 19 20 14
-47.2560934722424 230.801343917847 2740.00000953674 13 23 14
-39.9680286645889 231.898218393326 2753.00002098084 16 22 12
-32.4673801660538 231.983914971352 2753.99994850159 20 23 14
-24.9067805707455 231.563940644264 2749.00007247925 20 23 14
-17.3923633992672 231.396317481995 2746.99997901917 16 19 10
-9.83835943043232 230.04911839962 2730.99994659424 16 19 10
-2.38387077115476 229.880899190903 2729.00009155273 16 19 10
5.08383195847273 230.807453393936 2740.00000953674 14 17 8
12.391502968967 227.69033908844 2703.00006866455 15 18 9
19.6434482932091 226.257652044296 2686.00010871887 17 20 11
26.8828663975 225.49857199192 2677.00004577637 17 20 11
34.3923382461071 226.845100522041 2693.00007820129 14 17 8
41.8804883956909 227.601602673531 2701.99990272522 12 13 5
49.0530207753181 226.673170924187 2690.99998474121 15 16 8
55.012684315443 221.111625432968 2625 14 15 7
62.980517745018 223.973080515862 2658.99991989136 22 23 15
70.42046636343 224.559992551804 2665.99988937378 21 22 14
77.6651948690414 224.47270154953 2664.99996185303 18 19 11
85.5734273791313 226.153939962387 2684.99994277954 17 18 10
93.1752994656563 226.824134588242 2693.00007820129 16 17 9
100.335150957108 226.399019360542 2687.99996376038 13 14 6
107.427291572094 225.889399647713 2681.99992179871 12 13 5
114.999681711197 226.390227675438 2687.99996376038 13 14 6
122.513309121132 226.722255349159 2691.99991226196 8 9 3
129.662379622459 226.380258798599 2687.99996376038 22 22 14
133.680284023285 220.900729298592 2622.99990653992 12 8 0
138.792842626572 217.695027589798 2585.00003814697 106 96 86
145.446568727493 217.099785804749 2578.00006866455 106 92 81
152.298152446747 216.841146349907 2575.00004768372 137 118 104
159.503996372223 217.087492346764 2578.00006866455 137 115 101
166.85476899147 217.501938343048 2582.99994468689 143 117 102
173.895567655563 217.495083808899 2582.99994468689 149 121 109
180.795639753342 217.319622635841 2581.00008964539 149 119 108
187.90240585804 217.396467924118 2582.00001716614 143 115 103
195.844396948814 218.399167060852 2594.00010108948 146 123 109
204.711526632309 220.327645540237 2617.00010299683 175 157 145
215.403094887733 224.023640155792 2661.00001335144 67 53 42
230.349883437157 231.759965419769 2753.00002098084 14 4 0
237.675800919533 231.582388281822 2750.99992752075 20 17 12
-77.8964683413506 225.442498922348 2766.00003242493 20 21 15
-69.9678510427475 224.222868680954 2750.99992752075 15 18 11
-62.2343383729458 223.410457372665 2740.9999370575 25 32 24
-54.7948554158211 223.575785756111 2743.00003051758 15 25 16
-47.6891994476318 225.371032953262 2765.00010490417 17 27 18
-39.8970544338226 223.987102508545 2747.99990653992 15 21 11
-32.5865931808949 225.292727351189 2763.99993896484 19 22 13
-24.9440334737301 224.397271871567 2753.00002098084 19 22 13
-17.1904563903809 221.300691366196 2714.99991416931 15 18 9
-9.86397732049227 223.176002502441 2737.99991607666 14 17 8
-2.39881803281605 223.828345537186 2746.00005149841 14 17 8
5.08218351751566 223.257705569267 2739.00008201599 16 19 10
12.3324068263173 219.263345003128 2690.00005722046 14 17 8
19.3736422806978 215.920761227608 2648.9999294281 15 18 9
26.7634484916925 217.223986983299 2664.99996185303 16 19 10
34.2404730618 218.526929616928 2680.99999427795 14 17 8
41.8046899139881 219.829574227333 2697.00002670288 15 16 8
49.1279326379299 219.664752483368 2694.9999332428 14 15 7
55.9999421238899 217.787951231003 2671.99993133545 14 15 7
62.5803992152214 215.340360999107 2641.99995994568 21 22 14
70.1063424348831 216.315820813179 2654.00004386902 21 22 14
77.3768872022629 216.394349932671 2654.99997138977 20 21 13
84.5888555049896 216.309651732445 2654.00004386902 19 20 12
92.4870371818542 217.854663729668 2673.00009727478 18 19 11
99.7419357299805 217.769354581833 2671.99993133545 15 16 8
107.752077281475 219.232246279716 2690.00005722046 15 16 8
114.704810082912 218.494355678558 2680.99999427795 14 15 7
121.699012815952 217.919185757637 2674.00002479553 13 14 8
128.99224460125 217.914268374443 2674.00002479553 19 16 7
134.908854961395 215.70873260498 2647.0000743866 24 20 9
139.603778719902 211.873263120651 2599.99990463257 86 76 64
145.734459161758 210.482358932495 2582.99994468689 121 107 94
152.599945664406 210.232049226761 2579.99992370605 117 98 83
159.448444843292 209.981486201286 2576.99990272522 127 104 88
166.602998971939 210.138127207756 2578.9999961853 141 113 99
173.565819859505 210.050001740456 2578.00006866455 141 113 99
180.802747607231 210.287556052208 2581.00008964539 150 121 107
188.055336475372 210.524842143059 2584.00011062622 155 127 113
195.852056145668 211.332112550735 2594.00010108948 145 119 106
204.09369468689 212.546437978745 2608.99996757507 167 148 134
214.763894677162 216.122880578041 2653.00011634827 153 137 124
-70.6064626574516 218.693658709526 2776.00002288818 21 24 17
-53.3986277878284 210.584029555321 2673.00009727478 13 20 12
-46.7941723763943 213.73724937439 2713.00005912781 19 26 18
-40.2906462550163 218.623489141464 2775.00009536743 18 24 14
-32.51713514328 217.285558581352 2757.99989700317 22 25 16
-24.8000398278236 215.632200241089 2736.99998855591 21 24 15
-17.1721372753382 213.663429021835 2711.99989318848 18 21 12
-9.76348947733641 213.506385684013 2710.00003814697 17 20 11
-2.3849350400269 215.082302689552 2730.00001907349 17 20 11
5.00259455293417 212.40359544754 2696.00009918213 19 22 13
12.3283071443439 211.851745843887 2688.99989128113 18 21 12
19.6962170302868 212.166264653206 2693.00007820129 17 20 11
26.8147177994251 210.353329777718 2670.00007629395 18 21 12
34.280139952898 211.455106735229 2684.00001525879 16 19 10
41.6358262300491 211.611226201057 2686.00010871887 16 17 9
48.7834997475147 210.821643471718 2676.00011825562 15 16 8
56.0650192201138 210.740804672241 2674.99995231628 17 18 10
63.1750524044037 210.108265280724 2667.00005531311 10 11 3
70.3468397259712 209.79055762291 2663.00010681152 12 13 5
77.4090737104416 209.23624932766 2655.99989891052 15 16 8
85.1021409034729 210.33601462841 2670.00007629395 15 16 8
92.0062363147736 209.466055035591 2658.99991989136 17 18 10
99.1485491394997 209.226027131081 2655.99989891052 17 18 10
106.594599783421 209.615960717201 2661.00001335144 16 17 9
114.153049886227 210.163116455078 2667.99998283386 14 15 7
121.021047234535 209.4496935606 2658.99991989136 12 13 5
129.286706447601 211.099058389664 2680.0000667572 21 18 9
135.831519961357 209.912493824959 2664.99996185303 15 11 0
140.146136283875 205.575123429298 2609.99989509583 53 41 29
146.022215485573 203.836902976036 2588.00005912781 118 104 91
152.664974331856 203.279882669449 2581.00008964539 131 109 95
159.454584121704 202.958926558495 2576.99990272522 130 107 91
166.415587067604 202.874004840851 2575.99997520447 138 111 94
173.572465777397 203.025087714195 2578.00006866455 143 114 98
180.809676647186 203.254699707031 2581.00008964539 143 111 96
188.426405191422 203.877747058868 2588.99998664856 139 110 94
195.935025811195 204.343020915985 2595.00002861023 162 134 120
203.944966197014 205.280467867851 2607.00011253357 166 144 131
212.586238980293 206.76876604557 2625.99992752075 167 151 138
-62.0347931981087 207.782074809074 2732.00011253357 22 23 17
-54.779127240181 208.544820547104 2742.00010299683 20 23 16
-46.5889684855938 205.428391695023 2700.99997520447 18 23 16
-39.5952351391315 207.407504320145 2726.99999809265 19 22 13
-32.4240550398827 209.158182144165 2750 22 25 16
-24.7828643769026 208.018377423286 2734.99989509583 22 25 16
-17.3437632620335 208.323419094086 2739.00008201599 15 18 9
-9.7062150016427 204.901278018951 2694.00000572205 18 21 12
-2.35182791948318 204.749390482903 2691.99991226196 19 22 13
4.97680669650435 203.988775610924 2681.99992179871 22 25 16
19.7042841464281 204.900547862053 2694.00000572205 19 22 13
27.0166099071503 204.595446586609 2690.00005722046 20 23 14
34.2814475297928 204.137921333313 2684.00001525879 16 19 10
41.6529178619385 204.364687204361 2687.00003623962 19 20 12
48.8218180835247 203.678473830223 2677.99997329712 17 18 10
56.1509914696217 203.752547502518 2678.99990081787 15 16 8
63.3432790637016 203.370049595833 2674.00002479553 12 13 5
70.0853392481804 201.770424842834 2653.00011634827 13 14 6
77.5286108255386 202.300041913986 2660.00008583069 15 16 8
85.1691216230392 203.209608793259 2671.99993133545 14 15 7
91.7328968644142 201.609238982201 2651.00002288818 14 15 7
98.7789928913116 201.225429773331 2645.99990844727 15 16 8
105.557084083557 200.385108590126 2634.99999046326 15 16 8
113.258831202984 201.293602585793 2647.0000743866 15 16 8
121.207669377327 202.505975961685 2663.00010681152 15 16 10
129.532769322395 204.174295067787 2684.99994277954 16 13 4
136.295348405838 203.332915902138 2674.00002479553 17 13 2
140.688374638557 199.221640825272 2619.99988555908 19 9 0
146.366238594055 197.239398956299 2594.00010108948 92 78 65
152.78896689415 196.397483348846 2582.99994468689 117 95 81
159.336775541306 195.783510804176 2575.00004768372 135 112 96
166.357159614563 195.777520537376 2575.00004768372 149 122 103
173.848241567612 196.303516626358 2582.00001716614 140 109 91
181.446850299835 196.905255317688 2589.99991416931 149 116 99
188.870057463646 197.278648614883 2595.00002861023 135 104 86
196.09323143959 197.423711419106 2596.99988365173 135 108 91
203.561305999756 197.796583175659 2601.99999809265 141 119 105
211.946368217468 199.005350470543 2618.00003051758 150 132 118
227.363362908363 206.522703170776 2717.00000762939 111 99 87
-68.678580224514 197.98456132412 2700.00004768372 28 25 20
-47.4186614155769 201.583996415138 2749.00007247925 14 15 9
-39.8871041834354 201.438918709755 2746.99997901917 15 18 9
-32.0951044559479 199.606955051422 2721.99988365173 22 25 16
-24.6840994805098 199.754625558853 2723.99997711182 23 26 17
-17.1354357153177 198.435440659523 2706.00008964539 16 19 10
-9.79665014892817 199.389219284058 2719.00010108948 22 25 16
-2.33531533740461 196.016192436218 2673.00009727478 21 24 15
12.2421178966761 195.795819163322 2670.00007629395 17 20 11
19.6391809731722 196.895226836205 2684.99994277954 16 19 10
26.9573461264372 196.821063756943 2684.00001525879 17 20 11
34.2188477516174 196.453273296356 2678.99990081787 15 18 9
41.4374172687531 196.011930704117 2673.00009727478 17 18 10
48.9694662392139 196.96356356144 2686.00010871887 19 20 12
56.3417077064514 197.108313441277 2687.99996376038 19 20 12
63.1087198853493 195.346295833588 2664.00003433228 16 17 9
69.8237344622612 193.803995847702 2642.99988746643 15 16 8
77.3565694689751 194.607943296432 2654.00004386902 16 17 9
85.2041244506836 195.998191833496 2673.00009727478 15 16 8
92.2553166747093 195.481702685356 2665.99988937378 14 15 7
99.1932824254036 194.818362593651 2657.00006484985 14 15 7
106.362164020538 194.668009877205 2654.99997138977 15 16 8
113.690860569477 194.810718297958 2657.00006484985 13 14 6
121.166571974754 195.17308473587 2661.99994087219 14 15 9
129.489243030548 196.78159058094 2684.00001525879 17 17 9
136.096432805061 195.750430226326 2670.00007629395 18 15 6
140.53238928318 191.859856247902 2617.00010299683 17 7 0
146.484375 190.315186977386 2595.99995613098 49 35 22
152.853637933731 189.430147409439 2584.00011062622 121 99 85
159.775674343109 189.277961850166 2582.00001716614 130 107 89
166.815400123596 189.272195100784 2582.00001716614 140 113 94
174.460485577583 189.925894141197 2591.00008010864 142 111 93
181.873708963394 190.286129713058 2595.99995613098 150 117 100
189.16791677475 190.499484539032 2598.99997711182 135 104 86
196.47778570652 190.71264564991 2601.99999809265 133 106 89
204.11616563797 191.218689084053 2608.99996757507 139 117 103
212.601542472839 192.457363009453 2625.99992752075 135 117 103
241.772189736366 205.046847462654 2798.00009727478 24 16 5
-71.6571882367134 198.882788419724 2816.99991226196 26 23 18
-62.0392896234989 192.884013056755 2732.00011253357 25 22 17
-46.6268509626389 190.84033370018 2703.00006866455 17 18 12
-39.7142730653286 193.101152777672 2734.99989509583 17 18 10
-32.0608764886856 191.972762346268 2719.00010108948 23 26 17
-24.6487334370613 192.044347524643 2720.00002861023 22 25 16
-17.2057040035725 191.833272576332 2717.00000762939 14 17 8
-9.75736416876316 191.198274493217 2707.99994468689 20 23 14
-2.36073555424809 190.774872899055 2701.99990272522 19 22 13
4.97345672920346 189.221516251564 2680.0000667572 21 24 15
12.2746517881751 189.009413123131 2677.00004577637 18 21 12
19.6252539753914 189.432471990585 2683.00008773804 17 20 11
27.0386580377817 190.06709754467 2691.99991226196 18 21 12
34.5010831952095 190.701454877853 2700.99997520447 15 18 9
41.8264679610729 190.488308668137 2697.99995422363 14 15 7
49.4270101189613 191.404536366463 2710.99996566772 20 21 13
56.2808327376843 189.567044377327 2684.99994277954 21 22 14
62.7792999148369 187.093898653984 2650.00009536743 17 18 10
69.8790475726128 186.738565564156 2644.99998092651 15 16 8
77.4467587471008 187.583208084106 2657.00006484985 16 17 9
85.5896696448326 189.557150006294 2684.99994277954 15 16 8
92.3278033733368 188.35386633873 2667.99998283386 14 15 7
99.9807938933373 189.056485891342 2677.99997329712 15 16 8
107.647925615311 189.6882802248 2687.00003623962 15 16 8
114.122778177261 188.272550702095 2667.00005531311 12 13 5
121.671549975872 188.692003488541 2673.00009727478 12 15 8
129.204317927361 189.04060125351 2677.99997329712 13 14 8
135.79535484314 188.047811388969 2664.00003433228 14 14 4
141.450241208076 185.925379395485 2634.0000629425 30 22 9
146.715208888054 183.520525693893 2599.99990463257 18 6 0
153.154760599136 182.738944888115 2588.99998664856 116 97 82
160.214424133301 182.733595371246 2588.99998664856 114 93 76
167.33805835247 182.798579335213 2589.99991416931 113 86 67
174.937874078751 183.357357978821 2598.00004959106 114 85 67
182.37042427063 183.704152703285 2602.9999256134 127 94 75
189.683973789215 183.909565210342 2605.99994659424 120 89 71
197.239652276039 184.326469898224 2611.99998855591 105 78 61
205.062031745911 184.954777359962 2621.00005149841 117 95 81
214.147120714188 186.641275882721 2644.99998092651 105 89 74
-71.4815855026245 190.725773572922 2809.99994277954 27 26 21
-63.1314516067505 188.691809773445 2779.99997138977 19 18 13
-53.5861812531948 182.042002677917 2681.99992179871 20 19 14
-46.3869385421276 182.518810033798 2688.99989128113 19 20 14
-39.541382342577 184.828042984009 2723.00004959106 21 22 14
-31.8733043968678 183.471724390984 2703.00006866455 24 27 18
-24.6042683720589 184.287205338478 2714.99991416931 22 25 16
-17.1872973442078 184.220045804977 2713.99998664856 12 15 6
-9.78292338550091 184.288367629051 2714.99991416931 17 20 11
-2.34334240667522 182.048588991165 2681.99992179871 16 19 10
4.98290732502937 182.252183556557 2684.99994277954 19 22 13
12.293417006731 181.980401277542 2680.99999427795 19 22 13
19.6332447230816 182.183489203453 2684.00001525879 19 22 13
27.0998552441597 183.132991194725 2697.99995422363 20 23 14
34.5533676445484 183.607086539268 2704.99992370605 16 19 10
42.1689786016941 184.623941779137 2720.00002861023 17 18 10
48.7905703485012 181.635871529579 2676.00011825562 20 21 13
56.2408417463303 182.109221816063 2683.00008773804 19 20 12
63.5158717632294 181.971445679665 2680.99999427795 16 17 9
70.7797333598137 181.833446025848 2678.99990081787 16 17 9
78.7902697920799 183.459877967834 2703.00006866455 16 17 9
85.6563597917557 182.37116932869 2687.00003623962 15 16 8
92.1925380825996 180.807143449783 2664.00003433228 15 16 8
99.1255044937134 180.19312620163 2654.99997138977 16 17 9
108.49291831255 183.786660432816 2707.99994468689 16 17 9
115.324825048447 182.900652289391 2694.9999332428 14 17 10
122.403994202614 182.48949944973 2688.99989128113 14 19 13
129.642933607101 182.34957754612 2687.00003623962 11 14 7
136.717513203621 182.005822658539 2681.99992179871 10 11 3
142.636492848396 180.236801505089 2655.99989891052 20 14 2
147.397324442863 177.246168255806 2611.99998855591 19 9 0
153.514876961708 176.087632775307 2595.00002861023 117 100 84
160.529226064682 176.014602184296 2594.00010108948 118 97 80
167.795941233635 176.212757825851 2596.99988365173 111 84 67
175.415083765984 176.749929785728 2605.00001907349 100 71 53
182.796880602837 177.01543867588 2608.99996757507 117 86 68
190.127000212669 177.21289396286 2611.99998855591 115 86 68
197.850316762924 177.749335765839 2619.99988555908 103 77 60
206.164181232452 178.760394454002 2634.99999046326 112 93 78
215.854436159134 180.856555700302 2665.99988937378 110 94 79
-71.7892125248909 183.843940496445 2822.00002670288 28 33 26
-63.5195970535278 182.217463850975 2796.99993133545 16 19 12
-55.146437138319 179.808899760246 2759.99999046326 16 19 12
-47.5098080933094 179.419696331024 2753.99994850159 20 23 16
-39.5862609148026 177.596911787987 2726.0000705719 25 28 19
-31.9686941802502 176.620841026306 2710.99996566772 22 25 16
-24.5960205793381 176.817193627357 2713.99998664856 21 24 15
-17.2955300658941 177.925437688828 2730.99994659424 16 19 10
-9.74361039698124 176.166832447052 2703.9999961853 19 22 13
-2.32419767417014 173.30040037632 2660.00008583069 17 20 11
4.98678395524621 175.059407949448 2687.00003623962 18 21 12
12.2204553335905 173.625826835632 2664.99996185303 16 19 10
19.6412093937397 174.928307533264 2684.99994277954 16 19 10
27.0907115191221 175.709366798401 2697.00002670288 19 22 13
34.6183851361275 176.555305719376 2710.00003814697 19 22 13
41.5037088096142 174.404144287109 2677.00004577637 18 19 11
48.8651134073734 174.59811270237 2680.0000667572 20 21 13
56.1798065900803 174.596413969994 2680.0000667572 19 20 12
63.7785792350769 175.376236438751 2691.99991226196 17 18 10
71.0727050900459 175.243780016899 2690.00005722046 18 19 11
78.6762684583664 175.827652215958 2698.99988174438 17 18 10
85.7229307293892 175.173550844193 2688.99989128113 16 17 9
92.7492901682854 174.58438873291 2680.0000667572 15 16 8
99.8008102178574 174.125283956528 2673.00009727478 16 17 9
106.33297264576 172.88427054882 2654.00004386902 16 17 9
114.857889711857 174.834921956062 2684.00001525879 14 17 10
122.271455824375 174.961403012276 2686.00010871887 7 14 7
129.936665296555 175.413325428963 2693.00007820129 14 19 13
137.48662173748 175.669580698013 2697.00002670288 13 14 8
143.930062651634 174.557819962502 2680.0000667572 19 15 4
147.627845406532 170.384660363197 2615.9999370575 26 16 6
153.697311878204 169.207513332367 2598.00004959106 123 105 91
160.658180713654 169.07225549221 2595.99995613098 117 96 79
167.995199561119 169.327571988106 2599.99990463257 93 67 50
175.690084695816 169.908255338669 2608.99996757507 96 67 49
183.083027601242 170.163094997406 2612.99991607666 117 86 68
190.715432167053 170.613050460815 2619.99988555908 99 70 52
198.385253548622 171.062797307968 2627.00009346008 105 82 64
206.796675920486 172.09829390049 2642.99988746643 102 85 69
217.399716377258 174.826458096504 2684.99994277954 111 98 82
233.838200569153 181.916564702988 2793.99991035461 24 14 2
-70.85020840168 173.837408423424 2785.00008583069 26 31 24
-63.3172243833542 174.026742577553 2788.00010681152 18 21 14
-55.787593126297 174.278289079666 2792.00005531311 20 23 16
-47.649335116148 172.407269477844 2762.00008392334 23 26 19
-39.8198738694191 171.160206198692 2742.00010299683 25 28 19
-31.9343358278275 169.038966298103 2707.99994468689 21 24 15
-24.6421210467815 169.726505875587 2719.00010108948 21 24 15
-17.2327477484941 169.851988554001 2720.99995613098 19 22 13
-9.84481908380985 170.539081096649 2732.00011253357 22 25 16
-2.3522328119725 168.042346835136 2691.99991226196 20 23 14
4.97209560126066 167.230799794197 2678.99990081787 19 22 13
12.3263141140342 167.792350053787 2687.99996376038 13 16 7
19.5686798542738 166.980355978012 2674.99995231628 13 16 7
26.9208066165447 167.29174554348 2680.0000667572 19 22 13
34.3895368278027 168.039843440056 2691.99991226196 19 22 13
41.6910797357559 167.851403355598 2688.99989128113 14 15 7
48.7937331199646 167.038515210152 2676.00011825562 18 19 11
56.3283376395702 167.723506689072 2687.00003623962 18 19 11
63.4015277028084 167.035043239594 2676.00011825562 17 18 10
70.6257894635201 166.845694184303 2673.00009727478 17 18 10
77.979139983654 166.968211531639 2674.99995231628 17 18 10
85.8212858438492 168.026775121689 2691.99991226196 16 17 9
93.2367518544197 168.148830533028 2694.00000572205 15 16 8
100.438714027405 167.896166443825 2690.00005722046 15 16 8
107.297904789448 167.143970727921 2677.99997329712 15 16 8
113.877214491367 166.07953608036 2661.00001335144 12 15 8
121.31929397583 166.325554251671 2664.99996185303 9 14 8
130.037233233452 168.194010853767 2694.9999332428 18 20 15
138.25561106205 169.250831007957 2711.99989318848 12 12 4
144.041985273361 167.374297976494 2681.99992179871 24 17 7
147.237420082092 162.814229726791 2608.99996757507 22 10 0
153.879582881927 162.310391664505 2601.0000705719 128 109 94
161.158293485641 162.492796778679 2604.00009155273 115 94 77
168.452724814415 162.674993276596 2607.00011253357 86 59 42
176.032245159149 163.106545805931 2614.00008201599 103 76 57
183.298885822296 163.225904107094 2615.9999370575 122 93 75
190.794125199318 163.532227277756 2621.00005149841 94 67 50
198.693439364433 164.150282740593 2631.00004196167 113 91 77
207.115992903709 165.142402052879 2647.0000743866 100 84 71
216.920509934425 167.132437229156 2678.99990081787 105 93 81
-70.9541290998459 166.479349136353 2789.00003433228 24 25 19
-62.978483736515 165.526285767555 2773.00000190735 23 24 18
-55.4495975375175 165.647432208061 2775.00009536743 26 27 21
-47.8405617177486 165.529608726501 2773.00000190735 18 19 13
-39.9372689425945 164.157941937447 2750 21 24 15
-32.124001532793 162.606984376907 2723.99997711182 22 25 16
-24.4344193488359 160.936385393143 2696.00009918213 20 23 14
-17.3092763870955 163.14572095871 2733.00004005432 22 25 16
-9.84151661396027 163.026735186577 2730.99994659424 22 25 16
-2.34968308359385 160.51971912384 2688.99989128113 17 20 11
4.9518309533596 159.266084432602 2667.99998283386 16 19 10
12.3725477606058 161.056667566299 2697.99995422363 14 17 8
19.664378836751 160.459235310555 2687.99996376038 15 18 9
26.9216280430555 159.980997443199 2680.0000667572 16 19 10
34.3522615730762 160.517320036888 2688.99989128113 16 19 10
41.4287708699703 159.501403570175 2671.99993133545 17 20 11
49.2510795593262 161.231160163879 2700.99997520447 17 20 11
56.6235519945621 161.229580640793 2700.99997520447 17 20 11
63.7114644050598 160.511463880539 2688.99989128113 17 20 11
70.2051669359207 158.599361777306 2657.00006484985 16 19 10
77.6899829506874 159.074679017067 2664.99996185303 17 20 11
85.218146443367 159.54977273941 2673.00009727478 16 19 10
93.2049751281738 160.740911960602 2693.00007820129 15 18 9
100.777789950371 161.096140742302 2698.99988174438 14 17 8
107.701830565929 160.436511039734 2687.99996376038 14 17 8
114.265829324722 159.358888864517 2670.00007629395 14 17 8
121.414013206959 159.176364541054 2667.00005531311 11 14 7
129.220858216286 159.829169511795 2677.99997329712 21 21 13
137.2911632061 160.720482468605 2693.00007820129 16 12 1
143.186941742897 159.104973077774 2665.99988937378 23 9 0
147.411122918129 155.878081917763 2611.99998855591 43 25 13
154.357492923737 155.694633722305 2608.99996757507 100 77 63
161.720097064972 155.928716063499 2612.99991607666 107 81 66
168.910056352615 155.983582139015 2614.00008201599 96 70 53
176.239490509033 156.157582998276 2617.00010299683 110 84 69
183.514535427094 156.271696090698 2618.99995803833 101 78 62
191.382110118866 156.862944364548 2628.99994850159 109 87 74
199.37901198864 157.513648271561 2640.00010490417 100 83 75
208.061054348946 158.64135324955 2658.99991989136 78 68 59
-62.9803240299225 157.961443066597 2773.00000190735 13 14 8
-55.2913546562195 157.621338963509 2766.99995994568 25 26 20
-47.6866848766804 157.451912760735 2763.99993896484 14 15 9
-39.778683334589 156.029030680656 2739.00008201599 18 21 12
-32.1839079260826 155.46041727066 2729.00009155273 22 25 16
-24.6979724615812 155.233353376389 2724.99990463257 21 24 15
-17.2591116279364 155.233934521675 2724.99990463257 22 25 16
-9.83099266886711 155.40523827076 2727.9999256134 20 23 14
-2.36722850240767 154.323041439056 2709.00011062622 15 18 9
4.9426956102252 151.702523231506 2663.00010681152 13 16 7
12.2628482058644 152.328923344612 2674.00002479553 12 15 6
19.7527464479208 153.8095921278 2700.00004768372 14 17 8
26.8520936369896 152.270838618279 2673.00009727478 15 18 9
33.7400436401367 150.447055697441 2641.00003242493 15 18 9
41.4920039474964 152.439787983894 2676.00011825562 16 19 10
48.9607602357864 152.951180934906 2684.99994277954 17 20 11
56.7509867250919 154.20289337635 2707.00001716614 17 20 11
63.6422485113144 153.004944324493 2686.00010871887 17 20 11
70.3393220901489 151.635885238647 2661.99994087219 16 19 10
77.2841051220894 151.007205247879 2651.00002288818 16 19 10
84.9336832761765 151.745408773422 2664.00003433228 15 18 9
92.9307788610458 152.939066290855 2684.99994277954 14 17 8
100.668705999851 153.562888503075 2696.00009918213 13 16 7
108.225844800472 153.844699263573 2700.99997520447 13 16 7
115.852639079094 154.18329834938 2707.00001716614 13 16 7
122.737772762775 153.553411364555 2696.00009918213 10 13 6
128.742039203644 151.955097913742 2667.99998283386 22 22 14
135.714650154114 151.609644293785 2661.99994087219 10 6 0
141.848310828209 150.409758090973 2641.00003242493 110 98 86
148.431241512299 149.779230356216 2630.00011444092 108 92 79
155.249387025833 149.433270096779 2624.00007247925 76 54 40
162.529319524765 149.542734026909 2625.99992752075 72 49 35
169.561058282852 149.424210190773 2624.00007247925 85 62 46
176.783263683319 149.476334452629 2625 108 85 71
184.150382876396 149.642169475555 2628.00002098084 90 68 54
191.751524806023 149.97860789299 2634.0000629425 93 75 61
199.913278222084 150.713384151459 2647.0000743866 99 85 76
209.397181868553 152.358919382095 2676.00011825562 41 32 23
-71.7468783259392 152.943208813667 2819.9999332428 12 13 7
-63.0274936556816 150.504440069199 2775.00009536743 23 24 18
-55.3928129374981 150.343343615532 2772.0000743866 22 23 17
-46.7908419668674 147.090539336205 2711.99989318848 17 18 12
-39.1552858054638 146.223932504654 2696.00009918213 16 19 10
-32.1376286447048 147.797763347626 2724.99990463257 18 21 12
-24.617088958621 147.31040596962 2716.00008010864 17 20 11
-17.3165984451771 148.287251591682 2733.99996757507 17 20 11
-9.81324817985296 147.691011428833 2723.00004959106 16 19 10
-2.38389824517071 147.962376475334 2727.9999256134 11 14 5
5.07276179268956 148.233532905579 2733.00004005432 10 13 4
12.4007733538747 146.660372614861 2703.9999961853 10 13 4
19.91424895823 147.636219859123 2721.99988365173 12 15 6
27.4455547332764 148.177951574326 2732.00011253357 13 16 7
34.315899014473 145.68218588829 2686.00010871887 13 16 7
41.4311364293098 144.921824336052 2671.99993133545 12 15 6
49.4727194309235 147.144317626953 2713.00005912781 14 17 8
56.7106381058693 146.708965301514 2704.99992370605 15 18 9
63.7861788272858 146.002247929573 2691.99991226196 15 18 9
70.5262571573257 144.753023982048 2668.99991035461 14 17 8
77.8984799981117 144.913703203201 2671.99993133545 14 17 8
85.4780599474907 145.39960026741 2680.99999427795 14 17 8
93.1064188480377 145.885288715363 2690.00005722046 13 16 7
100.895538926125 146.53342962265 2701.99990272522 13 16 7
109.070308506489 147.61520922184 2721.99988365173 13 16 7
117.054186761379 148.317158222198 2734.99989509583 13 16 7
123.196415603161 146.741300821304 2706.00008964539 11 14 7
128.938615322113 144.894167780876 2671.99993133545 15 14 9
135.208547115326 143.806099891663 2651.99995040894 21 16 10
142.281904816628 143.639698624611 2648.9999294281 108 95 86
149.394780397415 143.527373671532 2647.0000743866 89 75 64
156.377792358398 143.306389451027 2642.99988746643 59 40 26
163.58594596386 143.302127718925 2642.99988746643 64 45 31
170.858085155487 143.351882696152 2644.00005340576 88 69 54
178.135007619858 143.401473760605 2644.99998092651 96 77 63
185.556858778 143.559321761131 2648.00000190735 87 68 53
193.067103624344 143.771171569824 2651.99995040894 99 83 70
201.655775308609 144.741773605347 2670.00007629395 80 67 58
-63.1427317857742 143.190443515778 2779.99997138977 23 24 18
-55.0345778465271 141.852766275406 2753.99994850159 25 26 20
-46.9128601253033 140.051305294037 2719.00010108948 17 18 12
-39.3306128680706 139.485836029053 2707.99994468689 18 21 12
-31.7728742957115 138.76561820507 2694.00000572205 19 22 13
-24.7627682983875 140.723720192909 2732.00011253357 16 19 10
-17.3613987863064 141.187846660614 2740.9999370575 17 20 11
-9.85675677657127 140.879139304161 2734.99989509583 17 20 11
-2.38920492120087 140.827789902687 2733.99996757507 11 14 5
5.06361573934555 140.518680214882 2727.9999256134 11 14 5
12.5753795728087 141.23959839344 2742.00010299683 10 13 4
20.0098883360624 140.878602862358 2734.99989509583 12 15 6
27.4965185672045 140.981018543243 2736.99998855591 13 16 7
34.406241029501 138.713806867599 2693.00007820129 12 15 6
41.6648276150227 138.4037733078 2687.00003623962 11 14 5
49.5105013251305 139.844834804535 2714.99991416931 13 16 7
56.9008365273476 139.791935682297 2713.99998664856 15 18 9
63.3850544691086 137.781590223312 2674.99995231628 15 18 9
70.7659423351288 137.934371829033 2677.99997329712 14 17 8
78.6877050995827 139.014065265656 2698.99988174438 14 17 8
85.9904512763023 138.908937573433 2697.00002670288 13 16 7
93.3511704206467 138.906627893448 2697.00002670288 13 16 7
100.823521614075 139.058649539948 2700.00004768372 13 16 7
108.872823417187 139.931499958038 2717.00000762939 13 16 7
115.987278521061 139.568105340004 2710.00003814697 14 17 8
123.700469732285 139.9255245924 2717.00000762939 16 17 12
129.183277487755 137.862324714661 2677.00004577637 18 17 12
136.792615056038 138.167902827263 2683.00008773804 15 12 7
143.521010875702 137.597858905792 2671.99993133545 78 69 62
150.69679915905 137.491121888161 2670.00007629395 77 67 58
157.624408602715 137.178242206573 2664.00003433228 66 53 44
164.951920509338 137.225657701492 2664.99996185303 63 51 39
172.607332468033 137.530326843262 2671.0000038147 59 47 35
180.092751979828 137.680336833 2674.00002479553 61 49 37
187.523767352104 137.778699398041 2676.00011825562 58 46 34
195.183366537094 138.03131878376 2680.99999427795 29 21 10
-47.6214624941349 134.631812572479 2759.99999046326 17 18 12
-39.65113312006 133.169487118721 2730.00001907349 15 18 11
-32.174676656723 133.072823286057 2727.9999256134 18 21 14
-24.8359069228172 133.658885955811 2740.00000953674 17 20 13
-17.4315124750137 134.244784712791 2752.00009346008 16 19 12
-9.84619464725256 133.269503712654 2732.00011253357 14 17 10
-2.37003923393786 132.29401409626 2711.99989318848 13 16 9
5.00620156526566 131.562262773514 2697.00002670288 12 15 8
12.4060036614537 131.952315568924 2704.99992370605 12 15 8
19.8055356740952 132.049471139908 2707.00001716614 13 16 9
26.8040038645267 130.146458745003 2667.99998283386 12 15 8
34.1388024389744 130.340814590454 2671.99993133545 11 14 7
41.6813865303993 131.120383739471 2687.99996376038 11 14 5
49.4752749800682 132.338747382164 2713.00005912781 14 17 8
56.4410090446472 131.313070654869 2691.99991226196 16 19 10
63.6473074555397 131.018936634064 2686.00010871887 16 19 10
71.0848346352577 131.212398409843 2690.00005722046 15 18 9
78.9520815014839 132.088541984558 2707.99994468689 14 17 8
86.1201509833336 131.745100021362 2700.99997520447 14 17 8
93.2842791080475 131.45025074482 2694.9999332428 13 16 7
100.938081741333 131.838083267212 2703.00006866455 13 16 7
108.795396983624 132.420793175697 2714.99991416931 14 17 8
117.188602685928 133.539840579033 2737.99991607666 14 17 8
122.74743616581 131.488502025604 2696.00009918213 17 18 13
129.958629608154 131.339117884636 2693.00007820129 13 12 8
137.815743684769 131.823569536209 2703.00006866455 26 23 18
145.028591156006 131.673842668533 2700.00004768372 20 13 7
152.393788099289 131.670251488686 2700.00004768372 23 16 10
159.344226121902 131.325140595436 2693.00007820129 31 20 14
166.56531393528 131.223693490028 2690.99998474121 40 30 21
174.29181933403 131.512179970741 2697.00002670288 49 40 31
182.723894715309 132.288083434105 2713.00005912781 33 25 14
192.644044756889 134.038954973221 2749.00007247925 23 15 4
201.958894729614 135.253205895424 2773.9999294281 18 12 0
211.786910891533 136.710986495018 2803.99990081787 22 19 10
-63.9181211590767 129.584044218063 2813.99989128113 23 26 19
-56.116446852684 129.309147596359 2808.00008773804 18 21 14
-47.7606393396854 127.468332648277 2767.99988746643 15 18 11
-39.8990027606487 126.502275466919 2746.99997901917 16 19 12
-32.3051884770393 126.134723424911 2739.00008201599 22 25 18
-24.8002447187901 125.997215509415 2736.00006103516 18 21 14
-9.81038808822632 125.353306531906 2721.99988365173 12 15 8
-2.33863480389118 123.235054314137 2676.00011825562 13 16 9
4.98219020664692 123.60343337059 2684.00001525879 15 18 11
12.314572930336 123.649291694164 2684.99994277954 19 22 15
19.5938292890787 123.326547443867 2677.99997329712 17 20 13
27.0055774599314 123.786516487598 2687.99996376038 14 17 10
34.4079360365868 124.01607632637 2693.00007820129 14 17 10
42.2716438770294 125.534862279892 2726.0000705719 13 16 7
48.9840693771839 123.691789805889 2686.00010871887 12 15 6
56.4423613250256 123.966850340366 2691.99991226196 12 15 6
63.6488273739815 123.689159750938 2686.00010871887 14 17 8
71.1658149957657 124.0099593997 2693.00007820129 16 19 10
78.7207186222076 124.330550432205 2700.00004768372 13 16 7
85.9308913350105 124.098405241966 2694.9999332428 14 17 8
93.3211147785187 124.142378568649 2696.00009918213 14 17 8
100.828431546688 124.324321746826 2700.00004768372 12 15 6
109.359003603458 125.657215714455 2729.00009155273 12 15 6
116.164140403271 124.963961541653 2713.99998664856 14 17 8
123.251169919968 124.638885259628 2707.00001716614 14 15 10
130.733832716942 124.728076159954 2709.00011062622 13 14 9
138.073921203613 124.678947031498 2707.99994468689 14 13 9
145.998880267143 125.136107206345 2717.99993515015 18 15 10
154.0906727314 125.685140490532 2730.00001907349 18 15 10
161.596447229385 125.727578997612 2730.99994659424 20 15 11
169.354647397995 125.954002141953 2736.00006103516 20 17 10
177.010178565979 126.088172197342 2739.00008201599 19 16 9
-56.357529014349 122.165665030479 2819.9999332428 22 25 18
