ply
format ascii 1.0
comment KinectMotionCapture
element vertex 800
property float x
property float y
property float z
property uchar red
property uchar green
property uchar blue
end_header
176.640496527474 63.9852742949436 2887.1977427674 10 13 6
262.648110674693 76.1420676774995 2957.28256263477 11 14 7
221.512691435977 72.214655373859 2936.36237208782 12 15 8
216.507611316284 72.8483083320009 2941.23883700487 15 18 11
220.599910776086 74.6140655720104 2952.50149885993 13 16 9
229.708931871077 76.9903854126894 2967.19403483305 17 20 13
184.050922311881 72.5975749584699 2943.74874454332 17 20 13
184.005416840274 73.8491439293971 2952.1110823923 14 17 10
168.124931136063 73.1607183214148 2949.56121595919 11 14 7
151.358430242106 72.3768889510793 2946.4883670239 10 13 6
158.01836018675 74.4405137247888 2959.40803711272 9 12 5
158.009567739294 75.6875134045024 2967.73459372525 9 12 5
143.703341650432 75.215070714904 2966.42336067669 11 14 7
123.44501591672 74.0429288566959 2961.20736272919 11 14 7
98.0401231049703 72.2766618002332 2952.68766182496 8 11 4
108.169321058166 74.7316048730745 2967.77243593524 8 11 4
97.1147561834598 74.6780697741377 2968.83865382854 9 12 5
145.681791529964 81.6095073760246 3008.85811234045 12 15 8
130.440016925286 81.0479975256676 3007.07214756778 14 17 10
121.144765936427 81.1870148227776 3009.19703808239 15 18 11
92.9569145400184 79.1503041586483 2999.22976184437 16 19 12
46.6087773699866 75.0527599449966 2977.84304757048 17 20 13
-30.9478519631474 67.4321465841552 2936.95542158438 16 19 12
-39.7316634256253 67.7140193432052 2939.96790258967 13 16 9
-33.8139562610182 69.6641793764801 2952.2244715925 11 14 7
-15.6989443023412 72.9767922537843 2972.00598634821 11 16 10
265.053819268433 59.3054138102803 2892.19955012399 18 21 14
217.238785897205 54.2121008829509 2865.33177521301 13 16 9
199.168449347946 53.1349493897908 2860.7628507619 13 16 9
198.076069967648 54.3251019436876 2868.75658003775 13 16 9
194.564156879244 55.1906898805111 2874.95018460854 11 14 7
201.659364592887 57.4475464780956 2888.82596717669 11 14 7
160.598133045531 53.3922965413045 2867.85133934387 10 13 6
160.324838601868 54.6892406250579 2876.43316858758 10 13 6
200.179501945711 62.4739540446875 2922.14387102 10 13 6
197.599007205789 63.4321151123283 2928.81579045127 15 18 11
209.088507908063 66.1844289551135 2945.33996903024 16 19 12
199.106581373929 66.1868398695404 2946.75001955822 17 20 13
182.455646775107 65.3509651379052 2943.56976602315 16 19 12
169.082444488511 64.9414657604964 2942.73997071198 15 18 11
177.372780883283 67.2576228311669 2956.83745540821 12 15 8
179.033282960331 68.7306292166002 2966.30713066622 12 15 8
167.308845283069 68.5330679546993 2966.64258199928 12 15 8
156.394968761754 68.4432732707533 2967.57445342874 11 14 7
137.03089552025 67.3201460189226 2962.8801145173 10 13 6
110.002657541584 65.2744733393829 2953.17955891291 10 13 6
109.109592258735 66.4399099848561 2960.97935718606 12 15 8
96.3617044533787 66.1617499010001 2960.92611277865 10 13 6
115.03542135388 69.6872483876346 2981.53793234359 10 13 6
138.931150191057 73.8135754953506 3005.37788408439 12 15 8
132.21435342416 74.2440982140702 3009.14997501918 14 17 10
107.515890600487 72.534554279686 3001.33730435888 17 20 13
45.8401735451552 66.4629021348614 2969.95681885555 13 16 9
-16.2276149082263 61.7037464277886 2947.27381123635 13 16 9
-18.9325828241826 62.6780600110228 2954.06694703671 13 16 9
-19.8938866982847 63.8522228196495 2961.93287967463 8 11 4
214.883720437225 46.7456572166181 2864.52286134703 12 15 8
191.142021875462 44.8525634646004 2855.78723821397 12 15 8
173.802767667149 43.853138151657 2851.89775961314 13 16 9
157.219606358212 42.9710880563058 2848.65736873993 11 14 7
178.899779193599 47.2569264754198 2873.25657748056 11 14 7
169.655580882472 47.3629958939566 2875.33530377155 10 13 6
136.638360827642 44.3012330733772 2860.39612335558 10 13 6
135.511898696233 45.5099434032543 2868.42129231793 10 13 6
159.919055051093 50.0897121656869 2894.52018913027 10 13 6
174.56728387844 53.3487210590731 2913.50078979214 12 15 8
176.079308732167 54.8624795667605 2923.11154413994 13 16 9
175.965768133691 56.1560570855261 2931.53523303062 16 19 12
177.537994086376 57.6622943323606 2941.08765627829 16 19 12
169.149507774526 57.8733076880754 2943.71804655389 15 18 11
181.612738323964 60.77001786433 2960.67120244494 13 16 9
180.772801947654 61.9425979946699 2968.41684928257 13 16 9
169.891087834884 61.8303246553637 2969.32010530034 12 15 8
151.419092156362 60.7618597286104 2965.14875043147 12 15 8
128.67433017193 59.1693103645906 2958.21289068783 11 14 7
115.136613212145 58.7543464035006 2957.54726854218 10 13 6
104.099943378775 58.6618214569171 2958.60147907736 12 15 8
104.911716101463 60.0514874781812 2967.50902564049 11 14 7
97.2502390370775 60.3837525843762 2970.81681119013 11 14 7
109.175510475608 63.1356399107221 2986.90832602507 12 15 8
115.201114158038 65.1433511337725 2999.04924614999 14 17 10
95.6001215143263 64.0050465247565 2994.59241491401 12 15 8
81.0812866883852 63.5013959616306 2993.49691799439 16 19 12
30.4096765299402 58.6283074432968 2969.43321698961 16 19 12
-13.572010304995 54.6124487565161 2949.93591310234 12 15 8
-12.8166168096828 56.0093844394928 2958.89837061887 11 14 7
0.084926610449898 58.8507334141482 2975.4241198693 10 13 6
201.550417198701 36.3373813824684 2846.71008798663 18 21 14
191.535153513843 36.312091135027 2848.15699917572 11 14 7
200.113734286973 38.8945510325668 2863.34580281942 12 15 8
190.909853345819 38.9824005186484 2865.38752410608 13 16 9
161.355153292457 36.2535523724604 2852.62844277059 11 14 7
135.403418857497 35.4430850924666 2851.59571916504 10 13 6
153.089854664836 39.2456205155601 2873.14697751197 10 13 6
128.191790914116 37.2218796876433 2864.1620423688 10 13 6
139.412797658063 40.1172480411592 2880.93169602326 10 13 6
145.762705083785 42.3349747754842 2894.13644685386 11 14 7
147.20687954218 43.8795198554817 2903.81036524729 12 15 8
161.1149363326 47.0819167881257 2922.11742558894 13 16 9
164.313475138256 48.8358087285192 2932.85211151216 15 18 11
167.551746258176 50.5846880938275 2943.54808351639 16 19 12
159.145131821033 50.7877979417503 2946.19798126538 15 18 11
162.435592613116 52.5301127118293 2956.84309839794 15 18 11
158.219306674115 53.2813435047976 2962.33581039812 14 17 10
138.039725295081 51.9549430768266 2957.06407964962 13 16 9
122.845802952422 51.2917623273498 2955.24596162987 13 16 9
110.983312468328 51.069659551933 2955.72212866589 13 16 9
116.015506350277 53.0230331950549 2967.44064116084 13 16 9
112.613515344447 53.8870623926528 2973.52532185966 12 15 8
96.4686022204502 53.1286660496227 2971.24837740744 12 15 8
117.763714667745 57.1216610783201 2993.43908245347 13 16 9
116.122550818556 58.1942002831919 3000.57823670336 14 17 10
120.489255942525 60.0161578941282 3011.56010328716 13 16 9
61.4193316360234 53.9066587534591 2981.84834878616 14 17 10
88.0838232635828 58.5141898531124 3007.11882220156 13 16 9
9.76462649649967 50.0962481897821 2965.68903456538 15 18 11
-0.655241938401385 50.1232252586544 2967.5299991659 16 19 12
5.34843679498609 52.1694245220968 2979.68700257376 9 12 5
237.866006002199 34.3732158014732 2874.70378552005 18 21 14
204.522965915098 30.9510738368298 2858.72450377501 11 14 7
209.894793902566 33.1122097124841 2871.49195673295 12 15 8
195.846232388131 32.489726268017 2869.94703491104 12 15 8
182.569296834694 31.9880776128474 2869.03526493377 11 14 7
181.482482742241 33.2196377057381 2877.01768562233 11 14 7
139.234812158575 30.0534136193819 2864.1746960895 10 13 6
139.755903434636 31.5183860925926 2873.35976336549 10 13 6
104.095041341836 27.953454094367 2856.86906096299 10 13 6
136.758008272569 33.8678310739305 2888.74266802171 12 15 8
170.427130795772 39.8732095922057 2921.02060703344 12 15 8
158.696955328412 39.6130150557116 2921.37135108951 12 15 8
162.720061604695 41.508445925856 2932.68321925077 15 18 11
157.627694764639 42.155321464125 2937.64440687991 17 20 13
145.859677549138 41.9000596455374 2938.03199929773 16 19 12
139.080515192485 42.3237023311743 2941.86703705097 15 18 11
128.102388112486 42.1869195104619 2942.86965506109 14 17 10
127.182751026852 43.397734280662 2950.6887948182 13 16 9
111.121531189642 42.5940581157555 2948.33543403288 13 16 9
114.429296151462 44.3618789886167 2958.95993592024 14 17 10
121.16129511367 46.5697925496569 2971.78671458949 14 17 10
107.593108168532 46.1058337458421 2971.15859100608 13 16 9
96.5373425436069 45.9790817437528 2972.23682268842 13 16 9
78.6392822005109 44.9713020432267 2968.90348161493 14 17 10
123.875899336883 52.1329917796409 3006.52808836433 14 17 10
112.853934512986 52.002015505026 3007.57337969721 16 19 12
147.269576007077 57.694216403876 3037.73939253293 12 15 8
43.4404801678432 47.0378250687547 2987.96396514571 15 18 11
-5.7662662761957 42.1313769143853 2965.28438199294 12 15 8
-1.50549391481558 43.9970911488506 2976.36497416612 13 16 9
299.95467264751 36.4659917726874 2921.8496359997 15 18 11
219.124965337134 25.9146573295277 2870.47493958089 12 15 8
185.682847127677 22.4110020559805 2854.60609150745 12 15 8
194.292552853062 25.0823919471302 2869.75084379923 11 14 7
172.066373335092 23.254730923059 2862.33443555902 11 14 7
161.172093615999 23.0883677347882 2863.25816386568 11 14 7
137.177785955258 21.0424953488829 2854.79596591752 10 13 6
182.714660612184 28.9897982888337 2896.25736501714 10 13 6
153.782669016278 26.2423892146388 2884.29991543484 10 13 6
150.250130136739 27.1344007660635 2890.51009632243 10 13 6
187.144791522329 33.7433516762583 2925.16379493851 10 13 6
158.920368733619 31.1277349148181 2913.90148738432 9 12 5
140.533218809304 29.9202355528721 2909.66642865607 9 12 5
142.85216592583 31.6194427426433 2919.8657351939 12 15 8
158.528841993327 35.1654563568306 2939.19956268838 14 17 10
153.43934001267 35.8125235667999 2944.15787714079 16 19 12
155.87937598438 37.4964655823525 2954.23919684149 16 19 12
159.193547464206 39.2908533852204 2964.85307253911 13 16 9
133.974796980336 37.1796257742284 2956.19951457091 13 16 9
133.933267153902 38.51446614103 2964.54559706952 14 17 10
112.809784268056 36.9904617010767 2958.82347093967 14 17 10
105.998649171021 37.413461779166 2962.69035307386 14 17 10
97.4846083900975 37.6099028593805 2965.44791241123 15 18 11
94.9063673433783 38.6026672451499 2972.11247953653 15 18 11
101.742149613633 42.1654982206018 2993.13807523485 14 17 10
106.931225992845 44.1649109136389 3004.6939965394 13 16 9
79.5717674175189 41.8829558363312 2995.35727031903 14 17 10
17.7241305351092 35.1231544108508 2964.24921190858 16 19 12
7.32108671594034 35.1167533059917 2966.07840269647 9 12 5
-2.24075140030067 35.2249787980379 2968.47223134279 8 11 4
-16.1484565198244 34.7779343400014 2968.17875439264 19 22 15
262.970673083815 23.9861686197971 2895.23724829927 19 22 15
190.60819607737 15.9170499843866 2859.17674421882 12 15 8
170.023879259827 14.2729188718022 2852.93731072455 11 14 7
156.685395431462 13.7260016374364 2852.09334977036 11 14 7
145.754485129809 13.5458580422714 2853.05548952513 11 14 7
119.272680632987 11.0817831342213 2842.87415706214 10 13 6
168.041342485879 19.6832694677432 2886.69763079457 10 13 6
151.389605098142 18.6607121825294 2883.54576604066 10 13 6
164.117738544324 23.3225389144028 2909.89402689122 9 12 5
156.509284572253 23.6173968587131 2913.15468848856 8 11 4
189.438690971952 31.0935770251166 2953.03501497725 10 13 6
181.910530309034 31.3783495775164 2956.21743474816 14 17 10
178.544497587943 32.2553704600891 2962.26448817331 16 19 12
183.551643792357 34.3105106767406 2973.99249448521 15 18 11
168.484596010257 33.5355220865757 2972.0649133013 13 16 9
150.010502499737 32.2966437277344 2967.92082864146 12 15 8
134.002253083533 31.4171046239266 2965.52607995427 14 17 10
126.386759022139 31.7132333807303 2968.79354463884 14 17 10
93.3760300888364 28.5101237031595 2955.28571876469 15 18 11
109.427491479718 32.0767701626229 2974.24432936718 15 18 11
105.176290465351 32.8423626204875 2979.76992774753 15 18 11
114.560978311893 35.4625358787797 2994.15268113263 15 18 11
87.2951841899718 33.0990275293335 2984.73499826342 14 17 10
61.6414252994248 30.9791449560893 2976.5146892733 14 17 10
0.601581206497226 25.5099129377666 2954.33277599478 14 17 10
-7.25503241566328 25.8369619947723 2957.83510596073 15 18 11
-34.1205965320017 23.6469892321869 2949.41124961326 16 19 12
-25.5968617765774 26.1524970771926 2963.24898032535 14 17 10
166.784725109222 3.57792808405782 2833.64540603613 17 20 11
168.017807811618 5.23717867092227 2843.51165039797 11 14 5
159.548075470068 5.40647349113971 2846.22922300541 10 13 6
154.316454651022 6.07203198492151 2851.32593056157 11 14 7
149.900861882864 6.86086784846424 2857.0109991764 12 15 8
150.392425558463 8.38769863669392 2866.2162451642 12 14 9
132.075106886678 7.08561103547106 2861.92582307035 12 14 9
167.878634788607 13.8827877717609 2896.21830435301 11 13 8
168.493579717748 15.3941692922774 2905.30365216915 11 13 8
155.939177753901 14.9483524798012 2905.08305305215 9 12 5
130.122694648009 12.5572213128954 2895.64717487735 8 11 4
159.73303599855 18.326211568081 2924.9055972448 8 11 4
182.8619257988 23.1034940722825 2949.41048271992 8 11 4
194.46752944287 26.1683266582167 2965.77317922762 8 11 4
170.267707633649 24.0258032614761 2957.52934484414 11 14 7
168.56392607171 25.1514119349272 2964.72317360617 13 16 9
166.87630401783 26.2749375147067 2971.90092577615 14 17 10
151.760038187459 25.4743308842825 2970.02566733492 13 16 9
136.598402554387 24.6796003358518 2968.1949311381 12 15 8
118.858455001993 23.531768506208 2964.72528136963 13 16 9
134.060273255852 27.0474621929145 2983.11822164706 14 17 10
98.4723779183918 23.4026331750088 2967.9837802402 13 16 9
78.8960323784105 22.0344936402271 2963.53644356752 13 16 9
92.4800358250626 25.3020510079424 2980.73875366835 13 16 9
54.9182007454645 21.4543993262777 2964.76028422932 12 15 8
32.6148128679979 19.7522196333574 2958.8192461052 12 15 8
29.9627724426546 20.7717718604778 2965.55313787317 13 16 9
40.2182491477818 23.5547365604475 2980.46437170479 12 15 8
-8.90608648907332 18.2268127827765 2957.76524731529 12 15 8
-22.8218553902493 17.7279856795354 2957.48743127186 13 16 9
-12.542399212089 20.5079494992211 2972.37529666108 15 18 11
160.016982507725 -6.30168699694922 2820.57074830364 21 24 15
153.130990259092 -5.8849209511071 2824.51288608321 17 20 11
167.27943911101 -2.17077719245545 2843.92284475645 12 15 6
165.297541781748 -0.999303274300034 2851.38572988161 11 14 7
161.705726659714 -0.0824396533398164 2857.65076198724 13 16 9
153.232260666865 0.0771537303811409 2860.3734760337 13 16 9
154.548619323486 1.7482348362382 2870.1556154384 12 14 9
173.914242966707 6.1773728240056 2892.78096033336 12 14 9
172.053432607851 7.33378819644132 2900.12582995339 13 15 10
168.563526162901 8.23806430230539 2906.29186350742 13 15 10
170.030844291861 9.89014234814312 2915.92656872647 10 13 6
113.659034219317 2.81895273351845 2885.09493149746 10 13 6
164.774938520595 11.9391246357153 2929.34505375693 8 11 4
153.029039250953 11.5965630948658 2929.72324774639 8 11 4
166.229542623431 14.9724822636467 2947.29036326317 8 11 4
135.288733263618 11.788120255709 2934.55846223355 11 14 7
143.540431765343 14.4153143938158 2948.64834378602 13 16 9
149.339847953332 16.6652947694002 2960.97806416164 14 17 10
159.392030132151 19.5229188495499 2976.07979999735 13 16 9
139.194784234037 17.9585411900666 2970.86112115031 11 14 7
127.370160616512 17.6263242570349 2971.31596065245 11 14 7
122.284404912204 18.2747251096554 2976.27035788527 14 17 10
107.871332516476 17.5827569089729 2975.09800841556 13 16 9
67.9173107751496 13.2481445899889 2957.31592246902 13 16 9
66.1413161480397 14.3945236199661 2964.57805218065 13 16 9
54.1358175282478 14.085597052071 2965.20939877007 13 16 9
30.1194059593226 12.0884605241152 2958.17885650869 12 15 8
17.9390483568778 13.1818884013461 2967.27870486852 13 16 9
18.7369139805869 14.6901396208757 2976.18253454601 11 14 7
-8.93280359899995 12.2390270968418 2967.17890150009 13 16 9
-25.4514877708782 11.3557863787027 2965.29156916789 15 18 11
-0.385913729494369 16.2091046026139 2989.27930767565 63 68 61
206.799543556893 -6.10657846584489 2856.27295823637 21 24 15
178.229228565103 -9.21200683659035 2844.00927353529 14 17 8
180.298338328903 -7.38253259869781 2854.43708100283 13 16 7
179.969935220519 -5.94524633551347 2863.05289145244 13 16 9
163.403192483957 -7.09085245716579 2859.83515015974 13 16 9
160.639182911038 -6.04086511714852 2866.67573065006 12 15 8
186.483035550926 -0.494864571888798 2894.039314655 11 14 7
189.544672575843 1.44118865094761 2904.88302271229 12 14 9
186.07882350572 2.34817232764051 2911.02442891771 14 16 11
188.381623596817 4.14847536391671 2921.22482776852 14 16 11
161.85334257865 1.48132563653985 2911.11966154789 13 16 9
163.333128542604 3.1539820791176 2920.73894454443 12 15 8
129.213393783272 -0.639106320267258 2905.58575781163 11 14 7
165.558137909598 6.36052316711766 2939.31088095463 9 12 5
153.81162007182 5.99703366647358 2939.6931201767 8 11 4
134.524740380788 4.50090315232404 2934.97691880579 8 11 4
115.173123784805 3.01314921996348 2930.32410192534 9 12 5
141.026326347117 8.32594391357511 2956.29562188241 13 16 9
144.336789267722 10.2309768247318 2966.89716477747 14 17 10
150.213137124962 12.5068004968775 2979.14633339833 12 15 8
138.414128360014 12.1503116090218 2979.57966219952 11 14 7
124.046816621055 11.4233038992024 2978.36705054533 13 16 9
124.901990489559 12.9434880013878 2987.21220861372 12 15 8
104.536432379342 11.3526065434849 2982.16424568925 12 15 8
35.545480270962 2.69951700451243 2945.67657250867 12 15 8
65.3071207064189 8.44492293540688 2973.37099124131 12 15 8
57.5755885032785 8.7333678140285 2976.75481918983 12 15 8
3.51893628845446 2.36428696819996 2950.60564688696 14 17 10
-7.7767710439427 2.17657339849553 2951.93115432488 13 16 9
-2.7294584327171 4.32576922756095 2963.60537342261 11 14 7
-4.54233900250278 5.4884095087161 2970.90206585676 12 15 8
-17.5894346828924 5.05868676982635 2971.16834018659 16 19 12
-21.9969760747785 5.85410723697155 2976.84444046422 24 29 22
218.949912260515 -11.3029833829291 2866.23048000934 20 23 14
193.638785607117 -13.9603642329123 2856.33246483555 14 17 8
195.744616873937 -12.1107819012476 2866.72083534027 13 16 7
174.362873750466 -14.0921467672369 2859.90585379768 14 17 10
169.166295939387 -13.4296497184107 2864.96821560913 12 15 8
166.415856222037 -12.372815223361 2871.79430902575 12 15 8
193.089241433934 -6.59408352988999 2899.71666667959 12 15 8
187.976952602115 -5.94207239523353 2904.69687810214 12 14 9
202.56622112838 -2.15305624988821 2923.6576923742 14 16 11
185.983233942133 -3.3335437281275 2920.46123750945 14 16 11
175.119980060977 -3.59565479239071 2921.36830819465 14 17 10
174.150491566722 -2.2947460153922 2929.22363528259 13 16 9
168.229834203984 -1.77466591544601 2933.60915863783 10 13 6
150.678527539107 -3.06676527675093 2929.9738461996 10 13 6
139.729622407274 -3.31774864457174 2930.96398733221 9 12 5
112.90060911366 -6.01589873503516 2921.16203454687 8 11 4
126.845702594014 -0.96654814248115 2947.66146955387 11 14 7
146.087404443412 3.40671460325492 2969.00121964065 13 16 9
144.387906600755 4.5658065544073 2976.18550795029 15 18 11
144.393105100888 5.97834438469885 2984.47370487867 14 17 10
121.579229447777 3.94544554093124 2977.67155949051 11 14 7
139.387964039018 8.03079287681691 2997.6426645422 11 14 7
102.057541716361 3.84757328885288 2981.48399560462 12 15 8
26.2479418536987 -6.02090034449654 2940.61068561281 12 15 8
53.4260493176997 -0.5409771838919 2966.65910106209 12 15 8
47.3788773437156 -0.00413878989635741 2971.16744058599 12 15 8
19.0299802202984 -2.74321004974365 2961.46389372489 15 18 11
-16.2989374753835 -6.47518969688721 2947.502411676 15 18 11
-25.0554981577036 -6.2988826535858 2950.50343482043 12 15 8
-26.055333843189 -4.99320292541522 2958.38852981538 11 14 7
-41.7466338573487 -5.81556428697816 2957.08750415898 16 19 12
-47.9427924967495 -5.25950715711393 2961.74128696529 21 26 20
190.834532595583 -23.1876857979379 2846.31047908287 17 20 13
184.022844910083 -22.7951749473191 2850.18275408208 13 16 9
176.395059227868 -22.5366150816714 2853.46797719354 14 17 10
167.134140329697 -22.5459184120145 2855.58035931654 15 18 11
162.733395302396 -21.7462817112408 2861.24942538817 12 15 8
173.822613014311 -18.3982026710625 2878.08303705785 13 16 9
191.525851473664 -13.9887923048641 2899.52791427138 15 18 11
189.685478133621 -12.8011403882006 2906.84821072401 16 19 12
175.548752003186 -13.6167846679745 2905.41938675621 15 18 11
183.585329215943 -10.8314791963336 2919.69951814265 15 18 11
171.067001684245 -11.3771373877738 2919.45785309346 14 17 10
170.087985744614 -10.0609470132818 2927.32072030407 13 16 9
188.186613960416 -5.70154397264139 2948.38036070539 11 14 7
141.613691494438 -11.6658604767596 2924.65895104714 11 14 7
135.638757765786 -11.140913434161 2929.09765230409 10 13 6
100.456719938084 -15.2244356254053 2913.62502704979 10 13 6
108.625863214375 -12.4555768527418 2927.77594919039 9 12 5
125.240696728917 -8.38281756984405 2947.51756685135 9 12 5
129.353835040193 -6.28711229222884 2958.71043140099 12 15 8
136.036998384824 -3.80482251838049 2971.54515187599 15 18 11
134.334630005696 -2.63394177606741 2978.73088613459 15 18 11
169.873221463298 4.26353713589917 3010.43747212775 12 15 8
126.73885802943 -0.948211290704604 2990.27517771677 12 15 8
65.5836983672584 -8.86152582440025 2958.64996792356 13 16 9
47.6171826347827 -10.1400018910217 2955.42495071037 13 16 9
34.7159321495982 -10.6359123391176 2955.55618111989 13 16 9
44.8845799020408 -7.64548048465707 2970.52297383027 14 17 10
13.1000491785374 -10.9710824441061 2958.64943794844 15 18 11
6.12382325750938 -10.5558461077036 2962.68174303098 15 18 11
-31.8728593528728 -14.7556959312451 2947.1871383498 13 16 9
-39.7958399663931 -14.4577770629888 2950.75967714843 11 14 7
-46.8641570733781 -14.0307559671451 2954.88135051568 17 20 13
-62.6119312319093 -14.8776255654794 2953.64036466817 21 26 20
158.695010380147 -35.951908295388 2823.43161945031 7 10 3
167.950218925683 -32.7973640467599 2839.28121505607 15 18 11
164.329449025663 -31.8535059317791 2845.57100990985 12 15 8
150.173113938242 -32.6962862086511 2844.16600645672 17 20 13
138.414213457061 -33.1222843103133 2844.56978057067 11 14 7
178.784227998757 -24.7851485574792 2882.60219943515 11 14 7
180.159902889466 -23.0333295453072 2892.31316607326 13 16 9
182.386535118922 -21.1491088762415 2902.57679774717 15 18 11
158.38315639292 -23.6251946759423 2894.18719285559 15 18 11
175.428787467784 -19.2963713724666 2914.8800853381 13 16 9
171.962985162702 -18.3715169614264 2921.0191416604 14 17 10
180.078606509253 -15.5524656161811 2935.21579342812 12 15 8
164.22880578319 -16.6600954258836 2932.69741455604 12 15 8
161.617388618926 -15.6032748954602 2939.38512074429 12 15 8
103.245494041178 -23.5683474385475 2907.83789386664 12 15 8
108.873347904238 -21.1541227990494 2920.3137029366 12 15 8
127.933548558925 -16.6001783641228 2941.80698171805 10 13 6
127.827216849776 -15.1401450541949 2950.19890998182 7 10 3
131.105806022908 -13.148554040147 2960.81897288751 7 10 3
118.423741824087 -13.6965094965286 2960.740240304 10 13 6
156.350992176097 -6.25122639559556 2994.24495327941 12 15 8
152.177294920148 -5.47623227825395 2999.69219972077 16 19 12
131.049699863957 -7.35487281348113 2994.02657209687 14 17 10
49.50942186478 -18.6249120514 2949.13202008586 13 16 9
22.9883883769282 -21.2602646375701 2940.43186667462 13 16 9
19.422469873752 -20.3217422923092 2946.66831974691 14 17 10
26.1330874551309 -17.8043700620245 2959.47059258723 14 17 10
39.7595514887139 -14.242655485165 2976.5872623905 15 18 11
7.05736317131045 -17.7750115181907 2964.23862290896 15 18 11
-18.014393484072 -20.1133301828829 2956.88957117238 10 13 6
-29.3598978650365 -20.3495996808964 2958.27170436066 8 11 4
-45.9234541181957 -21.3650526765136 2956.44847158537 13 16 9
-26.1115854244185 -16.9066640205854 2977.20945599471 21 26 20
156.352251556156 -43.7223029220271 2822.65540873205 12 14 9
167.215682989374 -40.2367469826733 2839.69324833054 11 14 7
155.50164565033 -40.6898966377967 2840.05614782691 11 14 7
142.135352293258 -41.4191777802603 2839.2667554518 14 17 10
174.260212538528 -34.313865746993 2871.49869072303 12 15 8
155.222172707934 -36.0241239106263 2866.56737350725 12 15 8
175.330141585717 -31.0386770473426 2889.79024571928 15 18 11
137.421804095944 -35.9426541569216 2871.47816409729 16 19 12
188.82408622215 -25.6950803346583 2916.69418874945 16 19 12
169.741271789368 -27.399251682048 2911.80643374675 15 18 11
179.456240289956 -24.2535776372909 2927.20045409091 15 18 11
159.484689319186 -26.0877007953655 2921.79752511152 13 16 9
136.129997083828 -28.4642958107438 2914.16596956862 13 16 9
132.622428907159 -27.5279844211772 2920.34480668239 13 16 9
110.810503450968 -29.6140979250026 2913.97248435838 13 16 9
143.154468426406 -22.7796829734174 2944.60963670425 13 16 9
128.005677833934 -23.7674530251742 2942.79467634651 11 14 7
128.73743845193 -22.1541003750547 2951.74861532635 8 11 4
131.177658968595 -20.2715672456362 2961.80040009127 8 11 4
128.60104255598 -19.2101541947907 2968.45320768816 11 14 7
138.697241389023 -16.1125697753536 2983.47576830219 12 15 8
154.785978596417 -12.0747276486488 3002.32805879601 14 17 10
131.968796753277 -14.2756484806651 2995.55369223791 15 18 11
68.279400439196 -22.9513121940436 2962.30662598362 15 18 11
29.876914763876 -27.5471109578545 2945.85660150753 13 16 9
2.42291848109177 -30.3737088772275 2936.69458844439 14 17 10
10.8056371602245 -27.5443182411886 2950.62414262777 15 18 11
26.9694588541873 -23.5158532538195 2969.40325905357 13 16 9
29.4788097056817 -21.6417549996163 2979.38764304495 13 16 9
-19.6623400901794 -27.7894592177606 2956.82637855498 9 12 5
-22.3778239905292 -26.7098320876548 2963.61439158707 6 9 2
-27.6767067032333 -26.0311651105513 2968.77595376984 10 13 6
-5.22335620749548 -21.1004889130431 2991.09516960433 19 24 18
148.723817579103 -50.832927529557 2827.03077569873 19 21 16
137.774446706066 -51.1585583153463 2828.03241217502 16 19 12
173.028973669052 -43.3428673011466 2862.7198613823 5 8 1
169.454651947465 -42.3930267251728 2868.96264830314 16 19 12
164.25928909385 -41.7287073853527 2874.02353431005 15 18 11
158.248047839655 -41.206399512397 2878.4986795447 17 20 11
165.334666048243 -38.4152565710788 2892.30402433008 19 22 13
157.707123920832 -38.1790232926 2895.59264328985 18 21 12
176.394754952393 -33.4204295990788 2917.42530430162 16 19 10
171.281553537491 -32.7661436855545 2922.40608572134 15 18 11
142.198978580428 -36.1945791981543 2910.69916089487 13 16 9
133.717295765405 -36.0953160927914 2913.43861331401 13 16 9
129.373494338639 -35.2926564306806 2919.05068675616 14 17 10
151.670656564459 -30.009295405813 2942.88978250582 14 17 10
134.049212751439 -31.4523379759103 2939.34608879087 13 16 9
134.768254043787 -29.8180253353988 2948.30956037167 12 15 8
128.809854207791 -29.3015681414586 2952.73309802471 10 13 6
115.287325781252 -30.0361266689574 2952.09962937837 10 13 6
116.042122788646 -28.4061889246028 2961.0282416133 11 14 7
111.760842595556 -27.6111031753763 2966.5790121252 11 14 7
143.859824754869 -20.8695169919325 2996.05658460466 14 17 10
124.409722083731 -22.5711996589825 2991.5331844263 18 21 14
84.4993180047604 -27.5718942138038 2973.80623215981 19 22 15
64.0214064083411 -29.3884583558568 2968.90353155218 14 17 10
49.4502359478806 -30.2350231007742 2967.9106872576 13 16 9
44.2493108736941 -29.5684988495959 2972.97677074683 13 16 9
33.0465343557616 -29.8597644012135 2974.22530144992 17 20 13
25.2553960619153 -29.601375741328 2977.67276142365 18 21 14
16.5922353307315 -29.477905958175 2980.58918420187 15 18 11
-5.03567959912132 -31.3936538886585 2975.42586606541 11 14 7
-36.2539591932376 -34.7941498901343 2964.41835090779 11 14 7
-59.7824276041963 -36.9596808488771 2958.34540966047 18 23 19
156.869107499316 -56.7360962918785 2833.98497486666 7 9 4
157.266718467526 -55.0425691336974 2843.25887963109 13 15 10
174.723786623783 -50.2976100693635 2864.89861364362 22 25 18
158.146122753754 -51.6659504336517 2861.72463722169 16 19 12
162.702602394448 -49.2579786937206 2873.84835159038 16 19 12
166.489554777274 -47.0007234110633 2885.34124656868 17 20 11
167.863773503722 -45.182380896458 2895.04382705482 19 22 13
161.062868122756 -44.8103131131192 2898.90841654265 18 21 12
162.48160136727 -42.9974791653766 2908.56760761807 16 19 10
156.511024013998 -42.4822141101157 2913.00341392336 14 17 10
141.445328729896 -43.5448700508428 2911.11666895574 13 16 9
131.305057241826 -43.7421541363593 2912.71313535553 13 16 9
147.715819077641 -39.3608317706823 2932.61179372132 14 17 10
148.413489341968 -37.7045274240513 2941.59323668431 14 17 10
150.807892516374 -35.7667729296297 2951.68235705377 12 15 8
144.875810676683 -35.2559480637389 2956.08059300306 12 15 8
144.807840205531 -33.7507157481267 2964.42774759712 11 14 7
109.479731986572 -38.2019586924878 2949.15452136738 10 13 6
55.4882455429744 -45.7484218261149 2921.69740791859 10 13 6
108.403352957446 -33.8233080514579 2973.66536661379 10 13 6
111.764224491201 -31.75956316372 2984.193057608 15 18 11
93.9202195961495 -33.2135709940007 2980.87199099822 18 21 14
89.6466858193721 -32.4159956807832 2986.41503908973 19 22 15
90.4996046451218 -30.7789532957787 2995.24516484575 17 20 13
58.8463538003396 -32.9566424961528 2991.5737366895 17 20 13
40.8001284068318 -34.3844626314436 2988.44994533617 18 21 14
25.2807353848681 -35.3879030810459 2987.0049769054 16 19 12
14.8957425491818 -35.5528177049515 2988.83967102873 11 14 7
-10.2206324505274 -38.0697891011366 2981.56133076335 12 15 8
-80.5180326620363 -47.7658338843083 2946.52479034965 5 7 4
173.085305459384 -61.0979428274143 2846.86694299224 19 21 16
167.858261671553 -60.429010429769 2851.95860682722 18 20 15
165.065134187617 -59.3155210688357 2858.81871626267 20 23 16
159.845677423154 -58.6472945185263 2863.90295039522 17 20 13
169.294929470489 -55.3208627908476 2879.53411519888 17 20 13
182.899038706463 -51.2662127841822 2898.01703732311 18 21 12
170.39302645085 -51.932864869891 2897.78102586745 19 22 13
156.211755137858 -52.8889060027819 2896.41752435999 18 21 10
165.022496388201 -49.7323003631044 2911.2909307279 16 19 10
170.601816427853 -47.1699013610036 2923.79303449588 14 17 10
143.171876718425 -50.4615523045346 2913.25862037393 13 16 9
146.290937711477 -48.3400207892693 2924.01789197136 14 17 10
146.128151341188 -46.8062504405605 2932.45498224607 15 18 11
145.157107559818 -45.4209675951078 2940.29938330665 15 18 11
130.024051114642 -46.5064718181343 2938.48324377589 12 15 8
152.474405321224 -41.0634674304005 2962.14662240474 12 15 8
150.747396969735 -39.8331890163763 2969.34770772821 13 16 9
133.915571124094 -41.2050169431257 2966.42663336547 12 15 8
83.349918434203 -48.3380643616916 2941.17448880686 11 14 7
71.3977888286457 -48.8224213832872 2941.77876772064 8 11 4
100.863629619838 -42.2613514398342 2969.64636508792 8 11 4
110.989560580132 -39.0201946524092 2984.61851916877 8 11 4
105.050405833251 -36.9966612923575 2997.30199471295 16 19 12
97.4017993856284 -36.7717793222039 3000.61287073049 22 25 18
76.9093302142818 -38.6824505313107 2995.73853499337 21 24 17
44.3432283646228 -42.5752936758967 2983.30803947529 20 23 16
62.359935949944 -38.076227710512 3003.01147683668 21 24 17
42.5825473353916 -39.8263276269052 2998.82023248662 18 21 14
-10.9277226793489 -47.0854685438964 2973.67695438958 13 16 9
-26.5841588155382 -48.1030924003526 2972.37016809844 11 14 7
-34.4814582228081 -47.8460314631994 2975.92358170599 15 17 14
178.001392761673 -67.4704530284811 2851.42884360096 23 25 20
182.494497676736 -64.9889922733881 2863.60462836471 9 11 6
188.656836561526 -62.2117513901505 2876.91294158237 16 19 12
172.925952405031 -63.5085369519638 2874.30443393636 18 21 14
159.590113200526 -64.3477127586803 2873.50104252094 18 21 12
185.42239379561 -57.9753679440783 2900.75398441531 19 22 11
173.741182437465 -58.5167601244453 2901.09732943407 20 23 14
171.87814534223 -57.258510641908 2908.42969704123 18 21 10
170.853958005027 -55.8528769234961 2916.32386258822 17 20 9
182.218338193453 -52.212644393762 2932.84105369291 15 18 11
163.907660606647 -53.9424961418847 2928.6072602576 14 17 10
160.447625810471 -52.9888106927107 2934.73632814345 15 18 11
149.522960355884 -53.3717024096674 2935.72223275662 16 19 12
136.907399276931 -54.0474535146226 2935.59634973303 16 19 12
125.092246200433 -54.5708528433515 2936.07037936452 13 16 9
129.134214265003 -52.2849789637222 2947.3058101849 13 16 9
157.525005927156 -45.7300082257972 2974.82493937165 14 17 10
135.668729495719 -48.0240861895839 2968.52739527805 13 16 9
119.629853215697 -49.2799510570933 2966.21868030291 10 13 6
118.732230668153 -47.889592995648 2973.98976072021 9 12 5
102.629363513137 -49.1371106946654 2971.74335592204 9 12 5
115.301854589782 -45.4088564373651 2988.36547332212 9 12 5
126.357110041669 -41.9829227836057 3003.80439382245 5 8 1
129.821817994302 -39.8774418599399 3014.22280514985 8 11 4
95.7682219429934 -44.1751297736506 3000.49543060784 16 19 12
36.7737797069672 -52.6657769866218 2971.06099178221 22 25 18
51.2776680066525 -48.6624954422643 2988.6576743893 21 24 17
56.4183666285629 -46.2619812800487 3000.20235290003 20 23 16
29.7374962334103 -49.2110489333789 2991.70762469248 17 20 13
-48.1371134462543 -59.1020925108197 2959.97312023388 10 13 6
-56.0828539504166 -58.8464155489657 2963.57450327569 10 12 9
180.496459254488 -74.2722053751054 2854.20756751126 21 23 20
199.557041496349 -68.9896186632075 2877.00968367841 22 24 19
183.864695530085 -70.3260672217794 2874.36910705538 19 22 13
173.812768757649 -70.5827250625025 2875.88662126167 20 26 16
144.182749080521 -74.510487574587 2863.37987028768 20 26 14
152.82501924314 -71.2398707711461 2878.40372013595 16 22 8
172.177354331799 -65.9940788835559 2900.92155967229 14 20 6
169.489637408851 -64.8764086838951 2907.67637693628 16 22 8
164.346763181269 -64.2165097806101 2912.68579430021 17 23 11
169.923520508679 -61.5826713031759 2925.17988415607 14 20 10
159.848818126429 -61.8356176106151 2926.71946631659 13 19 9
167.148119447895 -58.9073534174546 2940.29334716571 14 20 10
153.748163704337 -59.7639798175196 2939.55620361146 14 20 10
124.49735675894 -63.48173685514 2928.05909723137 16 19 10
111.819127942745 -64.1731457422455 2927.99775841063 13 16 7
127.535839737658 -59.7482144453877 2947.16192618629 14 17 8
144.188503537028 -55.1856158677824 2966.79357978135 15 18 9
137.422376859189 -54.8318638778396 2970.62634056911 15 18 9
122.229676615703 -55.9732717295648 2968.87735290168 17 18 10
104.459895715149 -57.5567692111733 2965.50205712405 16 17 9
112.853292566203 -54.5105990392227 2979.38896780413 13 16 9
106.050215115684 -54.1518202620945 2983.25767829845 12 15 8
138.325929816527 -46.9561065788359 3012.49229506344 12 15 8
138.411030788408 -45.4200183639015 3020.68288696331 14 17 10
108.645390099994 -49.0709723874859 3009.68680680238 15 18 11
58.2367281213303 -56.256317989911 2985.70374495522 19 22 15
37.6340357586855 -58.2488149619647 2980.95095628848 16 19 12
49.6182673277343 -54.6325027118424 2996.856161216 13 16 9
40.1483156037079 -54.7042169591513 2999.18534033142 13 16 9
-15.090894415545 -62.5575856083133 2973.01293318117 13 16 9
-42.0033853694766 -65.5437659595844 2964.75335501102 13 16 9
-51.6697292138653 -65.5901321713144 2967.27380797658 6 11 7
-57.0093694779241 -64.9034670691674 2972.47466089096 13 17 16
186.687001574381 -78.6680071710267 2868.54838471831 18 20 15
181.505757499904 -78.0034775297616 2873.59521948636 33 36 27
131.618367348862 -85.9211777185286 2846.36861221915 14 20 10
148.815878329886 -79.2762147159155 2876.48740218163 17 23 11
160.789783260772 -75.345225987477 2893.77359972715 16 22 10
168.742729743203 -72.1999668275309 2908.08323882517 16 22 10
161.952973111091 -71.8489411403495 2911.9398674532 17 23 11
158.454059708345 -70.8787982393683 2918.10477212393 15 21 11
178.104226728592 -65.5892773097156 2940.32073485811 14 20 10
194.558008760346 -60.9309176444577 2960.13572754149 15 21 11
141.36750445656 -69.2047241787666 2931.99072802415 15 21 11
145.378033722969 -66.8546502828372 2943.24788930149 16 19 10
131.080291974265 -67.8827221260073 2942.01069076596 15 18 9
140.988128279599 -64.4668128443117 2957.1732498789 15 18 9
139.234042613515 -63.1991531561922 2964.39603628204 16 19 10
142.536173150492 -61.0182030775477 2974.96473507837 17 20 11
119.778023338651 -63.5637790693184 2968.18268872264 17 18 10
105.378383037049 -64.5783268392899 2967.04467810437 17 18 10
94.3201584765529 -64.9802343552799 2968.16601941086 18 21 14
102.733604324358 -61.8928793310099 2982.02727187959 20 23 16
105.262010167655 -59.8727162027203 2991.97080781583 20 23 16
124.858341787708 -54.8358413729332 3012.86032372175 16 19 12
115.547609314278 -54.9410561826036 3015.03668497812 13 16 9
83.9760406223991 -58.9585852994267 3003.05394118242 13 16 9
46.2838755277035 -64.0129291352883 2987.3835777904 12 15 8
47.1155911973318 -62.2954781000424 2996.2228742305 11 14 7
42.8075868660751 -61.4804973349497 3001.797241732 12 15 8
35.9146709905924 -61.1148026209573 3005.75380309592 13 16 9
-27.2183725419004 -70.4540240791773 2974.88650032744 11 13 8
-35.9845123732336 -70.3685064680524 2977.91079218887 7 12 8
152.785409157797 -92.5726901725072 2844.75368993067 11 13 10
141.846548254364 -93.0102402367288 2845.76176931424 18 20 15
150.389183678935 -89.6344081228188 2860.86900715333 29 32 25
138.629512903926 -90.2294186731407 2861.29818830455 22 25 16
152.974548739501 -85.7565316588678 2880.40079127511 14 20 10
161.682915896547 -82.4015779209984 2895.34654086874 15 21 11
161.431747040218 -80.7903256257938 2903.85994446077 15 21 11
155.446968374362 -80.284564504 2908.31091971461 13 19 7
161.001859663012 -77.576794091381 2920.81579576247 15 21 11
171.566471569794 -73.9335209695336 2936.70980987767 14 20 10
121.73682015074 -81.7424940636363 2910.82704453866 15 21 11
143.93292214227 -75.9089803903253 2934.68518227374 16 22 12
153.774558034086 -72.4357076576125 2949.90500108291 16 19 10
151.174626965436 -71.3114873228348 2956.57167758876 17 20 11
112.635362202987 -76.8861716617761 2938.98524631094 17 20 11
125.061641843739 -72.9552055447515 2955.8218945822 18 21 12
129.170680474032 -70.5872533804879 2966.9789300467 18 21 12
123.220184084682 -70.0849590363867 2971.39637488141 18 19 11
113.891672784313 -70.2011710439724 2973.5920161568 18 19 11
107.081758361788 -69.8514683094465 2977.46851945853 16 19 12
106.199185719847 -68.4209774966619 2985.21872349397 17 20 13
108.735313108281 -66.3769749537887 2995.15140620867 18 21 14
75.541038873264 -70.7955270610604 2982.00548539272 14 17 10
75.5066171116758 -69.2107310952238 2990.30722830749 11 14 7
90.8945220525257 -64.8702283189892 3008.39381317264 11 14 7
95.2300105740957 -62.5309286614051 3019.32987753354 11 14 7
66.9553601456529 -66.0022955962264 3009.66083558772 13 16 9
53.2182845453657 -66.8674896854688 3009.25972333547 13 16 9
14.4113786747977 -72.1435920170876 2993.31184266191 13 16 9
-2.0526730409749 -73.4478580927656 2991.43248685715 11 13 8
-42.8430854468123 -78.9953666479988 2974.66021473862 11 16 12
-64.6735896563726 -81.1890268575359 2969.73948390719 1 5 4
145.976607003164 -99.5497832141266 2849.7119859499 10 12 9
163.469491503789 -94.3528747212226 2871.24969371683 11 13 8
170.4801923179 -91.2654989783243 2885.08664251849 13 16 9
173.466646282744 -88.9903393672332 2895.95488868975 19 25 15
170.762496746321 -87.8450198470546 2902.72193722435 17 23 13
154.121439650948 -89.4288308559592 2899.64275767948 13 19 9
156.34448256034 -87.3210491410785 2909.87691137634 19 25 15
156.954316068255 -85.5376798939462 2918.92679740011 14 20 10
151.807643004987 -84.8756804443337 2923.9396766042 14 20 10
159.914912535906 -81.6624679093942 2938.0863649966 17 23 13
148.158955123588 -82.2781434111559 2938.51491299457 17 23 13
157.177699410829 -78.9159681446234 2953.15138617092 16 19 10
155.419752771178 -77.6254283075816 2960.37462490187 16 19 10
136.95677897573 -79.5060435988412 2956.31434663894 16 19 10
120.10879882134 -81.0623091898293 2953.43657354982 16 19 10
120.846073056304 -79.2945193784728 2962.36221168151 15 18 9
111.508883243187 -79.4227743320261 2964.56791294851 15 16 8
99.6220458861261 -80.0209019361893 2965.12417093676 14 15 7
99.5454203488988 -78.4141693426852 2973.46491844263 11 14 7
111.360301719007 -74.6130757065319 2989.510980013 11 14 7
73.9760068869093 -79.9111940837875 2973.57058882783 10 13 6
51.7734982614662 -82.3741476287526 2967.64181815827 11 14 7
42.2967992714525 -82.4839584815676 2969.98366591221 12 15 8
48.1987947932265 -79.7841094727964 2982.14469526347 12 15 8
75.5857773847235 -73.1978819773807 3007.82218332586 14 17 10
69.6086768070883 -72.6937799800212 3012.26611718446 18 21 14
57.5999814095551 -73.2758395203175 3012.94066931348 16 19 12
11.8988737725148 -79.8976440302745 2992.70177687758 14 17 10
-35.7132826625728 -86.8055765092379 2971.56871726006 12 15 8
-60.104741899103 -89.5185626451208 2965.01640513627 6 11 7
-80.2355574557425 -91.4495747877893 2961.20285771233 1 6 2
204.996028586665 -93.2389682292327 2902.11603645902 16 18 13
187.664235523313 -95.0403465449071 2898.33801497652 16 19 12
177.624829447296 -95.3613698763547 2899.85260913759 22 25 18
176.567438800123 -93.8819966223083 2907.76884739105 20 25 18
164.043170468305 -94.6891827751797 2907.57207320467 13 18 11
159.709475506828 -93.8628550842994 2913.17027481108 15 20 13
162.800183941968 -91.5731672838986 2923.93284749214 15 20 13
150.229974371801 -92.3741212517982 2923.78043467837 15 20 13
168.272510011092 -87.1708480141457 2944.77139003278 16 21 14
160.687403990592 -87.0006451079705 2948.02729072926 15 20 13
165.574095374458 -84.4040875065349 2959.79522704758 13 16 9
162.167025790954 -83.4276406816772 2965.8679977309 13 16 9
147.064142914237 -84.7083927619122 2964.05041510664 13 16 9
131.915889225118 -85.9831580663151 2962.27733936895 13 16 9
120.081461670438 -86.6093738581683 2962.78536722856 12 15 8
83.8037308539699 -91.8834278743541 2947.1598320755 11 12 6
81.9784592082997 -90.5725791051407 2954.44658603938 10 11 5
98.7752284108714 -85.7457603355411 2973.8960892098 10 13 6
85.1583281031907 -86.6797070931941 2973.38580272984 10 13 6
74.901850953144 -86.97106538241 2975.11156719604 10 13 6
36.5232280689436 -92.5117945334886 2958.77784475617 12 15 8
10.7961550878923 -95.6494964558197 2950.780433155 12 15 8
35.4449103337489 -89.4141941489576 2974.97782224452 13 16 9
55.9432241496278 -83.9884835743166 2996.33109606068 16 19 12
55.9364281042738 -82.373718497848 3004.60131465138 19 22 15
18.0616785226193 -87.7103132347602 2989.15363907193 17 20 13
-6.14909691686005 -90.5053394005247 2982.43436858924 13 16 9
-33.9043546701556 -93.9192066961619 2973.65797293512 8 11 4
-51.3555457926471 -95.4341917875002 2971.37275817261 4 9 5
-40.1859430511733 -91.7639919269335 2986.66202768533 2 7 3
186.924188063081 -102.366405911375 2898.73843425966 16 18 13
185.866051647652 -100.873064520663 2906.65368642951 16 18 13
181.553823393884 -100.046627287917 2912.23055508759 21 23 18
183.810494283059 -97.8938606863102 2922.4246669568 16 18 13
182.81305194069 -96.4079808035083 2930.2804139805 22 24 19
174.416615145021 -96.4127660347902 2932.95093198297 15 20 13
185.010890412361 -92.618100210609 2948.79311416734 14 19 12
170.003650183348 -93.9435340695364 2946.88716092744 14 19 12
169.894413006396 -92.2999920463839 2955.25485185602 13 18 11
163.984413273805 -91.8099659574532 2959.63423399667 11 14 7
161.407653782319 -90.6630300708457 2966.27454343522 11 14 7
134.599262863917 -94.2695042586049 2956.58636223133 11 14 7
100.149462868748 -99.335465876969 2941.94872742086 9 12 5
134.43528917424 -90.9885980032947 2973.26853719805 9 12 5
83.0388764644407 -99.302285767398 2947.59893842984 11 12 6
85.4304035545206 -97.165620658088 2957.66151589154 11 12 6
61.641358408369 -100.074345833024 2950.53992781517 7 10 3
86.9300908162636 -93.5552828753282 2975.47677973963 11 14 7
59.6866264236939 -97.1050811050144 2966.2122562453 11 14 7
48.5218405420893 -97.5665877648852 2967.44822324636 9 12 5
45.8650122292248 -96.4085702032585 2974.16640434144 10 13 6
49.2081431090154 -94.1225613903955 2984.67886155623 16 19 12
56.0199356741227 -91.197186555269 2997.32036353525 18 21 14
37.1100592695415 -93.1047413968543 2993.70784782339 19 22 15
3.49974183259327 -97.7348185996082 2981.00632737394 16 19 12
-30.2372383801739 -102.348470938476 2968.42815734559 12 15 8
-31.230192375753 -100.861415598426 2976.2796114845 7 10 3
-34.8040598890664 -99.8566143675155 2982.51382420902 9 14 8
-45.3203115260066 -100.129774512946 2984.49485890316 9 14 10
181.858043125496 -108.865943774141 2904.7298199317 21 23 18
188.995788546207 -105.671853448151 2918.42517703416 14 16 11
191.26970835103 -103.49655340814 2928.59883004279 22 24 19
187.82244371703 -102.50393847691 2934.70912536638 8 10 5
173.667392477966 -103.696978526081 2933.35461527424 14 19 12
164.428209629359 -103.877702358991 2935.47074905412 13 18 11
167.593969696846 -101.542576031915 2946.1520785604 13 18 11
145.894521816999 -104.231658111635 2939.75718283254 13 18 11
135.768016119457 -104.571891486695 2941.3614452834 12 15 8
150.640163331965 -99.9049916346718 2959.91160600985 12 15 8
148.88665124104 -98.5812086674759 2967.12519000625 11 14 7
84.3062183352092 -109.732547876988 2932.29502138122 10 13 6
113.514619184074 -102.249921056993 2960.282054713 10 13 6
120.996473692065 -99.0988278517505 2973.64206136059 12 13 7
75.3826967161131 -106.385487682549 2951.9974664536 13 14 8
124.297441765813 -95.133611085839 2992.44999441124 10 13 6
90.3971292632404 -100.089476350327 2978.6676853644 11 14 7
75.9051517655687 -101.237815417863 2977.64114124217 11 14 7
64.7773124484026 -101.72251073296 2978.84384703169 10 13 6
75.8112355634806 -97.9316882290356 2994.24968260313 11 14 7
71.5240448797205 -97.1034817785115 2999.80176493644 18 21 14
55.23979007237 -98.5691972444733 2997.76773029311 20 23 16
46.6386691772032 -98.5564951015479 3000.6385801639 19 22 15
-27.4221518415256 -110.953474706063 2962.65348480181 16 19 12
-63.8169334573178 -116.135894150539 2948.54754859085 12 15 8
-34.6109430595543 -108.926694598475 2975.16047864927 9 12 5
-48.5954871750112 -109.865729571436 2975.01601994121 10 12 7
-41.7652976989995 -106.904283548908 2987.634260052 10 12 7
166.709129174356 -120.988937566487 2886.13959077852 15 18 11
181.93350767102 -116.026400475586 2905.71319489579 8 11 4
184.978292700213 -113.648912404745 2916.5083933562 12 15 8
191.344722347509 -110.591321006846 2929.57294358804 11 14 7
184.607962730232 -110.276890077001 2933.38201624406 17 20 13
149.837428046706 -115.767222875231 2917.70868827779 10 15 8
124.843437801341 -119.193381683938 2909.02628632696 10 15 8
134.54154967077 -115.456778860575 2924.34970653964 11 16 9
128.537817800265 -114.959255812857 2928.82105803162 12 17 10
149.989590008554 -108.859229928385 2951.96202653854 13 16 9
139.873711156663 -109.21654936716 2953.55792384534 13 16 9
116.360370748851 -112.279001112556 2946.18527760811 13 16 9
153.928320241341 -102.992834700803 2979.77503774107 14 17 10
137.946054613695 -104.532753849703 2977.45209065 14 17 10
142.958209719056 -101.853477739146 2989.08287603666 16 17 11
153.923631607572 -98.002420139707 3004.5481694599 17 18 12
113.38021963554 -104.409414723146 2986.24074460115 12 15 8
102.33988220245 -104.923937354519 2987.36096819058 11 14 7
91.2732674179098 -105.434955659525 2988.50676764055 11 14 7
93.8033323541374 -103.266398539234 2998.42706134776 11 14 7
94.6623478555764 -101.436412142084 3007.22261597396 13 16 9
84.4304496397674 -101.777867151209 3008.93137746844 20 23 16
69.8900530615463 -102.94890849603 3007.95626959563 21 24 17
29.5329928411854 -109.102332796485 2990.84322643333 22 25 18
17.4346698193313 -109.757019028603 2991.61785215356 15 18 11
-53.379581680014 -121.679432942618 2956.00669977667 11 14 7
-55.2901187038195 -120.323220416536 2963.37141877804 11 14 7
-28.5769377870393 -113.515477266993 2988.26801478739 13 15 10
174.931467415673 -126.469622222449 2892.95483685819 4 5 0
