ply
format ascii 1.0
comment KinectMotionCapture
element vertex 760
property float x
property float y
property float z
property uchar red
property uchar green
property uchar blue
end_header
4.68278490006924 722.271025180817 2536.99994087219 179 178 173
11.5656638517976 721.985757350922 2536.00001335144 166 165 160
18.443088978529 721.699953079224 2535.00008583069 163 162 157
25.3050494939089 721.128821372986 2532.99999237061 160 159 154
32.1306921541691 719.987809658051 2529.00004386902 151 150 145
38.9653742313385 719.415605068207 2526.99995040894 149 150 144
45.8072498440742 719.127595424652 2526.00002288818 152 153 147
52.6435971260071 718.839108943939 2525.00009536743 149 150 144
59.4743862748146 718.549907207489 2523.9999294281 177 178 173
66.4047375321388 719.399154186249 2526.99995040894 168 169 164
73.380209505558 720.532417297363 2530.99989891052 164 165 160
80.3772509098053 721.66520357132 2535.00008583069 161 162 157
87.4302312731743 723.082005977631 2539.99996185303 178 178 176
94.6215838193893 725.35240650177 2548.00009727478 155 155 153
101.89601033926 727.906823158264 2556.99992179871 171 171 169
109.304174780846 731.03004693985 2568.00007820129 158 160 157
116.817109286785 734.437346458435 2579.99992370605 175 180 176
124.394923448563 737.844109535217 2592.00000762939 192 197 193
131.986871361732 740.96542596817 2602.9999256134 194 194 192
139.477998018265 743.232309818268 2611.00006103516 192 188 189
147.798091173172 749.483644962311 2632.99989700317 193 189 190
156.413838267326 756.588339805603 2657.99999237061 190 188 189
165.534257888794 765.400111675262 2688.99989128113 186 186 186
174.8868227005 774.495661258698 2720.99995613098 169 171 170
225.406631827354 920.481562614441 3233.99996757507 218 220 215
235.99012196064 927.579939365387 3259.0000629425 217 218 213
246.107742190361 932.400524616241 3276.00002288818 207 206 201
256.317108869553 937.220335006714 3292.99998283386 171 162 155
266.61816239357 942.039251327515 3309.99994277954 118 106 94
275.84519982338 942.873239517212 3312.99996376038 111 99 87
285.088062286377 943.706572055817 3315.99998474121 110 98 86
294.080495834351 943.685412406921 3315.99998474121 139 131 120
305.083125829697 949.924647808075 3338.00005912781 167 160 150
-37.4243929982185 730.660498142242 2591.00008010864 207 208 203
-30.2374977618456 726.997137069702 2578.00006866455 182 183 178
-23.1481604278088 724.179148674011 2568.00007820129 182 183 178
-16.1256734281778 721.924662590027 2559.99994277954 155 156 151
-9.15375631302595 720.233678817749 2553.99990081787 170 171 166
-2.21092253923416 717.414140701294 2543.99991035461 175 174 169
4.68500051647425 715.722024440765 2538.00010681152 174 173 168
11.5620149299502 714.875459671021 2535.00008583069 168 167 162
18.4372644871473 714.592218399048 2533.99991989136 164 163 158
25.2970512956381 714.02645111084 2532.00006484985 158 157 152
32.1459211409092 713.460147380829 2529.99997138977 149 148 143
38.9530174434185 712.329387664795 2526.00002288818 147 148 142
45.7927174866199 712.0441198349 2525.00009536743 153 154 148
52.6685751974583 712.322235107422 2526.00002288818 148 149 143
59.5497451722622 712.599754333496 2526.99995040894 173 174 169
66.4887726306915 713.440775871277 2529.99997138977 172 173 168
73.4149441123009 713.999271392822 2532.00006484985 162 163 158
80.4469361901283 715.403199195862 2536.99994087219 153 154 149
87.5059068202972 716.806590557098 2542.00005531311 179 179 177
94.7032123804092 719.05529499054 2549.99995231628 147 147 145
101.903907954693 721.021473407745 2556.99992179871 171 171 169
109.142377972603 722.987234592438 2563.99989128113 169 171 168
116.554439067841 725.798189640045 2573.99988174438 155 160 156
123.924545943737 728.04468870163 2582.00001716614 183 188 184
131.642058491707 731.982350349426 2595.99995613098 189 189 189
139.114737510681 734.22771692276 2604.00009155273 194 190 191
147.135749459267 739.010035991669 2621.00005149841 189 187 190
155.660703778267 745.765388011932 2644.99998092651 193 193 195
164.623364806175 753.929674625397 2674.00002479553 187 187 187
173.550218343735 761.247456073761 2700.00004768372 167 172 168
235.935345292091 918.521523475647 3257.99989700317 194 195 190
246.276348829269 924.142062664032 3278.00011634827 178 177 173
256.881028413773 930.325388908386 3299.99995231628 194 189 185
267.685085535049 936.789989471436 3322.99995422363 160 153 147
277.031242847443 937.897503376007 3326.99990272522 143 139 130
285.624772310257 936.467230319977 3322.00002670288 161 157 148
294.279307126999 935.318470001221 3318.00007820129 198 195 188
-37.3551249504089 722.286581993103 2585.99996566772 201 202 197
-30.2046984434128 719.216883182526 2575.00004768372 173 174 169
-23.1229513883591 716.425955295563 2565.00005722046 173 174 169
-16.108050942421 714.192926883698 2556.99992179871 162 163 158
-9.14731342345476 712.797403335571 2552.00004577637 193 192 188
-2.20762123353779 709.446251392365 2539.99996185303 173 172 167
4.68167895451188 708.32884311676 2536.00001335144 174 173 168
11.5492474287748 707.211017608643 2532.00006484985 168 167 162
18.4241700917482 707.209765911102 2532.00006484985 161 160 155
25.2790711820126 706.649422645569 2529.99997138977 155 154 149
32.135758548975 706.367909908295 2529.00004386902 153 152 147
38.9715172350407 705.806374549866 2526.99995040894 149 150 144
45.7963272929192 705.244481563568 2525.00009536743 156 157 151
52.6727251708508 705.51985502243 2526.00002288818 151 152 146
59.6251375973225 706.632614135742 2529.99997138977 170 171 166
66.5465742349625 707.186281681061 2532.00006484985 177 178 173
73.5077038407326 708.018660545349 2535.00008583069 163 164 159
80.548383295536 709.409058094025 2539.99996185303 148 149 144
87.6504555344582 711.07816696167 2546.0000038147 175 175 173
94.8220416903496 713.026106357574 2552.99997329712 147 147 145
101.91185772419 714.135587215424 2556.99992179871 165 165 163
109.023153781891 715.244472026825 2561.00010871887 167 169 166
116.382353007793 717.749118804932 2569.9999332428 153 158 154
123.742140829563 719.974040985107 2578.00006866455 174 179 175
131.347939372063 723.315536975861 2589.99991416931 186 186 184
138.644605875015 724.701404571533 2595.00002861023 193 189 190
146.529480814934 728.879332542419 2609.99989509583 189 187 190
154.907494783401 735.011577606201 2631.99996948242 193 193 195
164.081797003746 744.214832782745 2664.99996185303 189 189 189
173.24198782444 752.579510211945 2694.9999332428 182 186 185
235.735848546028 908.90908241272 3255.00011444092 196 197 192
246.369913220406 915.592432022095 3279.00004386902 164 163 159
256.121695041656 918.645143508911 3289.99996185303 209 204 201
268.430024385452 930.352866649628 3332.00001716614 208 205 200
278.717219829559 934.520602226257 3346.99988365173 171 170 165
-37.3580902814865 715.321898460388 2585.99996566772 194 195 190
-30.2305594086647 712.835073471069 2576.99990272522 172 173 168
-23.1157708913088 709.241092205048 2563.99989128113 167 168 163
-16.0967316478491 706.753134727478 2555.0000667572 191 192 187
-9.13728680461645 705.094456672668 2549.00002479553 183 182 177
-2.20866594463587 702.881991863251 2540.99988937378 182 181 176
4.68020560219884 701.22230052948 2535.00008583069 176 175 170
11.536480858922 699.561893939972 2529.00004386902 159 158 153
18.3965284377337 699.284076690674 2528.00011634827 157 154 149
25.2411086112261 698.729038238525 2526.00002288818 157 154 149
32.112892717123 699.003458023071 2526.99995040894 156 156 148
38.9746129512787 699.000597000122 2526.99995040894 150 149 144
45.872513204813 699.550449848175 2529.00004386902 152 153 147
52.7186132967472 699.270009994507 2528.00011634827 151 152 146
59.653427451849 700.095236301422 2530.99989891052 156 157 152
66.5518343448639 700.366914272308 2532.00006484985 177 178 173
73.5135078430176 701.191127300262 2535.00008583069 162 163 158
80.6498751044273 703.397870063782 2542.99998283386 155 156 151
87.7262130379677 704.774260520935 2548.00009727478 159 159 157
94.8666334152222 706.426560878754 2553.99990081787 152 152 150
101.840138435364 706.69549703598 2555.0000667572 156 156 154
109.074257314205 708.623349666595 2562.00003623962 157 159 156
116.346143186092 710.550665855408 2569.00000572205 163 168 162
123.79977107048 713.30714225769 2578.9999961853 153 158 152
131.20599091053 715.509831905365 2586.99989318848 185 185 183
138.708755373955 717.988550662994 2595.99995613098 190 186 187
146.372377872467 721.019864082336 2607.00011253357 195 191 192
154.566243290901 726.262927055359 2625.99992752075 190 188 189
163.355514407158 733.717978000641 2653.00011634827 189 189 189
172.612369060516 742.554903030396 2684.99994277954 185 190 186
182.44457244873 753.050446510315 2723.00004959106 181 186 182
246.313348412514 906.48365020752 3278.00011634827 202 201 197
-37.3610742390156 708.356320858002 2585.99996566772 188 189 184
-30.232971534133 705.893635749817 2576.99990272522 177 178 173
-23.1086015701294 702.06093788147 2562.99996376038 159 160 155
-16.0917174071074 699.597120285034 2553.99990081787 192 193 188
-9.12726297974586 697.406947612762 2546.0000038147 175 174 170
-2.20710411667824 695.489823818207 2539.00003433228 177 176 171
4.67504048720002 693.572342395782 2532.00006484985 169 168 163
11.5328412503004 692.475974559784 2528.00011634827 157 156 151
18.3761660009623 691.65301322937 2525.00009536743 160 157 152
25.2231378108263 691.377282142639 2523.9999294281 157 154 147
32.0773310959339 691.374957561493 2523.9999294281 151 151 143
38.9777198433876 692.193865776062 2526.99995040894 153 152 147
45.894306153059 693.012297153473 2529.99997138977 153 154 148
52.7228079736233 692.460536956787 2528.00011634827 154 155 149
59.6110299229622 692.729949951172 2529.00004386902 154 155 150
66.5308311581612 693.272769451141 2530.99989891052 179 180 175
73.5483393073082 694.636762142181 2536.00001335144 157 158 153
80.6245431303978 696.274101734161 2542.00005531311 158 159 154
87.7331495285034 697.910904884338 2548.00009727478 153 153 151
94.9112772941589 699.820995330811 2555.0000667572 153 153 151
102.00759768486 700.908839702606 2559.00001525879 158 158 156
109.295703470707 703.091621398926 2566.99991226196 158 158 156
116.536438465118 704.726159572601 2572.99995422363 170 172 169
124.001495540142 707.455575466156 2582.99994468689 149 151 146
131.165504455566 708.267331123352 2585.99996566772 186 186 184
138.559252023697 710.174024105072 2592.99993515015 186 184 185
146.102964878082 712.627768516541 2601.99999809265 196 192 193
153.989568352699 716.450452804565 2615.9999370575 189 187 188
162.690728902817 723.558783531189 2641.99995994568 187 187 187
171.725556254387 731.487989425659 2671.0000038147 186 191 187
181.520447134972 741.88107252121 2709.00011062622 184 186 183
191.521212458611 752.273321151733 2746.99997901917 185 187 184
-44.9363067746162 710.065722465515 2618.00003051758 204 209 205
-37.4218560755253 702.474653720856 2589.99991416931 181 181 179
-30.2823279052973 700.036466121674 2581.00008964539 166 166 164
-23.1375079602003 695.970177650452 2565.99998474121 176 176 174
-16.1119122058153 693.53061914444 2556.99992179871 187 187 185
-9.12799499928951 690.548121929169 2546.0000038147 179 180 175
-2.20901984721422 689.192473888397 2540.99988937378 173 172 168
4.67910850420594 687.293827533722 2533.99991989136 167 166 162
11.5565778687596 687.021911144257 2532.99999237061 159 158 154
18.3994751423597 685.664594173431 2528.00011634827 157 156 151
25.2551417797804 685.391545295715 2526.99995040894 151 150 145
32.1180298924446 685.389280319214 2526.99995040894 152 151 146
39.0116944909096 685.928881168365 2529.00004386902 152 151 147
45.9342673420906 686.739146709442 2532.00006484985 155 154 150
52.7478754520416 685.921490192413 2529.00004386902 152 151 147
59.6157871186733 685.917019844055 2529.00004386902 159 158 156
66.5624216198921 686.725676059723 2532.00006484985 165 164 162
73.6412033438683 688.61848115921 2539.00003433228 159 159 157
80.6943848729134 689.968407154083 2543.99991035461 155 155 153
87.7745375037193 691.317856311798 2549.00002479553 151 151 149
94.9559286236763 693.209052085876 2555.99999427795 164 164 164
102.135263383389 694.828510284424 2562.00003623962 157 157 157
109.38948392868 696.718454360962 2569.00000572205 153 153 153
116.636209189892 698.336899280548 2575.00004768372 165 165 163
124.011218547821 700.496912002563 2582.99994468689 150 150 148
131.226509809494 701.571702957153 2586.99989318848 177 177 175
138.570070266724 703.188300132751 2592.99993515015 176 176 174
146.002039313316 705.075323581696 2599.99990463257 182 182 180
153.589427471161 707.504332065582 2608.99996757507 191 191 189
161.779582500458 712.373316287994 2627.00009346008 189 191 190
170.195683836937 717.78392791748 2647.0000743866 192 194 193
179.725095629692 727.261126041412 2681.99992179871 191 193 192
189.792737364769 738.093316555023 2721.99988365173 188 190 189
-44.9227467179298 702.743589878082 2617.00010299683 203 208 204
-37.4537631869316 696.033656597137 2592.00000762939 179 179 177
-30.2612949162722 692.545413970947 2578.9999961853 162 162 160
-23.1032967567444 687.982499599457 2562.00003623962 183 183 181
-16.0754006356001 685.030281543732 2551.00011825562 187 187 185
-9.11438744515181 682.61444568634 2542.00005531311 175 176 171
-2.20571993850172 681.272208690643 2536.99994087219 170 169 165
4.68133250251412 680.735111236572 2535.00008583069 165 164 160
11.5666342899203 680.73445558548 2535.00008583069 158 157 153
18.4227917343378 679.659068584442 2530.99989891052 156 155 150
25.2871606498957 679.388761520386 2529.99997138977 152 151 146
32.1587473154068 679.38643693924 2529.99997138977 151 150 145
39.0456803143024 679.652094841003 2530.99989891052 154 153 149
45.919805765152 679.648697376251 2530.99989891052 155 154 150
52.7729652822018 679.376184940338 2529.99997138977 153 152 148
59.6912913024426 679.908812046051 2532.00006484985 158 157 153
66.6729137301445 680.977761745453 2536.00001335144 164 163 161
73.7341046333313 682.583332061768 2542.00005531311 158 158 156
80.7642713189125 683.651149272919 2546.0000038147 156 156 154
87.8159627318382 684.718549251556 2549.99995231628 152 152 150
94.9263423681259 686.053931713104 2555.0000667572 164 164 164
102.2629737854 688.731133937836 2565.00005722046 161 161 161
109.568491578102 690.870761871338 2572.99995422363 150 150 150
116.826616227627 692.472875118256 2578.9999961853 158 158 156
124.117031693459 694.074332714081 2585.00003814697 148 148 146
131.338283419609 695.138216018677 2588.99998664856 171 171 169
138.527497649193 695.933163166046 2592.00000762939 173 173 171
145.957306027412 697.801351547241 2598.99997711182 179 179 177
153.483673930168 699.937641620636 2607.00011253357 187 187 185
161.422625184059 703.684091567993 2621.00005149841 187 189 188
169.565826654434 707.966804504395 2637.00008392334 193 195 194
178.599670529366 715.470433235168 2664.99996185303 192 194 193
188.831105828285 727.00035572052 2707.99994468689 190 192 191
-44.9607037007809 696.223378181458 2618.99995803833 197 202 198
-37.5145860016346 690.112471580505 2595.99995613098 177 177 175
-30.2989427000284 686.393558979034 2582.00001716614 167 167 165
-23.1051612645388 681.078851222992 2562.00003623962 176 176 174
-16.0577930510044 677.358746528625 2548.00009727478 179 179 177
-9.10795293748379 675.233066082001 2539.99996185303 182 183 178
-2.20676767639816 674.701809883118 2538.00010681152 160 159 155
4.68540377914906 674.435794353485 2536.99994087219 160 159 155
11.5766935050488 674.435198307037 2536.99994087219 156 155 151
18.4388384222984 673.370659351349 2532.99999237061 154 153 148
25.3091920167208 673.103034496307 2532.00006484985 154 153 148
32.1994759142399 673.366487026215 2532.99999237061 153 152 147
39.0488244593143 672.831952571869 2530.99989891052 155 154 150
45.9235049784184 672.828495502472 2530.99989891052 157 156 152
52.7980662882328 672.824501991272 2530.99989891052 156 155 151
59.7196668386459 673.35170507431 2532.99999237061 158 157 153
66.6782632470131 674.144089221954 2536.00001335144 166 165 161
73.7110152840614 675.467610359192 2540.99988937378 160 160 158
80.8024555444717 677.056312561035 2546.99993133545 157 157 155
87.8229886293411 677.84708738327 2549.99995231628 153 153 151
94.9710533022881 679.434716701508 2555.99999427795 164 164 162
102.350853383541 682.350814342499 2566.99991226196 164 164 164
109.790146350861 685.266375541687 2578.00006866455 148 148 148
116.971790790558 686.320602893829 2582.00001716614 154 154 152
124.270901083946 687.905848026276 2588.00005912781 148 148 146
131.450116634369 688.693165779114 2591.00008010864 165 165 163
138.698741793633 689.745724201202 2595.00002861023 170 170 168
146.137252449989 691.595077514648 2601.99999809265 178 178 176
153.672307729721 693.709552288055 2609.99989509583 185 185 183
161.435216665268 696.620941162109 2621.00005149841 186 188 187
169.32176053524 699.797391891479 2632.99989700317 190 192 191
177.87629365921 705.365240573883 2654.00004386902 190 192 191
187.311515212059 713.855803012848 2686.00010871887 187 189 188
-45.3935489058495 695.74373960495 2644.00005340576 195 200 196
-37.5754274427891 684.168815612793 2599.99990463257 178 178 176
-30.2896574139595 679.171979427338 2581.00008964539 171 171 169
-23.0889935046434 673.648059368134 2559.99994277954 176 176 174
-16.0338822752237 669.439315795898 2543.99991035461 180 180 178
-9.10151842981577 667.861580848694 2538.00010681152 186 187 182
-2.20607686787844 667.598783969879 2536.99994087219 156 155 151
4.68947691842914 668.125033378601 2539.00003433228 158 157 153
11.5867592394352 668.124318122864 2539.00003433228 156 155 151
18.4476096183062 666.807353496552 2533.99991989136 154 153 148
25.3212377429008 666.542530059814 2532.99999237061 155 154 149
32.1766510605812 666.013777256012 2530.99989891052 154 153 148
39.0211269259453 665.484666824341 2529.00004386902 157 156 152
45.8546280860901 664.954900741577 2526.99995040894 159 158 154
52.7606122195721 665.477275848389 2529.00004386902 159 158 154
59.700895100832 666.262090206146 2532.00006484985 156 155 151
66.7099207639694 667.572677135468 2536.99994087219 162 161 157
73.6879259347916 668.356478214264 2539.99996185303 162 162 160
80.77722042799 669.929027557373 2546.0000038147 157 157 155
87.7266973257065 670.185387134552 2546.99993133545 154 154 152
94.8671847581863 671.75680398941 2552.99997329712 163 163 161
102.239392697811 674.643218517303 2563.99989128113 161 161 159
109.713710844517 677.792251110077 2575.99997520447 145 145 143
117.071703076363 679.888188838959 2584.00011062622 151 151 149
124.37679618597 681.457161903381 2589.99991416931 153 153 151
131.612733006477 682.499587535858 2594.00010108948 153 153 151
138.763144612312 683.014988899231 2595.99995613098 165 165 163
146.148756146431 684.582412242889 2601.99999809265 174 174 172
153.62548828125 686.412274837494 2608.99996757507 181 181 179
161.44785284996 689.557015895844 2621.00005149841 183 185 184
169.206351041794 692.174911499023 2631.00004196167 184 186 185
177.622020244598 697.159945964813 2650.00009536743 188 190 189
186.279907822609 702.670454978943 2671.0000038147 191 193 192
196.355551481247 712.915420532227 2710.00003814697 192 194 193
-37.6507416367531 678.463041782379 2605.00001907349 172 172 170
-30.2803758531809 671.95463180542 2579.99992370605 167 167 165
-23.0908673256636 666.747808456421 2559.99994277954 180 180 178
-16.0540919750929 663.363575935364 2546.99993133545 185 185 183
-9.11660213023424 662.062346935272 2542.00005531311 183 184 179
-2.21060425974429 662.062883377075 2542.00005531311 155 154 150
4.69355192035437 661.802291870117 2540.99988937378 159 158 154
11.587698943913 661.280691623688 2539.00003433228 156 155 151
18.4345487505198 659.456431865692 2532.00006484985 154 153 148
25.3132954239845 659.454584121704 2532.00006484985 154 153 148
32.1665517985821 658.931314945221 2529.99997138977 152 151 146
39.0242896974087 658.667981624603 2529.00004386902 156 155 150
45.8583422005177 658.143699169159 2526.99995040894 159 158 154
52.7857430279255 658.921003341675 2529.99997138977 160 159 155
59.6821419894695 659.176886081696 2530.99989891052 155 154 150
66.6890144348145 660.473942756653 2536.00001335144 160 159 155
73.606826364994 660.728752613068 2536.99994087219 165 166 161
80.6568115949631 662.024736404419 2542.00005531311 157 158 153
87.6993089914322 663.059711456299 2546.0000038147 155 155 153
94.9491113424301 665.396153926849 2555.0000667572 163 163 161
102.407097816467 668.773889541626 2568.00007820129 157 157 155
109.850242733955 671.630024909973 2578.9999961853 144 144 142
117.17165261507 673.443913459778 2585.99996566772 151 151 149
124.626822769642 675.777971744537 2595.00002861023 155 155 153
131.927624344826 677.069902420044 2599.99990463257 147 147 145
139.09487426281 677.579939365387 2601.99999809265 160 160 158
146.272644400597 678.089559078217 2604.00009155273 171 171 169
153.578713536263 679.119288921356 2608.00004005432 177 177 175
161.275714635849 681.710839271545 2618.00003051758 179 181 180
169.026657938957 684.301733970642 2628.00002098084 186 188 187
177.300706505775 688.714802265167 2644.99998092651 190 192 191
185.736402869225 693.387508392334 2663.00010681152 191 193 192
195.573657751083 702.746212482452 2698.99988174438 194 196 195
207.410141825676 718.352854251862 2759.0000629425 193 195 194
-37.8127992153168 674.275696277618 2615.9999370575 176 176 174
-30.3297881036997 666.030526161194 2584.00011062622 157 157 155
-23.1198091059923 660.619914531708 2562.99996376038 187 187 185
-16.0743091255426 657.270610332489 2549.99995231628 188 188 186
-9.12451650947332 655.725181102753 2543.99991035461 167 168 163
-2.21078423783183 655.210137367249 2542.00005531311 160 159 155
4.6920869499445 654.694557189941 2539.99996185303 166 165 161
11.5886414423585 654.436111450195 2539.00003433228 152 151 147
18.4506103396416 653.146147727966 2533.99991989136 157 156 151
25.3353491425514 653.144359588623 2533.99991989136 149 148 143
32.1818776428699 652.368724346161 2530.99989891052 155 154 149
39.0583202242851 652.365863323212 2530.99989891052 155 154 149
45.8802171051502 651.589155197144 2528.00011634827 159 158 153
52.769161760807 651.842892169952 2529.00004386902 160 159 154
59.6869774162769 652.353823184967 2530.99989891052 155 154 149
66.6681081056595 653.379678726196 2535.00008583069 159 158 154
73.6708045005798 654.404938220978 2539.00003433228 167 168 163
80.6950479745865 655.429661273956 2542.99998283386 158 159 154
87.8441631793976 657.227098941803 2549.99995231628 157 158 153
95.1054096221924 659.539341926575 2559.00001525879 159 159 157
102.574847638607 662.881910800934 2572.00002670288 152 152 150
110.029444098473 665.708363056183 2582.99994468689 127 127 125
117.452904582024 668.018817901611 2592.00000762939 148 148 146
124.82888251543 669.81315612793 2598.99997711182 143 143 141
132.14111328125 671.091556549072 2604.00009155273 146 146 144
139.319747686386 671.596050262451 2605.99994659424 153 153 151
146.396562457085 671.584844589233 2605.99994659424 165 165 163
153.590813279152 672.088384628296 2608.00004005432 171 171 169
161.103591322899 673.879861831665 2615.00000953674 175 177 176
168.846920132637 676.443815231323 2625 183 185 184
176.91233754158 680.037975311279 2638.99993896484 187 189 188
185.05334854126 683.631420135498 2653.00011634827 188 190 189
195.226520299911 694.181501865387 2694.00000572205 192 194 193
207.501351833344 711.17228269577 2759.99999046326 195 197 196
-37.9315204918385 669.262945652008 2624.00007247925 172 172 170
-30.4144285619259 660.848915576935 2591.00008010864 157 157 155
-23.1397319585085 654.219627380371 2565.00005722046 186 186 184
-16.0945318639278 651.160538196564 2552.99997329712 185 185 183
-9.1324346140027 649.376153945923 2546.0000038147 162 163 158
-2.21096421591938 648.356378078461 2542.00005531311 165 164 160
4.69062244519591 647.591114044189 2539.00003433228 169 168 164
11.5804569795728 647.080361843109 2536.99994087219 155 154 150
18.4593964368105 646.569073200226 2535.00008583069 158 157 152
25.3274142742157 646.05712890625 2532.99999237061 152 151 146
32.197218388319 645.79975605011 2532.00006484985 158 157 152
39.0769354999065 645.796895027161 2532.00006484985 156 155 150
45.9747016429901 646.048426628113 2532.99999237061 159 158 153
52.8777725994587 646.299421787262 2533.99991989136 160 159 154
59.7861632704735 646.549940109253 2535.00008583069 156 155 150
66.6735172271729 646.544814109802 2535.00008583069 160 159 155
73.705792427063 647.814333438873 2539.99996185303 171 172 167
80.765038728714 649.083316326141 2545.00007629395 158 159 154
87.9890471696854 651.371896266937 2553.99990081787 155 156 151
95.2989012002945 653.91480922699 2563.99989128113 157 157 155
102.902173995972 657.987475395203 2579.99992370605 157 157 155
110.421679913998 661.039233207703 2592.00000762939 124 124 122
117.68888682127 662.305235862732 2596.99988365173 140 140 138
124.934919178486 663.31559419632 2601.0000705719 138 138 136
132.100880146027 663.815379142761 2602.9999256134 147 147 145
139.384284615517 664.824664592743 2607.00011253357 153 153 151
146.520525217056 665.06826877594 2608.00004005432 160 160 158
153.838559985161 666.076481342316 2611.99998855591 164 164 162
161.177888512611 667.084038257599 2615.9999370575 174 176 175
168.924525380135 669.620990753174 2625.99992752075 181 183 182
176.658049225807 671.902418136597 2634.99999046326 185 187 186
184.788778424263 675.458073616028 2648.9999294281 187 189 188
194.154620170593 683.092832565308 2678.99990081787 190 192 191
206.389635801315 699.905753135681 2744.99988555908 193 195 194
-38.1225496530533 665.467739105225 2637.00008392334 167 167 165
-30.5225625634193 656.133234500885 2599.99990463257 158 158 156
-23.1596659868956 647.807538509369 2566.99991226196 183 183 181
-16.1021500825882 644.528448581696 2553.99990081787 169 169 167
-9.13676898926497 642.763018608093 2546.99993133545 147 148 143
-2.21114512532949 641.501665115356 2542.00005531311 170 169 165
4.69285249710083 640.996754169464 2539.99996185303 164 163 159
11.5950973704457 640.996158123016 2539.99996185303 151 150 146
18.4900294989347 640.742540359497 2539.00003433228 152 151 146
25.3494810312986 639.731407165527 2535.00008583069 152 151 146
32.2125591337681 639.224290847778 2532.99999237061 154 153 148
39.0646830201149 638.716697692871 2530.99989891052 157 156 151
45.9965914487839 639.470279216766 2533.99991989136 159 158 153
52.8612099587917 639.213860034943 2532.99999237061 160 159 154
59.8145946860313 639.966309070587 2536.00001335144 158 157 152
66.7315274477005 640.21360874176 2536.99994087219 161 160 155
73.8278403878212 641.974270343781 2543.99991035461 174 175 170
80.9302479028702 643.482089042664 2549.99995231628 159 160 155
88.0995243787766 645.241737365723 2556.99992179871 155 156 151
95.4181030392647 647.757649421692 2566.99991226196 149 150 145
103.030122816563 651.787161827087 2582.99994468689 166 167 162
110.643580555916 655.311226844788 2596.99988365173 129 130 125
117.924936115742 656.563758850098 2601.99999809265 138 138 136
124.992959201336 656.553983688354 2601.99999809265 139 139 137
132.060676813126 656.543731689453 2601.99999809265 144 144 142
139.341920614243 657.542169094086 2605.99994659424 146 146 144
146.644532680511 658.540010452271 2609.99989509583 156 156 154
154.145240783691 660.2942943573 2617.00010299683 162 162 160
161.621943116188 661.795616149902 2622.99990653992 165 167 166
169.259503483772 663.800954818726 2631.00004196167 176 178 177
176.940083503723 665.805757045746 2638.99993896484 180 182 181
184.73345041275 668.062210083008 2648.00000190735 184 186 185
193.300008773804 672.84083366394 2667.00005531311 188 190 189
203.548312187195 682.916700839996 2707.00001716614 191 193 192
216.818034648895 702.073335647583 2782.99999237061 203 208 204
-30.6189768016338 651.118278503418 2608.00004005432 161 161 159
-23.161556571722 640.884220600128 2566.99991226196 183 183 181
-16.1034651100636 637.640297412872 2553.99990081787 159 159 157
-9.14110243320465 636.143326759338 2548.00009727478 143 144 139
-2.21132556907833 634.645819664001 2542.00005531311 175 174 170
4.69138845801353 633.896708488464 2539.00003433228 164 163 159
11.5869138389826 633.646428585052 2538.00010681152 155 154 150
18.4842590242624 633.645176887512 2538.00010681152 154 153 148
25.3415461629629 632.644712924957 2533.99991989136 157 156 151
32.2151891887188 632.392764091492 2532.99999237061 157 156 151
39.0678681433201 631.890475749969 2530.99989891052 157 156 151
46.0184961557388 632.885694503784 2535.00008583069 158 157 152
52.9281236231327 633.131265640259 2536.00001335144 160 159 154
59.890229254961 633.875668048859 2539.00003433228 158 157 152
66.8158605694771 634.120106697083 2539.99996185303 161 160 155
73.8918781280518 635.612368583679 2546.0000038147 170 171 166
81.0002908110619 637.103974819183 2552.00004577637 162 163 158
88.1411209702492 638.595044612885 2558.00008773804 157 158 153
95.5373346805573 641.583263874054 2569.9999332428 147 148 143
103.237874805927 646.068871021271 2588.00005912781 163 164 159
110.822908580303 649.305582046509 2601.0000705719 137 138 133
118.025042116642 650.045216083527 2604.00009155273 141 141 139
125.051006674767 649.785816669464 2602.9999256134 143 143 141
132.172748446465 650.025188922882 2604.00009155273 146 146 144
139.45996761322 651.012897491455 2608.00004005432 148 148 146
146.824762225151 652.24951505661 2612.99991607666 157 157 155
154.334172606468 653.984844684601 2619.99988555908 161 161 159
161.819592118263 655.470013618469 2625.99992752075 163 165 164
169.465854763985 657.453835010529 2634.0000629425 172 174 173
177.088111639023 659.187316894531 2641.00003242493 176 178 177
184.747904539108 660.920262336731 2648.00000190735 183 185 184
192.880213260651 664.150238037109 2661.00001335144 187 189 188
202.210560441017 671.123087406158 2688.99989128113 190 192 191
214.185759425163 686.081647872925 2749.00007247925 201 206 202
-38.7505181133747 661.861896514893 2680.0000667572 186 186 184
-30.6449569761753 644.577145576477 2609.99989509583 165 165 163
-23.1724753975868 634.206891059875 2568.00007820129 185 185 183
-16.1047820001841 630.751013755798 2553.99990081787 144 144 142
-9.14184935390949 629.270195960999 2548.00009727478 150 151 146
-2.21324642188847 628.282845020294 2543.99991035461 175 174 170
4.69361944124103 627.294838428497 2539.99996185303 156 155 151
11.5924272686243 627.047181129456 2539.00003433228 154 153 149
18.4784848242998 626.552045345306 2536.99994087219 153 152 147
25.343619287014 625.809371471405 2533.99991989136 158 157 152
32.2305336594582 625.806987285614 2533.99991989136 154 153 148
39.0864945948124 625.310182571411 2532.00006484985 159 159 151
46.0222437977791 626.047611236572 2535.00008583069 158 157 152
52.9324375092983 626.290500164032 2536.00001335144 160 159 154
59.8715133965015 626.779913902283 2538.00010681152 160 159 154
66.7949914932251 627.021670341492 2539.00003433228 162 161 156
73.8688558340073 628.497660160065 2545.00007629395 167 168 162
81.0386091470718 630.466997623444 2552.99997329712 170 171 165
88.2860869169235 632.682681083679 2562.00003623962 155 156 151
95.7309380173683 635.885536670685 2575.00004768372 151 152 147
103.40578109026 640.07556438446 2592.00000762939 146 147 142
111.002281308174 643.277168273926 2605.00001907349 143 144 139
118.2611733675 644.255697727203 2608.99996757507 140 140 138
125.397339463234 644.492864608765 2609.99989509583 144 144 142
132.487878203392 644.482493400574 2609.99989509583 149 149 147
139.738500118256 645.212411880493 2612.99991607666 151 151 149
147.117421030998 646.435558795929 2618.00003051758 155 155 153
154.699891805649 648.39893579483 2625.99992752075 154 154 152
162.387043237686 650.608599185944 2634.99999046326 160 162 161
169.865280389786 651.830017566681 2640.00010490417 168 170 169
177.504375576973 653.54460477829 2647.0000743866 172 174 173
184.832200407982 654.024183750153 2648.9999294281 182 184 183
192.677810788155 656.23140335083 2657.99999237061 186 188 187
201.399058103561 661.153793334961 2677.99997329712 189 191 190
212.643966078758 673.728585243225 2729.00009155273 198 203 199
-38.7247614562511 654.14297580719 2677.99997329712 188 190 187
-30.6826904416084 638.268530368805 2612.99991607666 166 166 164
-23.1833923608065 627.522945404053 2569.00000572205 186 186 184
-16.0934869199991 623.372077941895 2552.00004577637 141 141 139
-9.14259813725948 622.396051883698 2548.00009727478 155 156 151
-2.21081729978323 620.686531066895 2540.99988937378 174 173 169
4.69215586781502 620.197951793671 2539.00003433228 154 153 149
11.5842437371612 619.708716869354 2536.99994087219 155 154 150
18.4727124869823 619.463264942169 2536.00001335144 153 152 147
25.3456886857748 618.972837924957 2533.99991989136 159 158 153
32.2331674396992 618.970513343811 2533.99991989136 154 153 148
39.105124771595 618.723392486572 2532.99999237061 160 159 154
46.0259988903999 619.20839548111 2535.00008583069 158 157 152
52.9367551207542 619.448661804199 2536.00001335144 160 159 154
59.8763860762119 619.932591915131 2538.00010681152 161 160 155
66.8004229664803 620.171666145325 2539.00003433228 163 162 157
73.8748461008072 621.631503105164 2545.00007629395 168 169 163
81.0134261846542 623.335003852844 2552.00004577637 172 173 167
88.4310901165009 626.747727394104 2565.99998474121 152 153 148
96.0361286997795 630.89245557785 2582.99994468689 153 154 149
103.693403303623 634.792327880859 2598.99997711182 141 142 137
111.181668937206 637.226045131683 2608.99996757507 142 143 138
118.361338973045 637.705326080322 2611.00006103516 143 143 141
125.599607825279 638.428270816803 2614.00008201599 143 143 141
132.803067564964 638.906359672546 2615.9999370575 137 137 135
140.070542693138 639.628112316132 2618.99995803833 140 140 138
147.41013944149 640.593588352203 2622.99990653992 149 149 147
154.947862029076 642.291128635406 2630.00011444092 147 147 145
162.461534142494 643.743813037872 2635.99991798401 154 156 155
169.878721237183 644.707560539246 2640.00010490417 160 162 161
177.317172288895 645.670652389526 2644.00005340576 166 168 167
184.707134962082 646.389007568359 2647.0000743866 178 180 179
192.257896065712 647.595226764679 2651.99995040894 183 185 184
200.963497161865 652.463614940643 2671.99993133545 188 193 189
211.569488048553 662.947416305542 2714.99991416931 196 201 197
-38.9014594256878 649.815618991852 2690.00005722046 199 201 198
-30.6264795362949 630.009889602661 2608.00004005432 164 166 163
-23.2213865965605 621.557235717773 2572.99995422363 174 176 173
-16.1137226969004 617.210626602173 2555.0000667572 148 148 146
-9.15411021560431 616.245329380035 2551.00011825562 160 161 156
-2.21273838542402 614.313244819641 2542.99998283386 161 162 157
4.69808420166373 614.071607589722 2542.00005531311 157 158 153
11.5988897159696 613.58779668808 2539.99996185303 152 153 148
18.4960775077343 613.344967365265 2539.00003433228 154 153 148
25.3577660769224 612.376928329468 2535.00008583069 156 155 150
32.2358012199402 612.132966518402 2533.99991989136 156 155 150
39.1237549483776 612.130045890808 2533.99991989136 156 157 151
46.0479147732258 612.60974407196 2536.00001335144 158 159 154
52.9410615563393 612.605631351471 2536.00001335144 159 160 155
59.9048547446728 613.325774669647 2539.00003433228 161 162 157
66.8058469891548 613.320589065552 2539.00003433228 162 163 158
73.8808512687683 614.764273166656 2545.00007629395 162 163 158
81.0200050473213 616.448879241943 2552.00004577637 181 182 177
88.4727016091347 620.065271854401 2566.99991226196 161 162 157
96.1926132440567 624.888837337494 2586.99989318848 148 149 144
103.821471333504 628.503918647766 2601.99999809265 132 133 128
111.275859177113 630.669176578522 2611.00006103516 125 126 121
118.461526930332 631.143093109131 2612.99991607666 128 128 126
125.801891088486 632.340967655182 2618.00003051758 134 134 132
133.067563176155 633.055210113525 2621.00005149841 142 142 140
140.349179506302 633.768916130066 2624.00007247925 140 140 138
147.815316915512 635.206520557404 2630.00011444092 141 143 140
155.313670635223 636.643588542938 2635.99991798401 144 146 143
162.782579660416 637.838542461395 2641.00003242493 150 152 149
170.020818710327 638.06688785553 2641.99995994568 158 160 157
177.264034748077 638.294637203217 2642.99988746643 165 167 164
184.582054615021 638.76348733902 2644.99998092651 171 176 172
192.200437188148 640.197694301605 2651.00002288818 175 180 176
200.828745961189 644.770681858063 2670.00007629395 187 189 186
210.884571075439 653.448104858398 2706.00008964539 195 197 194
-30.6172426789999 622.732698917389 2607.00011253357 161 163 160
-23.2413355261087 615.09096622467 2575.00004768372 170 172 169
-16.1276552826166 610.792934894562 2556.99992179871 152 152 150
-9.15485993027687 609.360754489899 2551.00011825562 177 178 173
-2.21291906200349 607.450246810913 2542.99998283386 154 155 150
4.69661969691515 606.972396373749 2540.99988937378 152 153 148
11.5998378023505 606.732904911041 2539.99996185303 151 152 147
18.5121595859528 606.970489025116 2540.99988937378 153 152 147
25.3898501396179 606.252133846283 2538.00010681152 154 153 148
32.2638787329197 605.772018432617 2536.00001335144 154 153 148
39.1423888504505 605.530202388763 2535.00008583069 157 158 153
46.051662415266 605.765640735626 2536.00001335144 158 159 154
52.9245063662529 605.522751808167 2535.00008583069 159 160 155
59.886135160923 606.234729290009 2538.00010681152 161 162 157
66.8112859129906 606.468379497528 2539.00003433228 161 162 157
73.8868489861488 607.895851135254 2545.00007629395 165 166 161
81.0583159327507 609.800457954407 2552.99997329712 174 175 170
88.6177569627762 614.093005657196 2571.00009918213 159 160 155
96.4978858828545 619.817912578583 2595.00002861023 144 145 140
104.189001023769 623.631477355957 2611.00006103516 131 132 127
111.625798046589 625.53346157074 2618.99995803833 135 136 131
118.788421154022 625.76299905777 2619.99988555908 137 137 135
126.052260398865 626.469731330872 2622.99990653992 134 134 132
133.382856845856 627.414703369141 2627.00009346008 129 129 127
140.627816319466 627.881348133087 2628.99994850159 132 132 130
147.995695471764 628.825187683105 2632.99989700317 140 142 139
155.326023697853 629.529595375061 2635.99991798401 141 143 140
162.672191858292 630.233466625214 2638.99993896484 142 144 141
169.905543327332 630.459129810333 2640.00010490417 153 155 152
177.14387178421 630.68425655365 2641.00003242493 156 158 155
184.736117720604 632.102847099304 2647.0000743866 156 158 155
192.650511860847 634.476006031036 2657.00006484985 161 166 162
201.370939612389 639.236509799957 2677.00004577637 182 184 181
211.134776473045 646.861612796783 2709.00011062622 191 193 190
222.926840186119 659.977555274963 2763.99993896484 201 203 200
-30.5610112845898 614.514827728271 2601.99999809265 158 160 157
-23.2883673161268 609.321355819702 2579.99992370605 166 168 165
-16.1415878683329 604.363322257996 2559.00001525879 153 153 151
-9.15560685098171 602.474987506866 2551.00011825562 182 183 178
-2.21397029235959 600.822269916534 2543.99991035461 151 152 147
4.69515519216657 599.877417087555 2539.99996185303 151 152 147
11.6007858887315 599.876761436462 2539.99996185303 152 153 148
18.4991005808115 599.639415740967 2539.00003433228 154 153 148
25.391923263669 599.401473999023 2538.00010681152 155 154 149
32.2410613298416 598.454356193542 2533.99991989136 155 154 149
39.1146950423718 598.215281963348 2532.99999237061 157 158 153
46.0554212331772 598.920404911041 2536.00001335144 158 159 154
52.9496893286705 598.916292190552 2536.00001335144 159 160 155
59.938196092844 599.856317043304 2539.99996185303 161 162 157
66.8693408370018 600.087344646454 2540.99988937378 161 162 157
73.979951441288 601.734817028046 2548.00009727478 161 162 157
81.1918973922729 603.853940963745 2556.99992179871 170 171 166
88.8317376375198 608.570098876953 2576.99990272522 164 165 160
96.7660024762154 614.466488361359 2601.99999809265 147 148 143
104.436837136745 618.000686168671 2617.00010299683 131 132 127
111.805289983749 619.408845901489 2622.99990653992 131 132 127
118.979342281818 619.635701179504 2624.00007247925 121 121 119
126.302674412727 620.570421218872 2628.00002098084 123 123 121
133.698180317879 621.740639209747 2632.99989700317 132 132 130
140.960022807121 622.201979160309 2634.99999046326 137 137 135
148.119911551476 622.190475463867 2634.99999046326 137 139 136
155.397281050682 622.650682926178 2637.00008392334 136 138 135
162.746727466583 623.346388339996 2640.00010490417 144 146 143
170.112013816833 624.041497707367 2642.99988746643 150 152 149
177.694439888 625.44447183609 2648.9999294281 152 154 151
185.308992862701 626.84690952301 2654.99997138977 153 155 152
193.245694041252 629.193007946014 2664.99996185303 158 163 159
201.687544584274 632.955074310303 2680.99999427795 178 180 177
211.151137948036 639.549493789673 2709.00011062622 187 189 186
221.976190805435 649.684131145477 2752.00009346008 198 200 197
-30.5165182799101 606.556415557861 2598.00004959106 161 163 160
-23.2902653515339 602.35607624054 2579.99992370605 165 167 164
-16.1555204540491 597.92172908783 2561.00010871887 157 157 155
-9.1599440202117 595.821559429169 2552.00004577637 181 182 177
-2.216761931777 594.654560089111 2546.99993133545 148 149 144
4.69738664105535 593.253672122955 2540.99988937378 149 150 145
11.5971658378839 592.786133289337 2539.00003433228 151 152 147
18.5006093233824 592.784881591797 2539.00003433228 152 151 146
25.3739822655916 592.082679271698 2536.00001335144 154 153 148
32.2436913847923 591.613292694092 2533.99991989136 155 154 149
39.1024425625801 591.143548488617 2532.00006484985 158 159 154
46.0046827793121 591.373562812805 2532.99999237061 158 159 154
52.9122315347195 591.602921485901 2533.99991989136 159 160 155
59.9430687725544 592.999160289764 2539.99996185303 160 161 156
67.0063644647598 594.394862651825 2546.0000038147 161 162 157
74.0730613470078 595.556437969208 2551.00011825562 164 165 160
81.2937319278717 597.651183605194 2559.99994277954 168 169 164
89.0802517533302 603.247344493866 2584.00011062622 171 172 167
97.1085429191589 609.543025493622 2611.00006103516 129 130 125
104.804441332817 613.036632537842 2625.99992752075 122 123 118
112.155303359032 614.195168018341 2631.00004196167 125 126 121
119.397014379501 614.652752876282 2632.99989700317 135 135 133
126.745373010635 615.576684474945 2637.00008392334 135 135 133
134.013563394547 616.03307723999 2638.99993896484 133 133 131
141.238763928413 616.255581378937 2640.00010490417 133 133 131
148.300334811211 615.777194499969 2638.00001144409 141 141 139
155.586406588554 616.231977939606 2640.00010490417 145 145 143
163.006216287613 617.15304851532 2644.00005340576 141 143 140
170.640408992767 618.773758411407 2651.00002288818 141 143 140
178.312182426453 620.393812656403 2657.99999237061 145 147 144
185.951724648476 621.779978275299 2664.00003433228 152 154 151
193.840935826302 623.865723609924 2673.00009727478 156 158 155
202.305108308792 627.584517002106 2688.99989128113 172 174 171
211.479321122169 633.169770240784 2713.00005912781 182 184 181
221.267372369766 640.154480934143 2743.00003051758 194 196 193
-30.5777378380299 600.695192813873 2602.9999256134 163 165 162
-23.3011916279793 595.620453357697 2581.00008964539 162 164 161
-16.175763681531 591.698944568634 2563.99989128113 156 156 154
-9.17504914104939 589.853823184967 2555.99999427795 176 177 172
-2.22042459063232 588.700413703918 2551.00011825562 148 149 144
4.70516551285982 587.315678596497 2545.00007629395 149 150 145
11.607245542109 586.391866207123 2540.99988937378 150 151 146
18.5021180659533 585.929155349731 2539.00003433228 151 150 145
25.3860540688038 585.465788841248 2536.99994087219 154 153 148
32.2463177144527 584.771156311035 2533.99991989136 156 155 150
39.1210615634918 584.537446498871 2532.99999237061 158 159 154
46.0265837609768 584.764719009399 2533.99991989136 159 160 155
53.0000664293766 585.683882236481 2538.00010681152 159 160 155
60.0187443196774 586.83305978775 2542.99998283386 160 161 156
67.0907646417618 588.212490081787 2549.00002479553 160 161 156
74.1661638021469 589.360594749451 2553.99990081787 166 167 162
81.4908519387245 592.12338924408 2565.99998474121 169 170 165
89.3632546067238 598.116219043732 2592.00000762939 174 175 170
97.3767340183258 604.108214378357 2618.00003051758 122 123 118
105.012454092503 607.099831104279 2631.00004196167 124 125 120
112.334847450256 608.014106750488 2634.99999046326 129 130 125
119.678676128387 608.927726745605 2638.99993896484 135 134 130
126.995846629143 609.610140323639 2641.99995994568 133 132 128
134.278193116188 610.06110906601 2644.00005340576 132 131 127
141.464024782181 610.050201416016 2644.00005340576 135 136 131
148.705676198006 610.2694272995 2644.99998092651 143 144 139
156.070247292519 610.949456691742 2648.00000190735 145 146 141
163.450688123703 611.629009246826 2651.00002288818 136 137 132
171.104460954666 613.230764865875 2657.99999237061 140 142 137
178.661644458771 614.370584487915 2663.00010681152 145 147 142
186.38513982296 615.971148014069 2670.00007629395 149 151 146
194.363743066788 618.263304233551 2680.0000667572 155 157 152
202.922791242599 622.169613838196 2697.00002670288 162 164 159
211.495742201805 625.844538211823 2713.00005912781 181 183 180
220.881074666977 631.594777107239 2737.99991607666 192 194 191
-30.6272190064192 594.577729701996 2607.00011253357 167 169 166
-23.3121160417795 588.878154754639 2582.00001716614 163 165 162
-16.2086263298988 585.914850234985 2569.00000572205 158 158 156
-9.19374451041222 584.091305732727 2561.00010871887 166 167 162
-2.22321669571102 582.495272159576 2553.99990081787 151 152 147
4.70924563705921 580.898642539978 2546.99993133545 150 151 146
11.6173280403018 579.985737800598 2542.99998283386 152 153 148
18.5036212205887 579.072237014771 2539.00003433228 154 153 148
25.3881197422743 578.614294528961 2536.99994087219 156 155 150
32.2871208190918 578.61191034317 2536.99994087219 158 157 152
39.1705818474293 578.38100194931 2536.00001335144 160 161 156
46.0303202271461 577.921330928802 2533.99991989136 158 159 154
52.9834777116776 578.601598739624 2536.99994087219 160 161 156
59.9763952195644 579.509198665619 2540.99988937378 160 161 156
67.069873213768 581.100583076477 2548.00009727478 160 161 156
74.1140842437744 582.007110118866 2552.00004577637 164 165 160
81.560954451561 585.649728775024 2568.00007820129 171 172 167
89.5428508520126 592.256426811218 2596.99988365173 177 178 173
97.6077616214752 598.406314849854 2624.00007247925 125 126 121
105.140641331673 600.678741931915 2634.0000629425 128 129 124
112.557038664818 602.038323879242 2640.00010490417 126 127 122
119.869664311409 602.713048458099 2642.99988746643 135 134 130
127.054065465927 602.703213691711 2642.99988746643 132 131 127
134.187310934067 602.464735507965 2641.99995994568 140 139 135
141.528785228729 603.137910366058 2644.99998092651 144 145 140
149.054825305939 604.494512081146 2651.00002288818 140 141 136
156.495183706284 605.39448261261 2654.99997138977 135 136 131
163.895204663277 606.065928936005 2657.99999237061 131 132 127
171.375423669815 606.964766979218 2661.99994087219 141 143 138
178.876936435699 607.863008975983 2665.99988937378 146 148 143
186.67896091938 609.672784805298 2674.00002479553 148 150 145
194.741532206535 612.165868282318 2684.99994277954 155 157 152
203.164294362068 615.570306777954 2700.00004768372 164 166 161
211.43414080143 618.29000711441 2711.99989318848 180 182 179
220.656082034111 623.516917228699 2734.99989509583 192 194 191
-30.664948746562 588.211953639984 2609.99989509583 168 170 167
-23.3681853860617 583.256125450134 2588.00005912781 162 164 161
-16.2351820617914 579.877138137817 2572.99995422363 158 158 156
-9.19449143111706 577.17376947403 2561.00010871887 163 164 159
-2.22426792606711 575.821995735168 2555.0000667572 151 152 147
4.71147755160928 574.244260787964 2548.00009727478 153 154 149
11.6228396072984 573.342144489288 2543.99991035461 154 155 150
