ply
format ascii 1.0
comment KinectMotionCapture
element vertex 796
property float x
property float y
property float z
property uchar red
property uchar green
property uchar blue
end_header
94.7716584819762 -206.899543220217 2834.88800130568 13 16 7
90.2846507843793 -207.734179656993 2829.16067833469 13 16 7
67.5271404333859 -204.743105347965 2839.85129097452 11 14 5
49.4175219757032 -202.701440975201 2846.49564196099 12 15 6
63.1494077805188 -207.365928844289 2824.31324430787 14 17 8
42.8238353451222 -204.840059574281 2833.05876544596 14 17 8
24.0848800398785 -202.627320977364 2840.48309435182 15 18 9
32.4156756177203 -206.181757540929 2823.03679911533 15 18 9
76.5510343607279 -217.450521302162 2772.2207458795 18 21 14
308.431119637468 -213.557281498893 2894.63569376225 2 7 3
263.816145033267 -206.693279525651 2920.37925279184 13 15 10
239.80323701767 -203.748175806851 2930.15927354596 9 10 4
222.395535792161 -202.056174146882 2934.8403204677 16 17 9
205.860101177718 -200.516990184178 2938.91788138993 15 16 8
207.994600395579 -202.607381151556 2928.10338746 14 15 7
199.59281728514 -202.645197377335 2925.7179683983 17 20 11
196.033003890779 -203.63244356662 2919.42697873734 18 21 12
194.867541212521 -205.096731273255 2911.16417881154 17 20 11
197.678047607623 -207.357343094543 2899.6035436027 14 17 8
194.851456264018 -208.509537426468 2892.60821013002 14 17 8
174.492174898886 -206.162443386995 2900.09335278457 13 16 7
170.88354781476 -207.154529828387 2893.76724699837 14 17 8
168.053169927646 -208.307429605741 2886.76887052924 15 18 9
176.258080910135 -211.697831622127 2870.46748083661 15 18 9
149.740011391823 -208.059877066152 2883.37570145154 13 16 7
161.022982629532 -212.09612129346 2864.36165653801 11 13 8
97.8272436523113 -200.915258853572 2908.77050238809 8 10 5
116.151054301929 -206.394497758319 2883.73728455386 11 13 8
119.545398452988 -208.833234904781 2871.36394692494 15 18 11
113.569647632965 -209.346522218396 2867.02939772523 18 21 14
104.496492407125 -209.215813618565 2865.39317692994 16 19 12
109.335960724517 -211.985457277042 2851.59569128456 16 19 12
112.573535711662 -214.437541297711 2839.10893521558 17 20 11
102.708644835025 -214.14719237565 2838.13461358945 17 20 11
98.2228223078776 -214.987498078569 2832.40812105786 19 22 13
83.8054856355255 -213.722880060463 2835.54967239172 19 22 13
82.3731172507753 -215.210861625942 2827.09297233215 18 21 12
63.4607501839302 -212.967104965472 2834.39145398681 18 21 12
54.4583708126285 -212.829826318696 2832.80657339749 19 22 13
35.6651255135061 -210.575632438583 2840.19175630736 20 23 12
45.5304684174571 -214.505539487094 2821.38561760898 20 23 14
47.8023213754186 -216.812287125886 2809.43456181814 19 22 13
73.2077096209398 -224.184954269828 2775.93875929494 19 22 15
65.6198058023505 -224.380557192144 2772.90750285101 13 15 10
310.473844837927 -221.522890040133 2893.60608821794 4 9 5
235.575054671944 -208.612493287758 2943.12618929032 12 14 9
226.323233672433 -208.48410074174 2941.36043813151 11 12 6
227.667778578849 -210.439012452941 2931.20930679813 17 18 10
236.277183959265 -213.842479776674 2915.20078307151 16 17 9
216.477664850634 -211.627487162729 2921.85600358276 14 15 7
195.94490399784 -209.245356993897 2929.2158591964 16 19 10
189.176208408183 -209.59551730848 2925.54235031051 15 18 9
188.031436825259 -211.074568713194 2917.29418054322 14 17 8
189.261486157857 -213.040398797682 2907.05999362121 12 15 6
191.25031086879 -215.171596647006 2896.13969043746 12 15 6
192.398405129445 -217.144823162377 2885.84576059339 14 17 8
176.8310558938 -215.718712053494 2889.38920342415 15 18 9
163.691286817886 -214.774956177677 2890.98489780789 16 19 10
150.590361278557 -213.827874310756 2892.60876754706 15 18 9
148.553301708426 -215.154116889946 2884.9495698115 14 17 8
115.081598212164 -209.97041296543 2903.94099537706 12 14 9
163.205816463324 -221.72414802543 2853.54402179153 10 12 7
111.069921721155 -212.617709726833 2888.66818667225 9 11 6
127.719402824273 -217.865055358687 2864.89245946134 12 15 8
122.498190128435 -218.543953727879 2859.86901556865 18 21 14
104.882823389694 -216.603473599241 2865.63581654967 19 22 15
96.5980628397176 -216.624491075189 2863.33531472841 16 19 12
69.0772916265701 -212.541514096692 2877.98927734776 17 20 11
94.6530094817595 -219.785037927623 2845.85264115916 17 20 11
84.0671667084387 -219.312844630382 2845.59193830108 17 20 11
83.4304790409095 -220.979264944577 2836.47610371745 17 20 11
71.3449611531973 -220.175226940646 2837.60030295858 18 21 12
60.8118582656427 -219.698353276157 2837.37756159918 18 21 12
52.5744830970392 -219.714844953882 2835.11143337619 18 21 12
55.6678614826165 -222.211708581021 2822.51991929589 18 21 10
45.9176629672076 -221.897431063892 2821.62886181313 17 20 11
85.6995014892865 -232.525013138845 2775.07119977833 16 19 10
289.542669916105 -224.948524872995 2910.52858948329 6 11 7
246.603386113273 -218.150298550154 2935.01589715672 11 13 10
243.035135603351 -219.153701888027 2928.7187094115 13 14 8
222.360570515464 -216.733979899502 2935.97595851885 18 19 11
241.54053711214 -222.307479420697 2911.56261447628 16 17 9
218.486883086946 -219.393696814947 2920.80311811974 13 16 7
194.717693403813 -216.308704380841 2930.76052405819 14 17 8
187.953042431591 -216.655838206244 2927.09025700859 13 16 7
188.419317992659 -218.478831379865 2917.53785982914 12 15 6
187.248412916944 -219.976728157198 2909.27064987968 12 15 6
186.849231426719 -221.641412760138 2900.32699738433 13 16 7
189.604361947649 -223.967259746478 2888.72618307057 18 21 12
188.339808591357 -225.473519748531 2880.39104312259 18 21 12
164.07967463271 -222.198803643547 2891.22884517247 16 19 10
143.868923738919 -219.741149069806 2898.82251522342 15 18 9
143.427465244679 -221.410035251155 2889.84819394379 12 15 8
164.94703347748 -227.716074725404 2862.18672560373 13 15 10
127.568882210287 -221.607721605762 2884.5264449659 11 13 8
143.4770615468 -226.764905358343 2861.44912007812 5 7 2
142.905992162198 -228.445197982879 2852.38048884514 6 9 2
139.196599584905 -229.46302259303 2845.98091115657 15 18 11
123.081842024833 -227.818843188765 2850.36396167582 18 21 14
83.855046515005 -221.170340479174 2875.07199418028 18 21 14
70.9993165634564 -220.178044143971 2876.87354597694 18 21 12
61.2537038831302 -219.850450228692 2875.9861747911 18 21 12
80.6255356709258 -225.874994414069 2849.23956003163 18 21 12
69.3120792419708 -225.216040217704 2849.68737711652 17 20 11
58.0285594272354 -224.55448159028 2850.15690908389 20 23 14
49.0523864836971 -224.393572157123 2848.59114578792 20 23 14
58.2586054915084 -228.262267316237 2830.54283526733 19 22 13
62.0931746438238 -230.961440955992 2817.25227034531 19 22 11
74.147363651206 -235.517131262725 2796.32459329643 18 21 10
84.5947723833693 -239.74485455652 2776.70386141162 16 19 10
252.190970276804 -224.928057770098 2940.26745658139 3 7 6
248.631962835272 -225.938538756141 2933.97693348401 14 16 15
256.48766176157 -229.268930563296 2918.65743863502 12 14 9
256.127440900282 -230.948083346274 2909.74195624685 13 15 10
224.072367265353 -226.157238256022 2926.05293275921 12 13 8
196.205678975379 -222.185467447478 2939.22023831993 12 15 8
206.409900801198 -226.022004457671 2921.89556422792 13 16 9
202.835668909509 -227.035272133159 2915.5939904866 14 17 10
188.003822900213 -225.715783275692 2918.43533308766 14 17 10
193.243406173089 -228.565102916245 2904.9272012608 15 18 11
188.037291334632 -229.247647311552 2899.91468365929 15 18 11
182.029762816728 -229.763479101182 2895.55708523995 16 19 12
177.61049216684 -230.614344958492 2889.8787840952 16 19 12
166.052138089374 -229.957177212268 2890.14935507661 16 19 12
145.044625118837 -227.28339388726 2898.40127218129 15 18 11
146.965312569517 -229.475673362682 2887.43126545299 13 16 9
161.41075189052 -234.363599449204 2865.76500621312 11 13 8
166.340796382778 -237.240314833478 2852.03263883049 8 10 5
156.365953572503 -236.918924145426 2850.97906241086 7 9 4
146.41267215323 -236.595737358806 2849.94083092429 11 14 7
138.810807596978 -236.777684662307 2846.8995232121 15 18 11
120.37262337342 -234.590605465 2853.30642641771 14 17 10
112.045337214332 -234.599146262796 2850.97516007169 13 16 9
65.989772838555 -226.298671636166 2881.85686399533 14 17 8
78.5316420770026 -230.878720543859 2861.28259337244 16 19 10
67.9925226712927 -230.37003239395 2861.0559461343 17 20 11
70.4606905308216 -232.75108949729 2849.24682681308 18 21 12
53.8440944616689 -230.878708160727 2854.50227640431 20 23 12
50.1952100351368 -231.899278144205 2848.14654845968 19 22 11
57.1310163884826 -235.310633482367 2832.16008823384 17 20 9
87.3916546331763 -244.025366480899 2794.76635349383 17 20 9
77.5500093177248 -243.691930690187 2793.8093957916 17 20 9
82.7386961698551 -246.781550089719 2779.02811426831 15 18 7
83.3710637697709 -248.848115128669 2768.35985038369 19 22 13
86.20110443217 -251.432866658337 2755.5769919984 19 21 16
255.573066671975 -234.745959786432 2929.08289999721 14 18 17
265.04611938594 -238.460636865237 2912.46383968587 12 14 9
254.079866450232 -237.970241233239 2911.92746158114 12 14 9
236.643290659316 -236.128321622067 2916.58833607818 10 11 6
211.979108368308 -232.761533108141 2927.13370123402 12 15 8
210.837089690592 -234.289221579283 2918.88757522715 13 16 9
203.224939537086 -234.465440669576 2915.83854580351 13 16 9
189.194833558442 -233.285524645977 2918.02504879263 14 17 10
184.820950456236 -234.137602240217 2912.37993838916 15 18 11
208.398928005891 -240.93421797655 2883.73780229061 15 18 11
199.149547034914 -240.774759722085 2881.97427179152 16 19 12
187.533863202809 -240.103367638123 2882.20306078236 16 19 12
173.571428096987 -238.91844746966 2884.43864517834 16 19 12
158.862200567281 -237.559342830093 2887.36878271679 14 17 10
183.015987321807 -246.45338238644 2848.01752051724 11 13 8
179.269962225943 -247.490843163572 2841.59128767313 9 11 6
145.819233200602 -242.019326942038 2860.5993759063 9 11 6
132.779154145755 -240.993950426238 2862.26775113843 12 15 8
136.870860700104 -243.742731026863 2849.16333933769 17 20 13
130.8330018708 -244.261916067198 2844.78373684346 16 19 12
89.2566975269622 -236.865564806174 2871.49745814109 14 17 10
73.3037470593167 -235.136644388481 2875.99823530471 15 18 9
68.92972298906 -235.989759405941 2870.35272297871 18 21 12
67.610023818748 -237.534122601887 2861.97741365309 19 22 13
60.916769112227 -237.87105149121 2858.35895497017 20 23 14
48.1346663495006 -236.823352525527 2860.21416131254 19 22 11
49.8195709546514 -239.063230840809 2849.07298947015 18 21 10
76.4468480874552 -247.02899299301 2815.2249195054 17 20 9
75.7048424186464 -248.761896740585 2806.03240090334 18 21 10
84.7176334950181 -252.756429314531 2787.84323295598 18 21 10
79.3803209759796 -253.453067326403 2782.73553596897 17 20 9
80.7735132074492 -255.71747375445 2771.38277136173 19 22 13
108.984953598352 -264.261828034876 2734.97476010267 18 20 15
246.141231646186 -240.179467414381 2937.03965717284 5 9 8
260.54237158757 -244.969647454298 2916.57681609948 13 15 10
229.228923062375 -240.181462745099 2932.19036237639 13 15 10
228.101640569794 -241.723799890306 2923.95455026917 11 12 7
223.707799227566 -242.582343931976 2918.29464448073 12 15 8
208.803309409821 -241.208757242687 2921.08360005093 12 15 8
187.502088993839 -238.455589927441 2929.12300445595 13 16 9
175.924547818266 -237.761272916276 2929.37955999179 14 17 10
188.413751692024 -242.23487373647 2910.00268693185 14 17 10
190.414298489958 -244.474453147821 2899.09033236516 15 18 11
197.15125292889 -247.754211359349 2884.19571781446 15 18 11
190.308995709461 -248.100831719711 2880.46890046384 16 19 12
185.847846360758 -248.966561031186 2874.76016527026 15 18 11
190.860322963218 -251.912532884334 2861.08720388584 14 17 10
189.506440094084 -253.476214377921 2852.68701621643 13 16 9
191.269006295856 -255.736865186052 2841.60203770605 12 14 9
158.712677866789 -252.264086232638 2850.13215892675 9 11 6
132.388429250996 -248.255551759761 2863.18276151059 12 15 8
131.044525709992 -249.818663791737 2854.78981095356 15 18 11
107.976453015397 -246.49506227447 2865.25697463864 14 17 10
105.094564132 -247.707895510096 2858.22124765125 16 19 12
89.0958120746164 -245.947556168632 2862.68898140806 15 18 9
74.6901554820076 -244.532732369925 2865.83946622586 15 18 9
59.5658521853468 -242.938386689965 2869.70522913116 15 18 9
58.2442235177876 -244.4993954897 2861.32843675854 15 18 9
55.3718990888918 -245.711155178769 2854.29964868605 18 21 12
60.8362309682366 -248.859695845678 2839.71788967771 17 20 11
65.476407558251 -251.837739953928 2825.7748776167 16 19 8
79.1159465627316 -256.936608375185 2803.5233355741 16 19 8
61.0173052144463 -254.632645670762 2810.1769726942 16 19 8
40.736095669899 -251.792484800936 2818.95624538753 16 19 8
71.4378700697949 -260.972192687788 2780.64520231908 18 21 12
275.194083605309 -253.704414898996 2914.80266178198 1 5 4
222.552033119722 -244.32208835239 2947.09122773236 13 15 10
241.022392613329 -250.050686076895 2923.39772538324 14 16 11
219.556982336274 -247.259071469159 2931.31859427411 14 15 10
216.80752248696 -248.46954061026 2924.37887989431 11 14 7
199.497391616086 -246.540965210779 2929.13185594101 12 15 8
182.248209680461 -244.607392524005 2933.92904048383 13 16 9
168.273963124673 -243.368155827284 2936.1566321086 14 17 10
173.576105177155 -246.326876658923 2922.69329633755 14 17 10
190.004555072169 -251.744455374181 2899.99180772894 14 17 10
183.19756460673 -252.085171799588 2896.29058590551 15 18 11
173.215199513124 -251.723227011709 2895.23176183667 15 18 11
180.691422239876 -255.227387316639 2879.6362964205 15 18 11
162.009381435217 -252.930239911553 2885.86698030348 14 17 10
170.983953422768 -256.793674769174 2868.88580718798 12 15 8
181.626882854772 -262.953401885863 2840.75147556945 10 12 7
167.702374096181 -261.711161876113 2843.01484392022 10 12 7
137.453265941017 -256.74947837146 2859.40053757409 12 15 8
104.230353901947 -251.067669042767 2878.57484037851 13 16 9
107.587404436366 -253.706701465854 2866.17345327595 12 15 8
113.982479587369 -257.060467527603 2851.030333792 14 17 10
91.7924369257821 -253.845394717705 2860.8984138376 15 18 9
70.462601459047 -250.800347356479 2870.15388411785 16 19 10
57.6487831932448 -249.706645978495 2871.98633222647 17 20 11
59.3907723808327 -251.996505653061 2860.8862890507 17 20 11
69.4685726372701 -256.253136072318 2842.23280477994 19 22 13
64.2600642241939 -256.944835946141 2837.2185056508 17 20 11
60.5614422903091 -257.994647112414 2830.82657381329 16 19 8
62.1357221736854 -260.298630805305 2819.60488304286 16 19 8
56.1346616615372 -260.814237333412 2815.25197455991 16 19 8
65.841883766848 -267.053362166158 2786.43863208917 18 21 12
271.951056020845 -262.299763891059 2908.70278037456 11 13 8
257.707617160035 -261.055221439442 2910.73496115025 12 14 9
237.00786326353 -258.392530639223 2917.9751810376 16 18 13
218.817776049152 -256.254496049699 2923.32635553299 11 14 7
208.773611720497 -255.883099685787 2922.2227797539 12 15 8
195.527482089481 -254.800572209019 2923.74207400692 12 15 8
163.835637375125 -249.630452101965 2940.31798954119 13 16 9
196.403631568545 -258.670197930294 2904.59555459279 14 17 10
195.18981044792 -260.254017850845 2896.29679866885 14 17 10
174.021144472761 -257.386506013682 2904.43316827144 15 18 11
163.269456906233 -256.830455191202 2904.05266573836 15 18 11
162.056381075827 -258.41463294164 2895.75444827872 14 17 10
171.883923620217 -262.503215241211 2878.15543467779 13 16 9
144.570996230658 -258.191030970257 2891.72589759437 11 14 7
143.318997077846 -259.778839894416 2883.39944539504 9 11 6
171.830335000769 -268.18171259057 2849.67992062461 8 10 5
146.206515095368 -264.217900217149 2862.00272129604 10 12 7
94.1864024247785 -254.136472866461 2897.21575758312 14 17 10
103.837028035418 -258.240582287003 2879.48841447339 16 19 12
109.523317280748 -261.452203930768 2865.06753205589 15 18 11
98.9107176359667 -260.884895793852 2864.78761986907 14 17 10
81.3864630765559 -258.691596611387 2870.62204506869 14 17 8
60.8530448711675 -255.770292611594 2879.21919180435 15 18 9
61.0952647832685 -257.723217469747 2869.50371377379 16 19 10
82.6992302774765 -264.746643632192 2840.66475647544 16 19 10
85.8560737298215 -267.435460727462 2828.11827729429 19 22 13
66.9251492067788 -264.869545309095 2835.40493805054 18 21 12
53.3714767269116 -263.567988955639 2837.93743398278 17 20 11
50.4367734449387 -264.806907239098 2830.86328858483 18 21 10
62.5482645495956 -269.685839853056 2809.97521928612 18 21 12
67.794108056487 -272.93469585282 2795.2348597539 17 20 11
78.9639770718562 -277.647569804652 2774.90036073353 18 21 14
109.444094346366 -287.11379319832 2736.42688794994 19 21 16
300.562366125497 -274.163293061979 2896.03529374638 3 9 7
277.249644646435 -270.927339693104 2905.08933124517 10 15 9
252.399016055073 -267.325089847896 2915.50073015698 15 20 14
255.277469301833 -269.819102375015 2903.9884633274 13 15 10
245.951249612566 -269.621549361165 2902.16912928205 12 15 8
232.600982455972 -268.523082708745 2903.61301275543 12 15 8
197.527149306156 -262.558604386443 2922.68201174944 12 15 8
172.256827689619 -258.744320046032 2934.02527685632 12 15 8
185.570106259369 -263.584672028375 2914.00889883399 12 15 8
192.382250464069 -266.98888962491 2899.16786606079 12 15 8
179.192128532135 -265.877688398563 2900.72790672833 13 16 9
173.991751729835 -266.573867489333 2895.71947968926 14 17 10
181.472571380845 -270.170437537126 2880.12687860802 14 17 10
188.878170486353 -273.773568880133 2864.48000979082 13 16 9
163.092174674164 -269.755313950439 2876.68581592572 12 15 8
203.463985723867 -280.999583695923 2833.0227871806 11 13 8
180.848478047262 -277.706610539162 2842.58253866054 9 11 6
138.776856371768 -269.851166186186 2868.93951925088 11 13 8
102.364399597234 -263.255046469587 2890.74672516449 13 16 9
102.665738060002 -265.22479896855 2881.07431267466 14 17 10
101.380723905184 -266.832070488134 2872.72382861393 16 19 12
86.1524860105689 -265.148762250956 2876.51469772398 16 19 12
63.2671081452489 -261.629765220096 2887.11499602949 16 19 10
62.7708409108045 -263.41863605923 2878.10033497846 18 21 12
77.5738812547604 -268.880297362306 2855.45536564053 18 21 12
81.5569519321553 -271.780427423557 2842.27143475933 16 19 10
72.5257977374718 -271.559508508318 2840.6661183409 18 21 12
59.7116263450115 -270.41665621925 2842.49885389656 16 19 10
49.2095373959875 -269.823178906375 2842.29948030056 16 19 10
59.8888163839151 -274.392014866285 2822.84510830961 18 21 12
65.9504169268352 -277.861336424418 2807.45966065419 18 21 12
111.001445981174 -290.947628250777 2756.06315360125 16 19 10
114.55957168124 -293.8836070875 2742.57128393312 14 17 10
99.390870724569 -292.194350920262 2746.40504829049 29 31 26
299.324422662451 -281.425281472829 2897.57146644345 3 9 7
278.46421534935 -278.677500202612 2904.69550674785 16 21 15
199.821913606484 -262.996035150613 2957.69166449494 6 11 5
271.115076021121 -280.817794417113 2891.94630906903 12 14 9
236.619056837467 -274.956891182255 2910.19861648084 12 15 8
233.802391685233 -276.206022263634 2903.20998771236 12 15 8
216.456924063391 -274.166198848049 2907.93791088729 12 15 8
168.621001373937 -265.166658790123 2937.53283045587 12 15 8
189.164687649899 -271.720024995587 2911.63303943571 12 15 8
173.581628047372 -270.033508691083 2915.1664124899 12 15 8
156.455589130814 -267.975480538148 2920.05379090374 13 16 9
170.403961916584 -273.079312094307 2899.26114054998 14 17 10
200.102390285128 -281.87187356891 2865.16485802064 14 17 10
201.133207277585 -284.052402264646 2854.78515583263 13 16 9
183.197120669771 -281.812479460817 2860.32097687225 12 15 8
164.539771057451 -279.382492838515 2866.57023278432 9 11 6
214.180831830704 -293.016366317636 2814.79325418393 7 9 4
179.831155220001 -286.893102963756 2834.38771950787 10 12 7
134.720585040257 -278.165026811576 2863.48685699605 12 15 8
109.270460440952 -274.050090869204 2875.93633857237 13 16 9
99.4386064876105 -273.635147974639 2874.98689168704 15 18 11
81.8955389737828 -271.361773158114 2880.80779009637 16 19 12
69.8150163397235 -270.383714955978 2881.93649195009 15 18 9
68.5333620934592 -272.007084090862 2873.58836202117 16 19 10
79.4916352453883 -276.612405045282 2854.33605405005 17 20 11
85.7656233274309 -280.107536391072 2839.10443992265 17 20 11
65.2885175836744 -277.077656471622 2847.74295872195 17 20 13
57.0557204810047 -277.029373442172 2845.48047733332 16 19 12
73.0880372934077 -282.963047640006 2821.25387816763 16 19 10
89.7479601292908 -289.094900252228 2796.24620356021 17 20 11
104.768136542684 -294.863269820804 2772.52205062589 18 21 12
112.902957423066 -298.954249869842 2754.93097145038 17 20 11
125.448136505136 -304.178865278871 2733.12050424114 18 21 14
135.641684634699 -308.848994833311 2713.31379698995 19 22 15
301.363900416582 -289.413507638697 2896.53909771624 0 3 1
274.775403959571 -285.32500421338 2908.16350982996 16 21 15
246.666305231865 -280.857939410582 2921.15759565281 7 12 6
214.610688907584 -275.456078542428 2937.47127367345 13 15 10
226.472901972072 -280.041461766057 2918.87435202451 12 15 8
243.89777213324 -285.932761570556 2895.65745913456 12 15 8
234.586881283839 -285.712518720071 2893.84935222086 12 15 8
212.427149751979 -282.519265997799 2902.50396382201 12 15 8
174.315976651427 -275.60047525778 2924.31669951706 12 15 8
173.967792078342 -277.413803835524 2915.4089683872 12 15 8
179.170954906991 -280.53395484718 2901.87335726581 13 16 9
173.177501387999 -281.048945124006 2897.52596637598 13 16 9
187.012299388781 -286.230732277281 2876.65088285333 14 17 10
195.200464759358 -290.114192832399 2860.33456199353 13 16 9
164.659183626886 -284.839272865065 2876.51033430234 11 14 7
183.807855822376 -291.348694486347 2850.83452702135 9 11 6
199.678041788406 -297.120623663975 2827.7262516447 7 9 4
191.959004726869 -297.274842850284 2824.60014353122 10 12 7
149.148549735392 -288.977335164343 2851.65880385045 13 16 9
122.877512047119 -284.610029957372 2864.74979741573 14 17 10
105.251519025493 -282.302856366711 2870.51104702921 15 18 11
98.5186377924121 -282.62735292541 2866.8636307267 17 20 13
101.043974304168 -285.214136703651 2855.09491213536 15 18 9
75.066785828843 -280.821592581767 2868.39905110624 16 19 10
69.9074175971726 -281.520434260872 2863.42004409163 17 20 11
85.3876999960499 -287.326090394737 2840.02924294153 17 20 11
94.6449379639884 -291.627797944867 2822.01572386082 16 19 12
69.6032463203125 -287.409455907633 2834.76181097533 16 19 12
76.5081143175896 -291.148682415212 2818.75126214281 16 19 10
75.0234148767071 -292.805646950246 2810.25577025178 17 20 11
107.425425791598 -303.017847744022 2770.70166740236 17 20 11
138.851152809284 -313.05910127489 2731.6757380317 17 20 11
127.349295599658 -312.263660352275 2731.98767070218 18 21 14
309.141325527505 -298.722067206951 2891.01375637441 0 4 2
251.467586542283 -287.449430886511 2927.07483299374 12 17 11
229.939601304441 -284.403477902887 2934.95162823415 12 17 11
227.194332540269 -285.6676756721 2928.01467991531 15 17 12
213.890370549045 -284.491196222591 2929.49252614147 12 15 8
232.162902923601 -290.646190058153 2905.65374938856 12 15 8
230.142232097485 -292.10651432344 2898.00575305312 12 15 8
204.775727632744 -288.104181640193 2909.28024566262 12 15 8
192.346886133586 -287.111026884678 2910.15652020456 12 15 8
181.552620986297 -286.492766868183 2909.74546737637 12 15 8
185.94034620801 -289.463651430237 2896.85452082461 13 16 9
190.270557332074 -292.439553738507 2883.92185566017 13 16 9
174.71095737476 -290.68601618255 2887.47257458768 13 16 9
176.607707199471 -293.098777748612 2876.48409817821 13 16 9
177.671077975229 -295.325599409493 2866.12776043945 12 15 8
183.414860419505 -298.695734180629 2851.74745869158 9 11 6
196.152884576436 -303.782889710542 2831.31281636024 7 9 4
176.709662769738 -301.075839242408 2838.22881675945 11 13 8
155.000030065592 -297.790979954024 2847.21017861172 14 17 10
122.486442414201 -291.828822903037 2865.66477471276 15 18 11
117.272502275181 -292.535062347624 2860.64646436377 16 19 12
100.450345077548 -290.375596198509 2865.75435244724 17 20 13
90.6311373307371 -289.932325896638 2864.81421655082 15 18 9
75.4491775100523 -288.146990043371 2868.63915041428 16 19 10
65.6881566955718 -287.698717590362 2867.74092632672 17 20 11
60.5368855265622 -288.399581430398 2862.76807328002 17 20 11
88.9338801931201 -297.550050911869 2827.72654081152 15 18 11
73.790946587986 -295.761195037018 2831.5797834411 16 19 12
45.8110737156008 -290.69688857173 2847.14094072647 16 19 12
62.5610908738281 -296.984732744381 2822.19749281099 16 19 10
128.174238143954 -315.814656241307 2752.32976111574 16 19 10
106.185246783855 -312.295759409655 2762.34483199199 17 20 13
115.762004432958 -316.881542495274 2743.32646401925 17 19 14
168.583071634083 -332.689548683593 2683.96225659065 25 27 22
270.664404517871 -299.297308755086 2912.52310037674 12 17 11
224.621967790285 -290.497535063322 2939.71173997332 10 15 9
210.508081390045 -289.105564593167 2941.83858284444 10 15 9
210.224411153177 -290.950159902899 2932.97775563858 12 15 8
217.997642069825 -294.705488630334 2917.59662005717 12 15 8
212.790392228084 -295.412022499641 2912.58315815614 12 15 8
197.925768898244 -293.825336515832 2915.40179870714 12 15 8
183.911101894739 -292.426045093798 2917.60060491846 12 15 8
190.740434099395 -296.003142979568 2902.77115642049 12 15 8
192.712202748704 -298.436114462888 2891.83696039073 12 15 8
193.0482992843 -300.489261495642 2882.18932235992 13 16 9
184.621104998425 -300.432590304673 2879.78596079223 13 16 9
180.954163626275 -301.528645689147 2873.41676063393 12 15 8
200.156068315688 -308.207728874598 2847.77868335455 11 14 7
199.545601630113 -310.082562201569 2838.68080126732 7 9 4
189.487758870492 -309.645958308248 2837.5676399907 6 8 3
170.844366096504 -307.084131917125 2843.82738683013 12 14 9
131.203041549731 -299.29913842031 2868.24038046209 15 18 11
115.870250517708 -297.493939148521 2871.95607417369 15 18 11
98.2619367522419 -295.103603801763 2877.73056108795 16 19 12
118.630022299678 -302.203592399981 2850.46537349576 16 19 12
89.4722589798906 -296.901507659983 2866.40889388142 16 19 10
80.4473274774211 -296.636640525255 2864.8086055088 17 20 11
71.4395279775348 -296.370336121818 2863.22044929349 17 20 11
58.6239422487207 -295.129678296667 2865.05265497086 15 18 9
38.9830606377242 -292.133101326322 2873.06187069769 14 17 10
47.5595404105933 -296.342022916039 2855.79036208165 16 19 12
44.6771104594736 -297.631372067631 2848.75385529452 16 19 12
42.5324775646891 -299.117560395594 2841.01615968046 15 18 9
75.0459738554978 -309.598429241994 2801.54121962558 16 19 12
90.0447260502317 -315.597711686292 2777.8003661987 17 20 13
104.170273028833 -321.411672577991 2754.66218851791 20 22 17
249.800341049728 -301.825173188031 2929.49879955116 16 21 15
211.708653283002 -296.677567973007 2941.43551271201 5 10 4
208.990199519708 -297.96134017683 2934.5179040112 12 15 8
202.209327163243 -298.279448615522 2930.83573027626 12 15 8
197.852561566504 -299.178531991226 2925.20279062426 12 15 8
193.48695249547 -300.07870060824 2919.56314017502 12 15 8
182.693121408216 -299.427307354424 2919.1525698326 12 15 8
200.731229463727 -305.766782542288 2895.14291945353 12 15 8
200.284025252856 -307.64583498209 2886.16336844777 12 15 8
179.911418034047 -304.662174745825 2893.64207523989 13 16 9
180.250263409465 -306.736965328258 2883.99632027287 13 16 9
194.007361718556 -312.130038411396 2863.06354590361 12 15 8
218.70303023351 -320.265318821395 2832.75479397963 11 14 7
158.491034902507 -309.396856829946 2864.50371392378 5 7 2
157.932982624155 -311.286323050991 2855.44375404043 11 13 8
93.3495060347638 -297.111335244031 2901.33183837332 14 17 10
76.5660157622774 -294.872074969484 2906.46845558602 14 17 10
96.3169856666939 -301.854754496312 2879.99183299411 15 18 11
116.696450055503 -309.046483938843 2852.73442948142 16 19 12
110.690187895638 -309.563348271838 2848.377743842 16 19 10
90.0639010455575 -306.3394375233 2856.90910087805 18 21 12
84.098116069125 -306.852783777762 2852.5817758325 18 21 12
48.2946341033559 -299.672862139457 2874.83339765298 15 18 9
54.6189343074479 -303.338190351183 2859.63739377588 14 17 10
39.5737541265309 -301.475517930635 2863.56187384419 16 19 12
43.5423088188362 -304.554143592057 2850.36651590021 16 19 12
39.1341833863263 -305.459429335333 2844.69601851394 15 18 9
67.8955390151077 -315.086719628982 2808.6811672622 16 19 12
101.717167120048 -326.120130100448 2767.68164788563 17 20 13
151.797962991081 -341.542476390304 2711.27364820382 22 24 19
244.467951417765 -307.925135161597 2934.2484788336 2 8 4
222.953217218232 -304.722426672074 2942.13537955498 6 13 6
222.67124147638 -306.604523312383 2933.27559077309 7 14 6
224.792209494662 -309.077624077376 2922.44934928725 12 15 8
205.833083119752 -306.453362630933 2928.48082482416 12 15 8
189.364505556564 -304.412649860105 2932.60939219193 12 15 8
207.554340587563 -310.820368133727 2908.70938627073 12 15 8
196.722250687281 -310.155823952708 2908.27114791029 12 15 8
193.919357747404 -311.458873743464 2901.29193532656 12 15 8
191.098389700698 -312.763795667782 2894.29990470644 13 16 9
177.116638608642 -311.307530561821 2896.52286094737 13 16 9
180.640168023507 -314.193369783386 2884.24120229001 12 15 8
216.563650896118 -325.190163851082 2844.76525328261 11 14 7
233.398273717823 -333.576063691674 2811.22695987117 6 9 2
180.859562387361 -322.413046683678 2846.06953138711 7 10 3
136.406744843693 -313.212602007136 2874.41254933179 12 15 8
80.4599392385121 -301.013876321275 2912.96553874433 14 17 10
73.8306559679169 -301.318449733323 2909.39332373039 14 17 8
85.0572222501698 -306.2005160528 2890.33410540527 14 17 8
89.9947592208821 -309.497161177903 2876.60504245324 15 18 9
91.011342173319 -311.802104838743 2866.21409704251 16 19 10
95.066192144027 -314.908928727371 2853.08115355789 16 19 10
96.7611470572067 -317.421380553941 2841.9458867597 16 19 10
91.5247484931165 -318.137743771733 2836.91124454019 16 19 8
63.3934530407108 -312.849477178867 2852.36376676798 17 20 11
45.2792779120257 -310.154972943859 2859.00812128901 15 18 9
40.8897481747315 -311.06418891562 2853.35108441168 16 19 10
82.6315443079237 -324.218954055572 2805.73106906088 15 18 9
62.250541354925 -320.921701861288 2814.44060911742 15 18 9
144.706912922428 -347.319118849655 2718.45518456871 20 22 17
214.368066526964 -309.937574961573 2949.47198567774 10 17 10
224.687843849585 -314.417511612611 2932.22782128542 13 20 12
229.239826459873 -317.514232839924 2919.45531103254 12 15 8
203.79364135886 -313.256079828142 2930.67333722874 12 15 8
194.592825824166 -312.971417645256 2928.94535255641 12 15 8
185.40929783446 -312.685414722245 2927.22990678548 12 15 8
211.558972748218 -321.17554700022 2896.73836110616 12 15 8
189.506207644562 -317.700659312723 2905.47194149051 12 15 8
161.154548754791 -312.61946255839 2919.52863208102 13 16 9
183.873355794163 -320.331275009835 2891.49436039839 13 16 9
194.525934781384 -325.053237308733 2873.25489402123 12 15 8
202.309247621187 -333.243688859897 2838.09654381732 7 10 3
174.187477017405 -328.143749102981 2852.3199802694 8 11 4
125.049994491728 -317.601459079611 2884.68459003338 12 15 8
82.3991369932253 -308.649612616946 2911.86226033615 14 17 10
81.9932273774837 -310.564272701518 2902.91246430392 14 17 8
95.5298791435655 -316.113093138595 2881.81909464002 14 17 8
84.1844195391195 -315.209511649086 2882.24495102548 15 18 9
79.816234295774 -316.122424807602 2876.60366297736 16 19 10
83.1361854065187 -319.059358169544 2864.17387278385 16 19 10
87.9377385424314 -322.405852981676 2850.34597974945 16 19 10
80.432063813713 -322.514658460964 2847.37447809676 16 19 8
86.6706909650596 -326.274441476295 2832.1161840402 17 20 11
79.141813393711 -326.385186388417 2829.12785232811 16 19 10
58.7221994147744 -323.039682436771 2837.80964683261 16 19 10
102.692026346166 -336.979988180075 2788.09539527332 15 18 9
92.0578960901159 -336.283455461508 2787.80082411191 14 17 8
91.2274901093273 -338.234296800223 2778.54311834027 19 22 13
106.864743314253 -344.67607401941 2754.02755549248 18 20 15
266.523011206096 -328.045376675925 2918.02144118722 12 17 13
256.368293840887 -327.559097770379 2916.83801057831 7 12 6
236.470334818111 -324.656183927945 2923.42535435163 6 11 4
219.081107938303 -322.351525924049 2928.12319142302 11 14 7
202.562613249152 -320.24358262559 2932.21591333677 11 14 7
194.172696913137 -320.149369938143 2929.83947102854 12 15 8
208.334731550112 -325.71054675486 2909.1996866436 12 15 8
212.753468579214 -328.855043781851 2896.33034183148 13 16 9
177.885979251414 -322.087740188445 2915.55299033393 13 16 9
160.740775803531 -319.763801874035 2920.42752838039 14 17 10
173.116134443914 -324.937084699954 2900.9645824539 13 16 9
179.832033904797 -328.698481025338 2886.05197063126 11 14 7
170.641182626366 -328.403392872325 2884.33126207054 11 14 7
191.472811731104 -335.833422609322 2857.40072984914 11 14 7
179.870493378658 -334.932308191707 2857.64037135033 10 13 6
143.170862752377 -327.510134682971 2879.24358293553 10 13 6
130.915978025048 -326.39409400145 2880.24658489522 12 15 8
86.6814100732096 -316.907789045957 2908.74897008835 14 17 10
84.7081064235562 -318.43374774039 2901.13527325569 14 17 8
94.3592704987433 -323.028549237293 2883.40583503829 14 17 8
85.3400065749996 -322.719500851138 2881.80958452417 15 18 9
68.6169997802106 -320.360642973573 2886.99035880905 16 19 10
70.4317781285195 -322.917216943078 2875.9417310888 16 19 10
75.2726373186285 -326.298345361484 2862.14215642587 16 19 10
91.5336973398433 -332.765999611291 2838.07867337964 16 19 8
84.0049505846512 -332.871167392655 2835.09075922526 15 18 9
65.829308450057 -330.094775163335 2841.69096978077 14 17 8
83.3910413950121 -336.992871853484 2816.09782428345 16 19 10
43.3073678965425 -328.234492110701 2842.66544784879 16 19 10
60.0078150771344 -334.935288060979 2817.68426839351 19 22 13
60.7776161404967 -337.31010989271 2807.11407157809 23 26 17
84.0101079510891 -345.890065420713 2775.74237926824 20 22 17
263.291608924104 -336.69421050448 2911.92971629842 10 15 9
265.348311252875 -339.253709351881 2901.05644961944 6 11 4
253.562128562931 -338.346639404616 2901.16283410444 12 15 8
232.902003503187 -335.189475192711 2908.43399190958 12 15 8
219.586193926036 -333.866627281524 2909.90399095297 12 15 8
227.242693097691 -337.863577047973 2894.43701018025 12 15 8
189.482792563797 -332.340846668134 2906.61614306978 12 15 8
181.088766294597 -332.239678185656 2904.23675661575 13 16 9
154.391522090819 -327.411564487866 2917.0211180681 12 15 8
166.721296441753 -332.651450387 2897.52478975967 11 14 7
174.98982490659 -336.870901569373 2881.26531844019 11 14 7
163.723997339562 -338.112816687745 2871.85715243807 11 14 7
156.123828140976 -338.218224667114 2868.81716693658 11 14 7
86.2789897155531 -323.951605376608 2909.65689977086 13 16 9
106.89367660837 -331.493436207116 2882.56824073866 14 17 8
95.5180432971798 -330.554112468075 2882.97269907872 14 17 8
79.5264203457093 -328.368128702806 2887.44746237245 15 18 9
73.6298422277244 -328.875390479395 2883.17033767461 16 19 10
62.3424847044443 -327.928497210348 2883.63882735838 16 19 10
68.7451942116666 -331.761387640101 2868.4988153228 16 19 10
75.8426574900994 -335.808524541293 2852.62632329293 16 19 8
92.0259650330557 -342.361817395536 2828.50604203948 14 17 8
106.558745670173 -348.509007048051 2805.66168333619 13 16 7
18.5035811156786 -326.494147563772 2875.33350418198 17 20 11
19.4713169255083 -328.876522922232 2864.90705070533 17 20 11
31.7187403579009 -334.398279815155 2844.11426562022 19 22 13
72.4525800192186 -347.880596933886 2796.99693862596 22 25 16
284.501455057905 -347.414688707581 2905.01845887804 18 23 19
300.417710218255 -353.512771475981 2883.1772591175 15 20 14
286.09622680044 -351.973920625809 2885.15435445833 17 22 15
279.125091110741 -352.29364169506 2881.33424660441 12 15 8
256.774789845335 -348.67909995744 2889.85284405067 12 15 8
238.549193588814 -346.093761990481 2895.18083744042 12 15 8
217.973453627058 -342.880711972277 2902.51345087658 12 15 8
210.325193794262 -342.983075188399 2899.43891334738 12 15 8
204.287342127758 -343.500646565457 2895.05932421913 12 15 8
190.262285483449 -341.938558510383 2897.25142335516 12 15 8
185.838508848017 -342.871090376874 2891.56973654792 12 15 8
171.07997018378 -341.095802236886 2894.46623544407 11 14 7
179.340178978448 -345.364987435976 2878.20018662851 12 15 8
193.050131782585 -351.102289731389 2857.23178636477 12 15 8
159.387551701402 -344.312910872085 2876.09268000349 12 15 8
143.159347448433 -342.111251828033 2880.39631433826 12 15 8
110.537847686179 -335.509128157754 2898.7762186813 12 15 8
110.872673659857 -337.693705384365 2889.12669939617 12 15 8
130.645039197636 -345.123745885084 2862.66332098396 14 17 8
103.667842343177 -339.973341405369 2876.48140788089 14 17 8
88.4267276353583 -337.96391920167 2880.26459414578 15 18 9
84.8230186499017 -339.103961473723 2873.94100969178 16 19 10
81.2056429370682 -340.245230390739 2867.60751172225 16 19 10
76.0384775766001 -340.966440114586 2862.62303358104 16 19 10
80.8213132416316 -344.428800912882 2848.78098496848 16 19 8
64.162338259568 -341.988044685676 2854.0085921122 14 17 8
59.7461885910522 -342.9212834051 2848.33213619867 14 17 8
61.3938609131446 -345.546418880141 2837.16202247625 20 23 14
25.9052987569022 -337.807711930766 2859.64476674515 19 22 13
76.6321667681877 -354.196470708729 2803.70022347589 16 19 10
69.8324944448552 -354.504262520615 2800.00476797652 18 21 12
337.288136515046 -368.366891656285 2864.13058441917 11 16 12
302.453053865593 -361.578999510355 2882.14149839321 13 18 12
294.638768763788 -361.688360292793 2878.9465701593 7 12 5
247.046121368651 -351.52771591351 2907.48868977358 13 16 9
256.362182228594 -356.032557350421 2890.75182037864 14 17 10
226.830094778025 -350.466568029599 2905.19028531295 15 18 11
228.030191525074 -352.875714450151 2894.93184516079 15 18 11
205.094406284647 -348.978449841427 2904.26248145499 13 16 9
211.086756722698 -352.652368440557 2890.06112770255 13 16 9
214.616708767123 -355.700200893202 2877.78300994174 12 15 8
186.228441864505 -350.316678900538 2891.81469393941 12 15 8
172.262540005132 -348.722495724627 2894.04983820958 13 16 9
173.392728887286 -351.139038032511 2883.74068289262 13 16 9
192.654068708562 -358.42281271204 2858.14262852711 14 17 10
172.381880085293 -355.136171363281 2865.69596003826 11 14 7
134.118282675738 -346.970628865535 2888.63925729444 11 14 7
113.270283150495 -343.454429683998 2897.01137057922 14 17 10
108.911835178566 -344.387773427707 2891.37674332499 15 18 11
117.788398884998 -348.932998540678 2874.32106851285 15 18 9
97.0596874686942 -345.406836972903 2882.77970675499 17 20 11
80.2872623219328 -342.937453639252 2887.9252164551 17 20 11
88.2953674532416 -347.278132650227 2871.47634466059 17 20 11
94.6833942489986 -351.199378769722 2856.32524127513 15 18 9
87.1747212523757 -351.286311572149 2853.3519713805 14 17 8
79.6745173646478 -351.372568640683 2850.38454986935 15 18 7
83.6380110902919 -354.664113047487 2837.1844446472 19 22 13
111.150486234337 -364.591972525393 2802.73309857288 17 20 11
117.208416837935 -368.541513456986 2787.34255809433 19 22 13
79.2868171108645 -362.302630947214 2801.87817249802 18 21 12
84.5241061799258 -366.043035137469 2787.12912188277 20 23 14
280.387498773407 -361.29354412593 2909.37667376162 15 20 16
258.764559075964 -357.788027133873 2917.18696227014 17 22 16
247.810909204593 -357.033259775739 2916.66105949062 10 15 8
257.99856172591 -361.796391550275 2899.31968057101 13 16 9
230.841869248364 -356.793059638125 2911.77157120237 14 17 10
243.377870678589 -362.201325183394 2892.42388842872 14 17 10
223.590900146769 -359.103964874678 2899.09296951445 14 17 10
200.665038183912 -355.148482563402 2908.43109428848 12 15 8
201.86563824574 -357.582381893149 2898.17289362157 12 15 8
207.021231268069 -361.087133923855 2884.60085005241 12 15 8
195.382955003194 -360.111504513671 2884.81480232862 13 16 9
158.348654459247 -352.291903449851 2906.17741759721 14 17 10
156.349751647972 -353.873346932646 2898.54488234459 13 16 9
184.35600815362 -363.595595836291 2865.68727252739 13 16 9
149.921447979425 -356.399448667343 2885.22593278971 11 14 7
132.146188415549 -353.695420916277 2890.88098604577 11 14 7
114.436300573249 -350.985918095272 2896.58345639021 14 17 10
106.168953033645 -350.850231233967 2894.29607689312 14 17 10
75.685575797785 -346.700043419383 2901.86228262378 17 20 11
72.1446052898713 -347.850775542287 2895.58412448486 17 20 11
72.4532524879318 -350.081265758212 2885.91539508825 18 21 12
95.0686782075549 -358.575144936074 2856.56718212932 15 18 9
84.4868273358421 -357.792348746079 2856.3109463508 15 18 9
79.292994273775 -358.521036050715 2851.30709834817 16 19 8
107.70367045723 -368.773686211904 2816.26990114081 17 20 11
113.828162402881 -372.760969967046 2800.92742122476 16 19 10
125.95737922772 -378.488969194696 2780.04819546612 18 21 12
112.233819278762 -376.847731210195 2782.45925690086 18 21 12
95.533354319961 -374.333864050367 2787.65715739629 17 20 11
46.5207099734273 -362.467078248351 2822.58904711114 19 22 13
288.974491764205 -370.995899142202 2903.20117417217 22 24 21
263.243402524898 -366.367353776102 2914.21454338866 16 18 13
266.123350615902 -369.249042308583 2902.70139654818 11 14 7
254.334347339807 -368.265011851023 2902.80612615025 12 15 8
245.005989204448 -367.924366406322 2900.98596669106 12 15 8
230.847705861473 -366.290146784138 2903.08185231063 12 15 8
231.235335096821 -368.532868286174 2893.47061120156 13 16 9
199.447954586987 -362.148477289665 2909.98371579733 13 16 9
179.82032144124 -358.991678802038 2916.76831054372 13 16 9
182.641900255911 -361.880496007839 2905.21251998401 12 15 8
178.242534958041 -362.826762907141 2899.54845990568 12 15 8
156.350408147797 -359.010808437165 2908.40021798761 11 14 7
137.71572889578 -356.054315077827 2914.66857498809 11 14 7
143.651267835411 -359.815711071959 2900.42529980076 10 13 6
162.130570660291 -367.056117377582 2875.49588090265 10 13 6
132.531113993415 -361.055145029175 2891.12274835832 11 14 7
126.575287168664 -361.566668917436 2886.80265142008 14 17 10
134.687058559238 -365.995924375727 2870.42818637506 16 19 12
116.221087833468 -363.025883231902 2876.81891240883 15 18 9
82.2815608414138 -355.689442476355 2896.7171434041 17 20 11
69.4237731801568 -354.231270849798 2898.51985775029 18 21 12
78.2426598449875 -358.884883709547 2881.4218226145 18 21 12
87.7481900322592 -363.764333179513 2863.58536948568 16 19 10
78.7242621010797 -363.400877551442 2861.98601351643 15 18 9
73.548192246633 -364.130694822213 2856.99503671859 16 19 8
82.8830479133411 -369.024866988989 2839.03478341407 15 18 9
112.697783098126 -379.848813857216 2802.54245155203 13 16 7
86.0954662652218 -374.445314971934 2816.63357894998 16 19 10
103.540389282156 -381.775323086184 2790.95356772649 17 20 11
57.411340210312 -370.644792379485 2823.03196140093 16 19 10
56.6951024404654 -372.700027914747 2813.85619534767 18 21 12
288.143650241835 -380.4071559194 2895.14040082137 9 11 6
283.627617309187 -381.366160108069 2889.3917013679 3 6 0
250.668560927432 -374.706087758618 2906.29186612891 12 15 8
253.503637926523 -377.622010541717 2894.74572339605 12 15 8
240.937626605251 -376.39854331436 2895.52372718466 13 16 9
229.21249687318 -375.39075806087 2895.67488040465 13 16 9
205.46329879414 -371.103524015385 2905.65316275135 14 17 10
171.391733026345 -363.965813297828 2924.21933830719 13 16 9
171.840909993313 -366.225653958824 2914.65262775035 12 15 8
171.457710791484 -368.269791152389 2905.71863915475 10 13 6
158.325910479943 -366.809213512898 2907.32243359294 8 11 4
133.342932238893 -362.054214770049 2918.87905942586 9 12 5
146.407867240335 -367.831285322098 2898.6776127097 11 14 7
162.52008525335 -374.496781061549 2875.74055991536 9 12 5
159.6429396536 -375.89353970817 2868.70733981704 9 12 5
132.447383430439 -370.466825457968 2882.36853291104 15 18 11
119.440355788599 -368.996547689056 2884.06312133037 16 19 12
103.354389688895 -366.640757281439 2888.4706478437 15 18 9
88.8797860066464 -364.721724990872 2891.57370536023 17 20 11
89.9551031207948 -367.217033830011 2881.22437335961 17 20 11
87.8986904447396 -368.831454821624 2873.5499809411 18 21 12
88.9028267338618 -371.333008051943 2863.14901681228 16 19 10
78.3389381948036 -370.51571838288 2862.9059770283 15 18 9
57.072434226809 -366.592802811625 2872.2118042391 16 19 8
78.6845067884481 -375.086763660322 2843.37127537885 15 18 9
84.1373128297001 -378.931237850795 2828.777636004 14 17 8
76.6080306219234 -379.003231448543 2825.7895017224 16 19 10
59.2391351081396 -376.183011157516 2831.73943101171 17 20 11
71.3936957764822 -382.039139024506 2810.87792854928 17 20 11
64.6137672113651 -382.334169636724 2807.19655588257 19 22 13
302.432508697501 -391.748692668439 2884.44415705416 5 7 2
262.030481582477 -383.025102889117 2907.07541870621 9 12 5
252.689654442908 -382.662824666858 2905.24632977405 12 15 8
243.366073304892 -382.299328557586 2903.4297490053 11 14 7
255.880454886093 -387.896642412367 2884.06543597475 11 14 7
240.084584206659 -385.767925881218 2887.44707204603 12 15 8
215.499761480417 -381.202102318622 2898.05603999288 14 17 10
185.404503443611 -375.078374026482 2913.32411223762 14 17 10
177.024016928406 -374.925674534532 2910.95509653196 12 15 8
181.411658154298 -378.320269038532 2898.06194291544 12 15 8
161.891934276117 -375.061767320353 2904.9252785397 13 16 9
181.294072077411 -382.681307103363 2879.42759091824 13 16 9
154.699773011493 -377.418940042819 2892.28877907687 13 16 9
156.602342624026 -380.15701316541 2881.30287378862 8 11 4
156.101875928798 -382.23096323091 2872.28372447637 8 11 4
146.946111098649 -381.856142394137 2870.58885469255 15 18 11
108.879374202445 -373.226563027034 2893.67750525131 16 19 12
95.9407262897765 -371.725713078901 2895.42181844973 15 18 9
100.922632832855 -375.360926961806 2881.72291055308 17 20 11
107.392980553389 -379.448761232384 2866.63063956098 16 19 10
91.3739432781697 -377.051941529717 2871.08689202898 16 19 10
80.807606294512 -376.218420662794 2870.84215952948 14 17 8
65.6549980888319 -374.037413465958 2874.69037515841 13 16 7
70.482803278221 -377.68611656358 2860.87998205327 15 18 7
67.6060429469669 -379.094265426236 2853.8466890736 15 18 9
64.7110531691646 -380.504119694246 2846.8004670179 13 16 7
62.5576742185299 -382.140316344439 2839.05567137958 17 20 11
72.5049910878122 -387.380754481118 2820.30231925975 18 21 12
71.7825281111546 -389.474481035643 2811.12213993365 17 20 11
232.768588068106 -384.605048817762 2921.67355742027 11 13 8
282.665523006373 -400.52924507938 2872.54053978471 10 13 6
282.144635630752 -402.621278996908 2863.50649548717 10 13 6
250.154494880628 -395.991646288942 2879.87356257822 11 14 7
228.755452389991 -392.260978806517 2887.84729938177 13 16 9
203.430934324214 -387.403118720611 2899.15656224288 14 17 10
182.209054166175 -383.657860138214 2907.25880170896 12 15 8
185.787842950469 -386.864119959981 2895.01528427726 14 17 10
194.084494040673 -391.422967775154 2878.77448053821 16 19 12
181.685243298248 -390.143105380212 2879.6733638049 15 18 11
193.04323593479 -395.611116079423 2860.706745802 14 17 10
159.356554365289 -388.250686777945 2879.55306024055 8 11 4
163.568671635812 -391.696362613803 2866.5324068259 8 11 4
128.514571023194 -383.867812402895 2886.86048335507 15 18 11
100.660414098301 -378.057416866494 2901.2812227957 16 19 12
93.2030335914726 -378.111756349186 2898.34530101315 15 18 9
104.416244264944 -383.593179187262 2879.27336506327 17 20 11
99.2490672560176 -384.329863502899 2874.28880009599 15 18 9
83.2523246013581 -381.89557062966 2878.76140421922 16 19 10
54.976074623081 -375.828935014042 2894.11278841028 14 17 8
66.8046706365324 -381.550630023011 2874.25070477121 13 16 7
80.0650706686374 -387.735398913419 2852.95385312555 14 17 8
60.5216907187245 -386.48479787152 2851.14402418736 13 16 7
105.503652255786 -402.248408714264 2800.91921857476 16 19 10
85.0179330581247 -398.442149134803 2809.55513133652 17 20 11
39.6793479665054 -387.10338009853 2840.97227288154 17 20 11
