ply
format ascii 1.0
comment KinectMotionCapture
element vertex 764
property float x
property float y
property float z
property uchar red
property uchar green
property uchar blue
end_header
185.759666871403 744.093924220953 2862.64315058653 242 242 244
185.772238409648 743.757681803549 2871.18249493596 243 241 244
184.131427878148 743.732291170146 2878.48357188677 242 240 243
182.506663505886 743.705041531978 2885.76932736634 240 238 241
179.212851943507 743.990631553053 2891.83173949431 238 236 239
178.460433164432 743.802148090516 2899.69198251076 237 235 240
176.881376645388 743.769208257918 2906.93285258265 233 231 236
176.166373797444 743.576197867136 2914.7562722624 231 229 234
173.771008755951 743.697486464575 2921.36804455202 228 227 232
171.38763247493 743.817381625916 2927.96811777451 220 219 224
166.454359144334 744.41223242437 2932.77901243075 216 215 220
163.233288212297 744.689052077065 2938.77082613609 212 211 216
158.304690691648 745.283431353032 2943.57714733475 211 210 215
155.095823556806 745.558843498743 2949.556712676 205 204 209
151.895328773375 745.83330507627 2955.52844248408 203 202 207
148.702867039551 746.107048804387 2961.49230145299 203 202 207
147.249523513852 746.059381259184 2968.61051341361 202 201 206
146.67944818191 745.849574672869 2976.29250039791 199 198 203
145.25985597913 745.798169918655 2983.37808699578 201 200 205
142.984249672285 745.905966220928 2989.87259340488 201 202 207
140.720713093743 746.012522748391 2996.35563547551 207 208 213
141.094823585984 745.633651042542 3004.54226688931 211 212 217
137.983683705466 745.89861707956 3010.42666939464 223 224 229
137.517632771654 745.677347692123 3018.00705281083 230 231 236
135.309231248981 745.778015008611 3024.43621537876 237 238 243
134.878546212931 745.552922807001 3031.98238278792 232 233 238
132.697518736968 745.650905784689 3038.3847592669 223 224 229
133.188788196942 745.259269269478 3046.45693672706 226 227 232
131.925718065999 745.191270806788 3053.38920929466 235 236 241
133.350333926786 744.6319486915 3061.97625315759 221 222 227
132.124204202249 744.560059898368 3068.87241834468 187 188 192
129.124558276308 744.81409569865 3074.64772118915 205 206 210
127.029224919934 744.903516386347 3080.96626764331 228 229 233
123.148601099902 745.320300069383 3086.17509333414 227 228 232
122.873113641816 745.079488758714 3093.56913268961 229 230 234
121.714946471119 745.00120101446 3100.39909366024 244 245 247
122.380288432986 744.59176075025 3108.30070809709 240 241 243
123.975318111038 744.014775201344 3116.72147701008 245 246 248
120.14854144657 744.427188316711 3121.87747764742 254 255 255
119.05553559944 744.34288083674 3128.64328433281 254 255 255
116.154150561473 744.588775046298 3134.32221598651 250 251 253
121.484956496549 743.339684278312 3144.80027798008 254 254 255
124.110637944577 742.584823188263 3153.64045585266 255 255 255
131.35567056276 740.994119905864 3165.10230911031 251 251 251
126.608615522439 741.038695284389 3183.9797234214 239 239 241
130.295720873108 740.102642949372 3193.20991881453 244 244 244
130.307657108249 739.833780944168 3200.32302591612 252 252 252
134.985118978445 738.723445666021 3210.01245090579 249 249 251
138.769484191663 737.777255057686 3219.14756425001 241 241 243
149.120308151898 735.648370251593 3231.85559174029 240 240 242
158.597631796769 733.681323553648 3243.990526879 235 235 237
169.069356475894 731.538894348963 3256.58083786637 212 212 214
178.663378158816 729.558682236464 3268.60149812872 194 195 199
187.374078063753 727.741546383536 3280.05863589882 199 200 204
194.252424004783 726.257660697044 3290.45157969377 173 177 180
198.342308847058 725.278556523476 3299.28817214049 177 181 184
199.626175995351 724.806401219706 3306.58518902119 164 165 167
205.675695061334 723.480327040604 3316.36093636578 154 156 155
210.81655565339 722.320418314436 3325.59752650832 149 149 147
219.805274424641 720.473259154031 3336.78268702404 151 150 146
223.120952395317 719.646672926857 3344.94862693555 140 133 127
232.204851996623 717.789165837604 3356.04080089936 129 120 113
244.21711750649 715.411055006867 3368.55307502755 136 126 117
253.413668960262 713.54110238853 3379.53556132232 143 131 119
264.587593204091 711.32124894851 3391.4396831877 147 131 116
273.894631124925 709.439077851411 3402.31426067321 148 129 114
277.458138628398 708.586510037246 3410.23760442028 160 134 117
278.147811664481 708.249368467995 3416.68780054949 173 146 129
279.825380907147 707.737913342104 3423.59933608504 193 161 146
277.637853378472 707.917696844611 3428.57916781289 187 156 138
275.456906854069 708.097653177012 3433.55243896202 154 121 106
266.451710438885 709.494420611112 3435.20306823422 146 114 101
259.381577343415 710.546594928714 3437.81723821401 131 102 88
255.237427580349 711.078642772895 3441.85380375151 105 73 60
264.834441059091 709.16828922256 3452.44459657567 113 81 66
277.434994841511 706.727691135194 3464.38192734196 137 106 88
275.317644020122 706.905658076947 3469.29200320696 135 104 86
269.257174756883 707.784994362511 3472.34635462113 127 100 81
258.240389721162 709.54442164749 3473.10710152725 118 92 75
256.116589191564 709.7264449629 3478.0229825176 142 119 103
285.783931949977 704.275001641723 3497.54722660106 137 116 99
88.7548878165312 761.632894062167 2614.8782700635 194 196 193
92.8683485394157 760.503685809685 2627.96470242472 197 199 198
100.235535411371 758.769098265167 2643.57724868686 192 193 195
114.09474692418 755.826234574539 2664.25832710732 190 191 193
127.241863807711 753.021938875194 2684.20879857303 184 186 185
140.47864829245 750.20645708761 2704.07188208416 187 186 184
148.138836450629 748.435272850414 2719.39922055492 199 194 190
155.050112278016 746.807062185479 2734.03186144985 186 179 173
156.326819342159 746.230208504505 2744.18561925181 164 151 143
160.895940473162 745.043393148864 2756.82775055457 157 142 135
168.781107075815 743.243964741634 2771.93585658016 166 151 146
174.27127123642 741.892476004101 2785.10496435265 199 186 180
178.170047132624 740.838952427289 2796.97614859866 188 183 180
176.351073761439 740.846800308056 2804.44956908713 198 194 195
177.847705410703 740.241998801273 2814.38873135944 199 199 201
180.20283735573 739.480408417962 2824.91581063428 230 234 237
182.593279258819 738.714425622212 2835.40847579543 236 237 241
187.51125040905 737.483985991607 2847.71064152093 238 239 241
188.312727525528 737.015662838694 2856.90302176175 236 237 239
189.976574537308 736.390004015919 2866.67955725137 238 238 240
187.488961760983 736.530646822359 2873.38007236171 239 237 238
185.851837247804 736.515523834198 2880.67597148836 240 235 239
185.911669477399 736.189304007684 2889.16690393808 238 233 237
185.152605063362 736.014998325723 2897.03131285651 235 230 234
184.413627015227 735.838206369098 2904.87648102897 232 230 235
180.309309163202 736.279770047283 2910.30377572793 227 224 231
177.057580645488 736.565407957205 2916.32472953448 225 222 229
173.813847803717 736.850050923039 2922.33755272694 221 220 225
170.57853036902 737.133678924013 2928.34250714913 215 214 219
166.497212681898 737.572519972434 2933.74736474781 212 211 216
164.132003022982 737.698144702803 2940.3285514182 208 207 212
161.778909676 737.822359917187 2946.89791473758 206 205 210
157.718082564668 738.25891264708 2952.28276310408 201 200 205
152.799901208292 738.852037768861 2957.07892626107 195 194 199
147.018540756747 739.602469597443 2961.29207983941 193 192 197
144.695841789947 739.723442805522 2967.83174025707 194 193 198
142.385132122125 739.842963540789 2974.35970979846 192 191 196
142.694649827627 739.487212863972 2982.60706552635 187 186 191
142.156124303273 739.287168659675 2990.25628020952 191 192 197
141.637365189148 739.084796453863 2997.88654847474 194 195 200
139.387786034446 739.197613186678 3004.35480536156 194 195 200
136.272690176523 739.46822126332 3010.24196447794 194 195 200
135.803073353554 739.260479454439 3017.82422734657 198 199 204
137.995902657945 738.572510739567 3027.08434713268 201 202 207
138.454039871264 738.200265027729 3035.18655945129 209 210 215
135.396030791827 738.464901716318 3041.01825096328 207 208 213
132.345802110024 738.728865444201 3046.84197804671 183 184 189
131.080936515554 738.671471841678 3053.77446614242 168 169 174
132.503978306386 738.130792367698 3062.36065554784 202 203 208
133.061165169206 737.748018882889 3070.36572825852 202 203 208
130.958195907411 737.84583226993 3076.69061684234 221 222 226
128.866873114823 737.942531247432 3083.00410501932 233 234 238
125.888900142419 738.199672741373 3088.75742728037 220 221 225
126.519920157407 737.809406410285 3096.6906278609 223 224 228
126.271689889857 737.57872172774 3104.05610371201 219 220 224
126.947131714869 737.183798822888 3111.94588101808 222 223 227
126.739536241157 736.94898091106 3119.2719546497 227 228 230
122.918903023741 737.36297830037 3124.42162059831 231 232 234
120.922065170017 737.451127173134 3130.642547536 238 239 241
118.936787135667 737.538349466426 3136.8521323502 238 239 241
120.61819517443 736.97118564866 3145.18533678452 245 244 249
117.747410912289 737.219426908889 3150.8331966804 253 252 255
117.637574198315 736.975646175183 3158.06351911962 250 249 254
116.627058556083 736.8941485113 3164.74699652253 237 236 241
118.396412508086 736.318315435653 3172.99415067745 225 224 229
118.345700461876 736.068909131744 3180.16659290438 238 237 242
123.86638244788 734.829080919841 3190.45473617075 246 246 248
126.647317812114 734.079696320116 3199.14027302858 240 240 242
131.317225480331 732.996731403422 3208.83315412502 235 235 237
137.887714251152 731.57854578976 3219.52209419888 228 228 230
149.170030543188 729.326658575704 3232.74056289559 226 226 228
161.45280113873 726.901266303418 3246.40845681103 223 223 225
169.119476689102 725.299276096588 3257.45328060648 190 190 192
178.713602568014 723.358854806404 3269.46795633451 191 192 196
187.424644564573 721.57870825042 3280.91928740064 193 194 198
194.303167938643 720.126584393148 3291.30736061747 178 182 185
199.338112789715 719.003910403787 3300.64362337869 175 179 182
201.570983321901 718.379550461081 3308.43767096722 160 161 163
204.779052429488 717.584928314797 3316.70574379333 152 154 153
207.066627460924 716.955323127883 3324.44624425023 148 148 146
210.332846869695 716.155093346042 3332.65706393174 146 147 142
216.492833108317 714.846569340009 3342.32085967497 143 138 134
223.650683390421 713.365069801478 3352.43589885577 139 132 126
242.353993813087 709.851983088665 3368.39099416345 125 116 109
255.387646114902 707.343029423572 3381.32526393986 123 113 103
264.641465041626 705.503728354838 3392.24601465978 120 106 93
271.056471838768 704.167418648453 3401.66067793288 119 103 88
273.648619813207 703.506257586481 3409.10339689951 135 114 97
274.330864955037 703.182920663407 3415.55859087484 146 123 107
276.001444857395 702.687842418373 3422.4749842748 160 133 116
274.778581076474 702.702596780175 3427.93819119342 154 127 110
274.539929804567 702.546201502056 3433.86626570101 146 117 103
267.485276234186 703.586753492019 3436.4667820585 138 108 97
268.239542959337 703.258982603374 3442.8514507171 137 107 96
259.215281701686 704.646064854366 3444.52244312553 133 104 90
259.004780772049 704.490058651777 3450.4228442639 143 111 96
270.610411781104 702.268074025641 3461.89892775999 147 116 98
273.407703897669 701.590486297185 3469.14036341503 135 104 86
268.331260189412 702.291515352433 3472.66048811303 123 94 76
259.292364631222 703.685736646011 3474.34529529285 108 81 64
254.197573115255 704.391306511453 3477.88330634737 136 110 95
256.049723028444 703.885204253557 3484.62068954476 128 105 89
273.846812539723 700.599628052904 3498.60789318208 112 96 81
91.1991519308914 753.612454050225 2617.88756299131 193 195 194
100.916254462475 751.48625192537 2635.47589236639 193 195 194
113.112473692357 748.909421052954 2654.91975289723 189 190 192
131.823696384789 745.142835910758 2679.40625190953 189 190 192
141.790627021958 742.985433827721 2696.75110962282 185 187 186
148.60165980239 741.410123062228 2711.47581260521 187 187 185
153.852411565265 740.123548700333 2724.87306611143 198 194 191
162.399621819672 738.237281057115 2740.7534971229 201 196 192
166.946698411627 737.085487676069 2753.41268058825 163 154 149
171.54063135847 735.927800344882 2766.0258682818 150 139 135
176.181797874178 734.764204402747 2778.59336347533 189 178 174
177.593262435444 734.191663182321 2788.61232986879 204 194 192
180.678486298847 733.31607981743 2799.84817450656 194 190 189
181.333938687886 732.884740581989 2809.18009325352 195 193 194
186.14183622382 731.700125545507 2821.5851286922 220 224 227
186.862212307333 731.260601646783 2830.85378694045 227 231 234
191.754377227383 730.065540274059 2843.17668758494 236 237 241
193.37034876188 729.467276669001 2852.99637728802 236 236 238
195.018013845378 728.865063519419 2862.78551641138 233 233 235
193.358470894851 728.863381120266 2870.10169086454 235 235 237
190.878501744966 729.011080086543 2876.79357284349 236 234 237
189.249018422464 729.00560819365 2884.08045772717 238 233 237
188.476034115206 728.846253314629 2891.95681742519 237 232 236
186.880415167523 728.836571248034 2899.21069674591 233 228 232
185.300739614159 728.824938232081 2906.44903238984 230 228 233
181.19826882258 729.268863687314 2911.87414386085 225 222 229
177.100429949856 729.712192177667 2917.2950818411 223 221 226
174.706875838882 729.849115092862 2923.90274510461 218 217 222
171.473213614119 730.13779569179 2929.9049712651 214 213 218
167.393828560258 730.578928760618 2935.30757097077 211 210 215
164.17474619142 730.865876236786 2941.29591311558 207 206 211
161.821666257221 730.997932614196 2947.86410419539 204 203 208
158.620779076353 731.282822173116 2953.83468240884 196 195 200
153.704640158903 731.875512906539 2958.62888159619 189 188 193
147.925050671495 732.622962980016 2962.84037944108 186 185 190
143.00763354688 733.216109695894 2967.63578051303 189 188 193
139.825705247234 733.499021968376 2973.58782451923 188 187 192
139.259851349505 733.315278143946 2981.26176749213 182 181 186
138.71380637916 733.129200958037 2988.91672261911 179 180 185
137.314003673003 733.09677911408 2995.97951444645 188 189 194
135.929929621364 733.062669267434 3003.02693697341 190 191 196
134.561837414723 733.026767492682 3010.05909198021 192 193 198
137.60449207204 732.206822021822 3019.91173805276 195 196 201
138.920198170383 731.696375133177 3028.59970718263 203 204 209
138.49752128781 731.496573473187 3036.13418444601 201 202 207
136.324471883756 731.609177427162 3042.52647760774 181 182 187
132.389614997769 732.035392678255 3047.78776355314 183 184 189
132.013781787487 731.830806036761 3055.27643157563 194 195 200
129.876055522456 731.939900449025 3061.63416704687 202 203 208
130.427528318008 731.573650958685 3069.64247167165 207 208 213
131.002591913639 731.204827217029 3077.62806859843 224 225 229
130.704464983032 730.992095591421 3085.04077696159 213 214 218
129.527197037043 730.936278242305 3091.88604632786 230 231 235
129.265924401517 730.719785079609 3099.26271378474 225 226 230
128.121471082452 730.660774426589 3106.07586971031 195 196 200
127.896628944405 730.440704128789 3113.41655200167 214 215 219
127.691252365463 730.218697569497 3120.73852872567 216 217 219
124.78081626723 730.474768077378 3126.42460632157 215 216 218
122.788159045908 730.570173800095 3132.64030927022 230 231 233
119.895142836809 730.825096655127 3138.30959612328 243 244 246
119.750932045954 730.597456123199 3145.57132917222 252 251 255
116.878909617894 730.85079381743 3151.22000317644 221 220 225
114.931938951067 730.942562901777 3157.39087619467 222 221 226
113.915928852893 730.87213641483 3164.07817335843 227 226 231
117.522937559067 729.992118250363 3173.37962407765 217 216 221
119.317415279832 729.432164855417 3181.59948294892 240 239 244
125.765904656332 728.058948516883 3192.40326162759 235 234 239
127.623464371247 727.492516854904 3200.56143663119 221 220 225
133.224820610375 726.273005254824 3210.76646638527 219 218 223
139.79956493307 724.886172258446 3221.44688457206 220 219 224
153.885291585572 722.189700075869 3236.19830059814 217 216 221
165.242613273155 719.974352924572 3249.33688722297 173 172 177
169.169254611046 719.059936870772 3258.32602200687 170 169 174
178.763654754564 717.159284963051 3270.33454748873 179 180 184
185.592955716638 715.744311968915 3280.76634624895 166 167 171
191.525172885746 714.488574192309 3290.64818042161 169 172 177
195.609991475026 713.557401699268 3299.482719451 165 169 172
199.728901282873 712.62275703001 3308.28391858252 154 158 159
202.93316663605 711.849679316371 3316.55224649326 149 153 154
205.21734450339 711.238664794527 3324.29337269214 136 138 137
205.622915661207 710.956208805698 3331.01760368136 129 131 130
207.955760053391 710.340769191085 3338.71105732843 125 124 120
212.227651403691 709.390966585478 3347.36258386319 123 120 115
228.990943921845 706.27706710744 3362.35065161039 114 109 103
250.639916771489 702.321216849699 3379.69716663691 113 106 100
255.073523210023 701.353517216295 3388.19041502936 90 82 71
258.577129983791 700.549471137386 3396.16640743723 93 83 71
262.110579250165 699.742442570761 3404.11286877718 103 89 76
268.578069273161 698.43023927843 3413.4718525137 127 111 96
275.087008433353 697.113649265236 3422.78998715768 134 115 101
276.778314553282 696.632351484913 3429.68376237053 113 94 80
272.649086182266 697.158095588548 3433.70644243525 120 98 85
267.542710985865 697.853521940058 3437.25711762061 117 95 84
268.297456095001 697.538486978857 3443.63942887232 129 107 96
270.049952991003 697.053190164996 3450.47303179537 147 124 110
266.916492615358 697.411988883388 3454.94848329328 154 128 115
271.653662033472 696.416090944409 3463.14479469876 141 113 99
271.497051023565 696.265274770848 3468.99057742419 127 98 82
267.40513114868 696.79333283609 3472.97586759821 116 87 69
261.332946345483 697.663013981323 3476.04294190029 101 74 57
254.260521923245 698.705380449835 3478.66117463923 136 110 95
252.140496215829 698.897247433564 3483.57185228547 127 104 88
240.075170954928 700.79860662205 3483.93592834439 105 87 73
91.953772465708 746.236037839028 2609.72631314919 191 193 192
97.6321964007845 744.887040202248 2624.12501731674 191 192 194
111.363002459827 742.08879816342 2644.91222923399 192 193 195
125.98883000346 739.134496442118 2666.25030861483 190 192 191
138.301514944548 736.601997973639 2685.57230250482 188 190 189
144.255470758959 735.218324134273 2699.70252457069 188 190 189
150.264253520736 733.827620549375 2713.77934166065 187 187 187
154.709123545858 732.720790971679 2726.53337212725 189 189 189
165.691888666887 730.442975867313 2744.30419749097 196 196 196
171.872822309036 729.030687866232 2758.21325637914 189 189 189
176.478194052784 727.903683465463 2770.81088809654 188 188 188
179.496165860146 727.063409106876 2782.10829636442 189 189 191
179.276962140053 726.804504205951 2790.86636652048 190 190 192
183.186744012926 725.808444039728 2802.71812860198 201 201 203
182.201880777886 725.689185789784 2810.79896094317 211 211 213
189.485975105081 724.094703752558 2825.05640248008 229 229 231
190.213854289476 723.672986055569 2834.3149782894 233 233 235
194.284730131675 722.656722334579 2846.01009559651 233 231 236
195.075640458675 722.227117529367 2855.20724626061 232 230 235
196.726727011441 721.645832802315 2864.98955676071 232 230 235
194.236417270273 721.802796156002 2871.69033782725 234 232 237
193.431402136039 721.660806226455 2879.59593807801 234 232 237
191.807539362374 721.665358100494 2886.87576016524 233 231 236
190.19972735293 721.66782755184 2894.13995138748 232 230 235
187.765583849486 721.817592321165 2900.78602249731 228 226 231
187.032145267345 721.666696967575 2908.62186239153 226 224 229
183.779728106051 721.962931180986 2914.64159606032 220 218 223
178.83927260744 722.55833359288 2919.45954118734 217 215 220
175.599608679964 722.852888051792 2925.4671968154 213 211 214
172.367811799954 723.146581719931 2931.46682973153 211 209 212
168.29061149282 723.590020957176 2936.86725694272 207 205 208
165.073269368225 723.882010311371 2942.8527879699 204 204 206
161.864257077887 724.173054457346 2948.83052489188 202 202 204
157.803554262015 724.614603868072 2954.21451132391 178 178 180
152.885502611133 725.207476763109 2959.01058296043 171 171 173
147.104321946298 725.95216595055 2963.22440676776 176 176 178
143.050546734024 726.3931368709 2968.60159948763 181 182 184
139.868655541501 726.681292690998 2974.55283165187 181 182 184
139.302765513844 726.510821407276 2982.22484882659 180 181 183
137.885562174629 726.490840727498 2989.30341878316 174 175 179
136.483877893622 726.469152537061 2996.36649261284 174 175 179
135.097964784288 726.445770983973 3003.41415571417 176 177 181
134.60502204916 726.267151935911 3011.01527722707 182 183 187
135.010498401406 725.932457665343 3019.16389463057 183 184 188
137.201619497509 725.287148814425 3028.4197434255 188 189 193
136.774912861974 725.101077223867 3035.95585515288 189 190 194
135.483115202886 725.067469012075 3042.91190955851 198 199 203
133.320153623131 725.186879964736 3049.29317929016 204 205 209
133.83483931229 724.840305124433 3057.33510615072 210 211 215
129.919935035427 725.267058373179 3062.57683718648 219 220 224
128.686587990142 725.22750982252 3069.47538940605 222 223 228
129.257893307599 724.874963517041 3077.46231256065 208 209 214
130.748785573225 724.364014218908 3085.97639349259 199 200 205
129.571804965758 724.318598128493 3092.81984022597 177 178 183
129.310624290276 724.115302389903 3100.19446579165 182 183 187
128.166501903904 724.066569562194 3107.00577403807 214 215 219
128.846075795803 723.702850973301 3114.88683615636 217 218 222
126.830653562762 723.807790064859 3121.12373607043 210 211 213
126.642672645532 723.597166374003 3128.42641842023 220 221 223
123.744257809908 723.857310411328 3134.10029450077 229 230 232
122.677110833973 723.801409269582 3140.83622450041 224 225 227
119.797524393986 724.060195196427 3146.49126659189 225 224 229
117.841431336864 724.160367468676 3152.66995629104 206 205 211
114.979094717393 724.418027182522 3158.30837335153 226 225 231
114.882920158311 724.199191064588 3165.52110442367 210 209 215
119.413891426796 723.183615877983 3175.34232908822 218 217 223
123.982825425831 722.164093487469 3185.12610175316 242 241 247
128.590274581502 721.140305337745 3194.87225877556 214 213 219
130.453958820834 720.591499856011 3203.02174689413 215 214 220
134.202649371728 719.720228422438 3212.1808748421 214 213 219
142.642046203188 718.04449995929 3223.88652062431 213 212 218
159.53303397129 714.919366949555 3240.16669257142 193 192 198
167.161927552475 713.390248754856 3251.23826396923 160 161 166
169.218691857248 712.820699561372 3259.19908664011 168 169 174
177.874388263837 711.121018392114 3270.69314610423 176 177 182
184.702038959827 709.737978668886 3281.12186387958 159 160 165
189.689869144452 708.673077830329 3290.49637335461 171 172 177
193.770987836447 707.766031305458 3299.33068278715 168 169 173
197.886365364672 706.85547843559 3308.13182876712 156 157 161
200.138664959675 706.26605538679 3315.90141935139 149 150 154
202.417402685487 705.674124955088 3323.64512707104 114 115 117
200.912591474829 705.730850872454 3329.38210857776 113 114 116
196.555513185817 706.276060972882 3333.62816991346 115 117 116
193.154069094222 706.65884143365 3338.36652655378 104 103 101
200.296154317373 705.243546383334 3348.48743567672 106 105 103
226.687907487866 700.548111660507 3368.318494425 107 103 100
243.581429966527 697.478047729431 3383.17110086356 100 95 91
248.990266039222 696.369271546105 3392.13403002493 112 105 99
253.470917005458 695.42104372878 3400.578022422 138 129 122
261.856915927705 693.810469025718 3410.90947841843 148 139 130
270.29243572902 692.194640861135 3421.19287375121 137 124 116
273.918355076037 691.399470495412 3429.0460961392 126 113 105
271.731286841991 691.594364122848 3434.02290066883 113 98 91
266.623919477877 692.286541291845 3437.57537916115 107 92 87
263.466692013031 692.648336229474 3442.07398889008 124 106 102
269.128437004368 691.514858017317 3450.78976454762 132 115 107
269.919827814425 691.209899558942 3457.13385893188 149 130 123
271.712854767228 690.736889091237 3463.92539899279 123 96 87
270.571638875826 690.762991998551 3469.30585104007 113 85 74
266.478492465561 691.290497062148 3473.29244091526 107 73 64
263.373123518216 691.65176922995 3477.73963163486 115 81 71
256.305204107125 692.684735484163 3480.35444233671 133 103 93
250.217364103088 693.552426266928 3483.43769450134 130 102 91
236.15889836648 695.768313884243 3482.90034487482 105 88 80
243.995330596669 694.284178478965 3492.34193172984 114 111 106
93.5966096250556 738.36323269297 2612.09270520417 191 193 192
105.660588034303 735.920833623697 2631.64801386298 191 192 194
129.006618002089 731.486212161806 2660.13294780241 191 192 194
144.476252534377 728.451864298435 2682.06219231431 189 191 190
148.796889414249 727.393070168419 2694.93248851247 188 190 189
153.164656559561 726.328334519576 2707.75686181422 188 190 189
156.771849338061 725.400081836362 2719.89907742314 187 187 187
162.041140359873 724.180812490375 2733.26797351922 190 190 190
171.418036694806 722.240410157869 2749.74942438887 189 189 189
175.985657338994 721.150302893471 2762.37909012556 196 196 196
178.969816832099 720.3411219304 2773.70547893104 193 193 193
178.724679445373 720.101584869852 2782.4864390431 188 188 190
180.960635689604 719.427196320863 2793.11897315754 192 192 194
183.23175553281 718.748446848233 2803.716895999 208 208 210
187.184548163857 717.776435867861 2815.52273114464 217 217 219
192.005148326533 716.654449553388 2827.90555834743 228 228 230
193.565582242977 716.105926708831 2837.77338390556 230 230 232
195.98604305183 715.408409403378 2848.22578283796 231 229 234
197.611486235565 714.851632138898 2858.03027323231 230 228 233
200.933506679058 714.00003534112 2869.02743016141 230 228 233
200.121781057116 713.872349305522 2876.93724207439 231 229 234
200.166569221947 713.596144584819 2885.43572129202 231 229 234
195.204344940382 714.194291297696 2890.27487753582 231 229 234
191.083137481388 714.645813995216 2895.71780976745 230 228 233
186.123891554648 715.243349363837 2900.5540988173 225 223 228
184.542108866569 715.253210763229 2907.79135001196 223 221 226
182.130085542064 715.408265661751 2914.41467357831 216 214 219
178.881914686159 715.709212786453 2920.42949403685 213 211 216
174.792191718365 716.156707394764 2925.84175705312 210 208 211
172.410400002946 716.308023125336 2932.43527499014 209 207 210
170.040849699971 716.457900531105 2939.01718744941 205 203 206
165.971788453599 716.902967307608 2944.40929190335 199 199 201
161.049148719616 717.496005821636 2949.2098950958 198 198 200
156.986465881804 717.940458442781 2954.59541862565 176 176 178
152.06654509166 718.533390066042 2959.39333766509 164 164 166
147.147006417395 719.126332486351 2964.190875662 167 167 169
141.36244915158 719.868734781979 2968.40839048564 173 174 176
137.309074339492 720.312367791542 2973.78479214658 172 173 175
135.868182730303 720.305647008303 2980.88458725649 180 181 183
134.443019775632 720.297238222376 2987.96901306602 173 174 176
133.033881183113 720.287032148379 2995.03812992742 171 172 174
132.515398784548 720.124442053957 3002.66190578931 173 174 176
132.893816084176 719.808831676857 3010.83491048295 178 179 181
134.174620784351 719.339463274083 3019.55146583487 179 180 182
132.839837452355 719.320958014827 3026.54763559737 184 185 187
133.286613181318 718.997732441588 3034.65388488281 188 189 191
132.87194014416 718.82369361693 3042.17660647356 202 203 205
133.363608064381 718.495457326767 3050.23901773124 208 209 211
133.87840399789 718.164731202735 3058.27849268418 212 213 215
130.854301453828 718.441486767548 3064.0747233407 214 215 219
127.838061890757 718.717545922803 3069.86324886989 205 206 211
127.512915199065 718.534120920141 3077.29811890717 196 197 202
128.103714813636 718.195392444867 3085.26364166729 183 184 189
126.022846269637 718.314596904122 3091.5634223205 185 186 191
124.853759801742 718.279035896053 3098.39757347972 209 210 214
125.504623769531 717.934091637681 3106.30437013921 209 210 214
125.274312385583 717.740951953014 3113.64650313974 194 195 199
124.157676710842 717.700180902984 3120.42967776991 234 235 237
123.056132768736 717.65799208878 3127.19773778942 218 219 221
122.879846148078 717.459633882597 3134.48699469656 188 189 191
121.811241394899 717.414281992387 3141.22315095778 197 198 200
118.930121081358 717.678273638615 3146.87894680532 196 195 200
116.972427939189 717.786254605625 3153.0580712909 227 226 232
115.943691110886 717.737599863887 3159.75478843138 223 222 228
117.688991362807 717.21946324148 3168.01730075547 211 210 216
122.225632638207 716.229722270236 3177.8287388916 205 204 210
125.877311007178 715.392368253889 3187.07952623286 205 204 210
129.563464864626 714.551316711518 3196.29662539715 187 186 192
128.647412471218 714.491581654083 3202.88308289382 198 197 203
132.392737283139 713.644485924548 3212.04231775384 198 197 203
145.48425237073 711.219019799641 3226.32403666634 184 183 189
161.447719687576 708.312212822245 3242.07573448087 165 164 170
166.275557157635 707.290833262824 3251.60268666054 165 166 171
169.267828790832 706.581794955283 3260.07240031481 172 173 178
176.984915135879 705.077470676701 3271.0527304644 150 151 156
181.92914303385 704.043777007533 3280.46592524864 144 145 150
186.911502357053 703.00598389225 3289.84186086027 163 164 168
190.04239741718 702.282490347169 3298.17571803817 165 166 170
194.150458639059 701.396506313386 3306.98049795525 129 130 134
195.44688684624 700.985923101716 3314.25594119047 127 128 132
196.76592717886 700.573255867088 3321.50923826853 116 117 119
199.059669052224 699.99853982396 3329.23550236875 112 113 115
191.83620857808 701.024637497527 3332.00578281876 107 108 110
183.644068382363 702.213734929571 3334.29697594117 106 106 106
184.059546184301 701.958230187808 3341.00704826179 104 104 102
196.975943181894 699.60733962736 3354.0347304728 105 104 102
222.468222558424 695.151580054852 3373.30630895289 120 119 117
240.367373995276 691.974183436413 3388.59308401207 145 144 140
260.286724663531 688.462925619894 3404.75727238715 157 154 149
276.430068433674 685.588536132508 3418.90864961591 158 153 147
287.804536526768 683.516431937175 3430.59212904254 155 148 142
275.916904243123 685.338291831916 3430.79116546717 139 130 125
273.734508804609 685.53741878509 3435.76304200006 124 115 108
267.655951913178 686.38867939586 3438.83916642689 112 101 99
260.59110859335 687.40538220766 3441.45366409633 124 110 109
257.431302635358 687.770509615471 3445.95434176943 131 118 112
271.941073350485 685.188333659076 3458.85087352277 149 134 127
271.771574696463 685.058307046438 3464.70638118129 108 85 79
268.660169390236 685.420222255537 3469.15947105327 94 67 60
263.576673510954 686.111925704107 3472.68831482394 155 122 115
262.444767480144 686.146319452217 3478.05829665938 120 85 79
256.366987425494 687.005531375183 3481.13247447533 132 102 94
248.293561486598 688.197589512113 3483.30534499491 113 86 77
236.222690666684 690.055096858022 3483.68140915909 84 67 59
240.07139275413 689.265495941412 3491.31224398836 145 141 138
98.4226425835759 729.946585850299 2617.04649145241 190 192 191
118.475221698398 726.1756265367 2643.03546884444 191 192 194
142.651035116786 721.694818902051 2672.12015116486 192 193 195
153.343235519545 719.560708448285 2690.15860994654 189 191 190
154.470305179482 719.088944401976 2700.44508985882 188 190 189
161.267778646949 717.63599322231 2715.16517274607 188 190 189
164.086576673664 716.874607453265 2726.64870382338 189 189 189
168.563322408045 715.828225401186 2739.3618092796 189 189 189
173.087410158208 714.775685191395 2752.02915142932 189 189 189
175.218678812357 714.138907270715 2762.76008303384 188 188 188
178.200553538066 713.356727217274 2774.08474992448 188 188 190
181.221735372841 712.569591878171 2785.3711166638 194 194 196
183.463000509909 711.918724315651 2795.99456473566 199 199 201
185.739828795519 711.263360415273 2806.58370047405 215 215 217
189.698092527035 710.320085160168 2818.3798556084 221 221 223
195.348998799481 709.087629731408 2831.37141317458 226 225 230
197.743705895132 708.417405334007 2841.84568988701 226 225 230
198.516161962042 708.027572186321 2851.05528767056 228 226 231
200.147127147702 707.491622407423 2860.8512163421 227 225 230
202.642174188776 706.808807534392 2871.22771487222 228 226 231
201.834132149392 706.693984079467 2879.13196784947 228 226 231
201.046218993064 706.576668989914 2887.01693865278 227 225 230
197.76260360208 706.887450624665 2893.06550252233 226 224 229
194.487489729492 707.1970885012 2899.10613114739 224 222 227
189.535832037762 707.793785189879 2903.93500892423 220 218 223
186.273157422241 708.101808969494 2909.96318590397 219 217 222
183.018813179483 708.408828504174 2915.98357696936 212 210 215
180.620790872987 708.570020174657 2922.59209030564 209 207 212
176.53470259856 709.019723207217 2928.00007977153 206 204 207
172.452908556707 709.468884883528 2933.40388501322 203 201 204
167.521595861774 710.062957793265 2938.21294770086 198 196 199
162.590751394045 710.656912706697 2943.02156287178 185 185 187
157.660417132166 711.250803300574 2947.82968090715 184 184 186
153.590225668429 711.698725124953 2953.22248570881 189 189 191
150.385753805971 711.999765335699 2959.19389866279 187 187 189
144.598968979352 712.73961794709 2963.41400232945 161 161 163
137.942983585222 713.62675811021 2967.05821881325 152 153 155
133.014600804375 714.220874439508 2971.86436563551 155 156 158
131.564299094581 714.225882331 2978.97210946342 165 166 168
132.743457026394 713.786664953464 2987.78514525057 172 173 175
130.457070765647 713.935316316045 2994.28465579517 170 171 173
129.057785629762 713.934613421604 3001.3422456207 170 171 173
128.551212267571 713.784025865185 3008.95242166355 173 174 176
130.701557034162 713.186020229444 3018.24177056192 174 175 177
129.359194828653 713.178966858732 3025.24377367373 182 183 185
128.915407697643 713.02145353238 3032.79296352863 185 186 188
128.49105066452 712.861798615501 3040.32283769325 196 197 199
130.74674055356 712.25186883622 3049.50933971095 199 200 202
131.255779902646 711.937672066619 3057.55208800596 199 200 202
129.116648292719 712.070472206703 3063.90771530923 196 197 199
126.096705404215 712.352128512875 3069.69909103886 193 194 199
123.97903849507 712.482930312283 3076.03369893083 187 188 193
123.665758322598 712.311513207586 3083.45501057703 177 178 183
121.575379887347 712.439700424834 3089.76290704512 207 208 213
120.397012485833 712.415674901466 3096.60490721102 215 216 220
122.842682216024 711.785287343224 3105.60544224684 208 209 213
121.702786135389 711.757427406535 3112.40946870502 206 207 211
121.484550328464 711.576374164518 3119.73816195009 220 221 223
119.469619917147 711.697231806109 3125.97222072318 179 180 182
121.105721502489 711.208429180911 3134.33883338546 158 159 161
120.033281297811 711.174129268155 3141.07682698728 203 204 206
118.976186554756 711.138248629091 3147.79981594952 204 203 208
117.934391525123 711.101146843965 3154.50779255501 221 220 226
118.743236213942 710.756336006501 3162.25769230358 215 214 220
119.575119815264 710.409210436308 3169.98505618795 196 195 201
125.037266903214 709.291927596503 3180.31321332091 193 192 198
125.924623543608 708.939106082487 3187.98633351544 192 191 197
127.76029954883 708.429920405501 3196.15777843469 184 183 189
124.98627852289 708.689596583811 3201.70819877269 197 196 202
133.370116640102 707.094419343917 3213.45677190185 192 191 197
148.325927794262 704.40982297599 3228.75967307506 171 170 176
158.696706230098 702.491064179471 3241.41682894364 156 155 161
162.584055958096 701.65206920506 3250.43383367441 163 164 169
167.442640181516 700.65399815784 3259.92680888555 168 169 174
173.278451368151 699.49608255412 3269.89025539151 144 145 150
177.2743293785 698.645659718591 3278.80084112445 145 146 151
180.361924885162 697.947838039799 3287.17423895039 156 157 161
184.424243206336 697.090572536885 3296.01985981577 156 157 161
187.574494997099 696.386385227403 3304.3319798628 119 120 124
188.857770250549 695.993086893561 3311.61792947811 120 121 125
190.163700146591 695.597699176796 3318.88169150831 117 118 120
191.491819447481 695.20029376563 3326.12337950384 114 115 117
188.070997201751 695.589114249048 3330.88008622496 108 109 111
179.87160738279 696.767816634519 3333.17967687177 107 107 107
175.488928381868 697.316843799726 3337.45059593234 104 104 102
184.547521980691 695.649386107389 3348.54014775483 116 115 113
208.090483424308 691.596849582685 3366.85401293271 134 133 131
226.924645493797 688.325386532058 3382.64312090701 157 156 152
280.099607321936 679.085122597157 3427.56189516021 157 152 146
286.661058435313 677.849733647017 3436.81622101874 156 151 145
281.579483147735 678.531081820744 3440.34468811856 152 145 139
274.541601974091 679.534668807146 3442.93401264953 153 143 141
264.558146414228 681.022581262208 3444.12568720171 157 147 145
255.529554091387 682.353717377016 3445.8092492364 153 144 139
264.146796657072 680.788986047761 3455.90463908785 166 155 149
265.929294259161 680.348261605921 3462.70186308915 114 97 90
265.762968186563 680.228921178363 3468.55264091393 101 81 74
261.661671137623 680.756067992051 3472.547377443 205 178 171
261.51577777619 680.636127152275 3478.3779540242 104 75 71
254.445975835297 681.651715496668 3480.99754039546 107 82 77
247.36264619718 682.670083699028 3483.62981126624 108 88 81
237.280805354062 684.179775225732 3484.91596492182 143 132 126
239.138195001078 683.736803648473 3491.63915214103 217 216 212
98.3929655310556 722.658281445761 2608.23379066231 188 190 189
104.839964768447 721.289670882436 2623.28943413472 190 192 191
129.69377052539 716.787002013294 2653.12100043901 192 193 195
150.697287588602 712.946832085337 2679.59349669113 192 193 195
161.408090602533 710.864051146857 2697.60555848298 190 192 191
164.161355286907 710.138111525903 2709.14892621278 189 191 190
168.564910796679 709.133212212666 2721.92857951331 189 191 190
170.593384412618 708.533747365236 2732.75607325443 192 192 192
175.894733532882 707.380255677109 2746.08341327574 191 191 191
178.001909093798 706.77057435486 2756.83426481259 193 193 193
179.331062406131 706.294327355416 2766.92073524921 186 186 186
180.692017714382 705.813881264684 2776.97658429962 189 189 191
185.352803622635 704.776377066016 2789.50562299972 200 200 202
187.603625004563 704.14840999911 2800.1165347379 205 205 207
190.710808942653 703.377145606762 2811.31515439829 219 219 221
194.680135615846 702.462091080879 2823.09581501457 223 223 225
199.517705938849 701.402228391007 2835.4529465947 226 225 230
201.094863965706 700.894480581359 2845.29780048961 227 226 231
203.53239889183 700.243034274278 2855.72677313972 226 224 229
205.174732726627 699.727115949354 2865.50845193445 226 224 229
206.015853359254 699.347319660119 2874.6483813459 227 225 230
203.546412415426 699.525711451514 2881.32527227446 226 224 229
201.925552311523 699.561904864097 2888.59743606064 225 223 228
199.482366248926 699.736927841714 2895.24875341322 223 221 226
196.210799061127 700.051438834571 2901.2848020414 221 219 224
191.263010968938 700.647588729915 2906.10991806451 218 216 221
187.160144251953 701.10204751104 2911.53420371633 216 214 219
183.061405226895 701.555881031268 2916.95414508033 210 208 213
179.815218867712 701.867120360656 2922.96581156293 207 205 210
176.577155197429 702.177407702782 2928.96921495667 201 199 202
172.495337461237 702.629166994506 2934.37265980076 196 194 197
166.710238267526 703.365799694935 2938.59156551046 191 189 192
160.921737701478 704.102861192393 2942.81378545715 176 176 178
156.8451915539 704.554014885436 2948.21208504303 173 173 175
151.91332667447 705.148098437977 2953.02169448505 175 175 177
148.705232454412 705.454889460929 2958.99619236813 190 190 192
142.914394280312 706.192435595413 2963.22032412305 175 175 177
136.254884536986 707.074581888804 2966.86911627146 154 155 157
131.322718806429 707.669057181368 2971.67896656409 150 151 153
127.260241528833 708.118909020417 2977.06348796756 156 157 159
127.558486379155 707.844364288342 2985.31003560412 164 165 167
126.133766780513 707.857187356702 2992.39088309576 165 166 168
127.350292882991 707.432365027277 3001.16468415522 165 166 168
125.963193668301 707.440963130006 3008.20913633953 163 164 166
126.349441247139 707.156457701308 3016.36943031038 163 164 166
124.997625885363 707.161197402004 3023.37941537729 171 172 174
125.426938494844 706.871793661357 3031.49766910446 173 174 176
124.995145434517 706.726272153082 3039.03317628439 179 180 182
127.242905789667 706.138583832985 3048.22392732651 182 183 185
127.74456991301 705.841166404191 3056.27185719246 185 186 188
128.269571645951 705.541278649499 3064.29697758017 187 188 190
126.140399770353 705.680960904871 3070.64169754639 183 184 188
122.23392706122 706.114801956497 3075.8736704946 175 176 181
120.124263558803 706.252791466198 3082.19926854493 196 197 202
118.924675497781 706.241537851382 3089.06011561492 210 211 215
118.640856648849 706.080428221524 3096.45098613304 211 212 216
119.278548740271 705.768810747282 3104.36593697634 215 216 220
117.227076143748 705.901115495821 3110.63459080212 186 187 191
116.999241913676 705.734376404943 3117.97036195599 139 140 142
115.882711370174 705.714951854546 3124.74993934397 145 146 148
119.331229627559 704.946551485809 3134.19227636029 179 180 182
118.255208238879 704.923081551659 3140.93222546466 197 198 200
119.022081959537 704.598245059417 3148.72085080556 212 211 216
117.980574806934 704.571485496279 3155.42701296901 210 209 214
119.70721844464 704.092025633647 3163.70233517861 198 197 202
117.782622396394 704.212404426318 3169.84676136744 191 190 195
122.319714930753 703.275619541718 3179.64992451027 184 183 188
124.125123710514 702.788045077115 3187.84856894607 179 178 183
125.957101700514 702.297841805222 3196.02088045791 182 181 186
121.325042971291 702.866159669407 3200.53658611831 185 184 189
136.205650431748 700.246192812677 3215.90427561556 173 172 177
150.235952414995 697.768936596824 3230.6783291334 149 148 153
157.811782423192 696.349172635549 3241.78643093566 149 148 153
157.957588597464 696.14439839617 3248.75713106493 159 160 164
164.680431075103 694.868344886213 3259.27377459286 154 155 159
170.510704111805 693.740258054571 3269.23831188408 138 139 143
172.619629664728 693.220802149197 3277.13993389836 135 136 140
172.869493358067 693.005871285367 3284.00846667561 127 128 132
173.138396361954 692.789175833102 3290.85869178342 130 131 133
178.158780799772 691.800840368289 3300.18955807499 109 110 112
181.32001780519 691.117099701659 3308.4874097946 111 112 114
181.6604556393 690.893744900462 3315.26758400739 106 107 109
179.162158041946 691.132945253452 3320.54689538091 102 103 105
176.67099279793 691.372117954463 3325.81946615108 105 106 108
175.143001535837 691.455943304486 3331.57546050723 105 107 104
178.416617816964 690.761986355894 3339.7632279068 110 112 109
198.042513311117 687.418280208709 3356.19405754427 137 138 133
276.548040847911 673.507110221899 3444.6662783492 159 154 150
276.344879547344 673.398752608961 3450.55201084467 162 157 153
264.402086017881 675.187189255577 3450.8111009853 156 151 145
265.185725823633 674.921583602582 3457.15741374596 163 156 150
266.970507726935 674.496093027551 3463.94978000153 129 116 108
268.777472517658 674.068736410404 3470.72073196417 127 110 103
261.720952969449 675.071754103161 3473.32864881797 195 172 166
259.597414904485 675.280591593286 3478.24064389573 105 80 76
253.515408763441 676.128218187749 3481.32073058445 100 79 74
246.43101139981 677.13793463873 3483.95534044753 93 76 69
241.323516484233 677.830127887616 3487.50794322373 199 190 185
107.970571243764 713.47360921637 2617.08484033153 188 190 189
113.644390141942 712.275621594013 2631.46579815462 190 192 191
135.327929646868 708.405196806749 2658.68440304225 193 194 196
151.545976968607 705.452858488346 2681.27525093344 193 194 196
159.051687624352 703.958606491292 2696.71505738355 191 193 192
164.209455858441 702.858183969377 2710.17713174776 190 192 191
171.834620074456 701.348696046533 2725.50057090986 190 192 191
176.292559157836 700.369078830154 2738.22248383498 189 189 189
181.607066880911 699.248896805165 2751.53183401551 190 190 190
179.670815272469 699.336408218251 2759.10960144998 189 189 189
182.630133553126 698.610733395212 2770.44831577562 193 193 195
183.183175338044 698.286300953069 2779.86612898902 197 197 199
190.300940592341 696.873346414939 2794.26224591102 202 202 204
192.563085131983 696.268070134116 2804.85855989793 208 208 210
198.965416362963 694.978006081319 2818.52970306136 222 221 226
199.662188464695 694.635336211307 2827.80748542931 224 223 228
202.861261516436 693.879377521001 2838.9125956654 221 220 225
201.965663028924 693.802409725716 2846.89853628199 221 220 225
206.062250652306 692.900796348209 2858.55083829761 223 221 226
206.87936809753 692.542896066614 2867.71136700862 223 221 226
206.059046770051 692.456379420376 2875.62396760849 223 221 226
202.75479758518 692.780494599122 2881.69105044841 223 221 226
201.96846872249 692.689692662579 2889.57052939229 221 219 224
198.68658409924 693.010929464148 2895.6158293148 221 219 224
197.093940499191 693.054226057762 2902.85926169048 220 218 223
193.832465725484 693.372712967018 2908.88470076357 215 213 218
189.735314052962 693.829163841998 2914.30301686114 213 211 216
183.949986440125 694.563184779005 2918.52219756991 206 204 209
179.857683338707 695.018847508077 2923.93581545232 203 201 206
175.769634403661 695.473986969792 2929.34494838134 195 193 196
171.685837184036 695.928590435221 2934.7499385141 188 186 189
164.190985656075 696.942787641039 2937.79147317638 182 180 183
155.829318018825 698.098651567448 2940.25592145193 166 166 168
150.883509128338 698.694316077664 2945.0791438382 162 162 164
146.797755581112 699.149225138098 2950.48603146639 161 161 163
143.578049844938 699.46261026506 2956.47108515093 177 177 179
139.502881453586 699.916361804884 2961.8676326439 182 182 184
135.432131318305 700.369661253071 2967.26019740421 167 168 170
132.232833036057 700.680840547073 2973.22497436448 156 157 159
127.303090783291 701.275010321754 2978.03246326325 148 149 151
124.116329379535 701.584949918068 2983.98531198662 157 158 160
121.810795246313 701.75164191324 2990.50117025403 162 163 165
123.017627337812 701.346675817098 2999.28166286708 163 164 166
121.62069775288 701.367081652043 3006.33379373471 161 162 164
120.239497360973 701.385740447587 3013.37056349281 162 163 165
118.874068679246 701.402646843767 3020.3919307134 166 167 169
120.173064201453 700.987287390214 3029.08277765302 167 168 170
120.614303054599 700.712655553161 3037.18700516302 172 173 175
121.079175763487 700.435385068115 3045.26849173791 176 177 179
124.233389102611 699.722838597458 3054.99482270695 179 180 182
124.750762957837 699.439775072278 3063.02503107622 183 184 186
124.398855544261 699.298878984603 3070.48018915086 169 170 174
121.383322004206 699.590652779934 3076.26569097182 190 191 195
119.271886194094 699.736708571103 3082.59185675702 213 214 218
119.867179991783 699.445355188567 3090.54591470885 200 201 205
118.68509333166 699.442922414633 3097.3880789126 190 191 195
116.616547098497 699.584691700843 3103.67228825742 165 166 170
112.751233123713 700.017766702005 3108.8635031959 141 142 146
112.514135705821 699.865273424707 3116.20670514918 145 146 150
112.296040521735 699.710987340078 3123.53096473753 164 165 169
115.737028809987 698.967300680668 3132.97712644907 178 179 183
117.388943346007 698.514126693074 3141.32277072049 214 215 219
118.154099611892 698.205310358792 3149.11073374702 232 231 236
118.026547118498 698.041673838264 3156.34646509539 195 194 199
118.835868475958 697.728410200138 3164.09122884267 188 187 192
117.829119842293 697.708826663387 3170.76181466943 185 184 189
