ply
format ascii 1.0
comment KinectMotionCapture
element vertex 802
property float x
property float y
property float z
property uchar red
property uchar green
property uchar blue
end_header
-35.2109287407161 109.045868336524 2963.37844334923 20 25 19
-19.5801387080294 111.723533077091 2981.46926862117 29 34 28
217.03541089684 86.1345197507065 2833.89230593869 17 19 14
264.120470455453 92.9634885845004 2878.2326896322 19 20 14
240.557938695309 91.4179977179576 2869.26777566189 17 18 12
224.983270908938 90.8292381459035 2866.39949691896 18 19 13
202.882292581498 89.4922436030771 2858.7862417541 19 20 14
201.80037050438 90.6111692440889 2866.78045192192 19 20 14
179.588570936829 89.2881758852565 2859.27517451784 16 17 11
210.297526350808 94.0578130601022 2890.42451730606 14 15 9
201.128231511316 94.2325476020973 2892.41871466719 19 20 14
200.952660747264 95.433586515898 2900.91767759466 18 19 13
194.231643691219 95.8888533622412 2904.6906400097 11 12 6
176.802480794916 95.1412115435352 2900.85322857465 12 13 7
172.517715180255 95.8784312583492 2906.41601273631 11 14 7
170.718900680172 96.8913723610066 2913.72052498652 10 13 6
160.646992408244 96.9836383673649 2915.20664816696 9 12 5
177.972764072017 100.102095806391 2935.80024844962 10 13 6
156.26008267524 98.9126929196977 2929.19684186991 10 13 6
187.06262986914 103.474067027517 2958.86678066778 11 14 7
161.135140968631 101.834163701819 2949.43010174114 12 15 8
143.498596964843 101.112787972975 2945.79507853686 14 17 10
162.791235988126 104.376025848226 2967.24830844807 14 17 10
166.18889934255 105.912096557859 2977.81745463355 13 16 9
156.958995500386 106.09455935953 2979.87069539688 12 15 8
124.01135552388 103.768810972059 2966.17054764049 13 16 9
115.538947440028 104.052199506718 2968.87391429843 12 15 8
131.709887293212 106.923460456468 2987.81665869629 11 14 7
113.03801549069 106.136307465402 2983.80254383401 12 15 8
104.554598360803 106.421048069591 2986.51630496013 12 15 8
90.920320923189 106.176994722184 2985.92130828233 13 16 9
103.846766018688 108.671858314327 3002.47387803122 16 19 12
91.9166877998938 108.60566954997 3002.99411666418 12 15 8
69.6141858687596 107.490766650009 2996.96539952873 9 12 5
34.2779923539527 105.073512321569 2982.81648880586 11 14 7
-10.7154336749051 101.713801831108 2962.80996915983 13 16 9
-27.2526074402819 101.246670747103 2960.87949644509 11 16 10
-26.4470823231622 102.520464690395 2969.81037281543 14 19 13
192.653507419039 77.2526685223723 2825.40844173637 21 22 16
202.435549222135 80.9985422907433 2850.5661889506 17 18 12
189.185934872779 80.679250922044 2849.60033628649 21 22 16
177.521397852402 80.5583197774341 2849.86531732589 18 19 13
199.177561644685 84.3987878041375 2874.55419295074 13 14 8
224.22416501567 88.6080991220573 2901.48977218954 12 13 7
186.482019122884 85.4043622421946 2882.76136509155 16 17 11
186.271431617032 86.6265341563876 2891.29197671305 16 17 11
188.548403640068 88.1322823680281 2901.5612204497 13 14 8
201.562239870059 90.8724532022071 2919.40766252463 14 15 9
206.411608407456 92.6511763658813 2931.33353655397 11 14 7
178.227639855396 90.631431424796 2919.94264990794 10 13 6
157.396731512963 89.4763925775278 2913.87545997797 10 13 6
153.111104189581 90.217011983567 2919.43893519824 9 12 5
179.644734151723 94.437862870028 2946.31307882426 10 13 6
162.084151017186 93.6669016392675 2942.60995406943 11 14 7
161.20025446544 94.7749060279825 2950.40879827753 11 14 7
150.273100728262 94.7602492492022 2951.34274882905 11 14 7
141.841517997252 95.0282065675538 2954.00785603514 12 15 8
150.24563342019 97.1550852745435 2968.02033173393 12 15 8
150.268166865037 98.3479349286911 2976.32378462245 12 15 8
140.158159904963 98.4293533234292 2977.84900579368 12 15 8
135.964117083668 99.1584290290174 2983.32290456141 11 14 7
100.315484532293 96.4874961366243 2968.10483468379 11 14 7
98.6160135640421 97.4993118984715 2975.31086366321 11 14 7
90.0999911589548 97.7779805193615 2978.05823758807 11 14 7
104.682912037238 100.519351728458 2995.76328731474 17 20 13
61.8705320253761 97.159144466053 2976.42484879016 16 19 12
73.0639060169111 99.5315782736865 2991.88232235603 14 17 10
52.4429547678271 98.5494019110544 2986.99800224661 11 14 7
16.205287879222 95.9529104338222 2972.35384976474 12 15 8
-12.3790618994661 94.1831899723274 2962.7408412463 13 16 9
-22.8462992849763 94.3097848320884 2964.61412044902 14 19 13
-7.24846251462719 97.1222366209627 2982.71774733073 3 8 2
229.194309424777 73.2706949530766 2844.97459877986 18 21 14
202.364865249125 71.2064738318907 2833.66247012422 20 21 15
195.57248890447 71.6607948748263 2837.50643315706 20 21 15
181.504786178886 71.216247038961 2835.95422003554 18 19 13
174.681265564407 71.6745440669172 2839.82852213987 14 15 9
191.38332921415 75.0185745986858 2861.00813409596 12 13 7
230.153157846061 81.028537882438 2898.13935982113 14 15 9
229.181588564805 82.161538957978 2906.02190768827 14 15 9
218.422674919594 82.1070810770563 2906.79467592693 14 15 9
188.795200565364 79.7905309466015 2894.04726092333 15 16 10
207.50119594263 83.2854220975111 2916.04846055226 15 16 10
213.151080972745 85.1979009475245 2928.57655015621 15 16 10
188.325462240289 83.4867390779193 2919.47347700544 13 16 9
186.563303468983 84.5176875093027 2926.73892809979 12 15 8
171.554897132058 83.9902487406087 2924.71652733843 12 15 8
176.44144658868 85.7971930878411 2936.60097124474 10 13 6
143.899381311267 83.243004596497 2922.53184516424 9 12 5
142.115835856059 84.2767099708091 2929.81812607689 11 14 7
170.469328114869 88.7748786483466 2957.67862641082 10 13 6
176.335965294225 90.6600656158633 2969.9955116547 9 12 5
157.037107016912 89.6647121333469 2965.21719057047 9 12 5
147.783542277663 89.8242804490148 2967.29764859141 11 14 7
153.711000128314 91.7018129039448 2979.55526934322 12 15 8
153.76531112075 92.9073925833599 2987.82528516505 12 15 8
147.905491589976 93.4461530979503 2992.14729685467 13 16 9
102.932433366154 89.6347024442598 2970.77007151628 13 16 9
91.8649058270518 89.6194930046401 2971.84349701125 13 16 9
104.685801352041 92.2420919435233 2988.4816619735 13 16 9
89.3401677159202 91.7574387650366 2986.78780921383 13 16 9
38.7723694217219 87.4409167177203 2962.53876121189 16 19 12
0.898918964593598 84.5505260414591 2946.72824769072 16 19 12
29.2404196272087 88.8482128653101 2973.21303982765 13 16 9
10.2266397020072 88.0190156643976 2969.54432105939 13 16 9
-20.9676629986437 85.9008036498026 2958.32347547885 13 16 9
-24.5131734304169 86.7532479852473 2964.55204748482 18 23 17
10.2104059744881 91.6585590986547 2994.52857538958 1 6 0
203.235797491457 64.0904909127492 2835.26660786031 21 22 16
195.639722018084 64.4366723313102 2838.50739183837 20 21 15
169.458988798648 62.4227017828374 2827.96056591851 17 18 12
205.509798302604 68.3084970355556 2863.55910401784 11 12 6
166.295355045277 64.6660238761028 2843.52339852048 11 12 6
185.482643782126 68.3837121312605 2866.43132241551 15 16 10
234.13897033083 75.7474943124726 2910.54927889881 16 17 11
212.767426939068 74.3542830983027 2903.63724001897 14 15 9
203.607204776578 74.4888180943143 2905.62836955305 14 15 9
205.103424536751 75.9381517588016 2915.26434055608 17 18 12
196.754705680731 76.1749370693259 2917.8517699185 15 16 10
185.091318665577 76.0117350928677 2918.1218565962 14 17 10
160.166392886376 74.2488127480134 2909.12504698651 14 17 10
195.659036244502 79.7957676628347 2942.4937762964 12 15 8
176.507317337541 78.7363942927143 2937.57914359571 11 14 7
158.123290832756 77.7847446812509 2933.30316878431 10 13 6
154.703278063395 78.6271634337713 2939.40893937507 9 12 5
158.821621186519 80.359447398299 2950.65034898096 9 12 5
186.46417100264 84.8512463905969 2977.80051994713 8 11 4
168.870346423986 84.0045637982921 2974.14159602188 8 11 4
143.636980448447 82.2807520410049 2965.44495371699 10 13 6
147.021261683037 83.9011333978664 2976.01492746844 10 13 6
154.676932346075 86.0053771418821 2989.35705599779 11 14 7
133.550370969487 84.7862776573232 2983.5929220355 12 15 8
121.703562342685 84.646484519716 2984.04168926887 13 16 9
120.052183721258 85.6749202047512 2991.19750541957 14 17 10
107.314278833891 85.4430028479664 2991.12751317216 14 17 10
85.1265485807451 84.1533759972848 2985.01065018745 14 17 10
52.5670292809575 81.7178030767687 2972.35823419733 16 19 12
21.6045846580113 79.4898950181215 2960.92336314555 15 18 11
-18.2083498124204 77.5625536673964 2952.56476060556 14 17 10
-13.1076060012281 79.3755786287794 2964.23594548129 13 16 9
5.06121629310918 83.8372004102124 2992.2959965123 0 2 0
179.595424178654 55.1000644631196 2827.47934993033 12 13 7
209.096423865766 60.292455674903 2858.34848059045 12 13 7
170.769219444666 56.6321887773584 2838.85127303736 14 15 9
204.500136636359 62.3272481435584 2872.53096122465 15 16 10
174.976240181183 59.836345890512 2859.7064610037 13 14 8
211.376064728743 65.8163946650466 2894.94449137597 15 16 10
196.48856956195 65.2096473162174 2892.8134079668 12 13 7
186.470743733152 65.232173790654 2894.25613395408 13 14 8
201.063979844532 68.3673999291372 2913.30963823296 19 20 14
187.767280577586 67.974585711542 2912.40140823302 17 18 12
184.332780023079 68.8246577367482 2918.52043425824 17 20 13
184.214488475839 70.0853234481504 2926.95336742003 16 19 12
197.38267801583 72.9858555030556 2944.62283305798 14 17 10
189.866601802921 73.3146138103541 2947.78675171603 13 16 9
172.34693181284 72.4184969513156 2944.06149755115 11 14 7
146.422953072663 70.5101691249688 2934.66100600739 11 14 7
153.031564711208 72.5802744432313 2947.63067811113 11 14 7
158.856883210395 74.5419599125734 2959.97728697006 11 14 7
136.156546711467 73.0560903413844 2952.98154483579 11 14 7
138.648864344769 74.6093157285821 2963.03026793424 12 15 8
142.865592303431 76.3594440437524 2974.17134255682 12 15 8
135.277575315453 76.6974632775263 2977.4053307071 9 12 5
131.920220420762 77.537997829653 2983.44915958606 11 14 7
129.42137463531 78.4774093894408 2990.04243372562 13 16 9
121.822767448936 78.816857529082 2993.28706474979 14 17 10
107.380825089291 78.3616898816832 2992.10804672068 15 18 11
77.4897400007486 76.1253496509086 2981.02745540271 15 18 11
62.0721103124793 75.5861803677336 2979.41315324359 16 19 12
31.1316583199646 73.2751179069757 2967.96873336899 15 18 11
-4.23286757928398 70.4860628111001 2953.90290911375 14 17 10
-13.8204228649812 70.6620864837749 2956.31225474803 13 16 9
-19.0980636107532 71.3305828469111 2961.45422655592 13 16 9
-21.7721272609914 72.292313611152 2968.21853369874 5 10 4
206.247479646449 51.3970148835328 2848.32215987635 13 14 8
195.435886480461 51.2936938238024 2849.15412377239 12 13 7
161.563527337636 49.4832768187879 2841.9643830196 11 12 6
178.297485762108 53.04368065361 2863.0803431132 11 12 6
169.048385597495 53.1633632838015 2865.16192499043 11 12 6
187.566247123282 56.918637414287 2887.31179766633 12 13 7
207.835953950737 60.8728084932523 2910.52682165595 13 14 8
192.919604237185 60.2378371244643 2908.42856273607 16 17 11
186.187929596392 60.6698926792845 2912.21520106707 16 17 11
181.924655716008 61.4204921567744 2917.7550039378 17 20 13
198.338825943629 64.8112577028313 2937.79668158549 17 20 13
193.304637615088 65.4491514737155 2942.70142459396 16 19 12
179.963262845414 65.035545888992 2941.84029314163 14 17 10
167.417118740822 64.7316928362086 2941.59084950863 13 16 9
154.836857239214 64.4321354335736 2941.374312218 11 14 7
120.470989128522 61.4224391790352 2926.34941668274 12 15 8
119.512192628179 62.5961291189349 2934.21326719324 12 15 8
134.542588793703 65.7415706894911 2952.83115523954 12 15 8
138.715797528962 67.5274859187163 2964.01049364601 12 15 8
130.26690514972 67.7565703290842 2966.69819714551 11 14 7
114.187136143884 67.0589403196381 2964.34758238338 12 15 8
113.326043727342 68.2203499628371 2972.11622631682 11 14 7
99.7328121049588 67.8389241645271 2971.50077412598 12 15 8
108.256036043619 70.125740487618 2985.3713345981 15 18 11
94.6375913785666 69.7475337350235 2984.78044355779 15 18 11
69.854008640005 68.0487831727888 2977.05070297559 15 18 11
44.9823722356015 66.3612031997302 2969.40674997705 13 16 9
66.4528759776162 70.1635986894137 2991.45145940329 14 17 10
-12.7806387616043 62.1085962400844 2949.4590514545 14 17 10
-28.4332240662257 61.5673751959732 2948.07802910308 13 16 9
-35.4748575396107 62.039185832486 2952.16692319515 14 17 10
-14.7618992873042 65.7272030068791 2973.56388223858 0 3 0
195.402898716739 41.3287438206259 2832.23852386968 17 18 12
178.121338845436 40.3219216153179 2828.29318503877 14 15 9
176.931850277376 41.5382845661062 2836.37947128839 14 15 9
157.955466691363 40.3200549986567 2831.31420689866 13 14 8
160.009554638394 41.978001046409 2841.78262088591 13 14 8
149.899778497092 41.9805729778547 2843.31926632353 13 14 8
132.430629811348 40.9977420795744 2839.55666005373 13 14 8
180.279066299652 48.787330232078 2882.9966822135 12 13 7
204.626124858979 53.3746531632422 2909.15414052238 11 12 6
197.913221168832 53.7994459476226 2912.92355029819 11 12 6
173.087043553287 51.8309133611585 2903.85873356415 11 12 6
184.46673120643 54.6516998345719 2920.48217574134 15 18 11
187.655870538721 56.3791903737966 2931.23009759613 16 19 12
152.614894800008 54.4269743288997 2923.80418323285 15 18 11
168.316858941778 57.7657179464651 2943.14387155272 14 17 10
130.69963795142 54.2215533184734 2925.75863657011 12 15 8
109.663775916514 52.8385834815144 2919.92865678727 12 15 8
110.356795372667 54.2432514276471 2928.95224766362 12 15 8
144.695576921344 59.9089511632414 2960.61540973941 12 15 8
148.891514542257 61.7221655912824 2971.76780537477 12 15 8
117.669591091595 59.0727194981602 2959.2359944544 12 15 8
114.254902385555 59.932340289133 2965.33359787581 13 16 9
82.8587420550844 57.3050327441487 2952.97153468503 12 15 8
97.2502390370775 60.3837525843762 2970.81681119013 13 16 9
102.359137069009 62.2945149899213 2982.46545325256 15 18 11
101.537162574828 63.4650076460956 2990.19357220348 15 18 11
74.2018606977251 61.3887568788838 2980.80245501748 15 18 11
52.7718810553215 60.056002548059 2975.35641801513 14 17 10
30.4096765299402 58.6283074432968 2969.43321698961 14 17 10
-0.646230707976869 56.1711651818456 2958.12503641118 12 15 8
-32.6807493806793 53.6249667638808 2946.38488459736 11 14 7
-16.3613252956032 56.8856505927132 2965.12262542649 12 15 8
11.3335874750842 61.4753267270446 2990.78942368814 0 5 0
144.846562561114 26.904055969036 2795.30196958295 20 21 15
174.162752127687 32.4699502368381 2826.29941583621 13 14 8
172.963630225246 33.7015639074917 2834.39335192154 14 15 9
167.737767766878 34.3643657294516 2839.48474877531 13 14 8
166.569451892642 35.5921199053269 2847.54832660889 13 14 8
144.276296931243 33.8855564762804 2840.18086564441 13 14 8
135.761330320111 34.1020199365925 2842.93638504583 13 14 8
159.101021409429 38.6988905138025 2868.67551584643 11 12 6
181.758575588345 43.16645658392 2893.69455835684 10 11 5
149.288691889802 41.4556325987996 2887.93123758607 10 11 5
180.409535692713 47.0089644344803 2918.55540154465 13 16 9
180.281344279655 48.3210844702131 2926.99089833488 15 18 11
142.052527605172 44.5336715095825 2908.83202958727 17 20 13
137.729779014946 45.2982904413947 2914.42848181285 17 20 13
145.902138785334 47.7168521919472 2928.62798367415 16 19 12
156.641267371001 50.4576279953199 2944.48208885692 13 16 9
126.463745831538 47.8082767504214 2932.32972885682 13 16 9
148.996035795703 52.0761496799368 2956.08576582548 13 16 9
143.082318598162 52.6108509021979 2960.46189865659 13 16 9
138.008195083905 53.255046967555 2965.40536641845 13 16 9
127.869198907537 53.2461844158191 2966.97271779447 13 16 9
95.7060554264064 50.4171024030852 2953.98519307088 15 18 11
101.587369991925 52.4787055008641 2966.26142922633 14 17 10
92.2180288945542 52.5882045579995 2968.46391725492 14 17 10
105.835258931291 55.6118612208909 2985.66928127828 15 18 11
93.9193654879289 55.3966455301974 2986.19746033417 15 18 11
81.9736216089728 55.185283118751 2986.75504964289 14 17 10
52.8410126530932 52.8355878962719 2976.35494344883 14 17 10
27.04025484937 50.9269985944117 2968.2493774993 14 17 10
-2.29911996897192 48.603629187183 2958.05103976123 10 13 6
-26.5641805294501 46.9321043162751 2951.21928436346 10 13 6
2.75171407240338 51.8510492896184 2978.06157654907 11 14 7
192.326444950344 26.3759532642291 2831.83552873924 16 17 11
180.676335275255 26.1050091342315 2832.10835506522 13 14 8
193.218969919153 29.3241769430204 2850.35191173712 13 14 8
188.041743214673 29.9812712938525 2855.39585613005 11 12 6
152.846517322358 26.35687015486 2838.45122176815 10 11 5
152.478824100737 27.7157718670885 2847.11763308341 12 13 7
146.428987377392 28.265117590944 2851.62710800692 12 13 7
140.376237757789 28.8148821293798 2856.13941357886 11 12 6
127.767761597287 28.4472123953272 2855.96096083444 10 11 5
146.324172334086 32.4342613148059 2878.03829736135 11 12 6
173.223408670198 37.5492848689882 2905.83413944129 11 12 6
180.477544682662 39.9092936120543 2919.53719585926 12 15 8
172.907642924437 40.2144464256451 2922.75805296116 14 17 10
153.724281236201 38.9320247778342 2917.90780844807 16 19 12
141.121521142342 38.5639071735791 2917.72374576 17 20 13
164.289013263834 43.0593778525534 2942.23228806616 17 20 13
190.092804366171 47.8762894594323 2968.32616563708 14 17 10
190.108635653184 49.1870039776667 2976.61885349197 14 17 10
164.994638781184 47.1266531773129 2967.85341622626 13 16 9
154.075525713167 46.9824085893865 2968.79853529603 13 16 9
137.234002954848 46.0590890325157 2965.82080076973 14 17 10
116.961916580577 44.6964418430745 2960.64628610449 14 17 10
117.776520156473 46.1246647489819 2969.54566073983 16 19 12
103.352309554908 45.5506361351592 2968.36660241175 14 17 10
107.588295357774 47.4193719137212 2979.47136142105 14 17 10
87.1593608456589 46.0767559128852 2974.4496386744 15 18 11
94.8419417498791 48.3828039673594 2987.73521834749 14 17 10
84.6100588598722 48.3702309136622 2989.39535601383 14 17 10
33.180903498951 43.0896983285779 2964.72688148911 14 17 10
13.3544598909316 41.8894382981966 2960.50308337769 14 17 10
-13.4299716783328 39.8228994095278 2951.98075558095 12 15 8
-22.1748045472285 40.0590113285197 2954.96129369877 12 15 8
-22.2785143453916 41.3852455372721 2963.3703938149 13 16 9
263.909275840639 29.7496367930372 2886.36814153508 17 18 12
205.715311141968 22.524241697394 2851.70074717609 15 16 10
206.206445280829 24.0120303035981 2860.91219011767 14 15 9
161.402427555667 18.8510008904923 2836.73275358105 11 12 6
143.181313042117 17.6219214697339 2832.33600875873 10 11 5
133.031406005304 17.5824143325445 2833.91872403681 12 13 7
146.499094500439 20.9656907255193 2852.63634270026 12 13 7
151.068678548804 23.043058514928 2864.79556947593 11 12 6
124.562041006704 20.6520013415956 2854.6284424467 11 12 6
152.140797649644 26.0080326758325 2883.13113713187 11 12 6
173.122009437475 31.7595553271932 2915.29268146643 10 13 6
170.49566373107 32.7580007722954 2922.00417757181 11 14 7
168.710608559962 33.8710842331451 2929.28022560815 14 17 10
159.465889255341 33.9385448564189 2931.36551345846 15 18 11
160.194158715673 35.3968884247282 2940.34582948405 16 19 12
189.325479742025 40.7774112827662 2968.72009426658 16 19 12
180.13786030237 40.8377472718147 2970.74973412471 15 18 11
156.678223651443 38.9459411306751 2963.15073835394 13 16 9
138.176529282646 37.7532357289512 2959.02723741149 13 16 9
126.352431312596 37.4841614448838 2959.47256032397 15 18 11
115.34249779883 37.3331595920454 2960.50886415975 16 19 12
110.229630487906 37.9834082484607 2965.48991051412 14 17 10
117.839262865298 40.3396416250563 2978.84017394204 13 16 9
99.156694234682 39.1701454129874 2974.89319134929 13 16 9
84.6727144244843 38.5746316238746 2973.77666022846 15 18 11
63.3158938960463 37.0804263987247 2968.28183751613 14 17 10
53.0127637460742 37.0613280971508 2970.01402703563 13 16 9
36.6826787937811 36.257492154799 2967.92767689918 14 17 10
5.68815752718965 33.5514729425938 2956.59532304841 14 17 10
-41.7927514530434 28.7317468467688 2935.02329677656 13 16 9
-42.8289324412887 29.9717011901871 2942.9538595356 13 16 9
-39.5172087269353 31.7667292724351 2953.57007126751 16 19 12
180.413320513621 10.0374475133889 2824.82527029412 18 19 11
205.784510627667 15.3336309145924 2852.69480019725 16 17 11
170.75086031084 11.4895697910821 2835.62252239213 16 17 9
154.998085851219 10.5766593753439 2832.97901556177 12 13 7
130.271942831044 8.33774268908982 2823.85516348961 10 11 5
135.542055208179 10.583134795799 2836.71116851809 13 14 8
131.081763136644 11.3744582556617 2842.4402565363 13 14 8
139.69973799703 14.0914131771829 2857.57006296319 11 12 6
135.280322439357 14.8777105160254 2863.25964069935 11 12 6
165.132169418187 22.071924148383 2901.9863000811 11 12 6
138.547427861922 19.6211577919271 2891.90521864172 10 13 6
153.202195164811 23.1407897741807 2910.84114436399 10 13 6
152.204985920101 24.3892760025284 2918.73174659673 11 14 7
151.22830920216 25.6352491949585 2926.60266899446 14 17 10
177.747445260043 30.7862735036324 2953.35372605608 16 19 12
171.868097234203 31.3100280847732 2957.6976855424 16 19 12
140.055061426776 28.1786753801233 2944.40683635755 15 18 11
128.240893074682 27.8871942434375 2944.84561073565 13 16 9
125.640465428037 28.8912618558778 2951.53053887068 13 16 9
121.367967318575 29.6593826535098 2957.07657405178 15 18 11
113.723433704291 29.9592091628915 2960.37232891544 16 19 12
114.529692100759 31.4273060081025 2969.2737592445 13 16 9
104.339122299714 31.3781403295063 2970.89861861876 12 15 8
100.076104371312 32.1451913084381 2976.43539795867 13 16 9
78.778804161777 30.5926735862352 2970.8900892514 14 17 10
53.9934379892588 28.5866143674376 2963.20753973071 14 17 10
48.8039902830057 29.2472837942406 2968.2630913644 13 16 9
23.029353507523 27.1428167055426 2960.16053749904 14 17 10
29.8309325251602 29.4186991515754 2972.90817637315 14 17 10
-3.80859148709645 26.2958320704861 2960.01289348698 12 15 8
-38.4382786933015 23.0746401603594 2946.69848033877 13 16 9
-48.9649490612885 23.0683964270958 2948.65041085771 15 18 11
-31.7564476356549 26.7123761691661 2967.86588093582 5 10 4
183.302615159807 4.6552520906864 2836.92175083496 16 18 7
184.546370408357 6.31307615139193 2846.77760804064 13 15 4
162.352764986844 4.36863566398044 2839.34645103679 13 15 4
150.624345001853 4.04430327994187 2839.70459357678 13 14 6
155.942687181628 6.31918082715926 2852.50834776304 14 15 9
166.203220074854 9.32762193049047 2868.79814472891 14 15 9
149.575419007207 8.2646109623819 2865.62882773396 14 15 9
156.645099838023 10.7709320774316 2879.49308812738 13 14 8
159.669249069023 12.6568186259977 2890.38143673075 11 12 7
149.567349351615 12.5801181962044 2891.92231502538 10 11 6
135.318626018339 11.8957566305244 2890.58530240781 10 13 6
130.122694648009 12.5572213128954 2895.64717487735 9 12 5
126.585220754401 13.4618256730332 2901.86039509523 9 12 5
148.806009923489 18.127622296773 2925.86660616801 11 14 7
169.490408836781 22.5348391322572 2948.60253697917 13 16 9
162.757275250935 22.9379976264698 2952.3952328791 17 20 13
145.979724889656 21.8945708578628 2949.37138676831 15 18 11
140.886322290429 22.5432575815875 2954.33333522919 12 15 8
116.466576596889 20.4288866089041 2946.30372759794 13 16 9
118.068743080872 22.0421628576448 2955.81059913769 14 17 10
118.014322169785 23.4121373861454 2964.16428986017 15 18 9
101.061363451955 22.3912437808944 2961.31129644874 14 15 7
93.3841990759103 22.6877924039544 2964.64027645336 15 16 8
93.3458946845334 24.055740855871 2972.97792484476 15 16 8
83.9607815180003 24.1155363897155 2975.20375877222 14 15 7
72.849479499884 23.9409003971782 2976.34421614684 14 15 7
64.279416624319 24.1240818207509 2979.15936602381 13 14 6
66.8451488756916 25.841967921583 2989.1105126977 15 18 9
39.3584302731909 23.4370590976614 2979.91833007561 11 14 7
-12.3524288707286 17.7571389884126 2955.5889587154 14 17 10
-28.8664957431641 16.9077760942874 2953.69203420899 13 16 9
-55.8155069518933 14.6615999364549 2945.35934889511 13 16 9
-78.5231113379963 13.0110268142756 2939.81207631087 18 23 17
188.205549526337 -1.84691447500834 2841.51621349939 16 18 7
181.387521756466 -1.43880488486503 2845.39214096722 14 15 7
198.840782368967 2.77379186478105 2867.11433884461 14 15 7
174.220791313079 0.392594553160097 2857.90610531699 14 15 7
178.78205260905 2.56966810874981 2870.05919808211 15 16 8
181.760586101618 4.48867415253978 2880.98794874113 15 16 8
173.340394170306 4.64154412321088 2883.65875457446 15 16 10
167.362346258522 5.17296321400951 2888.0992538534 15 16 10
158.097938492575 5.20366212664747 2890.20952600163 14 15 9
153.752064488269 5.98706268422722 2895.82616618916 13 14 8
143.637449093031 5.89628522663071 2897.38141407641 10 13 6
136.807591833484 6.30666915315836 2901.26909009843 9 12 5
130.799374769744 6.84224535788808 2905.73893337162 9 12 5
144.722981237871 10.3558912428826 2923.98455019421 10 13 6
152.076298867964 12.8675436667272 2937.56670492991 11 14 7
152.812794547188 14.3831408744119 2946.53039013564 17 20 13
150.231683253367 15.4019111688507 2953.19396379679 16 19 12
156.884901682623 17.7729867634502 2966.07485742255 13 16 9
159.392030132151 19.5229188495499 2976.07979999735 12 15 8
124.876723633027 15.8745629486456 2961.29769260773 14 17 10
108.798483210395 14.9348611674304 2958.98133804203 16 19 10
105.362419827367 15.8328875903499 2965.09482834004 14 15 7
95.1507099810902 15.7550654280953 2966.74457766549 14 15 7
85.7667782151097 15.8017388858028 2968.97117788186 15 16 8
84.883234460948 17.0642818918436 2976.74683101659 14 15 7
95.12006565103 19.8986739610882 2991.66897917757 14 15 7
66.9175159325737 17.2853967018588 2981.80117703958 14 17 8
58.3387876850767 17.4594689262695 2984.62627809464 15 18 9
-21.7567213355139 9.04452775140391 2950.62826426889 10 13 6
-23.6122679141175 10.2011935575112 2957.96786986333 12 15 8
-48.8180750748604 8.12586574410429 2950.71306232724 13 16 9
-68.9076226106149 6.77804943340726 2946.77233905925 13 18 12
210.35208351659 -7.02403560252179 2850.04667682689 19 21 10
155.256464476349 -14.4256226374309 2817.99659563167 16 17 9
175.000072400936 -9.73095258144635 2841.62459818359 15 16 8
173.015287948921 -8.54791798966542 2849.0886416018 15 16 8
179.969935220519 -5.94524633551347 2863.05289145244 15 16 8
198.367580352105 -1.54404959482696 2885.2266737052 14 15 7
172.05006258899 -4.23839592317465 2874.9162361024 14 15 7
179.946876427622 -1.52289234273406 2889.34547127447 16 17 11
175.622403335888 -0.739152815666888 2894.94080993991 16 17 11
172.944596350737 0.300070513905848 2901.69738090232 16 17 11
161.228353823173 -0.0675747413979577 2902.05017051252 16 17 11
151.131378085765 -0.176328005920101 2903.59055877519 11 14 7
141.83898313512 -0.154874985989317 2905.72998915046 11 14 7
157.38717433571 3.67948469252299 2925.14878659475 10 13 6
134.826684142894 1.67002168452463 2918.0915618925 9 12 5
131.333471379858 2.58088251349242 2924.25956760808 9 12 5
145.283265651334 7.5502021162604 2950.76616320534 14 17 10
164.499624133449 11.8478553306442 2972.14225468619 18 21 14
156.940631657906 12.1139886312071 2975.3580457761 16 19 12
149.371009355304 12.3815209591984 2978.58418566577 14 17 10
106.336863479818 7.3987337990597 2958.28853336264 15 18 9
146.044709080789 14.6679570936442 2992.88560481571 14 16 5
184.262440803448 21.6617968212676 3026.16858862938 14 15 7
99.43694185987 10.6068326455191 2978.83654646753 15 16 8
78.9910673644583 9.02623850841766 2973.86681843932 15 16 8
71.2837280278835 9.31156715187015 2977.22708309191 14 15 7
82.3921707565138 12.3166134092925 2992.67539481355 13 16 7
34.3952905611129 6.80356723956049 2970.30129867224 15 18 9
-8.63654057776397 2.05348669679517 2951.38586318274 12 15 8
-10.483180037244 3.22041230681619 2958.71544532367 13 16 9
-7.99643207602418 4.99809166191012 2968.73618714841 12 15 8
-21.0510140342688 4.56938810262603 2969.01008267051 13 16 9
-95.0720304555115 -2.97591343762393 2940.18708792164 26 31 25
171.859760886957 -20.5976805587031 2822.25958613545 20 22 11
175.462035678035 -18.4682643869659 2833.95510109916 17 18 10
137.936817062023 -23.0989384806727 2815.22218270559 16 17 9
156.902351929823 -18.456151976123 2838.21324451147 15 16 8
169.495893721553 -14.8838411070317 2856.35371740095 14 15 7
203.316516850146 -7.89821738957791 2889.7535814193 14 15 7
168.045997994474 -12.1098894738693 2872.97085031427 14 15 7
142.436438684104 -14.7288463995776 2863.36316629927 16 17 11
169.960642439724 -8.82316661484755 2891.83879500706 16 17 11
165.627632973198 -8.03502487021063 2897.44229761502 17 18 12
162.12199649274 -7.1169884246382 2903.62157971265 17 18 12
151.202512867384 -7.37192238295131 2904.58342659195 12 15 8
168.363771004279 -3.20451545692274 2925.18535696267 12 15 8
161.600989317348 -2.81242052392588 2929.00912905478 11 14 7
123.079801509151 -5.90228148719474 2919.53928503272 10 13 6
120.410521519478 -4.85507403492247 2926.28620851271 8 11 4
149.535761669684 1.08240371873264 2954.5845318468 11 14 7
132.713802133939 -0.0671631228773006 2951.62047215917 17 20 13
151.128877296478 4.17614599026928 2972.38337253822 17 20 13
138.49272322972 3.66988010867919 2972.25288881394 13 16 9
146.081389956779 6.23384445032266 2985.59360673865 12 15 6
154.57504322635 8.91780283752724 2999.43483389868 13 15 4
144.475866297614 8.79429738849824 3000.97958834331 14 15 7
150.502822611933 11.0867091204305 3013.07708667388 15 16 8
55.2109675561456 -1.71121365947657 2959.39163619253 15 16 8
68.7940554123676 1.73615018515644 2976.56794232744 15 16 8
60.2147066049983 1.88979423159075 2979.3966788834 12 15 6
35.3253770814197 -0.348940823666821 2971.8517558942 15 18 9
6.82070332916762 -1.65461320547183 2970.59317339045 13 16 9
5.02872603148097 -0.483354143446468 2977.86749687236 11 14 7
-21.8429422369391 -2.9399441532435 2969.48910795084 14 17 10
-62.6870244110167 -7.38076167008456 2952.60690009539 14 19 13
-87.1732480252798 -9.43534074791103 2946.05137812391 11 16 10
191.212661480294 -24.6643279638005 2837.65144482951 21 22 14
170.701996868286 -26.5725722240069 2831.37757157225 18 19 11
166.263331884863 -25.7684590297734 2837.0832932551 17 18 10
157.783688693664 -25.6393403900833 2839.81664550469 15 16 8
160.645184868377 -23.6231341422081 2850.84724980276 13 14 6
152.97647413658 -23.3591644062757 2854.17231251697 15 16 8
153.447197802018 -21.7521623968092 2863.38640367145 16 17 9
128.620482512039 -24.2998762790889 2854.40806144065 17 18 10
162.661984789042 -17.2120126567013 2887.57347818613 18 19 13
165.698862609339 -15.2177391454722 2898.43316756642 18 19 13
153.965491777166 -15.6255148298091 2898.80855925419 17 18 12
146.32566734553 -15.3647370336947 2902.10540921263 13 16 9
146.941669770925 -13.7757917316894 2911.17790518433 12 15 8
155.871788024696 -10.8660844393345 2925.96959773303 12 15 8
146.596894634946 -10.8727931282945 2928.09547324588 11 14 7
118.156878611156 -13.9114670023961 2917.10944277568 10 13 6
108.800750718235 -13.907616129729 2919.31476249445 9 12 5
112.807467852081 -11.7984136895994 2930.61130997174 10 13 6
150.388947684814 -4.44719437066249 2964.47361861211 14 17 10
123.472344850545 -7.20367923214005 2954.76726538913 16 19 12
93.9296772869569 -10.3394553915377 2943.47362655576 16 19 12
138.554968444019 -1.98173533498069 2981.52851628069 13 16 7
152.106894980244 1.52938983903572 2998.72668001236 13 15 4
104.692242910916 -4.32689678718678 2975.82515352451 14 15 7
60.4845460729888 -9.63972361786808 2955.32672507681 14 15 7
53.5799243850779 -9.23381805232698 2959.28896733921 15 16 8
47.5223947569119 -8.69776560048868 2963.80804617073 15 16 8
59.4312805032344 -5.45313667768932 2979.84300524749 11 14 5
47.4048892401471 -5.82249826014442 2980.50369296732 14 17 8
25.8936126201186 -7.60109649930035 2975.20461844248 13 16 9
3.44804215980865 -9.49866588145176 2969.43331039372 12 15 8
4.23869681477784 -7.93111739111901 2978.33587440103 11 14 7
-20.0381000995664 -10.0712216517735 2971.58502920531 14 17 10
-28.7878529664609 -9.90592114673933 2974.58125669193 26 31 25
-31.4676769237199 -8.84810424074872 2981.33708241497 26 31 27
182.853345159471 -31.8088603649229 2841.34001532336 19 22 15
172.79358191433 -31.9702374359059 2842.85156664872 10 13 4
164.329449025663 -31.8535059317791 2845.57100990985 12 15 6
151.795397513871 -32.4215490289309 2845.34860532661 12 15 6
153.861913264667 -30.5172038067075 2855.76792278863 15 18 9
161.669391468785 -27.6592987510622 2870.26482269055 15 18 9
154.835252529475 -27.2683728540475 2874.15962637213 16 19 10
173.378871134476 -22.6491740680444 2896.15589635883 15 18 9
168.232728618201 -21.9917968441563 2901.16893188485 14 17 8
149.923734129951 -23.5083771752322 2896.9022835275 14 17 8
141.449496685813 -23.3896347210025 2899.63146354404 13 16 9
137.094126322473 -22.5920326659398 2905.25577262334 13 16 9
133.571862072032 -21.6598703851546 2911.44947855009 12 15 8
125.07546764318 -21.5380086580992 2914.20053759482 11 14 7
134.045640873139 -18.5869294275903 2928.94600236366 11 14 7
113.879617792517 -20.3477985510973 2923.72536014986 10 13 6
117.89770897798 -18.2098453228455 2935.00636367183 9 12 5
142.915588914625 -12.7301351091442 2960.36579198583 9 12 5
158.831900453638 -8.73835539545481 2979.39611172179 11 14 7
138.634542729227 -10.4950474893195 2974.20563006734 15 18 11
136.093719348273 -9.44675616750884 2980.82483404049 16 19 10
159.79110549896 -4.28016023140726 3004.70765388049 15 17 6
106.459797665033 -11.2017963714634 2977.919871316 15 16 8
60.5575992676526 -16.9036319804144 2956.32778465827 15 16 8
48.5422006186895 -17.2955417941486 2956.98088916851 13 14 6
48.4491734131347 -15.836817173133 2965.35979928719 13 14 6
49.235912984777 -14.2494866512732 2974.2629894125 12 13 5
49.1930136386598 -12.7970961856452 2982.59305801113 12 15 6
23.3884319143058 -15.2828104480303 2974.57658808844 13 16 9
-3.36959757617672 -17.8876962340926 2966.10727223151 12 15 8
-5.18499670015782 -16.6907667383037 2973.40105985427 10 13 6
19.8411818177364 -11.4526638713265 2997.37104769703 15 18 11
12.9147909006324 -11.0486208881156 3001.35518241469 26 31 27
186.951931643082 -38.3716039457239 2845.32525126464 5 8 1
190.624152752085 -36.160549143238 2856.93890450468 22 25 18
164.402087834043 -39.1464779124248 2846.57677657308 13 16 9
147.001845738094 -40.5787949302746 2842.81217889317 12 15 6
169.382069258812 -35.1527652079773 2867.96461649567 16 19 10
137.293015056319 -39.0946152735369 2853.65073949568 16 19 10
172.879441234929 -31.4566313096362 2888.03453505791 17 20 11
184.095597968914 -28.0155879299351 2904.72835431339 17 20 11
181.437014541198 -26.9445050337319 2911.46112716905 16 19 10
169.741271789368 -27.399251682048 2911.80643374675 16 19 10
140.697383019734 -30.7549776741264 2900.0500086869 14 17 10
133.860078085954 -30.3681949571393 2903.94823076599 13 16 9
131.158739620875 -29.2912798429281 2910.72259800652 13 16 9
130.961418287213 -27.8031613782038 2919.20072933889 12 15 8
124.961439085209 -27.2793985355825 2923.66447614535 12 15 8
117.289776784419 -27.0293935034183 2926.99453378832 10 13 6
125.496813073802 -24.1779715440292 2941.09562480382 10 13 6
110.173638776151 -23.680192159347 2947.73606023356 10 13 6
110.074934096897 -22.2042994999722 2956.11807073897 14 17 10
158.95388035091 -12.8522049519883 2996.88693438707 15 18 9
118.409542674853 -17.9055843994292 2978.38070288215 17 19 8
135.360337876027 -13.7342520054546 2997.7737987171 16 17 9
107.371720645029 -16.7364183222027 2987.75137393143 15 16 8
69.0582251236158 -21.3436273575949 2971.21466735015 14 15 7
45.1079746183112 -23.6431803722376 2964.16346104121 15 16 8
59.5769417683263 -19.8855962931034 2981.8314726862 13 16 7
57.8418835914016 -18.6876794264645 2989.0453346279 13 16 7
50.1067575719834 -18.4289219316325 2992.43711907147 15 18 11
15.6565389618022 -22.3109878033385 2979.04216783728 13 16 9
-1.65710194359647 -23.5088863279467 2976.57349841975 10 13 6
5.2046528542733 -20.9723685836226 2989.22319791325 15 18 11
1.71440600292216 -20.0374759318895 2995.38470654177 16 21 17
196.687080867048 -43.902290694997 2853.47980044007 17 20 13
176.974553709413 -45.8186918922165 2847.83147980142 9 12 5
161.238640267165 -47.0110730402495 2845.21253538374 10 13 6
138.964807892135 -49.3391344998269 2837.91774394285 16 19 10
146.691002785652 -46.3835611060844 2852.48092403607 17 20 11
180.557938261752 -38.8832670399635 2885.75839331396 17 20 11
180.303559896816 -37.3717686869792 2894.28972758458 20 23 14
192.355483752561 -33.7366602230362 2911.54184431626 20 23 14
191.357868218144 -32.376404629351 2919.41666837929 18 21 10
169.813298722957 -34.5506508270139 2912.79188360741 18 21 10
146.54267236804 -36.9970778685732 2905.08717054548 14 17 10
136.4128239575 -37.1800786940242 2906.67117561561 14 17 10
141.173917442876 -34.8304967992327 2918.60033540539 14 17 10
136.016984173079 -34.1703734619826 2923.62368043483 13 16 9
126.699181264106 -34.2104651366643 2925.79743756729 13 16 9
130.711959365654 -32.0114875158607 2937.07469768157 12 15 8
122.22450965961 -31.9111418849967 2939.82005455394 11 14 7
79.3564344553173 -37.5199735049234 2919.45202071709 10 13 6
72.4405964584909 -37.1275214608001 2923.42738936465 9 12 5
90.7801861642472 -32.5701517020529 2944.21882989189 9 12 5
97.4128514972992 -29.9664550421044 2957.08575175414 10 13 4
153.165063728685 -19.3482051245206 3002.17851153822 19 21 10
140.519147438107 -19.9481875044198 3002.07157310404 18 19 11
87.0487559272659 -27.1584708263456 2975.46456461418 17 18 10
64.873104972833 -29.250903620986 2969.4543610752 15 16 8
45.1819666309068 -30.9215512547427 2965.16572591672 14 15 7
52.8053620265903 -28.1978712160034 2978.44801400783 15 18 9
62.2028158798509 -25.2080322130772 2992.76345412392 15 18 9
69.9480214137753 -22.4998245111026 3005.92740759368 17 20 13
37.2658943081379 -26.2062204104496 2993.58457004853 14 17 10
3.59771160354727 -30.0329236192889 2980.8217723398 9 12 5
-12.8917434722196 -31.1268739369906 2978.93655786986 10 12 7
-10.3520496332248 -29.2317602803373 2988.8877047588 6 11 7
-61.6629592290185 -35.7316752039765 2965.69928177813 10 15 11
185.486603025018 -53.1692747893327 2846.13327705473 12 15 8
153.640397805741 -57.3200025903887 2831.60911946253 12 15 8
139.466858810752 -58.2484481083957 2830.23386102917 15 18 11
155.259291518895 -53.7889396560242 2850.73497348985 19 22 13
180.096119893701 -47.7449111737269 2877.60769200527 16 19 10
185.519834875226 -45.1986602748468 2890.26670057883 17 20 11
177.108552020794 -45.1192681849675 2892.93951956581 20 23 14
170.320129491064 -44.748937931941 2896.79163236206 20 23 12
146.289718783704 -47.4064979340942 2888.45569243544 18 21 10
152.609766012235 -44.7252510019504 2901.62192464245 17 20 9
151.563362400047 -43.3446351129668 2909.54184890318 13 16 9
153.843544047437 -41.392569633399 2919.74227778012 13 16 9
147.87464763032 -40.8774002534935 2924.17609118974 14 17 10
146.055116600919 -39.6467929383875 2931.46934213067 13 16 9
134.263476929291 -40.1311281786359 2931.91391110632 12 15 8
135.790708269345 -38.3316313647505 2941.46767103353 12 15 8
113.098983851012 -40.6612639168971 2934.58774693402 12 15 8
112.957414839657 -39.1466059137935 2943.00659285399 10 13 6
106.959407729082 -38.6272047602792 2947.46902600026 9 12 5
85.8016137293065 -40.6543915731418 2941.85534144871 9 12 5
69.6351467301071 -41.824691583365 2939.66067949532 8 11 2
102.482033142398 -34.8103265610126 2969.77216471996 14 15 7
95.6551428072792 -34.4339379689457 2973.66158119576 17 18 10
127.911542478166 -27.5932271566726 3002.96818518231 20 21 13
107.532586616815 -29.4705486724507 2997.97586213823 19 20 12
92.2067367966277 -30.4989485217634 2996.34239143537 18 19 11
56.3016557168554 -34.8758037421562 2981.63111331253 18 21 12
61.4189327173666 -32.5381018961413 2993.20833347244 18 21 12
67.4428166166394 -30.0671580126762 3005.28249578255 19 22 15
47.67657895948 -31.7733608834866 3001.07369040278 15 18 11
-10.1402835639162 -39.5772305697937 2973.20221073161 10 13 6
-27.5254863918155 -40.8402739142075 2970.81456957891 8 11 4
-59.7057211791103 -44.4471730563611 2959.37588712476 11 16 12
-71.1465172426 -44.7261231102306 2960.85895452997 11 15 14
147.716671324008 -67.4259697229527 2819.14704314034 10 13 6
144.029230065685 -66.4502205844509 2825.49866800114 22 25 18
145.20463011989 -64.5849363824865 2835.39174040701 15 18 11
175.607898014146 -57.3892379819106 2866.48572678956 23 26 19
202.118235485967 -50.9550415464685 2894.47311585698 18 21 12
184.777657171644 -52.514940662725 2890.66812773834 19 22 13
177.181339970201 -52.2982279990027 2893.92828718137 21 24 13
162.205461272034 -53.4046985709044 2891.95882879953 20 23 12
136.515066394853 -56.4153283660563 2882.48964261839 16 19 8
133.762409856645 -55.3063513226242 2889.31023072501 14 17 6
162.356065446488 -48.6342818794186 2918.0275152129 13 16 9
163.008151971233 -46.9530218828915 2927.05053506899 14 17 10
152.090079672146 -47.3184496934444 2928.02731142354 15 18 11
141.145772808018 -47.6804080559509 2929.02962630609 14 17 10
147.654100485264 -44.9846278019319 2942.00640738362 13 16 9
146.709328777227 -43.6025520690257 2949.82553173883 13 16 9
128.224507555686 -45.2669459932256 2945.75499086934 13 16 9
126.441354090424 -44.0294569156415 2953.01076338784 12 15 8
116.273861479357 -44.2384938188973 2954.6359978265 11 14 7
99.3481551993138 -45.5982065232657 2951.80635749835 9 12 5
75.6174263144636 -48.1026809807123 2944.56711243293 8 11 2
52.6484600439097 -50.4525559094837 2937.96582324749 9 10 2
74.5334776299211 -45.1888382526848 2960.8001786806 13 14 6
94.8436034484326 -40.2274885675706 2982.40895829675 15 16 8
111.012157881234 -35.9959435947653 3001.15302206777 21 22 14
87.1585037982858 -38.4843152430224 2994.03380139505 24 25 17
53.8094622635672 -42.5289833102808 2980.98630689775 21 24 15
76.0700853028942 -37.3133112770054 3003.45444384343 21 24 15
72.6730431959317 -36.3726088918835 3009.52287794889 21 24 17
16.7420579151694 -44.077912003916 2982.59828267819 17 20 13
-13.5176174715168 -47.5098901897297 2972.06042174263 12 15 8
-30.0449637081055 -48.6679835404931 2970.2223140678 11 14 7
-31.0129150735481 -47.2821305954774 2978.06389789517 11 16 12
-66.7239435705866 -51.5280095496184 2964.55747377182 10 14 13
156.647891604769 -73.1420291869528 2826.7100564872 6 8 3
146.525220346155 -73.3741990866218 2828.29453954905 17 19 14
163.077892517343 -68.616105309082 2849.41350152159 25 28 21
172.437496209867 -65.2293836292271 2865.12477763822 18 21 12
154.229038747154 -66.9730948338396 2860.79152653022 19 22 13
140.848555588343 -67.8065393653061 2860.03162014141 20 23 12
190.3231598908 -57.0745431925573 2904.25644132158 22 25 14
186.022222599205 -56.2684436160928 2909.82510378403 21 24 13
147.258067284681 -61.7476387697046 2891.0309695713 16 19 8
138.772162791147 -61.679067448307 2893.77915041189 14 17 6
163.253731416861 -55.6428951007035 2919.58889892541 14 17 8
155.642810418143 -55.4314176554674 2922.86433391802 15 18 9
146.36441802682 -55.5157361483357 2925.00549252828 16 19 10
147.03184493217 -53.8168766267609 2934.01067795754 15 18 9
146.895075337985 -52.269683185969 2942.41994926183 14 17 10
129.263332252327 -53.831369962163 2938.9040184387 14 17 10
163.417482042691 -46.2313568257396 2970.46496974596 13 16 9
132.381658751873 -50.1520200747829 2957.93590611427 12 15 8
112.987478978642 -51.997177091755 2953.37817911786 11 14 7
97.7382786476055 -53.0994421369161 2951.67951158288 9 12 5
101.009786497488 -50.9693693951694 2962.28613880835 8 11 4
84.8663145178157 -52.2116650154084 2960.07928338035 13 14 6
77.1513228217811 -51.9859768818704 2963.45596178032 11 12 4
65.1770623419954 -52.4884189196985 2964.08488993688 11 12 4
100.013752960708 -44.9755877540224 2994.98061572698 16 17 9
82.1107357292017 -46.5017476108708 2991.72915111967 19 20 12
62.4394614303529 -48.3108520523349 2987.44125452849 21 24 15
36.7009107306853 -51.1260659922944 2979.40757688862 20 23 14
32.3555887209994 -50.3126739588121 2985.01957405229 19 22 15
35.766722097538 -48.200114780019 2995.49013956271 14 17 10
3.8238126636192 -52.0036686150808 2983.84451716008 9 12 5
-19.5859824709594 -54.352634163207 2977.6808431472 13 15 10
-17.9297553714619 -52.5247468749023 2987.10197443666 7 12 8
-17.9797544545095 -50.9877256410217 2995.42658478843 13 17 16
164.355313621479 -77.353858168053 2842.35121726546 28 30 27
168.006212750579 -74.9891240067078 2853.96366764661 20 23 16
140.073782998288 -78.6196982435092 2842.56107912042 20 23 16
98.2146048005732 -84.8430652282769 2821.28202370034 18 21 10
141.738264927864 -74.969751813425 2861.62409244617 20 24 10
195.296735946571 -63.2922379827874 2908.73871094014 21 25 11
192.644802217752 -62.1793458873343 2915.45836332311 19 23 9
190.005577051566 -61.067892039562 2922.1659463299 16 20 6
161.879000482802 -64.6727951622481 2910.95269212501 16 20 6
149.310430273283 -65.3787801116661 2910.78461502243 16 20 6
134.228474439427 -66.5350778148986 2908.92785723268 16 20 6
136.497474349112 -64.5071398139844 2919.12817581494 17 20 9
160.390946804451 -58.5551872342263 2944.11745084649 16 19 8
148.633113050003 -59.107160993749 2944.53844699025 15 18 7
131.840108996482 -60.5587734338782 2941.59061413028 14 17 8
143.422678451819 -56.8915451902486 2957.88715011277 15 18 9
123.236541188655 -58.938147709695 2952.72871285071 16 19 10
121.461939335571 -57.6790779271303 2959.97280387312 16 19 12
117.177906761254 -56.8709079299968 2965.52437369414 14 17 10
123.025347396896 -54.2709575092399 2977.75467966347 13 16 9
101.85754788044 -56.4489930556504 2972.17322611484 14 17 10
85.704013214186 -57.724411978104 2969.98159653497 15 18 11
73.7491238807966 -58.2504675697336 2970.59444108773 16 19 12
69.4290328555303 -57.4373243079207 2976.18108243724 15 18 11
85.5992765876046 -53.0700084799697 2994.903739678 13 16 9
77.0577105647359 -53.0032932424627 2997.70780541042 16 19 12
49.6380171584296 -56.1821923338245 2988.56346120122 15 18 11
13.5250312997144 -60.8219472673878 2974.09749206005 14 17 10
16.8933956350621 -58.6764137027944 2984.60565426079 13 16 9
-14.2277293281396 -62.4107293422252 2973.55100151517 12 15 8
-23.8351426466465 -62.4647163317962 2976.01406194502 9 12 5
-31.7266462903452 -62.2235427354345 2979.5637305737 12 14 9
-41.3668871876296 -62.2731979341089 2982.05908687974 8 10 7
153.519047272373 -85.0860927017473 2844.33556991882 30 33 26
123.930859257371 -89.1000339894517 2831.80001667136 26 29 22
160.881137520281 -80.3037100884812 2867.49244129304 18 21 10
184.997419909892 -74.0259322358414 2893.6292152508 20 24 10
179.851887283157 -73.3655802614501 2898.64120548067 20 24 10
186.987252734302 -70.3758724034906 2912.36879572562 19 23 9
188.437597654288 -68.4788635098447 2921.98449276174 17 20 9
178.404028282793 -68.7530348076689 2923.48636627883 17 20 9
147.735828955653 -72.8878664745049 2910.62423845734 18 22 8
131.824082033579 -74.2299309210976 2908.20202241059 18 22 8
141.542269899436 -70.7900397291831 2923.54936071159 17 20 9
163.785746841175 -65.05214577956 2947.37458697418 17 20 9
158.693991817793 -64.3978509584378 2952.33407049355 16 19 8
150.2664747578 -64.3567911929292 2955.02867578744 15 18 9
143.496506926848 -64.0076574723905 2958.86559563323 16 19 10
153.480914849093 -60.6014880086221 2973.95389538147 18 21 12
139.176052043235 -61.6284427005865 2972.72326520451 19 22 15
134.932846923742 -60.822248374135 2978.23492260461 18 21 14
119.724024910509 -61.9933637914723 2976.50633485809 18 21 14
103.623872496344 -63.3103646757578 2974.26750386656 20 23 16
85.7789859281364 -64.9240651725932 2970.97125311963 19 22 15
65.3277613516803 -66.9843080519634 2966.07772967563 18 21 14
72.9108044190401 -64.0505783581304 2979.36938081998 15 18 11
60.9212837642046 -64.5930988593768 2980.01904829334 13 16 9
66.0112966077309 -62.1204299656997 2991.60339409348 11 14 7
56.5725444721426 -62.2091684963509 2993.90410773801 12 15 8
15.3202919886679 -67.8479368933637 2976.18736633285 13 16 9
6.6343451921691 -67.7728696635436 2979.13323204502 14 17 10
-8.97143369415332 -68.892392723651 2977.7915408557 12 15 8
-40.1951868350125 -72.6938206325409 2966.84871857173 10 13 6
-52.4587388955857 -73.2008811041038 2967.76526230502 10 12 7
173.008888850399 -88.5916612613532 2859.5081791404 20 22 19
171.038424989772 -87.2864925723092 2866.94028847542 23 26 19
