ply
format ascii 1.0
comment KinectMotionCapture
element vertex 810
property float x
property float y
property float z
property uchar red
property uchar green
property uchar blue
end_header
50.1983217359894 134.372634761555 2808.00985348274 8 11 4
40.4458155273031 134.047959393703 2807.11388668154 10 13 6
50.0944716811085 132.819808152568 2788.16464653648 12 15 8
29.1784216298931 133.018993701987 2797.70566384393 16 19 12
6.12623134732004 133.330980679494 2809.40412323627 17 20 13
-7.96013510274363 133.226949390898 2812.77837499194 19 22 15
-6.53058582169708 132.380445872407 2801.4591483436 20 23 16
19.8234374793511 130.315524734866 2766.20784313854 19 22 15
24.7489762940414 129.275965226145 2751.24618394457 16 19 12
33.9872258120426 128.014387239079 2731.99926195764 15 18 11
65.6935005409185 125.620651633494 2690.74507606056 23 24 16
38.3966372688302 126.160985802823 2706.77844676977 17 20 11
17.7369683425237 126.382135958907 2716.50543148117 15 18 9
279.28031782562 145.763704555994 2972.89864820804 2 7 1
242.546095400486 146.395293492352 2991.97231455203 6 11 5
239.128878236524 145.814520742387 2985.78675480975 23 28 21
239.004916443487 145.109263130996 2977.04718015621 17 20 13
191.0282021154 146.199494822968 3005.26493802594 15 18 9
172.055292843909 146.216644354269 3011.27321651115 14 17 8
175.295656198133 145.392624876442 3000.03147040902 13 16 7
176.851129342467 144.627601668997 2990.03927247659 13 16 7
169.393548167737 144.208200860762 2987.10106164098 11 14 5
186.350876629056 142.832135694413 2964.8034394548 11 14 5
168.295867230623 142.825705600836 2970.24167260528 10 13 4
158.39770117467 142.501876336201 2969.24041263496 9 12 3
172.730730574694 141.206150508291 2948.74589687612 9 12 3
166.833333268095 140.717133847645 2944.46827074608 10 13 4
153.711431953246 140.523366182583 2946.07115607014 10 13 4
180.6495784191 138.682824657994 2914.94983510465 9 12 3
149.136339999855 139.249455927674 2931.63190857538 9 12 3
172.68928514105 137.525641539396 2902.99761516565 9 12 3
172.263771228283 136.794606029883 2894.03960285195 10 13 6
145.681755789743 137.173881437306 2906.88496185231 11 14 7
118.423421972768 137.596446266025 2920.47529912545 10 13 6
118.050046363937 136.869694284409 2911.55510467788 11 14 7
118.430012897743 136.106056960882 2901.94580056589 12 15 8
121.122907134873 135.236058360057 2890.30694952389 11 13 8
135.47693238997 133.842461082714 2868.59212174108 10 12 7
138.038358902695 132.961583513159 2856.85820631289 9 11 6
164.616169841791 130.991655711997 2824.2396839609 8 10 5
88.8251790401995 133.650321449509 2880.47218591961 7 9 4
72.0944258419292 133.654048025248 2885.63541546694 9 11 6
52.3452483450138 133.80500637237 2893.55171157559 9 11 6
55.6998715930117 132.890651358825 2881.15759518941 9 11 6
59.000909318073 131.971855346219 2868.72431654252 9 12 5
69.8796513182822 130.687717436123 2849.43117718912 8 11 4
66.2027534103373 130.084742645457 2843.05725687595 7 10 3
50.3716293754959 130.063927645884 2847.63748586577 6 9 2
53.5101878803839 129.131844939217 2835.086649742 5 8 1
5.29932954972345 130.699143331026 2869.3125656873 7 10 3
9.98427596426055 129.69662008373 2855.41172015311 7 10 3
31.8553176528185 127.833714927445 2825.55747451481 7 10 3
56.5535628137437 125.807848005032 2792.81146258184 8 11 4
44.5383760275302 125.606887132543 2793.98126134493 10 13 6
46.6808940927499 124.691968755264 2781.9434978198 13 16 9
33.9508720592256 124.53127698224 2783.83063233392 16 19 12
-6.08187274671779 125.783426660922 2811.63219128945 19 22 15
4.1859497048331 124.449379247509 2791.89593051607 20 23 16
28.3123034908335 122.376560013331 2758.73481002092 20 23 16
14.1393876400051 119.814297415196 2731.15589177357 19 22 13
31.175636760036 118.048466371558 2703.97277114529 28 31 22
340.523660110081 135.904231793497 2927.08116142839 210 215 209
289.493738373021 137.186951570029 2956.79166896638 14 19 13
277.66389970655 136.920995136353 2956.86075916948 9 14 7
232.790709907541 137.999268225144 2982.38753215932 15 18 11
179.87606425261 139.43170599184 3014.437925823 15 18 9
191.362684271424 138.239892973504 2996.82124896804 14 17 8
189.632561020884 137.585780153052 2989.38796039064 12 15 6
191.152211540228 136.792628087512 2979.36965139464 11 14 5
190.184207757021 136.099458347255 2971.25360502334 10 13 4
180.238608156093 135.784949589356 2970.21771219718 11 14 5
186.544429986487 134.775847680346 2956.25709836875 10 13 4
201.68675335113 133.376196141497 2935.11369404263 10 13 4
162.63583622773 134.324023427428 2957.44968728552 11 14 5
159.986644142761 133.695382014801 2950.58560622006 12 15 6
155.713726029682 133.136257183368 2945.01487687838 10 13 4
180.251856778356 131.29023576145 2915.8591099085 10 13 4
184.663127112755 130.327963752714 2902.99540572997 10 13 4
134.079379721483 131.850957353817 2935.50093934276 10 13 4
148.848292705882 130.420069636827 2914.08668364563 11 14 7
125.495432422199 130.729346844256 2924.33213058283 11 14 7
117.240881975119 130.350491646035 2922.05171619126 11 14 7
115.298206674012 129.678099286319 2914.46425150685 12 15 8
133.748466791429 128.041864110695 2889.5421651619 13 16 9
140.316481616772 126.951940683781 2874.53588014785 11 13 8
145.251574995906 125.930873944791 2860.81657203728 10 12 7
152.460431155668 124.791968742674 2845.03926737421 11 13 8
125.429165119805 125.306842051765 2858.79497296541 9 11 6
90.772989971879 126.210555577188 2879.37614401605 7 9 4
109.551034901912 124.499365182681 2853.45596510786 8 10 5
58.3993451060159 125.464302797372 2879.37148086445 10 12 7
61.6956354799543 124.511665659873 2866.93458934945 11 14 7
77.9141003696169 122.894656098078 2842.86479765496 11 14 7
65.8435483825013 122.710175528422 2843.99483895537 11 14 7
76.5741019353308 121.352974522316 2824.59390455497 11 14 7
48.6153918586765 121.995488653419 2840.1480059527 11 14 7
26.0647151869899 122.371712867151 2850.97501753244 11 13 8
14.8938977164348 122.159921169555 2851.52212061974 11 13 8
42.0081483201109 119.914957638852 2816.82071398318 10 12 7
26.2973946439478 119.939501294595 2821.48843176537 10 12 7
31.5222616350264 118.840933122317 2806.74375754094 10 12 7
41.8847101737372 117.453627721721 2787.07582347537 11 13 8
32.1342014772998 117.155700172399 2786.1814401964 13 15 10
58.6202510014102 114.859034229271 2751.0246697849 13 15 10
-0.568670743445798 117.303468411124 2797.05885459576 14 16 11
7.41581781515999 116.025654531757 2779.37304555319 17 19 14
35.8254206241027 113.582416210227 2741.9045531859 18 20 15
-13.3841836808106 115.527108172085 2779.11377279762 19 22 15
9.7459722835227 113.361104049313 2746.46534634801 23 24 16
18.1810571573227 112.018951592751 2727.87082167375 22 25 16
4.09282082247042 111.974751613087 2731.24402096741 19 22 13
323.15551567498 128.248350976597 2931.74353504404 0 2 0
279.728329072964 129.365020478506 2955.84866783762 18 23 16
221.611909677605 131.15071152009 2991.54078273223 14 17 10
222.331484862558 130.371197338946 2982.17758775965 14 17 8
211.499017081568 130.101481933288 2981.73434325644 14 17 8
203.974157408423 129.686563225645 2978.74738350426 12 15 6
198.093841580167 129.198243301368 2974.48214363152 11 14 5
182.420157391654 129.155970071141 2977.94135880651 10 13 4
198.539118635596 127.660901192331 2956.27042018474 11 14 5
225.091049328395 125.667880475256 2926.10309297812 11 14 5
222.325649279358 125.01821968545 2919.15466381222 11 14 5
196.937704781865 125.428312167943 2930.39571315664 11 14 5
167.628834111964 126.037446944075 2944.97059077643 12 15 6
164.139402674266 125.432452809409 2938.7325586799 12 15 6
181.454637691552 123.826562578338 2915.45818985579 12 15 6
209.821649707928 121.669126278706 2882.90071115144 11 14 5
198.978816776818 121.397858832087 2882.44965039129 12 15 6
124.629342021255 124.248463072836 2934.78737483076 13 16 9
117.972306365146 123.800073860382 2931.19460754193 13 16 9
127.114158592752 122.564729280149 2914.34801123776 14 17 10
136.171912139573 121.322362665524 2897.44041443714 13 16 9
139.647552478722 120.351092480366 2885.1337376364 13 16 9
143.852958098305 119.335445495379 2872.12052737795 11 13 8
152.686378250418 118.074457295331 2855.05021218999 10 12 7
171.559997570167 116.282902300812 2829.19891013403 9 11 6
136.706220858845 117.271037249223 2849.63726320549 9 11 6
110.72702497574 117.001678189303 2853.0354515173 8 10 5
60.3314236963377 118.06314142659 2878.26422979031 11 13 8
98.8441807203757 115.17395901325 2834.53088990152 10 13 6
67.6285783077306 116.044651403087 2852.66559730104 10 13 6
92.8883656652197 113.839086285677 2820.32574908348 11 14 7
100.509066705399 112.582588505409 2803.61166178165 11 14 7
69.4506828238008 113.466465428227 2821.8604070318 12 15 8
46.082741552405 113.939572476761 2833.33078789881 11 13 8
58.179949378514 112.425255138519 2812.44940678634 11 13 8
43.1613544130838 112.437410612921 2816.38378581156 11 13 8
13.9816924687031 113.267668475292 2833.52381736137 10 12 7
7.31268453686917 112.818891877184 2829.92236915219 10 12 7
25.1876000123321 110.94507156162 2803.34666867604 10 12 7
65.9054376079364 107.714906419995 2755.03463398456 11 13 8
24.2883773663616 109.296753398434 2784.15943211006 11 13 8
30.0525399062126 108.096662134924 2768.56985939738 11 13 8
1.94206033474664 108.911255360302 2785.25014257015 15 17 12
30.3765528086668 106.340573109266 2747.79875324653 17 19 14
36.6894596043217 105.081420810597 2731.37164117068 19 22 15
13.7968489463915 105.594961677901 2743.18680414871 22 23 15
8.42930785440155 105.045189544621 2738.05793772868 12 15 6
27.6666650759445 102.970617961303 2708.76347914084 9 12 3
302.780154573352 121.603078008599 2947.81761287821 4 9 3
285.110272117396 121.643177437144 2952.30023182031 8 13 6
251.785471117069 122.429106992573 2968.90550681063 12 18 8
235.9283994383 122.404238990645 2972.23186864116 13 16 7
228.351221289636 121.99002570372 2969.20698568264 13 16 7
201.088314661792 122.525320782047 2981.55954239933 13 16 7
202.582000957735 121.679775968412 2971.52214600409 13 16 7
204.035973419148 120.830809365502 2961.45564839361 13 16 7
192.425642710119 120.619785819073 2961.68384836847 11 14 5
226.307271901475 118.15633615995 2925.7116745948 13 16 7
177.391346597746 119.800573059149 2955.72145778853 16 19 10
185.227603985314 118.619916734243 2940.39905266425 16 19 10
178.494322784412 118.167565881085 2936.75069880933 15 18 9
170.961373966258 117.756453135093 2933.75818881827 15 18 9
166.64016196535 117.181287965673 2928.15236895919 15 18 9
193.457640764562 114.992283326034 2896.9418083926 14 17 8
200.182578108527 113.826771014323 2882.04889698858 14 17 8
155.207146829362 115.367347545438 2909.97426234101 15 18 11
129.456227314989 115.919957111596 2922.18794185575 16 19 12
146.469328481261 114.20883654449 2898.69372226576 18 21 14
141.298385390939 113.670619384982 2893.70713798395 15 18 11
135.336484897315 113.174420636879 2889.38271573838 13 16 9
128.590173141444 112.720800482518 2885.72520380384 10 12 7
142.938333794842 111.111336717309 2864.00503123978 10 12 7
152.497647544295 109.750345653431 2846.22538864845 10 12 7
123.130636134235 110.541145914952 2861.99437008263 9 11 6
144.240716750847 108.524054879327 2834.05777980008 7 9 4
129.667217974765 108.497340084841 2837.07958503701 9 11 6
97.427270544221 109.480405723962 2855.70732869431 11 13 8
119.093675705268 107.401865614382 2826.9386820657 13 15 10
112.267199620159 106.941696089096 2823.22272964722 12 15 8
109.261984430194 106.260449731989 2816.10029338063 12 15 8
91.010379844767 106.466946622121 2822.63242010787 12 15 8
65.9953561827176 107.081068825394 2835.37987780439 11 14 7
66.8268438454906 106.180135608405 2824.86186445774 11 14 7
68.372458106893 105.230880570645 2813.62625533391 12 14 9
58.584263175018 104.955828831758 2812.7046683691 12 14 9
50.3176183924934 104.591855840419 2810.41556191698 13 15 10
18.1208521480869 105.686814556153 2830.31050640435 12 14 9
7.71085100712687 105.468066864027 2830.1737751459 12 14 9
35.2599188620668 102.909355475527 2794.55095099028 11 13 8
58.9018420077227 100.564713986661 2762.27261065859 9 11 6
60.1847286078918 99.5941302704579 2750.84643661228 10 12 7
57.4702049461902 97.9686031929031 2732.81373277632 12 14 9
29.3214500740202 98.8619044885954 2749.46637356165 11 13 8
34.9109171283666 97.6032115439965 2733.74986353427 11 14 7
31.687991449874 96.9051347508468 2726.4695190389 12 13 5
34.2560034382404 95.826496253386 2713.50404475824 11 14 5
287.175424399448 114.055099657422 2951.28879641379 5 12 4
266.250725251015 114.304278114575 2958.3534292946 9 17 6
230.552355006167 115.314031153217 2976.94459135978 8 14 4
214.760849751547 115.326855910696 2980.31867461169 10 16 6
213.794486462003 114.583216057252 2972.20356182818 12 17 10
197.248995905608 114.643642876268 2976.26634278702 11 16 9
233.006079136081 111.980683870975 2939.18234738089 11 16 9
189.360897363102 112.660170546649 2955.71642767634 13 16 9
187.504855794725 111.952702390071 2948.19188244483 16 17 9
171.089696828546 112.023657649486 2952.34919688346 16 17 9
165.200984962253 111.533253572836 2948.07785998692 16 17 9
163.327667850385 110.824136570935 2940.5404885165 14 17 10
157.426442273562 110.332644064406 2936.26007465103 14 17 10
178.684499813063 108.342137938932 2909.6662217619 13 16 9
173.50400875767 107.799936057706 2904.67269577305 11 14 7
157.196022558297 107.879558570503 2908.90774593886 15 18 11
162.334788693915 106.758789875662 2895.335579546 17 20 13
153.190322306185 106.43946646632 2893.64538426675 16 19 12
140.910972083658 106.301518842746 2894.62429896888 13 16 9
148.307731504219 105.036925534601 2878.9828672316 11 14 7
143.093451367242 104.491822065448 2873.9648321193 10 13 6
121.46667373254 104.90274093728 2882.99170030482 11 14 7
111.612984555733 104.634969865616 2882.02296651918 11 14 7
97.1190596829445 104.644428570365 2885.10234532568 8 11 4
165.565961960921 99.7258030796921 2816.12399547168 7 10 3
139.344008268709 100.417776715042 2829.23195479422 12 15 8
97.828878789656 102.048398840963 2855.96081850212 12 15 8
97.2251244326259 101.223733440632 2846.87312163268 14 17 10
121.099255047741 98.8980321139019 2815.99824601601 13 16 9
121.889203146818 97.9682828637185 2805.44997379425 13 16 9
104.361665392934 98.1678143173661 2811.27192010953 13 16 9
62.6003992621023 99.888748184311 2839.0578481817 12 15 8
62.686988423172 99.0112055405827 2829.23529159834 12 15 8
72.5518796844189 97.5100720308744 2810.44112771132 12 15 8
72.5375126284074 96.624261191944 2800.54534393164 14 15 9
40.9642096356775 97.7559218605629 2819.65710503193 13 14 8
44.7114355762412 96.6304489887201 2806.31119425635 12 13 7
35.7160189404113 96.3242308523446 2804.72911470392 11 12 6
31.2006726892733 95.7275389159585 2798.98274822352 10 11 5
59.3122946291018 92.9811963556366 2762.53174451146 9 10 4
57.638651540703 92.1789147148346 2753.90361247546 11 12 6
44.1399430739606 92.1616580036211 2756.46927294562 13 14 8
27.0083754607922 92.3950597691072 2762.57843802613 12 13 7
62.7136835150841 89.064882756122 2718.04272136985 11 12 6
41.1689965154549 89.5946256001715 2728.3650317817 12 13 7
27.7297886320413 89.5827566660215 2730.97385278468 14 17 8
34.6708969798528 88.1712425374432 2713.76603457155 14 17 6
285.922591354287 106.633454068098 2952.81307216292 12 19 11
245.140891918403 107.998094847686 2975.13182671951 12 20 9
274.688580055611 105.585087527551 2943.42895081443 12 20 7
254.664049235018 105.844449372442 2949.9111498783 8 16 5
226.50468730942 106.559712768607 2962.84979522255 8 13 6
230.391448579719 105.523170668755 2950.84081814344 10 15 9
225.243844204037 104.980959439618 2945.8711323632 11 16 10
218.462408527629 104.529318169057 2942.18816837251 13 15 10
195.442541855644 104.992193886735 2951.44045638578 13 16 9
186.282749573778 104.68236785983 2949.73919914492 16 17 9
181.178249851007 104.143479715227 2944.80107215657 16 17 9
163.180120252137 104.344323476845 2950.28158857056 16 17 9
171.757582055283 103.01784144472 2934.26072308007 12 15 8
193.074050558168 100.938642867691 2907.70876430009 13 16 9
186.276746286933 100.48527256294 2904.01399359144 12 15 8
151.595586244243 101.676919360458 2923.34347436825 11 14 7
137.730792277341 101.655038299596 2925.64372822345 14 17 10
154.812514709546 99.7897666663514 2902.19847284805 16 19 12
172.55639294875 97.8662574642697 2877.99789673427 17 20 13
163.375487888162 97.5543028601255 2876.28132360788 13 16 9
155.782694788922 97.1479160063477 2873.2454551579 11 14 7
126.256227480924 98.0887050099101 2888.89960333126 11 14 7
111.707763258861 98.1231991200178 2891.9395722088 12 15 8
94.089468404198 98.3555111442061 2897.69589280492 11 14 7
116.942640542527 96.0639886153525 2868.55144345786 8 11 4
131.109106538066 94.2959125776476 2846.69875315634 10 13 6
126.616755548274 93.6943519762947 2840.96873729386 12 15 8
103.623243092407 94.2725520395228 2851.47604528758 12 15 8
79.9571786969082 94.908087725089 2862.73113307273 14 17 10
110.01632751896 92.0832698781881 2826.45620456086 12 15 8
118.479169598645 90.6338006100471 2809.11658920293 11 14 7
78.8719270752982 92.3222884457271 2834.75844624715 11 14 7
66.038739808818 92.273294334932 2836.57135985292 11 14 7
65.3605793108132 91.422945492183 2827.42959429229 12 15 8
82.772896183406 89.358744515581 2801.75261853019 12 15 8
84.2370616316184 88.346881388867 2790.45764830116 14 15 9
77.3984821670619 87.8905212184574 2786.73323565678 12 13 7
48.8570525366816 88.9140815141656 2803.1018779173 10 11 5
20.4464609899828 89.9486294885987 2819.56542315166 10 11 5
40.5329321518817 87.6540738733028 2790.88539111768 12 13 7
50.819671891503 86.0170895530183 2771.16130945499 10 11 5
37.338302029406 86.0281371149374 2773.73968241641 13 14 8
39.3871307244291 84.9522366083105 2761.63318606117 13 14 8
36.9746657173309 84.1849800332943 2753.70497476414 12 13 7
23.5428626399981 84.2004612642702 2756.31930220305 12 13 7
35.7351079093213 82.3826431416023 2734.27024184087 13 14 8
23.7695111180578 82.293746301524 2735.47655707601 14 17 8
238.919712195998 100.984892160398 2980.46731950559 0 6 0
256.935368613618 99.118563959216 2957.69938193264 10 18 5
251.774352251839 98.5722790188707 2952.7199528833 15 21 9
241.681982751831 98.3117283050416 2951.57823121022 13 19 9
220.966378838521 98.6754522662073 2958.79502188484 13 18 11
224.827931734281 97.6033965344244 2946.76759083351 9 14 7
193.61512969507 98.601854849099 2962.43460770768 13 15 10
187.717509800795 98.1098777734702 2958.156805224 13 16 9
187.489669979649 97.277429601141 2949.34157740276 15 16 8
183.998982971477 96.6375479148683 2943.10245840408 15 16 8
157.129342941468 97.4170613645575 2955.74133948446 15 16 8
158.495556378658 96.4849911690435 2945.61080254836 13 16 9
191.873879692332 93.5754511425777 2909.27151206722 13 16 9
181.085158418175 93.372339288784 2908.86031770053 14 17 10
147.210938812686 94.6131275353192 2927.53997910315 14 17 10
132.563112581623 94.6690109795177 2930.50802668108 16 19 12
113.999860583188 94.979247850607 2936.8147590112 17 20 13
161.105236769146 91.1230452780421 2888.18957536388 14 17 10
184.271354115181 88.7557181635784 2859.27130823428 13 16 9
154.614203008089 89.767261526372 2874.83107931752 12 15 8
117.249819096772 91.2978697656924 2897.15788622649 12 15 8
122.265743686594 90.0890390748855 2883.49592884713 13 16 9
114.234634781702 88.8372157261715 2871.49218825455 8 11 4
118.338749317254 87.6685888335813 2858.40477505423 11 14 7
122.384808600704 86.4951094585822 2845.27525178393 12 15 8
91.6951997978543 87.6530399042945 2862.55768146463 11 14 7
86.5030321749436 87.1033800150223 2857.55565310652 13 16 9
96.6296908898503 85.507649561 2838.9510653579 13 16 9
96.7307066546375 84.5862736042688 2829.13874490308 12 15 8
83.8447260729902 84.5569047498313 2830.91319243679 12 15 8
76.3145106358762 84.1610240717543 2827.92274108541 14 17 10
85.4555501767456 82.5994628878663 2809.83886666667 15 18 11
83.1792289724937 81.8285430782388 2802.00903588575 16 19 12
83.8917971045534 80.8422611256534 2791.40467740227 14 15 9
35.0281069034914 81.5308970198741 2806.62586917071 11 12 6
24.5640455033294 81.35556489601 2806.45016838507 12 13 7
39.3548088714777 79.3362689792773 2782.57840435848 12 13 7
52.5415104886497 77.4156797345312 2760.0146894404 12 13 7
34.6318307244884 77.7815367811719 2766.79549195823 13 14 8
11.643468928999 78.5372141814842 2778.54246936248 15 16 10
23.9505010719299 76.659805879224 2756.57661309566 17 18 12
28.8361839449984 75.3253930968352 2741.58456798907 18 19 13
59.1637431546364 72.0465367089089 2701.79680621301 23 26 15
255.044084618706 92.6687135907617 2968.64692976211 1 7 0
281.278015952745 90.2188247110156 2939.48209501279 9 15 1
263.703151119645 90.4177585431634 2944.03439878504 12 18 6
242.083192316918 90.873834230599 2951.83140218636 11 17 7
245.115103227742 89.8182533161873 2940.43737155508 13 16 9
183.572146500545 92.7715370097459 2979.82720259893 10 13 6
172.016759917988 92.6397189990763 2980.09563393529 13 16 9
188.925451805562 90.7196445744534 2957.75999854471 13 16 9
206.521249202134 88.7378469957271 2934.68681685499 15 16 8
199.748528890329 88.2911581553507 2931.00990142611 15 16 8
195.054297406353 86.827722578191 2916.48332715995 13 16 9
179.45224290651 86.9526500683274 2919.99531512952 13 16 9
157.507992175155 87.4999499853421 2928.79273108895 15 18 11
153.186090411787 86.9007073461859 2923.18658372623 15 18 11
145.675348528795 86.511128582145 2920.20998661323 16 19 12
154.819009164752 85.0131622679838 2903.36337103201 15 18 11
159.135488724408 83.8261021249456 2890.42981240171 14 17 10
171.277167469942 82.1024353001263 2870.81493991759 13 16 9
125.144325408251 84.318927267299 2900.37506487375 13 16 9
112.943215529471 84.2516367787615 2901.41076108609 13 16 9
145.334639286545 81.1247912732885 2864.35523983682 13 16 9
137.954522805176 79.7935774214042 2851.58768431015 8 11 4
116.414882405629 80.3746111886813 2860.67858180252 11 14 7
107.329341380111 80.0915165095323 2859.03128628153 13 16 9
100.572616111438 79.6459292786321 2855.36597158064 12 15 8
93.0506093779795 79.2555080382664 2852.38149854685 13 16 9
117.723854362971 76.5553130143013 2820.84898447724 14 17 10
86.4359001943829 77.8695669548063 2838.93348927151 13 16 9
93.3906418318258 76.4270198044081 2822.97072803883 13 16 9
95.7110856531771 75.3115617281724 2811.06063644131 15 18 11
87.3758856767468 74.9724595394652 2808.7219588416 16 19 12
87.3619699558006 74.0192643682632 2798.82616092941 16 19 12
82.7928496153345 73.3997449336641 2793.04040236126 12 15 8
86.4746346740408 72.160251812876 2779.64647455881 12 15 8
86.3541762044395 71.1983657470192 2769.67339751329 12 15 8
62.3067734219331 72.0467429443381 2781.88815967695 11 14 7
39.1081701150595 72.8470739267348 2793.48295470202 10 13 6
35.3066178442187 72.1731068588541 2787.01831019106 13 16 9
46.29049983994 70.3537785909581 2766.56364159032 12 15 8
57.1720816701515 68.52599857328 2746.03477060664 13 16 9
30.4363402032779 69.6264287468385 2761.24271085487 14 17 10
26.5578887985352 68.9464261589076 2754.72228994953 18 21 14
68.7294636258864 64.6147399672771 2703.75311661574 19 22 15
251.304893621413 85.5119988900563 2972.07553786203 39 43 28
240.399454857264 85.3319023814601 2971.57984907323 14 18 4
248.460335846906 83.935471357147 2956.41918545041 14 18 4
240.019932166077 83.595792422539 2954.00424051889 16 19 8
220.124595610923 84.0038078882872 2960.58084822281 14 17 10
183.964433850544 85.4882988637407 2980.0746890337 16 19 12
195.821351895199 82.9471330838836 2952.83843791781 13 16 9
242.576884866813 78.937843269396 2906.42923777674 13 16 9
204.188750817782 80.6012259527057 2928.01428441469 13 16 9
221.588133238645 78.5230117794922 2904.79822894832 12 15 6
217.157323954885 77.9087973812249 2899.11276188793 14 17 10
209.510457467221 77.5129509977856 2896.03774787426 14 17 10
170.694594283329 79.2621655341645 2918.54819591861 15 18 11
153.582325205165 79.5367614377623 2923.43652294622 16 19 12
157.996689630523 78.3218146432808 2910.57378189265 13 16 9
151.253466581814 77.8795466998947 2906.91827205201 11 14 7
170.605165310489 75.5987803102861 2881.41106201014 12 15 8
148.815964137144 76.213157202025 2890.32121646119 14 17 10
132.617398437147 76.4421913208051 2894.63634468139 15 18 11
127.451836919646 75.8881402974504 2889.65387589195 15 18 11
148.082977732442 73.4706699931776 2862.60339503082 14 17 10
157.648475822219 71.8335660654927 2844.82683703368 8 11 4
131.546270865877 71.8433916059608 2848.13697309118 11 14 7
136.334221340548 70.537853365815 2834.30955704475 14 17 10
133.350574173521 69.8008657729295 2827.20247355792 13 16 9
134.192069290216 68.7745195257652 2816.69107958647 14 17 10
91.3017384834247 71.035950983254 2844.89629893566 12 15 8
98.3018320969946 69.5500445301911 2828.96619469491 14 17 10
107.512436853138 67.8835480385853 2810.9322180673 15 18 11
96.8761838528396 67.7251838991372 2810.63177786215 14 17 10
89.296170869666 67.3351267939781 2807.60525670444 13 16 9
90.7901942912246 66.2418917952827 2796.33151899292 13 16 9
93.7459991868535 65.027281613883 2783.64647534326 13 16 7
92.141120703416 64.1623731079249 2775.06787501948 14 17 8
91.257670899286 63.2360828693954 2765.7769062016 14 17 8
85.8619165426671 62.6635479543803 2760.62747208597 14 17 8
67.0590784798315 63.1630402367024 2767.99651861016 13 16 7
35.7102921537469 64.6847048930539 2787.27301208061 15 18 9
41.5167589702459 63.2216878836593 2771.71277487015 14 17 8
25.1135607139936 63.5566389426055 2777.11542817965 16 19 10
46.2935141401997 60.8208902582321 2746.75548230984 18 21 12
32.8334417359128 60.9148251246894 2749.34971409348 19 22 13
58.908005573354 57.7358646380307 2713.89017993036 18 21 12
212.786961005359 80.706735310797 3002.17957113856 42 44 30
184.640834924696 81.7168864635536 3015.12959957092 10 14 0
262.039169192496 75.6076593072628 2946.45853106716 14 18 4
251.098971103678 75.4403997853019 2945.93770952397 18 21 10
218.064217968749 76.7888500891588 2962.75609568034 11 14 5
205.600517971102 76.7430634441827 2963.60154363276 12 15 8
178.503007270115 77.7158190373728 2976.0762152103 13 16 9
213.284081767729 74.3955068830495 2939.51669172759 13 16 9
238.538078241001 70.7762701268322 2900.98971294888 13 16 9
217.961531046066 71.2974224768604 2908.3081062121 12 15 6
243.287570248001 68.5564524006183 2878.48394117421 16 19 12
217.130166464074 69.4828129352958 2890.40455021247 15 18 11
168.693798410057 72.0341412501417 2920.76656928762 16 19 12
165.938818216818 71.3047899219808 2913.82529004927 18 21 14
157.599219481443 70.9804615059403 2911.4834985274 14 17 10
146.100143579567 70.8901568380974 2911.79296095119 11 14 7
164.680970785615 68.5814181417691 2886.96211911232 12 15 8
146.060768916007 69.0167601969081 2893.22820094788 14 17 10
136.94682958372 68.7521408499372 2891.56041246946 15 18 11
138.044373740394 67.7219379146457 2881.23461437656 15 18 11
154.741947957391 65.5047963840098 2857.50909947142 15 18 11
144.017269875831 65.3546229873395 2857.14459952551 7 10 3
142.649623006341 64.4920403240476 2848.73798524231 6 9 2
142.80544310434 63.5077429778718 2838.96507490897 7 10 3
124.367443167621 63.9583681799316 2845.36331622622 14 17 10
119.106545407112 63.3931631658764 2840.31138518546 14 17 10
83.8547634942159 65.1785878945305 2861.70058532858 14 17 10
111.635195143445 62.0196679720852 2827.47747817964 14 17 10
102.526783846232 61.7557457912435 2825.81399510013 16 19 12
107.156084294191 60.3982424441977 2811.87101257304 17 20 13
98.0412148943604 60.1339165726516 2810.20284583235 16 19 12
93.4903834531524 59.5037955562332 2804.43029157847 14 17 10
81.3729056428354 59.4867886313468 2805.5268691582 13 16 9
79.8380978834583 58.6107491098888 2796.99930269391 14 17 8
62.4990996907422 59.02933016589 2802.9587404131 14 17 8
78.1845754236499 56.7281511451287 2778.49910805114 13 16 7
86.2724068732912 55.0375256537159 2760.88641798055 14 17 8
82.360815555889 54.336825602992 2754.34186840855 15 18 9
46.5082850610727 56.3220312759527 2777.7666582723 15 18 9
1.94713878522235 59.0740719629162 2809.70388833431 15 18 9
4.85114921283136 57.8224067536225 2796.98111007842 17 20 11
1.07829363612444 57.1337374506713 2790.53719394373 20 23 14
42.7792205033688 52.5240464513308 2740.46046633958 19 22 13
258.540642157944 69.3295187443149 2958.71219159637 24 26 12
235.256422502088 70.0556582015452 2967.7741779728 18 20 6
259.71646614227 67.3904009754384 2939.79269102985 17 19 6
231.571498920236 68.4736874003181 2952.74363551111 15 16 8
195.371947083269 70.1563986772466 2972.20992563976 15 16 8
200.08554543114 68.8949415544983 2959.56387005861 14 15 9
194.98731856144 68.3406249182482 2954.63021224697 14 17 10
198.801557251107 67.1310938710988 2942.56749130131 12 15 8
209.030227397248 65.4393838029864 2925.27140428976 11 14 7
240.940038331 62.1233299600315 2890.3358665076 12 15 6
244.500264244602 60.8922950160541 2878.08889735819 14 17 10
199.091312634729 63.3321747071502 2905.70454971891 15 18 11
173.889124332386 64.278973212996 2917.08268173822 15 18 11
167.931510144974 63.7796117543557 2912.76135070775 15 18 11
167.540364895856 62.8545643626431 2903.82727026337 12 15 8
163.152014768245 62.2317765451113 2898.17283380236 12 15 8
150.844822798807 62.2198181064257 2899.13190911101 14 17 10
148.036708581999 61.4744973498717 2892.15203099674 14 17 10
132.625225668578 61.7122456825876 2895.80273983611 13 16 9
119.618826002518 61.7690999784683 2897.49032974293 17 20 13
143.412691919012 58.9196689382304 2867.78994684526 15 18 11
134.280124457553 58.6639209929394 2866.10869937386 7 10 3
143.053114478911 56.9773063958221 2848.99242121287 7 10 3
110.635486837972 58.5939099904996 2867.49486416544 10 13 6
102.341577051765 58.2810541624312 2865.18595717176 13 16 9
92.5171619345417 58.094919722874 2864.23885828229 16 19 12
100.401033265351 56.4613147451607 2847.71334414116 16 19 12
108.971403901786 54.7579226777211 2830.45039235975 15 18 11
106.753019854198 53.9347306961306 2822.66229669127 16 19 12
103.74911428716 53.1732499376048 2815.54040339523 16 19 12
102.247118461728 52.282771459203 2807.03625538891 16 19 12
83.2831983997906 52.8604729808674 2814.2889262795 15 18 11
74.9744436636779 52.546798303523 2811.96954819422 14 17 8
58.3880655097002 52.9415044787183 2817.23941868103 14 17 8
44.1162195261056 53.1479718148352 2820.48107957829 15 18 9
53.1179289775894 51.3537426326562 2802.29502329501 15 18 9
98.6349694456221 46.3745069830729 2750.04236506965 16 19 10
49.9990673328963 49.5642565948836 2785.20341237092 16 19 10
14.2375017313219 51.6662970440536 2808.69473641825 16 19 10
3.82543004666003 51.5593564604219 2808.55707050352 19 22 13
4.51215776783176 50.4708700256412 2797.93316759185 19 22 13
263.897850523961 61.5174452390662 2955.14536784773 42 43 25
264.491540068904 60.5260871825115 2945.68954818016 24 25 11
249.436230081885 60.6968212631149 2948.3630783054 17 19 6
244.263499127357 60.1333071204721 2943.37506982847 16 17 9
205.573274059405 62.0986676268253 2964.74294829409 16 17 9
193.958881045706 62.0366446544895 2964.96895813489 14 15 9
200.260401005307 60.6117702046022 2951.00282534161 14 17 10
202.152223076176 58.556628188243 2931.3667427533 11 14 7
220.379395501245 56.1780404938832 2907.51421184658 12 15 8
223.194155036092 54.98140730218 2895.96204909103 15 18 11
199.492361317169 55.8588395170096 2905.95742455154 15 18 11
168.687370222238 57.3127043260915 2921.92267348303 15 18 11
181.88921440859 55.2938719697288 2901.83951137418 14 17 10
169.529667299082 55.2990558890788 2902.76101463093 12 15 8
177.829892868884 53.6505338465179 2886.5372490052 12 15 8
188.423452220299 51.8036019091274 2868.26985510711 13 16 9
150.801590048762 53.8577865673667 2890.41236807115 14 17 10
127.514804444805 54.7698248407615 2900.70876705742 15 18 11
124.721088320431 54.0142042553264 2893.73897977993 16 19 12
121.908697886109 53.2570513289932 2886.75594181205 14 17 10
101.915126585565 53.924317600521 2894.49798131527 7 10 3
134.120990270809 50.2431069457275 2857.30484116409 7 10 3
121.893965135715 50.2593448555387 2858.32217394187 10 13 6
88.8154704465403 52.043412501336 2877.5814251352 13 16 9
101.39894156243 49.9726881379405 2857.05002282462 16 19 12
73.1113934021232 51.3771259112691 2872.36930729419 16 19 12
100.937599906914 47.9799771054195 2838.17847111569 15 18 11
107.156404291515 46.4175684723407 2822.9166427699 16 19 12
100.340400654056 45.9760957968951 2819.20837675545 16 19 12
69.9564473288321 47.5957092015218 2836.7147211301 16 19 12
98.0907850270953 44.0944067942609 2801.51169164187 16 19 12
88.2281148299273 43.9186500744981 2800.53661891672 15 18 11
65.5720969860107 44.8841623876324 2811.29054577004 13 19 9
68.5653491424985 43.5725597693993 2798.63215715313 13 19 9
67.0085217895542 42.6609708013317 2790.08815367356 14 20 10
53.469431917454 42.8284266604426 2792.62547640678 14 20 10
51.1477683066746 41.9831520992635 2784.76269380326 15 21 11
16.863854880421 44.0577806628437 2806.85469286511 15 21 11
-12.810611783824 45.7376634227905 2824.87566453766 19 25 15
46.2598272153461 39.2313809623622 2758.9729565413 17 23 13
147.087788284368 27.6327423805388 2641.79706658777 13 19 9
234.402084427274 55.4045791942234 2969.55100720175 31 32 16
249.01462360468 53.3058671214039 2949.25504676193 20 20 8
261.877656341887 51.3262660591338 2930.16180282346 17 19 8
246.843775317099 51.5281944031274 2932.85073078881 16 17 9
245.71804373711 50.6358313129443 2924.61933521795 15 16 10
223.923057746993 50.4032091769361 2923.64012392718 13 16 9
197.69744078942 51.527870067721 2935.51258268753 12 15 8
181.259655396753 51.8775343544455 2939.6549064629 14 17 10
188.205089141979 50.3318564775138 2924.91991199224 17 20 13
181.442538608174 49.8971187881517 2921.25042938741 16 19 12
194.683465935571 47.8155207244393 2901.19557603792 13 16 9
191.064551939816 47.1123779456985 2894.86318212953 13 16 9
186.636179499595 46.4742991373653 2889.17936071109 12 15 8
199.653370984877 44.3737694337632 2868.9622205824 12 15 8
208.608444278947 42.5973987436598 2851.97748383934 13 16 9
194.597127002212 42.7512880481938 2854.17241013184 14 17 10
116.894062888427 48.3349918999768 2910.26866186478 16 19 12
129.824466145545 46.2271027910199 2889.98856982051 14 17 10
148.126184927435 43.6387697561532 2864.95368565103 11 14 7
113.232687372976 45.6318637546716 2885.36833455133 8 11 4
99.5083695373413 45.8098947942947 2887.77172962322 7 10 3
122.293672704862 42.7997167775281 2858.57414600208 9 12 5
103.910155857768 43.384907618858 2865.01256487522 12 15 8
74.7951213955003 44.931850971424 2880.96803979013 16 19 12
79.6596701900056 43.4774380411465 2867.19539742078 16 19 12
110.54337950175 39.6837206015667 2830.27826610823 15 18 11
110.618904285116 38.625617031612 2820.44677414466 15 18 11
90.8280679417493 39.3589886555453 2828.33582090453 15 18 11
87.0858170387017 38.6457301466144 2821.91426067876 15 18 11
83.3294516916676 37.93137759575 2815.48216857277 16 19 12
91.656835518688 36.1027082711049 2798.04214143659 16 19 12
94.6221831511633 34.7553736027648 2785.36334324483 14 20 10
90.0163956492155 34.1029922980349 2779.55113189398 14 20 10
74.9076895202023 34.4315891393916 2783.42149577453 15 21 11
71.060417166898 33.7100214667334 2776.92346669363 15 21 11
59.0023789420746 33.7627667606992 2778.06378108315 16 22 12
64.0659459195239 32.1929308754022 2763.19949549563 20 26 16
12.7673274965852 36.0030536845943 2801.37416070184 14 20 10
22.2950928579757 34.0099367586458 2782.3331150624 13 19 9
123.769158113403 23.105348902543 2675.51029179055 15 21 11
208.423020272289 50.1520257496414 2990.21544638397 35 36 20
220.642787984293 48.1910096180118 2971.89131114333 20 20 8
259.001171461739 44.0791979829148 2932.9803107119 17 19 8
254.603898076289 43.4385557429765 2927.31931515468 18 20 9
265.69154776351 41.517902986488 2909.40942999792 16 17 11
262.860697099236 40.7369701325874 2902.41288936536 16 19 12
230.812037569632 42.3912468449368 2918.71262826235 14 17 10
203.756401978658 43.6499232910898 2931.21910424629 14 17 10
163.099874548764 46.0749651421787 2954.869006431 15 18 11
180.556837707412 43.6023568373034 2931.69269478625 18 21 14
177.827625550203 42.8295980921648 2924.76987548001 17 20 13
187.08231006933 41.0260598277695 2908.00219569889 13 16 9
199.444789054585 38.9402797482674 2888.54555184563 12 15 8
183.853920621051 39.2601314743644 2892.06663616307 12 15 8
198.470640118512 36.9561105623681 2870.53762956753 13 16 9
197.936413332132 35.9600015799984 2861.49917184528 13 16 9
128.71119405826 41.0104184879125 2910.15220667309 14 17 10
114.138663181993 41.2798620938246 2913.17591918491 16 19 12
101.182992934874 41.413529683903 2914.90096748163 12 15 8
162.613689036767 34.8924418065179 2853.17955297248 10 13 6
161.233177823097 33.96102269359 2844.76326438145 8 11 4
132.58753364143 35.4931989531236 2859.82389890063 7 10 3
128.125122827425 34.8462538518037 2854.11535742909 9 12 5
107.402471408953 35.6857490272393 2862.56478019804 12 15 8
87.533999458822 36.4612088555603 2870.3977604348 16 19 12
112.371061797202 33.1141903860499 2838.98072477242 17 20 13
120.9194258466 31.2512815091493 2821.70071748532 15 18 11
117.142329633684 30.5262684411418 2815.25383761163 14 17 10
110.299840756435 30.0871010801333 2811.5263835585 14 17 10
92.0507662936352 30.7272592535938 2818.06254100553 14 17 10
79.1804188999237 30.8684558980284 2819.84918531869 14 17 10
71.6422533346215 30.5068962387474 2816.85314459244 14 20 10
90.5040863320799 27.6091763035965 2789.75265880722 14 20 10
89.6712803500299 26.5886205877364 2780.49792530353 15 21 11
109.047532409588 23.5985148684136 2752.53484829326 15 21 11
96.1323931711857 23.7363815929713 2754.2890051756 16 22 12
84.7461119672084 23.7312086865058 2754.68066609221 16 22 12
55.5558620781214 25.490367353639 2771.81802175767 20 26 16
45.0226484212362 25.421243675906 2771.59272899207 12 18 8
93.6083378396728 19.4523451280878 2715.38381494133 12 18 8
194.204674740589 6.98790952965 2598.03563025265 19 25 15
230.081212617416 40.0704582462695 2965.10571356294 28 29 15
252.023191804309 37.2027415104313 2939.00320682693 17 17 7
254.188473187635 35.998963090881 2928.21551841302 18 18 8
212.265844789026 38.5737440549312 2952.18339207291 18 19 13
203.885857970905 38.2852460808113 2949.81250385618 17 20 13
230.40188706231 34.969900069432 2919.61274745124 15 18 11
188.781816984985 37.5698488136999 2943.80007957491 15 18 11
165.104534275051 38.6286773706364 2953.81414239716 16 19 12
167.272492546481 37.4245930504931 2943.02839296712 19 22 15
171.803499346894 36.0032561208857 2930.24916305378 17 20 13
204.286941797926 32.0803097629507 2894.49105786394 12 15 8
169.518861577639 34.1470474239995 2913.76196085679 11 14 7
176.294892512868 32.498473808472 2898.90393596375 12 15 8
184.587669480246 30.7000933597398 2882.6740116248 13 16 9
181.719116943928 29.9039782392563 2875.65006319943 13 16 9
140.154968090339 32.6468136685819 2901.11398866704 14 17 10
116.891683712416 33.7400515703493 2911.42804752842 16 19 12
112.562514197574 33.0983546837749 2905.81641657842 11 14 7
193.639955544785 23.4181018679258 2817.56189717587 10 13 6
139.992409647355 27.3630163901173 2854.03445747383 7 10 3
127.748935362127 27.4421015287924 2855.04018424524 9 12 5
124.05310186776 26.7150834738211 2848.65220329481 12 15 8
104.907647043987 27.461536975747 2855.77413052446 16 19 12
103.536439095406 26.5141133908827 2847.36450500303 17 20 13
119.02053833287 23.9342051997684 2823.99251533293 18 21 14
125.19821490385 22.2353555348659 2808.70018145661 16 19 12
112.992614194751 22.3179075487615 2809.73367562905 15 18 11
93.9739865212679 23.0752926462447 2816.94759793725 14 17 10
72.7531846088003 24.0634707872322 2826.27169051978 14 17 10
84.1210683740949 20.7220408340973 2796.20680126406 15 21 9
75.7891241891282 20.4375543366801 2793.87076049631 15 21 9
82.4656576955864 18.6425535191342 2777.70424052789 16 22 10
63.6472555448395 19.4173344797111 2785.06369318105 16 22 10
49.3752368544036 19.742712466366 2788.30553670829 17 23 11
75.2841145617165 15.9608914185629 2753.95787615513 16 22 10
95.0746263467015 12.7737743359216 2725.05877585295 14 20 8
102.515816704844 9.65855205917018 2697.0889295269 16 22 10
208.596055678361 -2.63030448379453 2584.95236293167 19 25 13
233.560253791267 31.3892795846157 2953.99748652264 28 29 21
220.235970405873 31.541209042741 2955.4554117888 9 12 5
234.686733309585 29.2221399926678 2935.04106012417 17 20 13
210.789228919077 30.3224537459822 2944.8956896811 17 20 13
174.816653822311 32.5277307265968 2964.52916699096 15 18 11
168.945795662061 32.0336947749544 2960.27075423078 15 18 11
165.495389480192 31.3189612464722 2954.06045652338 21 24 17
170.079212807382 29.8661613071213 2941.31935507111 18 21 14
181.026377921981 27.8173837410582 2923.30727514917 15 18 11
189.479686083658 25.9829584370857 2907.19354072457 10 13 6
173.905842300044 26.3690113891749 2910.72730189633 11 14 7
136.094343860624 28.8433508716344 2932.73447164976 13 16 9
157.997159728316 25.7364537619624 2905.36703198591 13 16 9
173.412112244165 23.214979051435 2883.18054346497 14 17 10
159.497378684011 23.4576605196845 2885.44593510463 16 19 12
155.860270472891 22.7268162717219 2879.10021150784 15 18 11
134.937114465444 23.652499110508 2887.40472077876 11 14 7
152.458423867834 20.8838958448627 2863.03851919729 10 13 6
148.768221044345 20.1485711097246 2856.65428348834 10 13 6
150.513550829675 18.8807506601686 2845.56183881333 8 11 4
139.016661136868 18.9026726250359 2845.87345451675 9 12 5
108.196397542766 20.8340217263761 2863.06508726893 11 14 7
102.989236778179 20.2539727300751 2858.05233061265 18 21 14
105.474284822867 18.9070939567566 2846.260391938 22 25 18
106.374751470971 17.7097243075238 2835.79117589795 20 23 16
62.8451325386994 20.9758254611886 2864.77308712118 22 25 18
92.7915182005732 16.8489819304835 2828.41011364825 22 25 18
82.2001729964028 16.8060066296661 2828.14281253012 22 25 18
72.3930242652746 16.6877255959679 2827.20827962626 20 23 16
70.172239494311 15.7937322978292 2819.41837947658 18 21 14
44.5435160331082 17.3139736163412 2832.96057939284 18 21 12
65.6618156955173 14.000187252392 2803.78834262532 17 20 13
60.3722050320563 13.4139069733887 2798.7157847151 18 21 14
73.0235519660365 10.9434193715729 2776.99623104776 19 22 13
43.066817749926 12.9483683556111 2794.81422747259 20 23 14
58.5948434314636 10.1545718011263 2770.23796100331 14 17 10
96.9701426856306 4.899567163554 2723.92291842927 14 17 8
103.305062864137 3.02943575386999 2707.50866959479 16 19 10
120.615548739641 -0.0382065505516449 2680.51775511237 18 21 14
195.403227903684 27.504511710357 2984.36781128099 12 15 8
217.358808310003 24.4509882991465 2958.27422321177 16 19 12
188.400632631101 25.0408523764357 2963.22234751721 18 21 14
165.289294205821 25.1132892669946 2963.76050269634 15 18 11
154.585718573594 25.0769645451787 2963.41187703228 19 22 15
194.620357724794 20.2287354522609 2922.00719012462 16 19 12
194.266084635764 19.1891739681946 2913.09925905952 14 17 10
186.675305350371 18.8379042073976 2910.06483516809 11 14 7
191.866612773411 17.2558233269496 2896.5284204386 12 15 8
164.351741103061 18.8316613128171 2909.93862950294 13 16 9
115.516007157484 22.5054145067526 2941.25215612993 13 16 9
112.049827896255 21.780351994934 2935.03037186235 14 17 10
182.794364921365 13.7497732025246 2866.4665327073 15 18 11
174.36951453979 13.4723078860621 2864.06317781857 15 18 11
141.895815888446 14.4856158256362 2872.640741423 10 13 6
167.909067343832 10.7633003516432 2840.83941277015 10 13 6
150.915439375634 11.3504580367378 2845.81503398032 7 10 3
131.652979097002 12.1791395482593 2852.8525579598 8 11 4
107.818526437246 13.48808778122 2863.98898846592 11 14 7
104.158019997855 12.7466254188047 2857.62624921127 17 20 13
101.253176601268 11.9247183246009 2850.57586212537 21 24 17
93.7237293169759 11.5786067297096 2847.58621971458 22 25 18
57.1136676794888 14.2633112902756 2870.46540218626 22 25 18
46.6301820335651 14.2453838781079 2870.27641763622 21 24 17
59.0049550440774 11.8263134675495 2849.59166669679 21 24 17
70.5143541136977 9.47866098134276 2829.51528057169 21 24 17
76.6245613120891 7.68587531289708 2814.17385537996 18 21 14
57.7651676877302 8.54909164872072 2821.50374590468 18 21 14
63.8054182337204 6.75056860905943 2806.11128410474 18 21 14
71.2745899784091 4.78402195398475 2789.28345896827 18 21 14
57.7220895024801 5.08505396407102 2791.81173665812 18 21 14
62.8550728976038 3.35467451917765 2776.99725380543 18 21 14
68.6647228778496 1.53717154288432 2761.437528597 14 17 10
49.1984628560309 2.49414141831592 2769.56300022839 15 18 11
105.199068636248 -4.90216859649567 2706.37113192394 16 19 12
104.8242780393 -6.08640868739005 2696.2122633476 18 21 14
76.4942011233476 -4.14497354065349 2712.7390633954 21 24 17
207.934100415507 18.0072524390673 2966.23102999181 19 22 15
197.744187219578 16.8547490104651 2956.36793906007 19 22 15
185.336733512708 16.9849538200146 2957.25505258045 18 21 14
188.3438122398 15.6214085666044 2945.84175514617 17 20 13
193.723967372246 14.0167787497834 2932.44212593664 15 18 11
170.863412329005 15.1766122340888 2941.81343257795 11 14 7
169.773031158315 14.2023812554005 2933.60724859622 11 14 7
191.876463426256 10.9202378702627 2906.38464686236 12 15 8
179.488966725121 11.0516113412296 2907.28623356161 13 16 9
175.09925221259 10.3870910676442 2901.63030216871 13 16 9
122.256487016227 14.6054099516148 2936.21728228332 13 16 9
103.725878364654 15.3949125195044 2942.55010604747 14 17 10
107.378093389983 13.9382047750093 2930.36897316809 14 17 10
177.133547187186 5.70533238832704 2862.32213844531 13 16 9
116.093217707389 10.8496030650247 2904.55780022383 11 14 7
165.1885953783 3.5206413508708 2843.77104008271 9 12 5
107.200570227859 7.30463185913621 2874.62591149247 8 11 4
106.665437657805 6.22995648340094 2865.58669367106 10 13 6
102.23760014106 5.56219846177641 2859.90310969899 13 16 9
102.420063166678 4.40109689145787 2850.14861784422 16 19 12
99.4951974896932 3.56612682863752 2843.08365001345 23 26 19
79.7079663831282 4.54387387392924 2850.97654809611 22 25 18
51.6009410555172 6.43746162050121 2866.42946953772 22 25 18
46.4574666071331 5.85665728835863 2861.46287662526 21 24 17
75.4656082884848 1.5395248929998 2825.65382284632 20 23 16
95.9453314476755 -1.87945472408821 2797.25317214835 20 23 16
52.9183806848415 0.520929653456986 2816.71421124129 19 22 15
85.1812968781798 -4.25650227435942 2777.08680383553 18 21 14
98.5177629026373 -6.95411498677853 2754.62772055537 16 19 12
58.0374018198562 -3.60370018926603 2782.11542104571 11 14 7
55.6848042301583 -4.53652149107339 2774.22947582218 17 20 13
74.8110447603962 -7.92171362899949 2746.0831589282 17 20 13
99.3447594607852 -13.2020064337768 2702.08517795058 18 21 14
98.217592907484 -14.3248522680592 2692.61653806722 20 23 16
230.423005263139 8.48006459560954 2949.13682068662 6 9 2
230.984818598097 7.32944147763215 2939.65738104225 17 20 13
198.950463123708 9.42046913454894 2955.96970148377 17 20 13
188.163324280837 9.40920795586805 2955.56033153975 18 21 14
197.642300274003 7.36285930394642 2938.95431002932 17 20 13
188.46651707161 7.18778943729112 2937.24214319543 15 18 11
180.918110864127 6.85031792029875 2934.23850634329 10 13 6
166.952979708279 7.16984997730291 2936.4680474307 12 15 8
169.048716438033 5.84834790955022 2925.62905384275 13 16 9
169.502359699227 4.68785654866993 2916.07114941885 14 17 10
162.751864887364 4.26768722519075 2912.41048005578 14 17 10
167.125155697446 2.68876946939389 2899.51612027727 14 17 10
155.598257476608 2.76437020966924 2899.80654852891 15 18 11
154.370380279919 1.76143583780897 2891.50054535527 13 16 9
111.366143946821 5.17313836279309 2918.39398187811 12 15 8
152.618663409014 -0.334914774480111 2874.16341589525 11 14 7
170.107059031857 -3.35397189684628 2849.77208581441 11 14 7
130.68654614398 -1.43808220879382 2864.43424589774 7 10 3
112.255159633513 -0.596868812011736 2870.83925983503 8 11 4
115.580774631887 -2.11445759696571 2858.42076477463 9 12 5
133.527607264055 -5.24458002235501 2833.12616626852 9 12 5
99.7361160410595 -2.70322370471771 2853.10742350401 14 17 10
113.716075762445 -5.41893510599881 2831.11473086416 18 21 14
110.733786983742 -6.27014738060641 2824.00805353149 21 24 17
64.2088576009026 -2.25629858948109 2855.76312324604 22 25 18
26.2909753578811 0.836014798328844 2880.16667100498 21 24 17
