ply
format ascii 1.0
comment KinectMotionCapture
element vertex 797
property float x
property float y
property float z
property uchar red
property uchar green
property uchar blue
end_header
70.9822615914795 286.346622443724 2582.99654192867 43 30 21
65.9258295930854 285.862981919152 2576.85850347042 54 41 32
53.1313036841796 285.165677826198 2578.69586522449 39 25 16
38.2740755838844 284.413959903637 2582.74335336463 49 30 23
28.3558964705102 283.79937356355 2581.72611275999 84 65 58
24.0264334114015 283.336987925609 2574.87984615409 107 90 83
19.6826718530865 282.873430880812 2568.02320832756 112 99 91
432.456042063859 316.678838429711 3125.5638720222 158 148 147
425.639340355713 316.167255935361 3121.85503931837 112 101 95
408.0794466358 315.269371070352 3125.17760373793 82 65 49
393.258032196892 314.472342148784 3126.78045672096 119 96 82
389.17734829681 314.061433837651 3121.34983280866 164 131 122
403.761124982662 314.315566603046 3103.51530718326 121 86 80
426.227654543744 314.845304804197 3080.28034024541 77 42 38
249.204628840214 300.399589980634 2948.17399629633 23 25 20
219.455426261952 299.159718107612 2962.42059681243 28 30 25
191.466766391119 297.981802628931 2975.4733983949 32 34 29
159.521445484564 296.68498315981 2991.83310178115 32 34 29
168.346064111651 296.67463858599 2975.99807204261 34 36 31
174.660167814713 296.581899099587 2962.04780899973 41 42 36
162.318576165129 295.905351125345 2962.97858096911 29 30 24
155.653321353284 295.40638011202 2959.37959923208 26 27 21
140.953456417568 294.659763117644 2962.30585801952 24 25 19
107.060786200268 293.326129513757 2980.95910422568 30 31 25
110.89615537566 293.15358284017 2968.91695375035 23 26 19
113.8807927038 292.952456644807 2957.49327594875 27 30 23
119.996775502984 292.843704495567 2943.39930972725 30 33 26
107.80939863261 292.179657196179 2944.44223307658 33 36 29
91.7027175638188 291.399714400433 2948.81885975987 36 39 32
67.767013458504 290.388769358427 2959.87014021549 36 39 32
67.5210673984306 290.087226758608 2951.04418145962 36 39 32
75.0846977765161 290.015126973067 2935.52975825544 38 41 34
64.588341164121 289.407409575261 2935.32845586458 35 38 31
59.5754930729009 288.961655272316 2930.45724084115 31 34 27
32.0084449672295 287.85811004902 2945.05109111905 30 33 26
54.9614674216117 288.226286259037 2915.99249729547 35 38 31
58.4221173868698 288.023429825297 2903.6785513429 34 37 30
52.5774063520252 287.550607699344 2899.43920064415 30 33 26
43.6564286376973 286.989867922658 2897.91008872926 29 32 25
34.7522493630508 286.43047584806 2896.39286671115 25 28 21
25.8645361678722 285.87241210855 2894.88758803373 24 27 20
17.7555331005461 285.337113021685 2892.71189162475 22 25 18
22.5784688328914 285.163989958916 2878.91557304435 21 24 17
31.1278321984059 285.09114648476 2861.64535721699 20 23 16
9.36889269221819 284.175807373376 2871.80473731245 19 22 15
8.79628275993571 283.847829451671 2862.74213352116 22 25 18
-2.32495690905132 283.22977083614 2863.32282431581 23 26 19
2.31237745835555 283.041618527405 2849.39188321894 24 27 20
1.65955713083665 282.707141735657 2840.27110028232 25 28 21
-5.68095698646709 281.871841493822 2827.53476525472 23 26 19
-10.1129719797708 281.432801993869 2821.84960592217 23 26 19
-13.8167861092018 281.0124268415 2815.45709836879 25 28 21
-7.23355093952027 280.860954429334 2799.23126924034 23 26 19
-22.7344103003659 280.129971394114 2804.04731699944 25 28 21
-38.1790832130735 279.403528885838 2808.90411851253 22 25 18
-17.8370769389511 279.600642309576 2779.1869135005 22 25 18
-34.731414677879 278.837387841969 2785.46300331927 24 27 20
-13.1468656316787 279.054534028762 2754.17627781437 18 23 16
-45.2021908019431 277.909706020087 2775.39744762277 23 26 19
-23.0715669261834 278.130792366281 2743.27186122113 32 33 25
1.75901188650629 278.409333229336 2708.16279084376 26 26 18
60.0493204918653 279.503655673393 2639.26297497999 26 23 16
78.6845607394984 279.602871042071 2609.54303960742 32 28 19
78.6635383360177 279.238947158882 2598.41003805544 34 25 18
75.7644808943332 278.803117743973 2590.13046978507 38 28 19
71.4277950080038 278.331451450874 2583.27892018923 46 32 23
67.0767860854942 277.858620164624 2576.41698161787 44 27 19
57.0893626948439 277.251693927297 2575.34958315881 47 29 19
44.3208986029804 276.58071800417 2577.20626551462 48 24 14
35.0827645904053 275.994150516806 2575.44681493122 52 28 18
28.6456045585082 275.473228863236 2570.77774167743 96 76 67
20.8196072754525 274.920408869919 2567.57178234803 101 84 76
438.620301445249 309.236058667343 3113.93812196509 117 108 103
420.13165290339 308.341234676295 3117.82275880377 92 74 60
402.599374002409 307.480816167113 3121.16553156938 95 73 60
392.256696748863 306.858307863879 3119.84022860036 146 113 106
394.387031190401 306.643341427748 3110.26725155938 157 122 116
413.333830738472 306.972464416424 3089.42047653558 99 64 60
230.900333858282 292.711967916593 2971.91963207877 22 24 19
238.939312063784 292.63119567856 2956.74975473142 20 22 17
228.878096249015 292.031532038277 2955.6288993558 33 35 30
195.958399982731 290.785879669382 2972.51755305022 35 37 32
175.406860916838 289.89621171078 2979.84692915688 32 34 29
176.064992163198 289.605094696386 2970.44166598987 30 32 27
175.877002429907 289.288494846456 2961.65793922122 41 42 36
164.340392209451 288.655430738301 2961.93744303288 34 35 29
156.058412674429 288.113772487976 2959.63632008054 44 45 39
145.376734013356 287.506905904072 2959.30067809117 28 29 23
125.900729379275 286.661305479061 2966.17491864203 30 31 25
118.492838812922 286.147386475097 2963.27225083559 22 25 18
111.890101822598 285.655643015343 2959.71862621057 24 27 20
99.7244589101838 285.014680660312 2960.77712742263 28 31 24
114.556763411472 285.096672058584 2939.41648861991 31 34 27
84.1950142190688 283.972109778371 2955.68999282426 35 38 31
65.0097605923916 283.150060276955 2962.7751242754 35 38 31
63.9871084180004 282.808907611208 2954.62124515496 34 37 30
75.4858716259861 282.793102145998 2935.78399676086 35 38 31
73.5915377076615 282.424406179435 2928.2334085356 35 38 31
75.573881497208 282.154439208935 2917.31783469497 33 36 29
59.6242410730765 281.422254937144 2921.80854539932 31 34 27
50.7102438170177 280.872456735983 2920.28425471182 32 35 28
43.3593620768802 280.363166091039 2917.42323174071 31 34 27
46.812088517592 280.126185322392 2905.10336900962 28 31 24
34.8326244972212 279.500302966825 2906.29691165695 26 29 22
27.4875202395815 278.991480012334 2903.44007927514 24 27 20
18.6212352839021 278.445545522674 2901.95039582287 23 26 19
15.8700921757995 278.050499106049 2895.01359148971 24 27 20
18.4213348369298 277.783559922528 2883.27540328913 23 26 19
17.8916033447556 277.439270421521 2874.24350589577 24 27 20
0.703401281618277 276.692874550908 2880.30665258666 26 29 22
-9.63793635746213 276.113574017768 2880.21787069485 25 28 21
-10.1863918976068 275.767776968252 2871.17268668051 25 28 21
-18.2582159782254 275.243139452716 2869.02399611538 26 29 22
-22.5830664761926 274.806724852844 2863.41624143112 27 30 23
-29.1521059019724 274.317697295946 2859.88676416934 25 28 21
-17.1540031683717 274.2562322867 2838.9411931208 25 28 21
-28.9538358432764 273.644895072194 2840.26502803798 25 28 21
10.2127739441054 274.191036279866 2793.31797067505 26 29 22
6.42466114483753 273.755043353176 2786.86427410979 24 27 20
-42.1364871092478 272.318808919513 2823.29141166356 26 29 22
-58.2551529690438 271.615977182799 2828.89477752799 23 26 19
-37.8460286663749 271.719135677324 2799.22575190699 22 25 18
-35.7752061007441 271.413276408147 2787.1390997886 23 26 19
-27.2294676065912 271.244384700955 2768.6307330822 21 26 19
-20.2183183331055 271.037295102037 2751.47978967852 23 26 19
-16.8903496974235 270.747148310371 2737.83418142652 26 25 20
8.64726967946483 270.921274587489 2702.00238881049 24 24 16
41.8672165715233 271.244054656783 2658.15385149068 30 25 19
86.9800976016224 271.798224440092 2601.93083288835 38 31 25
86.224555425817 271.392591464058 2591.50018764241 41 30 24
79.7565368662481 270.868684390417 2586.80872926161 26 13 5
76.824012536111 270.415870380087 2578.50481409925 46 29 21
70.3427059079935 269.890885074394 2573.80371745253 46 29 21
61.0487689403487 269.3102946838 2572.00384439127 46 26 17
48.9685658576908 268.676244546082 2573.12461224806 48 24 14
41.8120070322354 268.13961308082 2569.16898851199 53 26 15
33.9623384197609 267.589901017443 2565.94617955003 87 67 56
26.1206815852599 267.040826705558 2562.72888725022 97 78 71
440.826330150672 301.905069468744 3113.03011308868 171 166 163
422.33158375299 301.047698517827 3116.91022469154 83 71 59
410.155862454839 300.381653032112 3116.7262561865 87 70 60
398.011628743518 299.718150924113 3116.56512658783 87 58 50
392.124986517538 299.240996073193 3112.29535712766 98 65 58
393.337345068367 298.97255656943 3103.29198002753 134 99 95
413.102110827082 299.245308409286 3081.80254952888 149 121 118
249.43454509868 285.791857509585 2958.1478529186 14 16 11
262.35803761607 285.784882728702 2939.10842930607 43 45 40
229.289475039471 284.616926742571 2955.88956018268 34 36 31
215.979713125067 283.95041793638 2957.3538668219 34 36 31
188.852133271229 282.943136939302 2969.79641687612 31 33 28
187.037883088625 282.566666096133 2962.30384367868 33 35 30
177.904635314644 282.009486295697 2960.62057622244 33 34 28
165.553854170095 281.374868313532 2961.5451933915 40 41 35
157.269425878584 280.840641418673 2959.24203844758 87 88 82
142.563892868038 280.152672507095 2962.16477986773 29 30 24
129.509735191709 279.506877029247 2963.81448439108 27 28 22
123.69219427805 279.035094248964 2959.59483515751 23 26 19
115.481428744936 278.506832992052 2957.34511013633 23 26 19
95.351652636412 277.700073077895 2964.98094563426 25 28 21
112.580663746185 277.767000974881 2941.65224993606 28 31 24
109.906324684746 277.366632917287 2934.77109554024 30 33 26
81.1825275533993 276.367509652109 2949.7622537872 29 32 25
66.7442931500855 275.701199953041 2952.87858090332 36 39 32
74.3176136206851 275.535545954882 2937.37070838347 40 43 36
73.9929715318235 275.188112322732 2928.48776322677 31 34 27
71.2965338543397 274.785950763548 2921.59057998813 28 31 24
60.8032343062588 274.210196963278 2921.39136115334 32 35 28
56.5403014190036 273.772746141779 2915.82878109482 25 28 21
49.1739784744647 273.267096372095 2912.95628842983 26 29 22
42.5864804762037 272.778748953212 2909.41372807699 25 28 21
29.0807943040678 272.142200416467 2911.97119342442 24 27 20
25.5874814827308 271.721286931296 2905.73128003484 23 26 19
18.2566414300229 271.218518206046 2902.88452426844 24 27 20
23.1332332639482 270.971793010016 2889.12672933185 25 28 21
11.2208153053097 270.372720473822 2890.3693053742 24 27 20
4.64924845673131 269.885662632327 2886.83800590669 24 27 20
-6.45431103836969 269.306309914256 2887.4317094897 27 30 23
-6.2228054601412 268.958123797315 2877.71688720497 27 30 23
-13.5423801560091 268.456280293815 2874.87830262259 26 29 22
-17.1077192004794 268.029541216282 2868.58614637897 26 29 22
-40.859398307133 267.204308586635 2881.00710225962 26 29 22
-35.4550210506317 266.954523356074 2866.39656363344 25 28 21
-4.11344698850202 266.835699256335 2817.47871258596 28 31 24
14.3174010859601 266.816639913304 2790.0803776158 24 27 20
28.1852027010148 266.702769055034 2766.7845213772 23 26 19
-13.8434116233406 265.542144222727 2796.83241511092 26 29 22
-49.0720633594908 264.520127891491 2820.69423582875 24 27 20
-61.5112632831181 263.924242332533 2822.78998915446 23 26 19
-9.18274234630045 264.498222982828 2761.9169602682 24 27 20
-6.51390031014332 264.164246125763 2749.02835169902 27 29 24
-5.34489651838355 263.80038929893 2737.52269476582 27 29 24
32.5338586128758 264.074116203921 2689.64036976932 28 30 25
50.8953618213441 263.590836107957 2649.83816413321 29 26 19
93.8504350221732 263.909289213868 2595.75511499872 25 18 12
91.6525087663103 263.455911478532 2586.74898064995 67 54 48
82.3305510688455 262.883508014293 2584.92883623205 42 27 20
78.6845860322036 262.404447487015 2577.34293083841 182 163 157
72.904321520761 261.889911378855 2571.91475640406 31 12 5
67.1182354401605 261.374922418521 2566.48265397323 50 28 17
54.3183993112613 260.749860045137 2568.31682663107 49 21 9
46.4476993974241 260.203430396719 2565.07849377898 57 27 16
37.8881667081692 259.647024419668 2562.57609192171 78 54 44
30.0349713716144 259.102038131558 2559.35075029918 99 79 70
422.739278611664 293.695111432484 3117.16852909212 61 57 45
413.244484326041 293.119492369461 3115.22307545531 88 78 68
403.768082663041 292.545344644048 3113.29096247577 78 61 51
393.42032450128 291.949121204288 3111.96240386299 90 61 55
385.757375315078 291.424791362819 3108.87508036388 101 68 63
390.497276226338 291.225793550454 3097.48851026732 102 71 69
253.966916558698 278.442176009685 2955.22046602977 20 22 17
239.763085339589 277.775842635383 2957.27168026742 30 32 27
242.814532144936 277.488063533542 2945.89599516757 31 32 27
209.84986660057 276.418292715282 2962.75294054735 32 33 28
211.269660293266 276.095389899582 2952.66433063481 30 31 25
191.509716724799 275.318728201718 2959.33308698082 35 36 30
178.310466933137 274.68524186623 2960.87767348159 31 32 26
161.915269051203 273.987010694427 2965.04556205526 33 33 25
152.028045852668 273.427679383008 2964.05104193152 68 68 60
139.749358835009 272.820227014013 2965.02776479389 27 27 19
127.504854986287 272.215546663414 2966.02928180575 31 32 24
123.293723665489 271.776247485954 2960.50424444597 25 28 21
118.27531128402 271.320084799746 2955.62894302929 25 28 21
105.296466434342 270.704457366664 2957.33310175801 25 28 21
107.429853191417 270.390770410353 2946.52680073761 26 29 22
107.145011720479 270.026804539238 2937.67262415918 26 29 22
98.9388842368948 269.506562113579 2935.42659645306 27 30 23
78.9431957857851 268.759418082001 2943.15993692163 34 37 30
80.2095536577347 268.424013374377 2932.96003478359 37 40 33
73.6115807978104 267.936961994588 2929.40959306766 29 32 25
59.2150915730962 267.303605908816 2932.55634907118 28 31 24
46.4218025381458 266.703048929395 2934.3953919818 29 32 25
60.0446185986789 266.591904849097 2913.39232203356 27 30 23
50.3483353831906 266.048043582814 2912.53600226021 26 29 22
42.2158213777419 265.533783339787 2910.34336883632 23 26 19
23.3262455674228 264.827759026056 2917.64343113706 23 26 19
30.5894216605633 264.589761723555 2901.91036190608 24 27 20
23.2449303505278 264.090807647407 2899.05402385088 25 28 21
15.9084266425453 263.592491231225 2896.20318493173 24 27 20
13.9025777953528 263.186185448231 2888.57156665356 23 26 19
2.77483104615195 262.623501227712 2889.14782080912 26 29 22
3.01759052355477 262.253699559885 2879.44075275202 27 30 23
10.0087458888876 261.993638473354 2863.51037813282 26 29 22
12.4140392710124 261.653374647054 2851.66601678141 25 28 21
-24.2015293063262 260.676671124981 2875.7576980303 26 29 22
-33.7369098470732 260.145930741432 2875.01838097658 27 30 23
-5.99834664101917 260.207161956835 2839.54619657081 26 29 22
7.42681157545189 260.03133001213 2817.16418147018 24 27 20
8.88592358932216 259.662958604581 2805.86880731117 24 27 20
-1.51538034628373 259.110623632656 2805.73669115714 22 25 18
19.031325663347 259.026151705179 2776.16645106657 23 26 19
-8.29501972268787 258.219463049377 2792.17162662604 24 27 20
-28.9080716068844 257.519657197758 2801.92774020238 24 27 20
-53.8120730960907 256.763594874291 2815.98377661577 24 27 20
-45.8675403047806 256.483645105443 2798.27405716323 28 29 23
52.1934660556802 257.045148698729 2681.62430394457 25 28 21
62.5155757285718 256.763529884416 2660.69769126564 26 29 22
64.8302337168718 256.367339688442 2647.55201199868 25 26 20
85.0014360383406 256.203796760624 2616.47412413151 27 24 19
87.8670256767347 255.803676774332 2602.4927704408 28 23 17
87.1140202228045 255.353209932382 2592.06373702632 72 57 52
80.6461090148343 254.82824001742 2587.37235108348 68 51 44
80.5454962176273 254.38207397027 2576.18094170676 171 152 145
76.1716511627739 253.881090487986 2569.30230613929 63 45 35
71.0802905757766 253.370548178256 2563.13851646189 40 22 12
58.2680665774373 252.768706499361 2564.9638265062 52 23 9
47.5908327906218 252.194160023792 2564.63157040875 59 26 11
39.0287052161247 251.645296058867 2562.12732566558 71 44 33
33.9506056784713 251.135883118356 2555.97315492633 86 66 57
416.333818437112 285.841013533088 3113.72032838723 146 142 133
412.201790545478 285.402888497268 3108.25264073867 75 65 56
401.833599246383 284.818339994363 3106.9090343674 91 71 64
391.488090541275 284.235611387998 3105.58217478774 96 73 67
394.445827862357 283.961642072508 3095.37366426138 103 78 74
223.734853992577 270.041879227019 2970.31579870131 32 34 29
226.012001644065 269.711984819583 2959.61363092734 29 31 26
208.622466296041 269.019496532186 2964.29606324669 31 32 27
197.817068784005 268.450166012391 2963.87063047251 29 30 24
193.542766764966 267.999717979031 2958.29974285429 32 33 27
180.337902112397 267.389846066736 2959.84037863426 41 42 36
161.509901754552 266.683380797393 2965.94974495484 31 31 23
153.237632784157 266.165432982999 2963.65578149607 30 30 22
136.933131037431 265.509585223242 2967.88963231404 24 24 16
134.323328679354 265.09139731465 2961.05517169071 25 26 18
126.094679865259 264.576977618399 2958.79284728475 26 27 21
108.303672261986 263.903292951065 2964.41937567168 25 28 21
101.717519571758 263.419369517629 2960.87751849267 25 28 21
100.689310690986 263.026717940355 2952.71935034505 25 28 21
99.6340928920634 262.631865270539 2944.54159170729 25 28 21
96.184217073084 262.196867245185 2938.33309538674 26 29 22
77.7685836285813 261.523891465821 2944.74185939104 33 36 29
73.5473401458364 261.077702558748 2939.20945661142 34 37 30
65.4040486398229 260.570191131995 2937.00875005443 26 29 22
51.0298579695552 259.968229692198 2940.17212425305 25 28 21
51.488204431906 259.593394760541 2930.62131430772 26 29 22
48.8064267814803 259.169334976704 2923.73464751673 27 30 23
44.5586555263753 258.720989556246 2918.18300326563 27 30 23
29.4991226930068 258.114813547826 2922.08427910884 26 29 22
30.6482943731461 257.744645684936 2911.79925011725 25 28 21
21.7832760941925 257.230005072516 2910.31093789266 24 27 20
16.7600834278563 256.770128989802 2905.43185785935 24 27 20
13.2569102017901 256.330818881068 2899.18470326943 25 28 21
-1.6694507999877 255.735499511379 2903.18286768342 25 28 21
10.7581401809593 255.509612204884 2882.54780899976 25 28 21
15.5173278352034 255.175413082635 2868.70446219511 27 30 23
26.9998397560727 254.924212768779 2848.61920394564 27 30 23
17.3298375780049 254.39566713983 2847.7820134339 23 26 19
-12.5588135586034 253.614200443944 2865.63525099128 24 27 20
-21.380316705508 253.103145629918 2864.17820750032 24 27 20
-0.377000104818226 252.95635789627 2834.93865852991 22 25 18
17.494805619096 252.761038321221 2808.36920566566 21 24 17
10.0371388567213 252.257878241914 2805.43080300554 21 24 17
-1.84438174250445 251.704131893035 2806.69571231217 23 26 19
-10.0098223921328 251.194957851637 2804.47923542384 24 27 20
-26.9736612048526 250.588635943095 2810.70573732534 24 27 20
-24.8404731971632 250.195593154435 2798.66385364513 24 27 20
-19.8374953184552 249.829822853681 2783.76174455647 24 27 20
-10.5362989411453 249.504453490998 2764.56519617246 24 27 20
50.4536374529292 249.260655000746 2684.02903943002 24 27 20
60.0649957574384 248.909035297851 2663.82186997686 26 29 22
48.0145082953007 248.341695121822 2664.96451722023 27 28 22
91.8914672985682 248.303344587857 2610.31262439094 26 23 16
91.8816145276877 247.839250236135 2599.18721256084 25 18 12
86.8459331046427 247.327139626442 2593.06377795389 70 52 48
81.0902052920293 246.808029336486 2587.65366200406 83 62 57
79.5754953111438 246.324662665329 2577.90732270748 80 57 49
75.9121898461324 245.821159971569 2570.30842858584 50 30 19
72.2299186190733 245.316148000896 2562.69607261077 43 23 12
58.7131088702177 244.732758081659 2565.24574349892 61 29 16
48.7338814921991 244.179444702471 2564.18455806403 65 32 17
41.5626017787702 243.648380833825 2560.21829104308 58 31 20
36.4782128000991 243.132475595456 2554.05952806905 85 65 56
434.019787086201 278.485666969145 3094.39070004245 184 177 169
414.698997003773 277.72912486633 3098.90783677382 59 44 37
406.985072135766 277.210932960876 3095.78359100495 69 50 44
407.250868755063 276.853184757305 3087.32832074602 88 69 65
215.099143657482 262.530212577722 2977.60412074102 31 33 28
205.922912485455 262.000728512737 2975.88983398659 28 30 25
194.310310333976 261.435904779988 2976.11459527666 30 31 26
196.592228728596 261.078434883446 2965.41574624091 28 29 23
188.255888735336 260.562945676999 2963.07534878365 31 32 26
183.987983192455 260.106948941901 2957.50877552522 38 39 33
167.575675020209 259.477377535089 2961.66460825954 32 32 24
149.605929664905 258.829685817304 2967.16169749497 28 28 20
138.138149875483 258.276583109022 2967.49150297526 29 29 21
130.712281164655 257.780828940572 2964.57618891371 24 25 17
118.493103014854 257.220876008016 2965.59629161839 27 28 22
105.510061213939 256.653075248992 2967.29794461614 25 28 21
96.5449014734183 256.140664185975 2965.73675452502 24 27 20
100.295050508743 255.793959053014 2953.63194400454 24 27 20
107.948935541123 255.493362062452 2938.181790942 25 28 21
100.531156516606 254.998240844881 2935.27234447272 25 28 21
75.8055704506324 254.289551956487 2946.98759025436 33 36 29
66.8821529845718 253.780520616231 2945.45667714778 33 36 29
58.7579902225581 253.282221998776 2943.27017856726 25 28 21
54.5484438307557 252.83092229026 2937.74622937128 25 28 21
54.2209594574956 252.423944838442 2928.86062770375 25 28 21
46.100551840218 251.925954163579 2926.67685286758 25 28 21
38.7661591135711 251.437619904988 2923.82788928247 26 29 22
40.7002859861771 251.05176217914 2912.87677496022 26 29 22
27.9684622804526 250.504408104195 2914.76064488293 26 29 22
24.4832045360921 250.057739003531 2908.52644033328 26 29 22
18.6882906080359 249.586072093487 2904.32319447136 25 28 21
12.8923655207696 249.114325135265 2900.11921519309 26 29 22
11.6599515169669 248.688064471456 2891.81284415718 26 29 22
14.9514257569021 248.304063407208 2879.37534157767 26 29 22
24.9961431185559 247.980808006023 2860.71779813037 27 30 23
27.4059425329409 247.579398293362 2848.87639358194 26 29 22
16.9832851319223 247.057062929539 2848.72865532204 21 24 17
-0.162083976511518 246.47650961036 2854.82369256112 22 25 18
-16.4949152351612 245.907764073519 2860.27248453044 22 25 18
-2.95295390085037 245.597582719341 2837.97446199639 21 24 17
14.9323578615115 245.314984135805 2811.41465233928 20 23 16
15.6338740046831 244.883253410278 2800.80479646746 20 23 16
3.7358610440128 244.349564883016 2802.05785170613 24 27 20
-24.3324212022078 243.69492783431 2818.76098820249 24 27 20
-29.5047553865435 243.219770620669 2813.77400937503 24 27 20
-34.6825787798235 242.744179921852 2808.78304910717 24 27 20
-17.9672204355197 242.42076645328 2782.609650666 25 28 21
-2.11740899071766 242.081265814121 2757.04404842722 25 28 21
-6.71624201856447 241.598537832302 2751.23773785059 24 25 19
-5.53816769610505 241.151418349194 2739.7382345969 23 26 19
15.7866825690953 240.82300054551 2708.26048451424 25 28 21
48.4456734574392 240.547934790131 2665.2376011152 29 30 24
88.0328131200554 240.293545832377 2614.88564114863 26 23 16
94.4683630932945 239.839859027158 2597.31647894186 24 15 10
86.5771767114061 239.306592747004 2594.06336168693 50 31 25
79.4035707550891 238.777451153621 2590.0957125366 80 57 51
75.0649509245758 238.261771561638 2583.24253804731 61 37 27
70.0063207284152 237.741836798842 2577.1024277541 51 29 16
64.9376749217345 237.221114930822 2570.95505294424 49 26 12
52.1449445833166 236.669308423889 2572.79474779665 49 17 4
44.9834834413023 236.141274761115 2568.83561381625 61 29 16
40.612603287705 235.623124638152 2561.95933509358 89 65 55
37.6170003094072 235.108271465823 2553.60937863242 120 101 94
254.575438680095 256.484892733047 2965.43155519816 20 25 19
217.278512662034 255.61714906929 2985.32445343592 24 26 21
211.393496923431 255.137701223237 2981.05585143669 29 31 26
190.746272351736 254.483850994895 2988.31735201848 26 28 23
194.714238218783 254.121562691253 2976.37036263593 28 31 24
189.656218172612 253.652314943038 2971.46628249941 27 28 22
178.898662097607 253.118596304424 2971.07600586214 29 30 24
170.60084490061 252.613862857066 2968.76329440503 30 31 25
165.551637342591 252.145295412775 2963.86560607511 27 28 20
162.111445236777 251.693537731453 2957.66404479393 30 30 22
147.390570887261 251.122521670709 2960.57625733931 28 28 20
131.914868342341 250.547107919949 2964.17599869402 30 31 23
114.089582233065 249.951662658733 2969.77807415841 30 33 26
103.512908281424 249.432608691332 2969.51899711203 26 29 22
90.5738354605923 248.892456846132 2971.25236973197 25 28 21
108.631783644901 248.64967162589 2947.2879828223 24 27 20
105.975305641269 248.204585346974 2940.41954978185 25 28 21
100.142776160002 247.729251315537 2936.18901702796 25 28 21
85.649863072736 247.17675204477 2939.26628287144 32 35 28
63.3537019614239 246.559806869859 2949.0380254616 31 34 27
52.8915162144843 246.050061329744 2948.86199050713 24 27 20
51.8225807583264 245.620045269042 2940.67410953739 25 28 21
53.8402446614059 245.212989267801 2929.78344561786 26 29 22
44.9453805472113 244.716672092308 2928.27329584515 23 26 19
44.5817768322105 244.287003726543 2919.36169003904 24 27 20
36.4676862294151 243.797186944601 2917.18253594386 25 28 21
26.0567734048309 243.291632422892 2917.04369105335 26 29 22
18.7412177152217 242.80974081376 2914.20812099466 27 30 23
17.5557233840995 242.370256046366 2905.9356960481 28 31 24
20.1582124265309 241.95375548948 2894.23389988514 27 30 23
15.1023624364055 241.484620062202 2889.33139343749 26 29 22
17.6282968261781 241.061884962382 2877.57377511684 26 29 22
16.3219623467232 240.612609951736 2869.21399545541 27 30 23
20.2685257238082 240.191388760799 2856.01615581524 26 29 22
10.6190728687432 239.690808203831 2855.19400359489 20 23 16
-0.509406024878256 239.184011953886 2855.77001008692 21 24 17
6.33681052123691 238.77055382028 2839.73378923825 21 24 17
10.8705567242544 238.340105210525 2825.7265275918 20 23 16
-1.75447421107444 237.825692135833 2827.6879807255 19 22 15
27.902356305912 237.499681667141 2789.89902341119 21 24 17
8.57889969116954 236.953729431948 2798.12040368316 24 27 20
4.80410109393548 236.474867783584 2791.67643620559 23 26 19
-18.816433425517 235.921644497358 2804.19354490018 23 26 19
-18.1663882349603 235.460535894625 2793.54622783163 24 27 20
-19.7474013656826 234.989069437327 2784.98692087289 24 27 20
-11.893189299673 234.543645867675 2767.21088784162 25 28 21
-22.2663258355515 234.04147650364 2767.09944493547 24 25 19
-17.4208624669032 233.579503354443 2752.08295740756 23 26 19
-9.75725812688433 233.118630965291 2734.16867051663 28 31 24
-1.45955273292242 232.652324589059 2715.47899285868 30 31 25
102.773043774428 231.832903928932 2589.7095815629 21 12 7
95.5695878800582 231.303517338948 2585.72029231448 84 63 58
83.3977326504192 230.76925685907 2586.77483055124 60 35 30
74.800243014133 230.24060422139 2584.24505346917 71 44 35
66.2148358417944 229.712967737921 2581.72404037008 56 29 18
59.7524961626128 229.18694811557 2577.0366880304 49 23 10
47.677596326118 228.660717601271 2578.16155197413 64 34 23
41.9298528945444 228.135859680003 2572.75719495962 52 22 11
36.1765947370558 227.61059234432 2567.34883812884 103 83 72
31.1128231135762 227.08439364266 2561.20496897716 128 111 103
227.701209691255 248.805568342495 2986.67010932151 11 16 10
205.313617410898 248.178403561658 2995.14018863545 24 27 20
183.013023271303 247.558301536407 3003.67337053251 28 31 24
187.867076368579 247.174967415633 2991.13358146278 25 28 21
191.845650006345 246.780141667028 2979.19411707103 28 31 24
184.348992093675 246.28851424726 2976.22750730915 26 29 22
176.04680790174 245.791103261274 2973.91196169095 28 31 24
171.814571174165 245.325924113348 2968.37119900721 28 29 23
166.763428008433 244.853891549479 2963.47208996244 26 27 21
160.900210978174 244.375541257977 2959.21929587143 28 29 23
157.451020901706 243.914246161931 2953.01116346041 29 30 24
135.525284322521 243.324575257408 2961.8162417425 34 35 29
122.492159050597 242.80086135876 2963.48181147192 31 34 27
109.497645665503 242.28029038951 2965.17538770169 27 30 23
86.9881826446237 241.702923666824 2974.79240918116 25 28 21
84.4186641958151 241.253396333179 2967.98699248299 24 27 20
102.416720770709 240.922954296786 2943.97874486845 25 28 21
104.490862783746 240.492528482757 2933.12890476342 26 29 22
90.7727168027859 239.972841854844 2935.53294538992 31 34 27
82.5940244768071 239.485368719017 2933.30667752094 29 32 25
71.2951561652151 238.983202883366 2933.75948301858 23 26 19
49.8758489666771 238.434801115786 2942.93189180275 25 28 21
47.2300665952066 237.979029185682 2936.07086365236 26 29 22
46.1183127765441 237.528516529175 2927.85213339557 25 28 19
48.0763314938235 237.088616221354 2916.91806504508 25 28 19
47.6735191475086 236.635967288038 2907.97762518725 24 27 18
40.3103226968962 236.155114395217 2905.10781906252 24 27 18
31.419601224314 235.669550647669 2903.60072684736 26 29 20
16.4218740761077 235.165432706221 2907.547618372 26 29 20
22.8467670089678 234.730237580722 2892.44089757163 27 30 21
12.4572170697248 234.242346619687 2892.31762856203 26 29 20
5.88731239938634 233.766294473788 2888.78758978902 26 29 20
1.59056805871938 233.295847572331 2883.20033195471 25 28 19
5.5830891480606 232.842137248638 2870.03564347708 24 27 18
-6.27992292605617 232.353997277402 2871.31430231778 19 22 13
5.14289966462256 231.906932480041 2851.1847819068 20 23 14
14.2199148301771 231.448387571699 2833.06008184694 20 23 14
21.7164500175122 230.980841023016 2816.25998026208 20 23 14
-4.32291983654887 230.475413255052 2830.72927006046 21 24 15
-3.55915375893368 229.998227008654 2820.16431025343 24 27 18
16.3794764711827 229.526524277389 2791.38633828215 23 26 17
13.3201272946373 229.037281586154 2784.22563166982 22 25 16
-0.777819901148114 228.546859124743 2787.58982562533 21 24 15
-26.5475651772444 228.063535333725 2802.25468399535 22 25 16
-26.6406308329445 227.576524960797 2792.3035754472 23 26 17
-24.5859760267009 227.084898060266 2780.20426202532 24 27 18
-14.1126208140339 226.081339404341 2749.50275171065 18 23 16
-15.1121305173776 225.580455882224 2740.12950888685 26 29 22
-3.19767132019733 225.053989257981 2717.88591089967 31 32 26
111.080410678919 223.765878490655 2582.10462169347 19 10 3
104.56536595034 223.234894649668 2577.37903719395 191 171 164
88.8137367737092 222.72982499604 2582.0144408577 99 71 67
75.9511502510168 222.220665967695 2583.80371148921 91 62 54
58.8912410823621 221.728822249313 2589.96085531704 74 46 35
53.1569210849114 221.20173226018 2584.56621793053 77 51 38
46.715574159228 220.676954004401 2579.89408997362 84 60 48
43.0706642371144 220.140543209583 2572.30865896461 108 86 75
34.5267789149299 219.624179046578 2569.81780303735 97 80 72
184.277762338469 241.21068430357 3020.61470902816 5 10 4
187.570788232957 240.789299104533 3009.41317854734 23 26 19
190.814905458558 240.363913574397 2998.17646734324 27 30 23
177.602790190791 239.849824789305 2999.71233215794 24 27 20
174.247815011025 239.387555307231 2993.57249320073 28 31 24
168.431035851229 238.912503986558 2989.35337962299 26 29 22
164.24135368012 238.444782914815 2983.84345277005 28 31 24
177.898043323808 238.053726526227 2964.09855732331 26 27 21
181.735624373114 237.613902781424 2952.05665647154 27 28 22
161.302463103629 237.074836230442 2959.47391751139 29 30 24
137.727136961158 236.530193100004 2969.55376892504 34 35 29
130.304928397868 236.049437000438 2966.64088967371 36 37 31
135.70148955882 235.611353488495 2953.25906233137 32 35 28
133.051051547252 235.143706605598 2946.39489353616 30 33 26
100.919181333992 234.590621777671 2963.8581671406 26 29 22
93.5485364230528 234.114046642988 2960.98268865869 25 28 21
109.15122549268 233.693504487191 2938.94293600966 25 28 21
92.2561643228601 233.192243621736 2943.98449734097 26 29 22
87.2342881830805 232.719195285841 2939.10659944281 29 32 25
94.7727423944018 232.267686008347 2923.57200371418 27 30 23
84.2232516673778 231.782546949198 2923.33280415314 22 25 18
57.2992335867291 231.278179702034 2937.16079894449 24 27 20
42.9528770087568 230.796777933763 2940.3446668521 25 28 21
44.9616455499418 230.333025088157 2929.4472673142 27 30 21
46.9254957592966 229.86560721881 2918.51728695488 26 29 20
51.1611761608335 229.395428099072 2905.52878643424 23 26 17
49.1786777027521 228.919565956019 2897.91374303478 23 26 17
34.1210991557803 228.442865621571 2901.81709140172 24 27 18
18.3494623511766 227.970651042301 2906.4381575264 25 28 19
11.031200356594 227.498400812191 2903.60096892198 27 30 21
9.0492730779399 227.022611922549 2895.9860454767 26 29 20
4.7670667237405 226.547278762886 2890.40930178917 25 28 19
6.52957461157833 226.06350884619 2879.33328125779 25 28 19
9.00180621547397 225.574928166027 2867.53639912074 23 26 17
9.91954569334519 225.084965408726 2857.08328767898 19 22 13
7.04590237495495 224.599192442447 2850.05692630421 19 22 13
16.1215517294573 224.085090893691 2831.93095473343 20 23 14
1.98793596123714 223.621273654888 2835.26942654027 20 23 14
-17.3035081714756 223.175584723628 2843.51452119705 24 27 18
-24.6543739715566 222.700861251145 2840.65368487077 26 29 20
2.00629413346309 222.116623628724 2805.63187850513 23 26 17
12.9948551773591 221.570568674436 2785.18705122663 21 24 15
-9.92004249575973 221.14289976284 2796.98129045863 20 23 14
-26.1415158010618 220.697027660347 2802.51172504003 22 25 16
-18.9292439661368 220.156477752103 2785.5048906311 23 26 17
-12.5257301632913 219.612697053323 2769.1470850066 24 27 18
-44.0980482640929 218.729476730289 2779.60350894818 18 23 16
-7.48131938547814 218.017153685338 2733.27168738619 25 28 21
108.716473988382 216.272900144951 2596.40965421274 27 24 17
104.376233763529 215.730648910744 2589.55517047441 17 10 4
105.723748627044 215.150848236147 2576.94278959939 92 71 66
91.3891943791461 214.671153119914 2580.13522191247 84 59 54
73.5601678368538 214.219938144677 2586.97035304118 86 59 50
56.506867988237 213.769341530993 2593.13249703087 100 73 62
52.8934585135898 213.223914727506 2585.56985570061 126 102 90
47.156114269884 212.693368510633 2580.17300846698 117 97 86
41.4132550939472 212.162416596618 2574.77216128634 125 107 97
31.4810193095596 211.665942875123 2573.74503448757 111 98 90
178.057422023256 233.996758122739 3025.94979361436 14 19 13
191.268340775733 233.568721113126 3007.11659865043 28 33 26
192.859840292391 233.108733449071 2997.1520620693 23 28 21
186.206302674122 232.630338345978 2993.56138411998 22 27 20
166.463035151038 232.130928266316 3000.24363362128 26 29 22
163.116730170878 231.660575092281 2994.11003893131 27 30 23
171.152021790326 231.202703807918 2978.93557901804 27 30 23
179.112355776895 230.738670503618 2963.70674950518 24 27 20
178.901652060939 230.262320779682 2954.90574772115 25 26 20
152.822875472596 229.769406736059 2966.87616638593 29 30 24
119.605747890412 229.283048058016 2984.78838285041 32 33 27
115.445675524972 228.811620639635 2979.29990200413 34 35 29
132.097724270399 228.336787179009 2956.78524647615 33 36 29
127.861543076867 227.859118573406 2951.24185558032 30 33 26
118.04074053069 227.383863659232 2950.29561659147 28 31 24
125.714579264949 226.896281251459 2934.85898127525 26 29 22
107.174914691488 226.429504040494 2941.17887690361 24 27 20
84.7551087522156 225.973365602772 2950.86150676007 24 27 20
83.6938126839328 225.492935153956 2942.67920286384 26 29 22
94.3877983013266 224.989936735629 2924.49112292036 24 27 20
88.539526322776 224.511564943798 2920.24916270737 23 26 19
65.5058428724455 224.070824776322 2930.72218875677 24 27 20
58.1460048378553 223.600041938345 2927.8548682263 24 27 20
50.7941546632118 223.129892113741 2924.9930469953 25 28 19
55.0678956727997 222.626606511666 2912.03196973083 27 30 21
49.2432129389822 222.150183051618 2907.80711973345 24 27 18
44.9577332023039 221.668475906365 2902.22797081561 22 25 16
39.1266462882269 221.191548572248 2897.99847573906 25 28 19
24.105891492519 220.750208786168 2901.9286975373 25 28 19
16.0084397100153 220.284748771057 2899.76172864986 23 26 17
25.4342256946805 219.743711825241 2881.88944216147 21 24 15
20.3471490751062 219.262103081487 2876.96423568392 20 23 14
6.17131305808627 218.824338746099 2880.27193861745 24 27 18
8.6473176054005 218.305339615879 2868.47793196918 26 29 20
15.5891756903821 217.758025469574 2852.51036570603 23 26 17
14.2013569042536 217.251046799017 2844.09092957429 24 27 18
7.54902498729626 216.772712031293 2840.50112596919 24 27 18
-0.592101595969119 216.303837091863 2838.30247898935 24 27 18
-14.6710803677359 215.874128376876 2841.68043661031 23 26 17
6.89215195089243 215.210818868964 2811.60912957922 23 26 17
-24.9425528397149 214.903336867216 2831.75943650251 21 24 15
-17.5548004922974 214.327079411927 2814.87963079627 22 25 16
-24.2117112210281 213.84855583123 2811.28680143344 23 26 17
-21.3393329734939 213.296653950056 2798.54463677436 23 26 17
7.04840227511916 212.535717710876 2761.06881333762 23 26 17
4.6373682095977 212.010966027889 2753.14257321874 23 26 17
-31.9259491457726 211.776109417603 2778.51122120061 22 25 18
-25.5925033945421 211.179458545207 2762.10235395231 25 28 21
-16.4479540964333 210.550374672955 2742.79041590669 29 34 27
90.5173382546711 207.821363772342 2604.17099871417 25 20 16
96.1882419309648 207.170811829701 2587.28156755686 54 39 34
88.2792794110756 206.655991863018 2584.01595191136 86 67 63
72.5846576814684 206.225971782088 2588.69276715392 80 60 53
56.9461246295337 205.800602951646 2593.41056031244 40 20 11
49.8128221045429 205.28377383969 2589.47219034474 60 43 33
202.442190197617 226.801442102157 3007.77167422654 10 15 9
223.01847155004 226.297318019555 2983.16148378307 25 30 23
212.185284051692 225.820987535712 2982.71667099528 24 30 20
195.633301437204 225.355229577245 2986.77178601601 23 29 19
198.781152136948 224.860606338971 2975.46493845024 21 27 17
190.451989187946 224.38397753574 2973.12994062114 24 27 20
169.109439034473 223.936377794394 2981.12346617829 25 28 21
156.780804188745 223.474260102707 2982.06471694295 24 27 20
155.822789218625 222.985387002255 2973.95694647818 25 28 21
138.686590225236 222.540073016764 2978.82427971404 31 32 27
125.638008992392 222.087360532999 2980.47871024669 32 33 28
107.005778715845 221.656324054008 2986.73168405529 32 33 28
110.069341041116 221.1546111382 2975.36369813745 34 37 30
122.669475422869 220.612798235784 2956.08715625107 31 34 27
126.405418040999 220.097704349917 2943.97119427336 28 31 24
117.377215381754 219.632057831362 2942.36483437371 26 29 22
101.236100911878 219.199689326417 2946.71796560499 23 26 19
91.4710507226317 218.742116174608 2945.81252672813 23 26 19
84.8784524908646 218.270633121327 2942.26606005149 24 27 20
82.217447978465 217.77901311153 2935.39410994571 23 26 19
80.3213581873759 217.281623362406 2927.84159699144 24 27 20
73.7150874514008 216.80901774785 2924.28521313872 25 28 21
61.6588068963817 216.369053406815 2925.42401155213 25 28 21
55.0745411065057 215.898278136561 2921.88388330252 25 28 19
47.7191934642192 215.432762640861 2919.01955015637 27 30 21
38.0540880233715 214.983383211987 2918.18660486338 24 27 18
38.4237995779628 214.46628896516 2908.57082101037 22 25 16
32.6125793617158 213.990414690849 2904.35573306102 23 26 17
32.9273140542683 213.4688621275 2894.70036720223 22 25 16
30.9150466676371 212.962012999226 2887.06329223895 21 24 15
45.6326251377024 212.319951929257 2864.38078199013 20 23 14
38.2106942604921 211.84909761521 2861.46844867088 20 23 14
22.4683958384784 211.449518498787 2866.11115072815 24 27 18
14.3312804423177 210.988537304834 2863.91545152682 26 29 20
21.2605772473236 210.392975178454 2847.93824046119 24 27 18
16.1057488476914 209.90259187509 2842.9638748275 24 27 18
13.1903429616922 209.390369984844 2835.90739938422 25 28 19
-0.189290715130852 208.979122976153 2838.55738407225 24 27 18
8.79133307492674 208.346412638005 2820.36192566496 24 27 18
-16.4358563982163 208.059737829586 2834.18605375192 22 25 16
-6.053183007656 207.405073786314 2814.53649208598 19 22 13
-18.6251578136918 206.991684086592 2816.53691844339 23 26 17
-7.63504959204009 206.31841799685 2796.09256839758 25 28 19
-7.74077593492173 205.762822914047 2786.13193445203 25 28 19
-10.0752377576954 205.230047097099 2778.26145701925 23 26 17
14.5219718573313 204.371248394982 2744.21278258725 22 25 16
-6.82402056864118 204.060577976866 2754.67487407704 25 26 18
-15.7688050111822 203.602358491691 2753.12872896528 30 33 24
-24.6971033246428 203.145541778623 2751.59454210564 29 34 27
-36.4875277167578 202.728048248807 2752.92617914428 26 29 22
61.6310669981917 200.228345754076 2633.83259408205 28 25 20
73.812659592071 199.44795806626 2610.54602952857 38 24 21
70.9503008171866 198.872421286493 2602.2923572596 27 12 9
61.6867378302906 198.388504139713 2600.51499261424 75 57 53
249.828619491894 218.840443055639 2963.03484473665 16 21 14
235.632387638337 218.389217746703 2965.09265748132 20 26 16
226.404519803097 217.917863335375 2963.3412326459 21 27 17
204.095129754027 217.513750763032 2971.86913222963 18 24 14
168.694185123378 216.677561374231 2982.02070904917 22 27 20
144.997174721217 216.302060399992 2992.01320568446 23 26 19
126.255287905009 215.905365168656 2998.18686107246 26 28 23
123.736979409493 215.414018124123 2991.41806126021 31 33 28
111.533885080219 214.983491662483 2992.45077351724 31 33 28
92.9387421144958 214.598751531363 2998.73086720906 27 29 24
131.293187028149 213.825342385065 2958.59888466624 28 31 24
105.490622935806 213.490799383761 2970.77063232161 25 28 21
108.479956951783 212.952264851973 2959.34835573249 23 26 19
117.776421589012 212.360963022126 2942.61739794416 21 24 17
105.595136805726 211.932118338793 2943.66563444804 18 21 14
102.139853837422 211.435084533583 2937.45290414609 17 20 13
82.9108861185324 211.069534382504 2944.50865857808 21 24 17
70.8275774460621 210.64871936293 2945.62825520445 21 24 17
65.8309924020291 210.167777120192 2940.76835690013 25 28 21
63.1731762918459 209.664892318177 2933.89866107677 26 29 22
51.925604016648 209.241346074793 2934.38875591262 25 28 21
43.815803273898 208.790127797033 2932.21290713756 25 28 19
45.7908875968522 208.23967622184 2921.29065004486 27 30 21
40.7674418528781 207.756568321224 2916.41156335345 24 27 18
38.0499269406065 207.248817378553 2909.49856594646 21 24 15
30.704560721202 206.789061758107 2906.64149772168 21 24 15
31.7933525784277 206.237213039053 2896.31177785853 19 22 13
45.0629170465788 205.544280854836 2875.04968142077 18 21 12
46.7970416756494 204.974152029664 2863.95264783448 19 22 13
33.2971142237501 204.579775753307 2866.51551445135 20 23 14
28.1698658998115 204.088273622029 2861.56113653604 23 26 17
14.731558944745 203.698993844803 2864.16869898087 24 27 18
14.1349010204994 203.151559116474 2855.08725621799 22 25 16
9.75283186259723 202.64999997411 2849.43798701311 22 25 16
7.60644801083865 202.118037016527 2841.70356095558 23 26 17
5.43681354834957 201.584215794508 2833.95256509868 23 26 17
5.47648105622267 201.017845944859 2824.09727568208 22 25 16
8.44705276427549 200.406884094779 2811.42628888471 21 24 15
-0.47073119286889 199.961038270529 2809.89977967606 24 27 18
6.85206449628595 199.279555153132 2792.97264699029 26 29 20
4.53620426564383 198.733937398575 2785.11529472466 27 30 21
-2.9342585083707 198.264401447403 2782.16778627547 27 30 21
-6.01169929673939 197.727653899852 2774.99342956916 27 30 21
-1.82151104961803 197.074470269099 2760.7359872318 28 29 21
2.30587135844518 196.416198664952 2746.43298982979 32 32 22
-14.6325385664463 196.096633705846 2752.67908367822 34 35 27
-29.3399745024574 195.746341318919 2756.83719265445 31 36 29
-28.8788890222444 195.143805678438 2746.05217830345 28 33 26
248.585482807207 211.423685789369 2964.56646882175 18 24 14
241.800823157027 210.941161745291 2960.88071679932 21 27 17
238.303786136008 210.432246838446 2954.63765791336 21 27 17
216.779632779118 210.072724446366 2962.49998156189 19 25 15
193.704776621545 209.733983676332 2971.70834617798 20 25 18
162.576922297414 209.474729257504 2987.43086737775 22 27 20
146.20435960208 209.093640974896 2991.61677107251 24 27 20
116.117436654619 208.845687026005 3006.85861177469 28 30 25
137.055522237809 208.120713596611 2981.27425118769 29 31 26
134.484508076891 207.613521441196 2974.46716365518 29 31 26
119.842853173504 207.226317362331 2977.43773511161 24 26 21
155.729418320563 206.321300343008 2939.22147160361 22 25 18
105.884783446256 206.302772862591 2971.01995891602 19 22 15
111.266448232485 205.707768635431 2957.62624356236 18 21 14
122.943409749518 205.03707511305 2938.91515226533 17 20 13
122.63536621844 204.493398416396 2930.04324574759 15 18 11
104.90882045447 204.14908052385 2935.71787772813 15 18 11
83.3063655292934 203.856873299502 2944.75881649257 19 22 15
72.0079364215778 203.447779944061 2945.2121173319 19 22 15
59.9554146039618 203.050847288913 2946.35415297527 22 25 18
51.8448543085896 202.607214687265 2944.17779200725 23 26 19
37.5117949334967 202.245231436653 2947.37190421934 23 26 19
39.5464378548307 201.671674538542 2936.49270539263 23 26 17
46.9610924075345 201.021368055968 2920.86735770241 26 29 20
45.7995369278446 200.481683082464 2912.61177900634 24 27 18
39.2167111638995 200.015367942526 2909.07242277668 22 25 16
29.5634879229008 199.593268254946 2908.2482293212 22 25 16
31.4241395142796 199.005496631072 2897.24282846585 20 23 14
26.364136612818 198.516115988836 2892.33691446112 19 22 13
27.3927989211589 197.934142298266 2881.96374729286 19 22 13
29.900278703519 197.325453140026 2870.1918089395 20 23 14
20.9971026751141 196.890979931807 2868.67624141171 22 25 16
18.1523948139977 196.36136909112 2861.67063391995 24 27 18
12.2767650937163 195.879238879877 2857.408822459 21 24 15
11.6557822437819 195.310091120767 2848.30993053461 21 24 15
11.0029274680676 194.738353912246 2839.18792085497 21 24 15
5.09330370517214 194.253529548254 2834.90145274065 21 24 15
12.5783627219573 193.535290548367 2818.09176202816 22 25 16
4.40095951821817 193.086549112741 2815.86691933212 22 25 16
13.2513166627879 192.332348926696 2797.57641248345 25 28 19
13.1612238628271 191.732958562611 2787.62688979506 24 27 18
7.88684554295527 191.226438050409 2782.56577813473 24 27 18
-7.6578751788372 190.91365388418 2787.35214811694 24 27 18
-12.1812703015629 190.394795446241 2781.60004660274 25 28 19
4.42050031666374 189.462566061301 2755.34151669924 27 29 18
4.17294262136991 188.850508900318 2745.27778018793 33 33 23
-14.2209251117686 188.600249386024 2752.93950039132 33 34 26
-31.818790314829 188.341331776339 2759.94317933214 29 34 27
-19.827831273789 187.475194344482 2737.75331721475 27 34 26
251.468884372613 203.972806533357 2962.9135636144 23 29 19
228.211111461563 203.676101174479 2971.9895408899 21 27 17
233.784160499825 203.058248567158 2958.73474281035 19 25 15
222.097619686799 202.636204546044 2958.90662759412 16 22 12
192.472394679438 202.431043346773 2973.24834311072 15 20 13
160.530025056776 202.266006066921 2989.61562416853 17 20 13
147.411495928393 201.879904994365 2991.2199798559 17 20 13
155.396731361861 201.22949059775 2976.00825787634 17 19 14
139.066768039907 200.886878151125 2980.22523765367 19 21 16
148.578986213169 200.208156669924 2963.64994693323 17 19 14
155.596417598587 199.554991769997 2948.97166584264 13 15 10
123.272820513585 199.435331028493 2966.29814792454 13 16 9
117.467951645056 198.958298457353 2962.08765833569 13 16 9
109.271128643399 198.515265078996 2959.84876672614 12 15 8
130.496263087108 197.645992467004 2933.23672645105 13 16 9
113.52365203335 197.327306863891 2938.22299499619 13 16 9
100.563956646754 196.954043223877 2939.94255767678 14 17 10
87.6426295309409 196.583955053483 2941.68995042006 14 17 10
86.5513892518246 196.032999151889 2933.48528762401 12 15 8
64.2678031034203 195.815900839099 2943.26787689931 14 17 10
45.9837465153425 195.543169937378 2949.77405109403 16 19 12
