ply
format ascii 1.0
comment KinectMotionCapture
element vertex 762
property float x
property float y
property float z
property uchar red
property uchar green
property uchar blue
end_header
187.521809182193 499.922927707832 2862.97349535383 211 210 215
184.118596161653 500.413443934152 2869.11459458536 211 210 215
179.893558685544 500.964812236784 2874.64553658005 203 202 207
176.505189026059 501.453204899783 2880.77187215436 198 197 202
173.125533739997 501.940397486396 2886.8900694398 198 197 202
169.754426017454 502.426335610334 2892.99996427734 208 207 212
166.391548084456 502.91121979203 2899.10150474242 214 213 218
162.197678885759 503.458026627462 2904.60250820175 212 211 216
159.69181131523 503.877298661655 2911.27996931441 211 210 215
155.510786632834 504.422292888734 2916.7681480399 224 223 228
150.488844841675 505.030533086519 2921.66511284086 227 226 231
147.162599745089 505.510327366501 2927.7310286431 225 224 229
144.694617382244 505.924558008576 2934.37161430004 186 185 191
141.387460306198 506.40190341795 2940.41927519971 203 202 208
135.528557924904 507.072625444682 2944.72121013447 217 216 221
127.95576611202 507.873864035392 2947.87161584216 228 227 232
118.657478761464 508.806964386512 2949.88181853823 187 186 191
111.059051258624 509.61119888797 2953.05723807071 156 155 160
101.727557444455 510.548266012655 2955.10016683063 205 204 209
92.3773176317573 511.487532499747 2957.1610477374 233 233 235
78.6834660552289 512.760302982628 2956.40102316053 240 240 242
64.0847965104494 514.104109795178 2955.11208774557 179 179 181
56.3950897933485 514.919291288109 2958.3765309266 226 226 228
52.1775509531035 515.468004172573 2963.90041913468 135 137 134
145.394886011909 487.388961921259 2548.15459626537 205 207 204
142.131730254706 487.919328903214 2555.56763595742 194 194 196
138.108974958942 488.49997791805 2562.31062823998 192 191 196
134.868278249222 489.026701054549 2569.70156648265 186 185 190
127.761117227217 489.814998850217 2573.80875373527 187 186 191
119.091197792764 490.70968942445 2576.61790190963 179 178 183
110.406255034058 491.605844699127 2579.44141414298 144 142 145
100.924996992433 492.556868087328 2581.63099826503 150 148 149
92.2085756384456 493.456123653221 2584.48564882914 142 140 141
83.4771524880375 494.356811721219 2587.35464683368 145 143 144
73.1562232717859 495.367179489849 2588.95235645353 130 130 130
62.8125538677931 496.379984792182 2590.57194930755 128 128 126
52.4463116244709 497.395222977794 2592.21359774563 156 156 154
57.9237242034281 497.315926192783 2606.62424792992 190 191 186
148.548439110427 491.33528188591 2688.97503056223 185 187 184
149.56077694425 491.548339228726 2699.27422457165 156 158 157
158.596404772747 491.201560952798 2715.85936101547 191 193 192
176.514521288416 490.232092522822 2739.30310423932 190 191 193
191.333709804813 489.472676878705 2760.12477011215 191 192 196
197.396450094495 489.319960494745 2773.96537045361 197 197 199
197.865772388813 489.555819109503 2783.38350758526 196 196 198
200.789558548089 489.617788659435 2794.64109233834 197 197 199
205.374364868172 489.56075513871 2807.10066675467 199 199 201
210.819324307358 489.440425842091 2820.13269865608 203 203 205
211.427657486706 489.658363590718 2829.41578246211 204 204 206
208.797252841198 490.10340272485 2836.21276452311 207 207 209
203.723758718832 490.720500666175 2841.15961238042 207 207 209
200.292022304717 491.220981352734 2847.32756302055 205 205 207
196.046309632015 491.77858267524 2852.87811455347 203 203 205
194.278526226918 492.159500614635 2860.24556305715 205 205 207
189.22168430177 492.773762171577 2865.17629425282 212 211 216
186.65011129374 493.210382172958 2871.91609997226 212 211 216
180.770533202302 493.882737715841 2876.23832475987 198 197 202
177.384150218526 494.376527896232 2882.36222762712 194 193 198
173.17211974808 494.928939540732 2887.88009926743 199 198 203
170.636772943291 495.360537349475 2894.5850119514 213 212 217
166.437882427526 495.911056618596 2900.09011511473 215 214 219
163.92345567813 496.339840215472 2906.77466981373 207 206 211
160.579594695132 496.82773910258 2912.85721843619 215 214 219
158.931551201867 497.192572491359 2920.10780288489 224 223 228
154.762787051651 497.738969524869 2925.58359938651 233 232 237
152.293877339118 498.161749616293 2932.22384231052 190 191 195
147.288813242657 498.768039018965 2937.10433563781 178 179 183
141.432993098267 499.436072696528 2941.4036072026 219 220 224
135.574112526535 500.104403736346 2945.70587386696 217 218 222
129.711791593281 500.773063588656 2950.01117042085 230 231 235
121.274880202518 501.62985880121 2952.59453908124 159 160 164
111.963998666882 502.551295310018 2954.61930974206 179 180 184
103.495374084064 503.411865636936 2957.23327426873 222 223 227
92.4230358701212 504.464124825228 2958.1537054379 233 234 238
80.45938132015 505.58312361955 2958.53245350248 234 235 239
68.4653738578045 506.705755527781 2958.94046764311 211 212 216
68.6049835334241 506.935815096103 2967.26996205799 232 233 235
147.963616129404 479.174889449733 2541.14987049707 182 184 181
142.381767500098 479.862854969124 2546.59104769754 201 203 200
141.420399381543 480.25456070248 2555.98993810487 194 194 196
137.395172169963 480.841106933594 2562.73417558839 190 189 194
134.152377514878 481.376396116065 2570.12626890596 183 182 187
126.267065012946 482.209868192962 2573.58224818259 180 179 184
118.370766134714 483.044253526546 2577.04900211436 185 184 189
111.243315043701 483.829153356334 2581.17683992333 161 159 162
100.982045305698 484.81744783755 2582.71823137959 149 147 148
92.2654652416655 485.706167991425 2585.57459667441 144 142 143
84.3194573605501 486.545198291938 2589.0900258568 150 150 150
74.0001856205619 487.539419079696 2590.68813825294 117 117 115
64.4476377225263 488.484494127443 2592.94905557639 142 142 140
49.3371914556531 489.794858713548 2590.75635544067 183 183 181
143.830215178778 484.205830855109 2686.211894833 184 186 183
148.019351274374 484.231598904801 2699.05247543737 161 163 162
157.050327548185 483.934128319834 2715.63460544657 187 189 188
178.167963433948 482.831129351338 2741.58888950648 187 188 190
193.793495466917 482.08549232789 2763.025055033 182 183 187
199.056518161753 482.02365725112 2776.22910739092 192 192 194
201.950059139664 482.116742253399 2787.51212720594 193 193 195
203.265666040154 482.312871904478 2797.51301029646 195 195 197
205.423571590375 482.450547838993 2808.10268928585 196 196 198
210.055485368696 482.420054460132 2820.51190052038 198 198 200
211.476133860448 482.602617621044 2830.4104808793 198 198 200
210.478750380899 482.946028039019 2838.43502593932 200 200 202
206.227415738226 483.507728807692 2843.99055427518 200 200 202
201.980927484956 484.068599183172 2849.54173064847 200 200 202
198.561239840203 484.573028585265 2855.69679522208 204 204 206
195.974597385221 485.020262678288 2862.450334209 207 207 209
190.095250996577 485.690495618011 2866.77264263213 207 206 211
185.869158631795 486.248100179662 2872.3037104305 205 204 209
179.157449992717 486.974869091339 2876.0273015632 197 196 201
177.431069657452 487.361106489351 2883.35251215083 200 199 204
173.218927227312 487.916480689473 2888.87005710435 208 207 212
172.355375079087 488.241797642789 2896.76471772214 217 216 221
168.998112848357 488.737236921842 2902.85912167307 212 211 216
166.489285670952 489.173688177055 2909.53698263775 218 217 222
163.151155054932 489.666555152109 2915.61310663986 219 218 223
161.508750407289 490.041734329765 2922.85656252843 231 230 235
159.037042321031 490.473329227262 2929.49828145443 220 219 224
155.729953563312 490.962089529859 2935.54384955476 188 189 193
149.033668432042 491.685705202365 2939.25259096358 216 217 221
142.330159451034 492.410067687343 2942.96805754142 212 213 217
135.619803295753 493.135221360699 2946.69054436924 226 227 231
130.612952940307 493.741794918525 2951.5727694801 224 225 229
123.035202850478 494.527913902158 2954.73033350141 160 161 165
115.446441086963 495.315391597813 2957.89863146044 211 212 216
106.124501154959 496.224967245146 2959.93579846048 225 226 230
95.0581143654103 497.257959950314 2960.85316735505 240 241 245
81.3704460907574 498.476731563847 2960.09498367731 212 213 217
70.2454305688409 499.516849992583 2961.06951859098 221 222 226
73.8640475291707 499.517466207419 2971.64619408326 234 235 237
146.49092574124 471.532480578141 2540.90766203908 197 199 196
142.440935722533 472.128474665495 2547.67543080911 199 199 201
141.479141537332 472.536627445083 2557.07231344067 195 195 197
138.225617174483 473.081937695198 2564.47358040724 189 188 193
134.984215882583 473.625378864544 2571.86274739247 182 181 186
128.652285401852 474.35611689669 2576.62553588322 176 175 180
121.539440324533 475.134369447014 2580.73985216968 185 184 189
112.859940681625 476.008786659403 2583.56117218469 170 168 171
103.384175298509 476.932640607634 2585.749317647 152 150 151
95.4567089728684 477.761903378329 2589.24777842735 150 148 149
86.7328515372545 478.64066121204 2592.1128426863 136 136 136
76.4192303580575 479.618336526916 2593.70778940571 116 116 114
62.1362064363229 480.843391934621 2592.12296462675 121 121 119
131.955573567988 477.490151867793 2677.74117277968 193 195 192
134.520716743638 477.652057135387 2689.3401248618 164 166 163
151.509125034432 476.905642687777 2712.25686765567 168 170 169
175.816432340968 475.691878292915 2740.72810703726 187 188 190
190.632535458286 475.067906671521 2761.53315603157 186 187 191
197.497269029874 474.940587017306 2775.99052088061 190 190 192
199.579566300208 475.11247303075 2786.6502237749 191 191 193
202.506448385648 475.228451032425 2797.89675180196 193 193 195
203.040919106104 475.494059539247 2807.24613640431 194 194 196
207.666394350337 475.496941670039 2819.65647047064 195 195 197
209.080977034715 475.70199953491 2829.55774955853 196 196 198
208.893955783493 476.007657469673 2838.20008206471 198 198 200
206.275664103862 476.467667805494 2844.98316087645 198 198 200
202.849393774214 476.97881090435 2851.14410771402 199 199 201
199.431628760184 477.488675382137 2857.29679762709 204 204 206
196.846550006257 477.944010503825 2864.04724866525 208 208 210
190.969010878399 478.611656856551 2868.36814474813 207 206 211
185.916587506242 479.22571519764 2873.29451829058 204 203 208
180.034864208248 479.893476249711 2877.61955236374 198 197 202
178.310232937502 480.290490836486 2884.94143324066 203 202 207
175.767950633411 480.739828059491 2891.65061110028 211 210 215
174.073954049287 481.1328627196 2898.94265951194 215 214 219
170.720591496951 481.633487836074 2905.03276240206 210 209 214
168.215450350345 482.07787746631 2911.70578979531 219 218 223
165.722746279105 482.520610752339 2918.36671179581 219 218 223
165.773323540527 482.794929851876 2926.77773733274 228 227 232
162.465541531532 483.289572941311 2932.82346221051 200 199 204
157.471185565092 483.895190555553 2937.69342149643 198 199 203
150.778520906647 484.613262044351 2941.39904930815 214 215 219
143.227664272888 485.388577054894 2944.53184239453 224 225 229
137.372358964287 486.051664454537 2948.83099593549 231 232 236
131.514075542446 486.715055285938 2953.13339978184 212 213 217
126.509902152192 487.321468276246 2958.0129903585 211 212 216
119.787989999713 488.042755125779 2961.74718613524 226 227 231
111.337027609545 488.880269819016 2964.34735729809 238 239 243
98.5561746321961 490.009237096302 2964.11887498433 229 230 234
83.1466715308689 491.316761480003 2962.22356248677 189 190 194
71.1586632506709 492.396267994175 2962.63199326525 245 246 250
66.0910155187393 493.010270152031 2967.57349312587 215 216 218
62.765509780025 493.506498942124 2973.63658356339 82 83 78
145.018618311438 463.87806920329 2540.66718510451 201 203 200
140.196316703714 464.523838039627 2546.77726685342 195 195 197
139.998133341279 464.905203412601 2556.83674113445 194 194 196
137.512183088602 465.415236344763 2564.89791895269 189 188 193
133.494932599949 466.01161420937 2571.63312016329 190 189 194
128.710251147068 466.651136722354 2577.70676774618 180 179 184
120.819346111179 467.469185852976 2581.17057999644 174 173 178
113.697239858306 468.243121820769 2585.29473075613 175 173 176
102.660001150982 469.244223363558 2586.18786867403 151 149 150
94.7303952855947 470.065942487725 2589.68956899663 148 146 147
86.0042350131094 470.934389279757 2592.55810613211 149 149 149
74.1137926096074 471.988550916352 2592.87373635657 129 129 127
58.2460808155578 473.277505085159 2590.01892937439 126 126 124
130.588498495315 470.412797865946 2687.22961279717 94 96 91
154.758202803784 469.316067316577 2715.82019643873 177 179 176
179.072545865884 468.201325591495 2744.27015154568 184 186 185
192.28972514853 467.740021635605 2763.8047568569 182 183 185
195.938088071844 467.845668492884 2775.75328000285 186 186 188
198.823096534245 467.994227896747 2787.03657363958 188 188 190
202.556432144274 468.088926721399 2798.90233576594 189 189 191
203.090579308936 468.373711401763 2808.24920743391 188 188 190
206.090472083797 468.507463484059 2819.42060776573 192 192 194
206.68608239985 468.784276920184 2828.7072859202 195 195 197
208.126149456231 469.007865125503 2838.58018203174 199 199 201
206.324133132885 469.426694452772 2845.97568320073 199 199 201
203.718011002587 469.893426259241 2852.74568403967 201 201 203
201.124305227586 470.35844536477 2859.50360839069 206 206 208
198.543101111445 470.821711531077 2866.24937749332 207 207 209
194.321692866048 471.384917311832 2871.77496603416 205 204 209
186.792344861595 472.151371613435 2874.8873725006 202 201 206
181.742492161745 472.765282786913 2879.81121507876 200 199 204
180.021732285261 473.17291190881 2887.12802062228 207 206 211
178.317068679613 473.578406940266 2894.42881990655 215 214 219
174.957041666788 474.085680647286 2900.52455804568 213 212 217
172.443003116525 474.53969648555 2907.20466010095 209 208 213
169.94165483211 474.991952054188 2913.87275854371 217 216 221
168.294495380606 475.389948860095 2921.11790142931 218 217 222
164.976077354426 475.891606833747 2927.17281339055 218 217 222
161.666287590344 476.392193524367 2933.21965353714 182 181 186
156.669845321555 476.998398478716 2938.09159774352 210 211 215
151.674254742121 477.604348642023 2942.96273386779 216 217 221
145.82785652055 478.264013377585 2947.25354840792 227 228 232
139.125203559199 478.978053302793 2950.97002845741 222 223 227
131.560221345429 479.747201313477 2954.11742209145 184 185 189
126.55595968982 480.353979243994 2958.99704637891 230 231 235
121.552379116441 480.960582860035 2963.87602010525 218 219 223
113.966395851777 481.732113027158 2967.04391601159 245 246 250
102.054638402727 482.78117787883 2967.38146569396 207 208 212
87.5176250374268 484.000407742932 2966.04937935792 202 203 207
74.6728328193504 485.113156867459 2965.88712453329 240 241 245
61.7938183586126 486.230056380872 2965.75790163386 198 199 201
61.9414815418788 486.508369131114 2974.07226699737 89 90 85
141.500736079268 455.92573903323 2528.33158191051 141 143 140
146.61041937877 456.048596006433 2543.07751446815 198 200 197
144.86364709723 456.533051125207 2551.82570518336 193 193 195
143.136843647859 457.014500658279 2560.55417293529 191 191 193
139.114734331502 457.617446906796 2567.29322822935 191 190 195
132.779656529299 458.344041109183 2572.05975451308 189 188 193
127.992715461929 458.986855892628 2578.13515933043 180 179 184
120.877266965867 459.75515962294 2582.25319343943 169 168 173
112.975191264515 460.566390842143 2585.72910600995 176 174 177
101.15436192795 461.591786213368 2585.97986107134 152 150 151
91.6535468485491 462.491921326873 2588.19604904379 146 144 145
82.919657092364 463.350803569705 2591.07401314902 142 142 140
71.0213311001016 464.384641827156 2591.40047568023 137 137 135
128.250988453485 463.056336623693 2686.38701078719 101 103 98
154.012149066151 461.970776408932 2716.2297602995 180 182 179
179.925518667595 460.866293192353 2745.92416084728 182 184 183
190.735134652228 460.602774481394 2763.56921373579 186 187 189
194.379206681059 460.738859469127 2775.517499061 184 184 186
196.45318751924 460.960872411122 2786.1783893992 186 186 188
201.797920891625 460.994290604517 2799.28722345467 185 185 187
202.32959983516 461.298534865475 2808.6333321432 185 185 187
203.70201011206 461.552634617237 2818.56924068567 191 191 193
203.476784330557 461.896013445263 2827.24393572364 195 195 197
207.358550367095 462.001648538001 2838.96102570862 197 197 199
205.554392519405 462.431775008993 2846.35698373003 199 199 201
203.766477032385 462.859765419103 2853.73712855605 202 202 204
200.350308772534 463.380809584164 2859.88658051571 206 206 208
198.591137574296 463.804881475812 2867.23876099338 205 205 207
196.022103007487 464.274869112767 2873.97145212319 199 198 203
190.152943015009 464.936446792089 2878.28492454805 200 199 204
184.280492278809 465.598245968961 2882.60129415083 206 205 210
180.069262274383 466.162720726759 2888.11692583567 213 212 217
180.032416525291 466.481217812851 2896.60857206927 215 214 219
175.840047752994 467.043062490837 2902.10552515444 209 208 213
172.49004886769 467.554657585055 2908.19032867357 213 212 217
169.148828131538 468.065044562944 2914.26693176188 219 218 223
167.49940205518 468.47436732139 2921.51231362663 225 224 229
164.179100835914 468.981999124126 2927.56855053911 191 190 195
160.867093989687 469.488480389604 2933.61638322346 194 193 198
157.563758191966 469.993855493731 2939.65610676062 216 217 221
152.569992349862 470.599958917276 2944.52540824196 226 227 231
148.428332284557 471.154644362272 2949.97306496298 222 223 227
141.731507429334 471.862937211847 2953.6846070322 191 192 196
135.027458455117 472.572006392251 2957.40287017502 183 184 188
130.888010358847 473.126295045751 2962.8483890237 223 224 228
124.175966785702 473.836241096816 2966.57479916233 221 222 226
114.873647116961 474.703922637709 2968.59867488156 211 212 216
102.963910960557 475.731592349034 2968.93737958285 195 196 200
91.8888488169807 476.710012148225 2969.87142908388 236 237 241
79.0536301116451 477.797773495778 2969.7030229601 227 228 232
63.5780920540352 479.049359652016 2967.8812139539 219 220 222
62.8589185254951 479.397104907684 2975.62918957474 172 173 168
145.138530733283 448.380863851207 2542.83859048009 191 193 190
145.691163880766 448.764622670374 2553.56904843508 193 193 195
145.50572631032 449.182652002131 2563.61044703915 196 196 198
141.489113516593 449.79059581839 2570.34330556666 191 190 195
133.612013988232 450.591985432327 2573.79587101314 188 187 192
125.723884758655 451.394382217985 2577.25924025644 182 181 186
118.602381901135 452.158318908855 2581.3839318824 172 171 176
110.694277148189 452.962408363061 2584.86688694002 169 167 170
101.212198718299 453.84740163534 2587.06704494204 154 152 153
90.9277897661331 454.774514067784 2588.64045666012 148 146 147
81.4063479905553 455.663644151674 2590.87909162735 145 145 143
68.7165326548751 456.71735990186 2590.57132973248 149 150 145
157.261401331704 454.408629028441 2719.78886196019 179 181 178
180.778643754691 453.535516835139 2747.57738988611 189 191 190
189.180842915409 453.45372538292 2763.33511826429 190 191 193
192.01580059196 453.663022710455 2774.65913603266 182 182 184
192.470132088379 453.996317098885 2784.07809612542 184 184 186
197.804699904191 454.066368633686 2797.19161033699 183 183 185
200.758452932883 454.260424559785 2808.39991523704 182 182 184
203.751790239904 454.449401805392 2819.56966299031 190 190 192
205.155510277439 454.721238545975 2829.47152111644 194 194 196
207.407716169936 454.944813184785 2839.95520052294 196 196 198
206.421694702745 455.341573280367 2847.96057787767 199 199 201
205.455994253567 455.735729066419 2855.94649891891 202 202 204
202.043348188882 456.262003248066 2862.09134245055 207 207 209
199.463649036311 456.741856320936 2868.83316556455 205 205 207
196.896344711207 457.220028891205 2875.56292880921 201 200 205
191.028991710259 457.879049501887 2879.87498479839 203 202 207
185.988614681467 458.492385289144 2884.78950293694 209 208 213
180.949004576973 459.105447486927 2889.70329994474 214 213 218
180.913857811183 459.44021217618 2898.19085471816 211 210 215
178.395134719838 459.911670621745 2904.87336842422 204 203 208
174.213071767643 460.475046591025 2910.3598613535 216 215 220
169.196021321518 461.084793034801 2915.25174635403 222 221 226
167.546366454246 461.505230775356 2922.49571262204 230 229 234
165.06954724942 461.971052757241 2929.13744821621 183 182 187
162.605058288567 462.435290831541 2935.76717379669 209 208 213
160.152942358096 462.897910119935 2942.38485203094 218 219 223
156.014229683423 463.455378831727 2947.82917058388 216 217 221
150.177607981323 464.109139506466 2952.11148735525 211 212 216
141.777991409907 464.909222609496 2954.66620373373 177 178 182
135.92908658597 465.56433841393 2958.9601796971 219 220 224
130.934428152882 466.170524878338 2963.83035526107 223 224 228
123.363421474597 466.924763107158 2966.98627277866 234 235 239
114.059180261913 467.779625294132 2969.01395131434 196 197 201
103.873439942626 468.686485608113 2970.49237687564 208 209 213
97.124965386119 469.395687684698 2974.2550734784 245 246 250
85.1682339255588 470.407800801494 2974.64240662732 214 215 219
70.5753355456249 471.575182448516 2973.37381592277 223 224 226
74.2248034999631 471.680795343451 2983.90433745849 169 170 165
145.964655846735 440.595067612623 2544.58588263163 192 194 191
150.358431582791 440.822610878712 2558.61034007675 190 190 192
149.41444823553 441.294121138635 2567.98017207502 191 191 193
143.86356958351 441.978595182082 2573.39111166884 183 182 187
135.992089896046 442.771462956269 2576.83935605443 183 182 187
126.55814689836 443.638371389786 2578.99404994997 179 178 183
119.438537936266 444.396925999231 2583.11799422106 169 168 173
110.752428985253 445.230043193404 2585.95198150137 170 168 171
102.051673923963 446.064610427214 2588.80063611248 162 160 161
91.7690682686398 446.975603426701 2590.37463957528 153 151 152
80.6785418778331 447.926724202038 2591.32808008622 149 149 147
66.4121056551958 449.03263534614 2589.74439294696 137 138 133
158.113862758523 446.985047396533 2721.45680444455 179 181 178
180.030123228802 446.288395672894 2747.97489385858 179 181 180
189.232683438125 446.213071335169 2764.35380536501 188 189 191
195.286838347915 446.289233851455 2778.16910291412 180 180 182
197.361819989635 446.560107274563 2788.82144003984 180 180 182
201.898961888543 446.704639686597 2801.29889241617 174 174 176
201.619454948978 447.088047928488 2810.02191095862 182 182 184
204.614350982996 447.304013300798 2821.18612203959 192 192 194
206.019720730378 447.597519503866 2831.08313924236 194 194 196
209.089957969415 447.803898466921 2842.17395226011 198 198 200
207.289378680088 448.255792013444 2849.5634773979 201 201 203
205.504896200106 448.705492432811 2856.9370044673 204 204 206
202.914468147533 449.195278018255 2863.68801351659 204 204 206
199.512167176581 449.725761621736 2869.82196206651 202 202 204
196.944679821242 450.212360323648 2876.55066168431 204 203 208
191.905276648188 450.826015607114 2881.46416554832 205 204 209
188.526871097994 451.353119962257 2887.57522288561 216 215 220
185.157013111319 451.878969854725 2893.67797777501 220 219 224
183.463418587563 452.316386839489 2900.96306724658 205 204 209
180.95033731611 452.795537101785 2907.63884169493 212 211 216
177.611734850523 453.317135448554 2913.71084992445 217 216 221
173.442163285396 453.881931052255 2919.18506674236 225 224 229
169.277038290851 454.446061195337 2924.65462856274 202 201 206
165.960207300757 454.964620057553 2930.70546662974 208 207 212
163.497469570931 455.437069903542 2937.33223951565 219 218 223
161.894778310727 455.862571783434 2944.52915959201 217 218 222
156.910573173989 456.468089100832 2949.38905377781 223 224 228
151.075633901417 457.119262479034 2953.66974443109 184 185 189
143.531100948074 457.862716755535 2956.80062916992 212 213 217
138.541455500374 458.46871351968 2961.66585480291 232 233 237
133.552576169212 459.074525249423 2966.53034701885 226 227 231
125.128099498173 459.867069005427 2969.11086415596 233 234 238
115.828015051406 460.708244079794 2971.13677575289 205 206 210
108.235101884635 461.457325700316 2974.31487103985 232 233 237
100.631262616996 462.207696276221 2977.50362559944 229 230 234
87.8156973181024 463.24527421899 2977.32312043785 216 217 221
75.8349660856377 464.239053135279 2977.73733334388 221 222 224
78.6250327170457 464.418658325501 2987.69306990891 191 192 187
147.556973736253 432.78081863468 2546.99378649229 193 195 192
149.650410403653 433.141857668266 2559.03171822656 195 195 197
148.703877582987 433.630095701493 2568.40127169002 192 192 194
143.92271446295 434.281692510436 2574.46997878271 184 183 188
136.051029766255 435.066772759786 2577.91957773827 183 182 187
126.616910043472 435.920464970765 2580.07640047637 181 180 185
118.719339938973 436.7079829235 2583.55134373304 165 164 169
110.031305095809 437.530803933544 2586.38910306624 167 165 168
102.109889599147 438.320590866518 2589.88738979554 162 160 161
91.0437638466139 439.250473155134 2590.81973915102 149 147 148
79.9511534073103 440.18331096197 2591.77795136768 138 138 136
65.6827750080033 441.260041503888 2590.20050571883 134 135 130
165.35822046532 439.272261334939 2728.15585610545 180 182 177
182.485600205965 438.887041578071 2750.88155161969 182 184 181
192.496483146039 438.822681205668 2767.8734133957 180 182 181
196.143221434267 439.048239591769 2779.80582695672 186 186 188
196.606410584764 439.418730622869 2789.21015577851 178 178 180
200.332339495989 439.634040412935 2801.06544661825 177 177 179
202.480607904188 439.920074930903 2811.64310594028 184 184 186
207.102381370129 440.08640052815 2824.0332968962 197 197 199
209.327883804469 440.362521563445 2834.53572689695 190 190 192
210.772531750932 440.672865106799 2844.39125171585 196 196 198
208.975382866162 441.135395889195 2851.77546039039 199 199 201
205.553997282201 441.674375647019 2857.92744235725 202 202 204
202.140971193279 442.212049235857 2864.07097843116 203 203 205
198.736744512086 442.748512028385 2870.20629336028 202 202 204
197.819520469574 443.163741222125 2878.14096197265 209 208 213
193.609972563035 443.737304552837 2883.65324218032 206 205 210
190.235299073572 444.269628914181 2889.7598220115 223 222 227
186.868962743554 444.800767859948 2895.85796028201 211 210 215
186.013115982694 445.207846690305 2903.73288496652 204 203 208
183.505655003302 445.694720967671 2910.40193677572 214 213 218
181.010421502966 446.179919392859 2917.05875636569 218 217 222
177.68817651121 446.705103589574 2923.11432923683 218 217 222
173.532632391115 447.271092290176 2928.57410241326 186 185 190
168.538259730936 447.87854004255 2933.44380778269 214 213 218
165.235787369917 448.40099570968 2939.48014941469 218 217 222
162.789215263412 448.879722226523 2946.08994190846 216 217 221
158.656229186163 449.442572283258 2951.52777850507 220 221 225
150.271299711286 450.220135270719 2954.07123884282 194 195 199
143.578102917905 450.912740341715 2957.78115899783 229 230 234
136.022799981018 451.649680007435 2960.92370134615 228 229 233
131.885307327009 452.212790307736 2966.36631241821 237 238 242
125.175020522413 452.907343455303 2970.09291528213 214 215 219
118.457971577854 453.602677071321 2973.82645554008 219 220 224
110.870825985004 454.343336165652 2977.00006838657 228 229 233
101.543059203827 455.174716605664 2979.05457875148 216 217 221
91.3299302035546 456.053274985011 2980.56438469145 220 221 225
79.3571304174257 457.024884207757 2980.97399822504 215 216 218
80.4135764987977 457.318934649114 2989.8005120303 189 190 185
149.915097457292 424.946182049695 2550.0608185967 193 195 192
150.478226849 425.394118978809 2560.77170597138 198 198 200
147.223967046824 425.989792867312 2568.16625951631 193 193 195
141.666728041442 426.675511000561 2573.58333115912 187 186 191
134.562642226274 427.422598243116 2577.69321774565 181 180 185
126.675854565862 428.201297340899 2581.15875729886 187 186 191
118.000560930148 429.012398965552 2583.98559654476 170 169 174
110.089927877572 429.793367043574 2587.47447957059 166 164 167
99.8238080133587 430.670880847042 2589.03706060967 166 164 165
88.7517509483811 431.582906207082 2589.97793909234 157 155 156
76.0823587607571 432.562577077252 2589.66084051046 128 129 124
63.3789549761299 433.546021376711 2589.37729607799 122 123 118
152.380011151565 432.039732702114 2709.52109517905 149 151 146
171.004823484147 431.674882865567 2733.59096380548 190 192 187
183.33928628807 431.569256093587 2752.53230353686 173 175 172
193.351505551456 431.556266010742 2769.51524581771 170 172 171
196.195070630242 431.846209031962 2780.81879691012 181 181 183
197.464619899194 432.201005215469 2790.84162722342 162 162 164
201.192334879527 432.446032969087 2802.6910900101 181 181 183
203.34216471974 432.756431159968 2813.26359786684 181 181 183
208.777810073764 432.919543377637 2826.26264841848 187 187 189
209.377942542414 433.291598029695 2835.53109724044 193 193 195
210.822284678884 433.623828075468 2845.38369091769 195 195 197
209.843471501844 434.061121498649 2853.37625736761 197 197 199
205.60336316036 434.642164040599 2858.9177791148 199 199 201
203.012548057994 435.148775050952 2865.6666857198 200 200 202
199.609887513621 435.690743936714 2871.79929381174 203 203 205
199.520458453078 436.082239398933 2880.33236692282 205 204 209
195.314834188527 436.658361433295 2885.8407105627 212 211 216
193.60381585364 437.120353635955 2893.13946992982 217 216 221
190.2450588483 437.656286547998 2899.22937327277 195 194 199
188.562908287183 438.114508533521 2906.50036159223 213 212 217
184.389369974496 438.686126911124 2911.9771712041 213 212 217
182.733861284727 439.140737943633 2919.22189960676 218 217 222
179.415304759531 439.671265579939 2925.27302001804 180 179 184
176.105149438767 440.200570242367 2931.31564082213 198 197 202
170.272967854921 440.847107692257 2935.59461607992 212 211 216
166.128600887336 441.414547323271 2941.0430757318 213 212 217
163.683865046167 441.901474891878 2947.64983267508 225 226 230
157.85406738475 442.547387481921 2951.92653301666 191 192 196
150.318518549994 443.274318303811 2955.0509385523 221 222 226
144.478688724961 443.921289216591 2959.33744456102 211 212 216
138.635546089867 444.568572861973 2963.62685617537 215 216 220
133.646489689488 445.175173508848 2968.49140762206 210 211 215
126.081139829934 445.905477926061 2971.64490739994 202 203 207
117.643972169915 446.678628680651 2974.24089315385 225 226 230
111.780888423323 447.328206791186 2978.55010530775 236 237 241
102.455069428489 448.146250602302 2980.60465263995 197 198 202
92.2442078857886 449.0087359336 2982.11492039251 217 218 222
75.929862168401 450.171457402795 2979.72228463654 214 215 217
70.8841349787783 450.784701068091 2984.64212917947 199 200 195
150.74173209812 417.1810655661 2551.80488616326 193 195 192
148.234806537846 417.760495480645 2559.87663592833 199 199 201
145.744125761525 418.337523669094 2567.93260935686 191 191 193
140.182717651747 419.024032743915 2573.35370408114 184 183 188
133.848368357884 419.738269590342 2578.12133335714 181 180 185
125.183860140526 420.537898387898 2580.93915820201 186 185 190
118.059547762826 421.281609142986 2585.06962910751 171 170 175
108.589768373672 422.112569670189 2587.26555999639 163 161 164
99.1010535435701 422.945547051132 2589.47965812596 158 156 157
86.4600659015249 423.898020061996 2589.13837324215 153 152 150
72.999475037161 424.884044366988 2588.18909828973 182 183 178
155.622646512029 424.492706390159 2713.08487047899 151 153 148
175.053167972341 424.17682767665 2737.76399159614 185 187 182
182.591432060403 424.318925586061 2752.92962020519 173 175 172
190.995412724821 424.421275582984 2768.6583634981 179 181 180
192.223116116358 424.803283507693 2778.7187255028 165 165 167
194.289492992477 425.148910209007 2789.36889662809 158 158 160
196.391627872301 425.48991110813 2799.98424321864 177 177 179
202.582458975634 425.662666291542 2813.64920509111 178 178 180
207.203402199933 425.894404529266 2826.03055252955 184 184 186
211.057081115666 426.153344822625 2837.752537157 194 194 196
210.872322045954 426.573870653671 2846.37598370059 194 194 196
210.711521931146 426.991317108932 2854.97609377817 197 197 199
206.473214094145 427.575169563247 2860.51541229397 198 198 200
202.239584490377 428.158284829863 2866.05019421102 199 199 201
198.835019763594 428.706200706333 2872.18415206361 201 201 203
197.917373900109 429.149051003689 2880.11515716338 201 200 205
196.191690584932 429.624155005989 2887.42654115445 212 211 216
192.822314754508 430.167264503481 2893.52592845149 206 205 210
189.461674556084 430.709171244607 2899.61715674567 195 194 199
187.777214583704 431.17875406099 2906.88842137682 214 213 218
185.27336289776 431.681979445114 2913.55147241783 211 210 215
183.619580129156 432.147576974868 2920.79286315576 209 208 213
179.46321143677 432.719877799192 2926.25286005753 177 176 181
175.311396146359 433.291440726278 2931.70810658273 209 208 213
169.477238065828 433.935839107508 2935.98936068436 208 207 212
166.176236550717 434.469591825801 2942.0222342034 211 210 215
163.731381185791 434.964967004463 2948.62786128246 217 218 222
159.600335766796 435.533603677194 2954.06325335941 180 181 185
151.217257812871 436.290041839942 2956.60765950736 218 219 223
144.526105365434 436.972410419064 2960.31740038765 215 216 220
139.538193697171 437.579220567225 2965.18078413422 210 211 215
135.408131046961 438.147481024527 2970.61491806972 189 190 194
127.846635758642 438.86957459552 2973.76580376088 208 209 213
120.274298595999 439.593034957042 2976.92725358246 227 228 232
112.691120636049 440.317744035664 2980.09928391618 237 238 242
104.232280316704 441.0831010378 2982.71794285439 198 199 203
94.8920811470613 441.8897356434 2984.78879403034 211 212 216
79.4523536134166 442.977296638456 2982.95566749165 221 222 224
71.8025547731234 443.710021040236 2986.19266868313 236 237 232
62.3965864401583 444.524694572093 2988.32730361872 213 214 209
149.506169861644 408.973234417194 2541.49173420289 192 194 191
150.036481724482 409.469194362082 2552.22777424612 192 194 191
149.063005919313 410.010349762945 2561.61659916965 201 201 203
145.804193193993 410.623285797648 2569.0131224969 191 191 193
141.786048286713 411.259521406982 2575.74332092115 186 185 190
135.455167681364 411.970886801718 2580.50759229549 183 182 187
126.794391073572 412.759489750654 2583.32334121251 181 180 185
118.118736692853 413.549614466308 2586.15363906152 172 172 174
107.869187923313 414.393608835474 2587.70471891637 167 165 168
99.9413756044953 415.16070311217 2591.21271174932 153 151 152
85.735570275399 416.142418883218 2589.58717325839 149 149 147
66.7756750645427 417.290494099786 2584.15579685471 127 128 123
171.112350994302 416.99070884959 2735.65450190505 172 174 169
180.242039522749 417.1198169296 2752.07556104576 184 186 183
189.442434347899 417.239981873021 2768.42772958031 182 184 183
191.470788108449 417.615080446097 2779.11130229166 153 153 155
193.53489960345 417.985582735339 2789.76004637286 183 183 185
194.017356521226 418.411021426386 2799.13712077676 172 172 174
201.012665796378 418.592542161255 2813.41917554727 179 179 181
207.25427644017 418.796930669818 2827.02903719376 191 191 193
211.922243462337 419.055350571687 2839.35974576747 185 185 187
212.555447912148 419.461460812497 2848.58998238011 191 191 193
210.761523694319 419.956902461349 2855.96612470102 194 194 196
205.702820144062 420.575054772958 2860.89812946611 194 194 196
203.933771153982 421.067065659969 2868.25007738325 194 194 196
201.357047169847 421.588558954452 2874.98279170445 196 196 198
199.618697449883 422.076493319781 2882.30485730066 201 200 205
197.896760428458 422.562240666019 2889.61094808508 204 203 208
194.531304996498 423.110592357664 2895.70600541647 191 190 195
191.174374523211 423.6578398584 2901.79276053681 206 205 210
188.659794475774 424.170938718383 2908.46500570396 204 203 208
186.157547661771 424.682407362996 2915.12490689112 208 207 212
182.830191100282 425.22557278928 2921.18289800868 175 174 179
178.671629289343 425.801141054693 2926.64425194124 191 190 195
174.51791252154 426.376026518697 2932.10123343408 207 206 211
169.525231123644 426.984293015051 2936.96913834506 206 205 210
165.378768135617 427.558041187461 2942.41874697657 208 207 212
162.931794940686 428.062115894432 2949.02519130564 197 198 202
157.100041784384 428.703586983972 2953.30448993439 191 192 196
150.41374199948 429.380344495535 2957.00990352039 209 210 214
146.280079098154 429.952213653912 2962.44707919403 216 217 221
143.006406367436 430.487962723235 2968.45285760836 210 211 215
138.883968802582 431.058328296347 2973.87910858619 189 190 194
131.33023858667 431.771835977965 2977.02355243635 212 213 217
122.904739843749 432.522788137635 2979.61123172572 235 236 240
114.464573759642 433.275471411064 2982.21322004385 230 231 235
106.009697817195 434.029891158212 2984.8295588187 202 203 207
94.0730231802207 434.933626750173 2985.21299339615 218 219 223
80.369001882874 435.915252877437 2984.50609851099 220 221 223
75.3329196251635 436.527988271731 2989.41644061619 244 245 240
144.220142647909 401.362253310871 2537.9466961436 191 191 189
149.331628542228 401.750743992543 2552.65157815184 190 190 190
149.891524396067 402.264514473464 2563.35594630722 194 194 196
147.404043320944 402.863223114253 2571.40553802377 191 191 193
143.389314315944 403.504702140081 2578.1312315899 189 188 193
137.83585529848 404.190386011989 2583.54455471264 179 178 183
130.73201683755 404.921713841446 2587.65686274912 184 183 188
121.288264304531 405.723371570902 2589.83094168383 166 166 168
110.266921349353 406.574103634134 2590.73051942828 163 163 165
100.782037750032 407.380196439803 2592.94512445952 157 157 157
83.4445347135029 408.428231806712 2588.7512931249 154 154 152
167.970579000696 409.750763554179 2734.17607573659 171 173 170
180.29560470048 409.825106923105 2753.10052498565 189 191 190
189.495468337681 409.994194503946 2769.44599025324 173 174 176
192.328167423566 410.367297118553 2780.74804048564 168 169 171
194.393840619834 410.762133562352 2791.39163719697 173 174 176
194.87795049098 411.206558225382 2800.76426407537 167 168 170
200.253525235818 411.483374147577 2813.80649811406 194 195 197
204.867877413336 411.78122178239 2826.18461961938 187 188 190
210.344006304891 412.045243318998 2839.12889290851 182 183 185
210.973059847269 412.471100685077 2848.3603328171 188 189 191
209.993464724849 412.949888801086 2856.34754285287 189 190 192
205.752890529535 413.540100755005 2861.88817196471 191 192 194
201.517037623115 414.129511124548 2867.42423124071 190 191 193
201.406726184989 414.573231925339 2875.97032197919 191 192 194
199.668253966997 415.072267872869 2883.29086840876 197 196 201
197.946066626828 415.569162399554 2890.59556021498 205 204 210
192.920423664267 416.182763601401 2895.4954079798 198 197 203
190.391331228613 416.706212973938 2902.18053436175 189 188 194
188.708684814189 417.197844341024 2909.44707717887 198 197 203
187.042134401347 417.687371136026 2916.69760964132 207 206 212
182.041113717642 418.297337588953 2921.57354433355 195 194 199
177.040901667629 418.907113647515 2926.44870418077 197 196 201
173.724530408137 419.454420825119 2932.49483674003 191 190 195
170.416958287122 420.000546724769 2938.53274405906 205 204 209
166.272337782225 420.577158486295 2943.98009984036 206 205 210
162.979902845123 421.12125816574 2950.00327518646 183 184 186
158.84655073236 421.696301945323 2955.43967303484 191 192 194
153.866666728627 422.302984611214 2960.29510403369 210 211 213
148.887548572178 422.909511761059 2965.14979752007 207 208 210
144.764484775304 423.483068590561 2970.57653653124 177 178 180
139.788939136823 424.089027430098 2975.42776645048 218 219 221
133.954959524401 424.728109156114 2979.70929128797 210 211 213
127.257268639758 425.400982464503 2983.42692832992 235 236 238
117.10100640088 426.209511115973 2984.89061509838 182 183 185
107.78706793172 426.98681344403 2986.93938646637 225 226 228
95.8546230284578 427.868862448646 2987.32216396584 232 233 235
86.4977018704249 428.651347552297 2989.41285176731 226 227 229
82.3458571911981 429.228178856369 2994.8676866542 201 203 200
143.518056010291 393.598903226016 2538.37438898791 190 190 188
150.924569217888 393.968318637637 2555.05416005907 190 190 190
153.023395954794 394.464748734421 2567.06672863462 194 194 196
149.773678312832 395.093226367246 2574.45192336823 191 191 193
144.992872233346 395.759503925671 2580.51776826402 183 182 187
137.89571251855 396.485226356021 2584.62393484041 181 180 185
132.342743525374 397.170730514929 2590.03679792329 179 179 181
122.125451152442 397.979332968 2591.56141545121 170 170 172
111.885397333192 398.790375634754 2593.10793692728 154 154 154
100.841353548535 399.624981536117 2594.03244037066 155 155 153
82.7206325425802 400.6541280552 2589.20223850352 146 146 144
168.824053601541 402.372076894604 2735.83637666686 177 179 176
178.747659583105 402.576219588332 2752.87488327496 169 171 170
186.337625716715 402.842032286672 2767.97088599671 166 167 169
191.576395407142 403.171682346499 2781.1411606143 185 186 188
193.639802953038 403.591423896583 2791.78332618612 160 161 163
195.738925985484 404.006545004437 2802.39070865116 198 199 201
199.494865285428 404.367793358594 2814.19462907523 172 173 175
204.106878306271 404.698604611144 2826.5702013894 183 184 186
209.580664259119 404.998332292705 2839.51152389868 182 183 185
209.390970003365 405.468997650109 2848.13212271287 183 184 186
208.407294774798 405.962098833724 2856.12126888921 183 184 186
204.162653716688 406.555860374882 2861.66541182848 185 186 188
201.567258421674 407.096690506803 2868.41380906127 184 185 187
200.632651758617 407.583193036283 2876.3552047049 186 187 189
200.54419270414 408.040611299483 2884.87757122442 192 191 197
197.995635736485 408.57519594096 2891.58004254451 199 198 204
194.629883699074 409.135113430012 2897.67368498969 196 195 201
191.272657428097 409.693838173084 2903.7590375101 193 192 198
190.425302455234 410.168912012354 2911.61514224898 199 198 204
187.091058321629 410.72456258536 2917.67812752824 201 200 206
181.252138115673 411.362881384271 2921.96467120843 185 184 189
176.24992479762 411.973234063014 2926.84173312019 191 190 195
173.77320403463 412.498100914461 2933.47464415423 190 189 194
173.839407052169 412.935372908913 2941.84640655963 199 198 203
169.702621228939 413.51410929422 2947.28600620974 195 194 199
164.723029729462 414.121315289153 2952.14106939974 202 203 205
158.894808242121 414.757666171909 2956.41727995134 202 203 205
154.766230383684 415.335131937529 2961.8489167681 194 195 197
150.642119815898 415.911988599263 2967.27586968251 216 217 219
146.522687212091 416.488137591655 2972.69828190276 185 186 188
141.550922100035 417.094003133139 2977.54577149278 203 204 206
134.862119748861 417.76083200364 2981.25547545489 205 206 208
128.166092740186 418.428496241684 2984.97189229974 240 241 243
118.011930341214 419.220986013885 2986.43586443548 167 168 170
107.835277175429 420.016222651367 2987.92176424966 233 234 236
95.9029402928735 420.877117713962 2988.30756102637 223 224 226
85.6776076780585 421.678196325346 2989.84093681186 218 219 221
78.0414120286035 422.386178502035 2993.06808672381 190 192 191
147.399255545106 385.731928980367 2542.7679202636 192 192 190
152.517423759983 386.195617551102 2557.45505241359 190 190 190
153.084255057961 386.752180125099 2568.14620891774 193 193 195
150.603884992969 387.372105620002 2576.18560345434 191 191 193
144.281547383588 388.075452159332 2580.94291453271 183 182 187
137.955813814616 388.778915522692 2585.70324274063 181 180 185
131.627083297111 389.482419332579 2590.46687882675 176 176 178
123.740060119693 390.221756944933 2593.93846986218 169 169 171
113.503786644957 391.016430940458 2595.48365668273 150 150 150
100.900891895203 391.868647653409 2595.11970067281 158 158 156
81.2134867010506 392.892169336544 2589.01191423525 148 148 146
148.669905541207 395.016612818977 2711.59240141499 158 160 157
168.878730999314 395.018287333033 2736.86896808825 171 173 170
177.200179765862 395.315614213945 2752.65084927748 167 169 168
183.982913944993 395.646424707856 2767.1215914576 171 172 174
187.606112345594 396.054645131616 2779.05072094761 168 169 171
192.079221945875 396.435826041671 2791.55644395639 158 159 161
194.174166325263 396.876063935782 2802.16426363565 190 191 193
197.115341450286 397.289742742405 2813.35259841415 166 167 169
200.096142832284 397.698396545287 2824.50232642706 172 173 175
205.559827273544 398.034720009953 2837.44827104591 171 172 174
206.176646972053 398.500478868065 2846.68596191921 173 174 176
206.821465293623 398.962590117208 2855.89638886093 173 174 176
203.393175870016 399.536789555141 2862.05002098927 175 176 178
200.795620227844 400.086324575334 2868.79927690004 175 176 178
198.210544447446 400.634168373 2875.53639008552 178 179 181
198.116089040614 401.108794874281 2884.0621677015 186 185 190
195.561712261078 401.652591668622 2890.76939447064 183 182 188
193.849717886212 402.170373488827 2898.06087737878 186 185 191
190.490209680343 402.735118920129 2904.14726819719 194 193 199
189.640918728162 403.224281456667 2912.00355093084 191 190 195
185.468772098036 403.810938347802 2917.47675589563 175 174 179
181.301303431888 404.396887569595 2922.94542016625 182 181 186
177.138700798199 404.982180828356 2928.40968718776 183 182 187
176.346749371957 405.463833000338 2936.20980311112 190 190 192
174.731781269357 405.968868844306 2943.4071591883 189 189 191
172.287299257169 406.498087584646 2950.00707561694 187 187 189
168.16090294208 407.078492133106 2955.4361117781 189 190 192
164.039059221205 407.658247339398 2960.86038527639 197 198 200
159.070604792846 408.264314689275 2965.70455748138 215 216 218
154.103044301741 408.870151406504 2970.54787608085 184 185 187
148.281220015395 409.503265060632 2974.81855042027 195 196 198
143.313320464071 410.109026584136 2979.66221682516 201 202 204
136.628137777959 410.770399826001 2983.36879490388 229 230 232
129.936235469037 411.432548176356 2987.08226894869 167 168 170
118.92306657311 412.237122170778 2987.98021403188 214 215 217
110.477998805278 412.95916990129 2990.59159771427 231 232 234
99.4181877557567 413.769433935897 2991.53535600202 175 176 178
90.0694106271169 414.524785611612 2993.6223048127 231 233 232
80.7017591407231 415.282441284694 2995.72731776785 230 232 231
86.1476388660147 415.540828603834 3007.28555234341 234 236 235
150.516644789958 377.904298162969 2546.49720218918 196 196 194
152.578896255614 378.460032740412 2558.53732537343 189 189 189
151.609730476401 379.066424519959 2567.9122284692 188 188 190
149.125135008001 379.697968833479 2575.95410163753 191 191 193
143.570284220631 380.384919083388 2581.36861963824 184 183 188
137.242571973275 381.086201130803 2586.13157294257 184 183 188
130.911652642569 381.787563153487 2590.89769910778 172 172 174
123.799966919907 382.504178100626 2595.01963630675 165 165 167
113.563583470074 383.282973861522 2596.56727913035 150 150 150
100.179138847579 384.126925254124 2595.56338814851 149 149 147
79.7068928094848 385.118304748205 2588.82313939685 143 143 141
164.140438004191 387.770421263456 2734.14326292674 167 169 166
172.449752450977 388.115362006075 2749.93015636692 171 173 172
180.825882336346 388.45190908542 2765.65194166863 174 175 177
184.440752894513 388.891119083391 2777.58442274176 154 155 157
188.905844308572 389.30602547401 2790.09346115868 168 169 171
189.375482700354 389.809857556015 2799.47167803944 161 162 164
192.304695289575 390.252317512599 2810.66763795144 161 162 164
196.086084254528 390.670256821897 2822.43824542553 170 171 173
202.353983677301 391.023529753304 2835.99999687319 167 168 170
203.779035238723 391.489544743563 2845.85197302026 165 166 168
203.599518253971 391.991848145926 2854.45812740667 165 166 168
200.983474600407 392.552264353557 2861.22413395129 167 168 170
198.379889280788 393.111021536999 2867.97801438919 167 168 170
