ply
format ascii 1.0
comment KinectMotionCapture
element vertex 797
property float x
property float y
property float z
property uchar red
property uchar green
property uchar blue
end_header
40.6393540905041 287.510238685041 2919.19275112284 33 35 30
48.7224776386363 287.43993022561 2902.81989204838 37 39 34
41.3501050449678 286.923995271587 2899.94325624417 37 39 34
32.4524735618978 286.365133641129 2898.43078354671 34 36 31
9.81256174684031 285.418765103418 2909.18640747363 33 35 30
-2.82348529597432 284.758647127617 2911.13913677186 33 35 30
-0.981155070300055 284.505336342608 2900.1221484776 29 31 26
-1.45723291287814 284.185172995742 2891.12956244061 27 29 24
1.05726102989578 283.946001950346 2879.36487496093 30 32 27
-2.50476509194941 283.537123476324 2873.0752107931 33 35 30
2.18206297965162 283.352978842605 2859.18016903832 29 32 25
6.80639344806622 283.163764581645 2845.23950128154 31 34 27
-17.7573177937513 282.182459930407 2858.30604383142 28 31 24
-24.3415947867283 281.69001066021 2854.76550320034 26 29 22
-1.22651692884834 281.990787057182 2823.35367766843 26 29 22
-7.89234788806459 281.491740431084 2819.75427788689 22 25 18
-16.7687448214089 280.934556095101 2818.25720706353 19 22 15
-19.006355259495 280.552316865133 2810.45740728689 44 47 40
-19.8000488811791 280.206418430522 2801.23444444007 31 34 27
-35.9848670972791 279.460330782985 2806.78963594995 27 30 23
-26.5874611047692 279.375575252906 2787.66405072571 29 32 25
-19.4646744117111 279.227507071615 2770.59462910208 23 26 19
-45.7623539049292 278.226581091491 2786.10919156351 30 31 25
-50.9829467442444 277.763939270294 2781.08729240009 33 32 27
-33.1568414872567 277.878201000813 2753.2512417532 33 32 27
117.941512038148 280.565757001141 2570.07439235755 40 39 34
256.647846031144 293.764176727833 2960.94694233713 2 7 1
197.128387913253 291.741720313128 2998.07304323725 30 35 29
179.790122603071 290.940106439575 3002.79179508156 31 36 30
162.512616953528 290.143414659458 3007.55461783192 30 35 29
147.747138504653 289.421040347875 3010.43372925439 27 32 26
147.698385781711 289.115717564794 3001.75099548657 29 31 26
176.064992163198 289.605094696386 2970.44166598987 30 32 27
183.982739707819 289.514505506869 2955.18385622447 26 28 23
145.747561992439 288.139686759061 2976.86439508372 27 29 24
122.198156926867 287.179422470455 2986.96093203609 27 29 24
113.21656338412 286.624147632781 2985.38761161755 26 28 23
112.269884966283 286.289147588229 2977.28883865883 25 26 21
100.101449632685 285.647958665878 2978.34531443758 31 32 26
87.1697082186707 284.988004563165 2980.08368940575 28 29 23
80.6386554455103 284.502057382633 2976.58176508184 31 32 26
81.2484965420168 284.207031711481 2967.14147555653 32 33 27
75.4955831751079 283.741061734509 2962.96870565381 27 28 22
76.0510679272905 283.441633410077 2953.48898975416 21 22 16
71.065456700139 282.994752688902 2948.63721913221 19 20 14
71.5643704073403 282.690742412425 2939.11647046629 24 25 19
74.3737649863618 282.444704071187 2927.56523349009 25 26 20
72.4542990968611 282.073972251367 2919.99641625058 21 22 16
59.6242410730765 281.422254937144 2921.80854539932 27 28 22
45.2817166850639 280.734132162663 2924.99414426057 29 31 26
36.3996399516267 280.186919179699 2923.49300653577 31 33 28
42.956542217822 280.029157380925 2908.48338737285 36 38 33
34.0635891056218 279.481073531674 2906.97465519489 36 38 33
19.8202446049454 278.800983567159 2910.23219236083 32 34 29
15.5631347657712 278.370058466421 2904.67357213118 30 32 27
2.14809739356614 277.714008333518 2907.29665194879 32 34 29
1.69834016944126 277.376207181689 2898.32305695086 29 31 26
-4.84686282024382 276.889122867317 2894.81116355023 26 28 23
-12.144259255449 276.384152436437 2891.98864062381 27 29 24
-23.9554017800367 275.771912156844 2893.30456669241 29 31 26
-7.18087084306118 275.838994960004 2868.41107829627 28 31 24
-11.5157792845282 275.401776496352 2862.79632279941 29 32 25
-12.1257648201789 275.050995064372 2853.70650913134 25 28 21
-26.9178349396832 274.369506553782 2857.8012929311 23 26 19
-13.4411648218937 274.341690917731 2835.45736963883 23 26 19
-18.588973662232 273.881677822206 2830.48824646457 20 23 16
-28.1711892038707 273.320810727972 2829.71482512146 22 25 18
-29.6369487360104 272.94376154126 2821.23954619806 20 23 16
-35.5327096408995 272.466215003206 2816.96316442897 22 25 18
-26.7986258285191 272.312581017215 2798.5914105466 22 25 18
-32.0113588014679 271.847306359213 2793.57519583221 22 25 18
-16.8694980227797 271.825201397261 2768.73302934804 23 26 19
-19.2550169558605 271.41670092447 2760.82587452848 25 26 20
-47.6823491404845 270.448812172169 2778.50247248658 27 26 21
-50.0347920002873 270.042989479882 2770.61930878191 28 27 22
-30.1423415678421 270.104294429298 2740.57552324955 31 30 25
127.673316117381 272.640230376614 2561.03238637906 30 29 24
233.781248480925 285.393996150579 2970.26589171319 35 40 34
198.26808993094 284.165401435487 2988.97968553891 33 38 32
199.78822588655 283.875862312731 2978.96427934486 30 35 29
142.423574534915 282.113725476538 3015.18339649026 25 30 24
144.83648673535 281.850702114324 3004.57998605021 27 29 24
177.282820341064 282.326029284493 2970.05258909521 28 30 25
164.122304822353 281.671604943156 2971.62485436491 29 31 26
145.340588160776 280.882429690237 2977.76764825931 30 32 27
138.723475799054 280.391679353748 2974.20331317412 29 31 26
135.326457811947 279.978590251397 2968.03354007397 28 30 25
123.094061729151 279.353557555359 2969.0437311751 26 27 22
100.498842892248 278.48446542511 2978.59710878671 29 30 24
90.7561549346645 277.923729779425 2977.70735823045 31 32 26
84.2161718092331 277.439225904251 2974.19896741422 32 33 27
80.059206580628 277.010371313601 2968.71324911453 32 31 26
79.0568490870851 276.65384695797 2960.5740041807 32 31 26
73.2943385357769 276.186521784005 2956.39427020986 33 32 27
69.8907686917787 275.772883615075 2950.21945027067 49 48 43
74.3176136206851 275.535545954882 2937.37070838347 30 29 24
70.0818783746873 275.10028948751 2931.82756111334 24 25 19
66.6163937449196 274.68162899596 2925.60783238557 25 26 20
60.8032343062588 274.210196963278 2921.39136115334 22 25 18
48.0080987361622 273.585400100686 2923.22894269143 27 29 24
41.4393248181084 273.098559649488 2919.69966897999 28 30 25
34.102567524136 272.59531911959 2916.84891576636 31 33 28
42.155100065008 272.422662725591 2900.45336220542 32 34 29
14.8511733314765 271.492811268746 2915.23883457443 32 34 29
7.5509100111768 270.99253322544 2912.41455162672 31 33 28
14.7457116950576 270.79619071327 2896.63212731701 31 33 28
5.13854803922342 270.246439091762 2895.84038237854 27 29 24
-12.7869525026283 269.526697839116 2902.60421730758 30 32 27
-20.8163988468022 269.013160554687 2900.48630349285 32 34 29
-23.5579012784808 268.607358049557 2893.55643341006 29 31 26
-23.3119086068854 268.260338924354 2883.8518245625 26 29 22
-18.6064258186938 267.999749186866 2869.96991880036 26 29 22
-38.618028330311 267.2484593826 2878.92673845689 21 24 17
-15.3426278583746 267.347033944931 2847.6301100172 20 23 16
-23.4335566070007 266.828526168539 2845.46760111886 24 27 20
-18.9235488498476 266.552084814177 2831.4436165665 23 26 19
-18.9063391123376 266.186540211236 2821.57335872938 20 23 16
-30.7029495743494 265.596876355299 2822.89963927729 29 32 25
-35.8604223787125 265.132790143653 2817.92348985813 25 28 21
-29.3162102890925 264.883726282567 2801.66917222324 22 25 18
-22.1185001492574 264.641794069661 2784.6535887653 24 27 20
-12.8191424668147 264.432676217715 2765.45600183195 24 27 20
-48.7180994447343 263.035266158117 2780.18415717331 26 25 20
-45.2999745816809 262.716194120075 2766.60375858248 29 28 23
-54.1543677483776 262.181682132965 2765.12275359906 29 30 24
231.718807317211 277.95036126864 2972.43819050838 38 43 39
235.653892956363 277.685650176679 2960.46815427176 36 38 35
164.130046051942 275.773484963096 3007.41930354693 31 33 28
152.628933015755 275.180512835558 3007.7247430988 25 27 22
147.67979946769 274.730009182331 3002.89969205105 24 26 21
148.417108518148 274.40038645535 2993.55163152495 26 28 23
153.984226108794 274.170760508816 2980.29420558 27 29 24
145.741555036013 273.647578181823 2978.02167175501 28 31 24
147.995688452 273.343715058859 2967.30295232417 29 32 25
139.749358835009 272.820227014013 2965.02776479389 28 31 24
116.275061713981 271.98540681445 2975.17938449719 25 28 21
92.0965621240941 271.142091358085 2986.05550640144 29 32 25
76.7931309603212 270.483791586486 2989.77971112275 27 28 22
84.6122859174994 270.290937457108 2974.44991149456 34 33 28
89.9759966706237 270.04478016885 2961.04524233469 36 33 28
85.7836379108212 269.606985818829 2955.53352675023 40 35 31
81.5814621737032 269.168402808552 2950.01498511171 65 60 56
76.5830259913889 268.713842457896 2945.15387850723 27 22 18
72.3637107048019 268.273866285481 2939.62290498688 34 31 26
68.1348581518528 267.833106196253 2934.0847192509 25 24 19
51.4131087304128 267.157020379466 2939.25103244442 32 33 27
51.8678086477968 266.804410744745 2929.69798609335 26 29 22
49.1832748217353 266.391670371738 2922.80937862687 30 33 26
44.9330458098456 265.949175750448 2917.25568785386 28 31 24
39.9015382578547 265.491944741409 2912.37088805733 29 32 25
37.1722773925969 265.075578178926 2905.44983863825 28 31 24
13.7146535469586 264.290792386877 2916.84883521804 28 31 24
15.5965783349021 263.956695933301 2905.86014067163 32 35 28
16.6710292737551 263.605724086953 2895.52104225167 31 34 27
15.4235417993025 263.212296278578 2887.20391044009 27 30 23
-13.9066828848811 262.340223107945 2904.22646768138 27 30 23
-21.176024976304 261.847372736134 2901.42434333797 27 30 23
-29.1915961288916 261.342633776726 2899.31653251098 26 29 22
-29.6785522613421 260.962289696495 2890.31575574222 25 28 21
-25.7005391565988 260.65234255991 2877.14127830582 25 28 21
-17.2972284704385 260.409573852935 2859.76432506948 23 26 19
-17.9192805370558 260.018278027428 2850.6655589022 22 25 18
-5.20174327654854 259.833676690833 2829.00556647971 22 25 18
-5.18661129217879 259.445444082377 2819.13368751578 22 25 16
2.91535798907816 259.178237223031 2801.53816168001 23 26 17
-14.1001576057644 258.527076053073 2807.72697485962 25 28 19
-31.7847544880292 257.870282570139 2814.6657648355 25 28 19
-20.1258177291619 257.648454313294 2793.47321838523 23 26 17
-21.7076248334513 257.227982183251 2784.91388863144 23 26 17
-20.4070570692636 256.846785593284 2773.50351740026 24 27 18
-41.6340891818188 256.145838300393 2784.04957445365 22 23 17
-47.5859295249572 255.662694550811 2779.732511152 24 25 19
-49.2138178974362 255.23850603717 2771.13946280225 26 27 21
-27.1544965221335 255.130867068717 2738.96022816081 28 31 24
235.574481499793 271.004204319544 2978.90347171776 16 22 18
262.62119914323 271.142704689402 2949.10591718248 36 38 33
183.45832952869 269.291536759948 3001.6358979274 30 32 27
160.429388759657 268.501166115403 3010.87555447119 30 32 27
156.296578843948 268.062226171827 3005.40700131199 27 29 24
143.1848735153 267.459942277585 3007.0152087088 26 28 23
157.761349160654 267.357252698093 2986.70321529239 26 28 23
159.251335490958 267.014830913317 2976.66539065341 26 29 22
129.96520239389 266.127799755661 2991.24946732659 26 29 22
122.58490817438 265.63085917336 2988.36718517699 25 28 21
128.0839370934 265.356795212885 2975.06046969061 25 28 21
100.627969112246 264.515504673217 2988.50113606381 25 28 21
80.4902511041155 263.80556351948 2996.13141023832 23 28 21
74.7925582318789 263.342368170355 2991.99868490468 26 29 22
92.9648996055441 263.274418856041 2968.11810963758 27 28 22
91.1672007365318 262.870728509705 2960.63739696843 33 30 25
87.764266186749 262.439544452625 2954.4629486942 43 38 34
81.1908240186217 261.956648846237 2950.93031085007 59 54 50
75.4077713977246 261.486497331639 2946.73567117862 29 24 20
64.1306146973535 260.930268094899 2947.20364756777 33 28 24
49.7529576523501 260.328023973096 2950.36450748552 23 24 18
40.8852396486092 259.813137491535 2948.87394245042 28 31 24
38.2593583352717 259.393617136341 2942.02781910017 23 28 21
38.7189080231494 259.018887147348 2932.47788193026 25 28 21
43.7849244344024 258.709593118119 2918.85708798882 24 27 20
38.7579332910111 258.249410339807 2913.97554728197 26 29 22
35.2644379346771 257.810873044487 2907.73541230081 25 28 21
18.714546571081 257.186566688896 2913.02657134127 26 29 22
20.5849229866306 256.823532575485 2902.0293585583 29 32 25
30.0381972025936 256.561866573665 2884.17841394431 30 33 26
24.1907253517191 256.086505717985 2879.93704901193 27 30 23
-11.2354548596172 255.21540231718 2902.42140489717 26 29 22
-24.5613031522507 254.647187420472 2905.10958468474 26 29 22
-21.2562737151369 254.29779142372 2892.68208383844 25 28 21
0.790097369547382 254.184266868383 2862.96379917873 23 26 19
6.93097920431773 253.859393202126 2847.6517514722 23 26 19
-6.43218321224803 253.288179716165 2850.31286626656 22 25 18
-8.57422184172552 252.856555645754 2842.58209838963 22 25 18
1.89152600887743 252.574260333588 2822.99493977074 23 26 19
7.81469470213914 252.231732671914 2807.52497774073 23 26 17
-7.01475554465869 251.644376173811 2811.59343516271 24 27 18
-1.90941986440651 251.286890528532 2796.76556939221 26 29 20
-19.6316316556828 250.67042196131 2803.67729577145 26 29 20
-23.376402124295 250.211593924393 2797.25490332231 23 26 17
-20.5672221214939 249.822004322666 2784.4677470506 23 26 15
-22.1777034099682 249.382189654658 2775.88723831797 24 27 16
-52.8315622838533 248.641647833984 2795.65633548424 23 24 18
-44.2843110440454 248.306518522042 2777.1482233732 23 26 19
-48.0830316696079 247.843375930569 2770.68669944987 23 26 19
249.20581701218 263.839219155255 2968.98706170013 14 20 16
205.333439255563 262.767441035194 2993.99312315841 34 36 31
168.238326621164 261.812675793369 3014.03217392048 27 29 24
186.244602705389 261.702881902278 2991.26603905922 28 30 25
186.132852520284 261.313580250431 2982.53721171712 27 29 24
155.814468359841 260.475728222703 2997.60827329632 25 27 22
126.440013940507 259.660370283115 3012.1286869971 26 29 22
117.471385039992 259.147726721299 3010.56498086021 26 29 22
119.036189192692 258.786194354804 3000.58159093553 25 28 21
120.561174245088 258.421394099829 2990.56902426574 24 27 20
119.632118703566 258.019826475251 2982.48268932824 24 27 20
91.3938807936532 257.242565110992 2996.5916324852 25 28 21
74.480434981004 256.626504294352 3001.61957938921 20 25 18
75.9826974081412 256.259825913437 2991.59053109036 26 29 22
89.3822414492376 256.046614053699 2971.66012612615 27 28 22
98.7076667051685 255.773414598799 2954.95147928259 33 32 27
91.3280181122191 255.281397307382 2952.0696900989 33 30 25
84.7456942080043 254.799940426643 2948.53062098217 38 33 29
75.8055704506324 254.289551956487 2946.98759025436 34 31 26
57.4634221285208 253.665824887639 2953.44987464655 31 28 23
47.800304633395 253.150909688351 2952.61774402921 28 29 23
35.0359840384682 252.600898732041 2954.47804280579 25 28 21
29.3150695780198 252.135230338127 2950.32847112083 22 27 20
30.5782474078558 251.749073285824 2940.12600663177 26 29 22
38.7661591135711 251.437619904988 2923.82788928247 25 28 21
36.8417578130553 251.009331310604 2916.25490824476 27 30 23
34.8942995154915 250.57918146671 2908.66549774726 26 29 22
35.2260168828988 250.171547944879 2899.02272553728 28 31 24
36.2865091296891 249.768934783457 2888.67354106713 31 34 27
37.3066037045984 249.36302179876 2878.29476027123 29 32 25
31.4393277726173 248.885479690434 2874.03902788934 26 29 22
-4.01237477075789 248.118708696971 2896.50541055563 26 29 22
-15.8467836743514 247.590103728878 2897.80459948188 26 29 22
-5.77674279744089 247.268918484787 2879.16542407697 25 28 21
-0.31171915771333 246.898877860552 2864.59824019098 22 25 18
7.33547705369331 246.543495405832 2847.90792413099 22 25 18
-10.5144952330245 245.959923867877 2854.72720083048 22 25 18
-5.18904454562152 245.578559474993 2840.0587801756 22 25 18
2.29869492057277 245.210236841669 2823.25280497347 23 26 19
-1.40817884765809 244.745653578418 2816.85785549984 24 27 18
-10.3005515271331 244.239301507587 2815.34946099261 25 28 19
-8.86480141949741 243.813039833813 2804.03685806359 27 30 21
-20.6924530976846 243.285112965933 2805.34094888145 26 29 20
-28.0931514982394 242.791575237773 2802.44389254169 23 26 17
-25.9967815232212 242.364811584943 2790.37514788104 23 26 15
-35.5938338287358 241.85551164898 2789.59093777197 23 26 15
-32.1101948670546 241.433043578566 2776.05750802809 21 22 16
-51.8319575188952 240.86026736876 2785.225342991 23 26 19
-33.9718325338554 240.521475239618 2757.41165916389 22 25 18
-32.0748588033739 240.078586272164 2745.19828623235 25 28 21
-20.9098695192744 239.683832375839 2723.6467908138 24 27 20
195.883691381735 255.759272446047 3010.57476431845 18 24 20
202.43816487765 255.436394156584 2996.79787924677 42 44 39
203.170763566031 255.039060335106 2987.44576663161 30 32 27
201.407323919043 254.60975958763 2979.9897594819 29 31 26
180.81007010623 253.959943455681 2987.2872108897 28 30 25
136.635299974418 253.045948552676 3013.31048644818 26 28 23
108.93617991761 252.331659054382 3026.57552997792 26 29 22
93.5246028810983 251.761518598708 3030.22178399246 26 29 22
112.148483158677 251.564916248435 3006.66788726013 24 27 20
129.026427471454 251.340314962991 2984.31855020209 24 27 20
106.347897720204 250.692245148 2993.81265347555 24 27 20
86.1682565167876 250.076382672791 3001.41330763519 23 28 21
87.6770631441857 249.685030023046 2991.38887838674 26 31 24
90.741833976486 249.306188550007 2980.02239090951 20 25 18
97.7376697069845 248.961956936147 2965.3300194758 23 26 19
98.312267156973 248.551599212972 2955.86330242238 31 32 26
86.9765812655032 248.027811515998 2956.28901407463 26 25 20
73.3024283035726 247.484893712137 2958.724828509 26 25 20
62.0327523692401 246.966501256117 2959.19871399287 31 30 25
58.6434521478787 246.518829045114 2953.03406601853 25 26 20
59.9371519911229 246.109915923329 2942.85361232439 31 34 27
44.0160543347576 245.555323419599 2947.36591382755 22 27 20
27.372677505662 244.99901402396 2952.58964767699 25 32 24
28.6438942133862 244.588264581505 2942.39288617677 27 30 23
34.518821251841 244.209835096017 2928.12310199807 25 28 21
21.8019869073127 243.687801955926 2930.01796628413 27 30 23
27.5961712512678 243.302787447443 2915.68932217159 27 30 23
28.7185246737725 242.879929876865 2905.38458516896 27 30 23
34.3920151628123 242.485103370633 2890.96869228258 31 34 27
30.0784204414133 242.019289029455 2885.36894823547 28 31 24
24.2331782717344 241.542966202353 2881.129194774 25 28 21
11.5585640464091 241.024416840573 2883.05468297151 24 27 20
-8.64261861966664 240.463974707677 2891.8750386093 26 29 22
-3.86906673598353 240.052991215917 2878.04142133612 25 28 21
-0.66259187262574 239.628620736211 2865.54239089254 22 25 18
-23.7566435211471 239.061043554513 2877.20604892146 22 25 18
-13.1036711436401 238.672076317493 2857.75377856634 22 25 18
-9.25816584520489 238.242679497118 2844.48263835709 23 26 19
-9.18754569027413 237.791403533218 2834.65066462515 23 26 19
-7.67097671124684 237.343686042967 2823.39654034282 25 28 19
-18.0218193574588 236.843185418639 2823.30097272854 26 29 20
-26.1374854182592 236.353435174427 2821.12067688726 27 30 21
-26.8959565240474 235.891811752219 2811.92266142402 26 29 20
-28.4186176895251 235.425079922842 2803.405679032 22 25 16
-24.858085761259 234.97259708137 2789.92783860984 22 25 14
-41.0093193281757 234.456689895266 2795.50883673507 22 23 17
-50.5685143824524 233.963693807902 2794.75215273755 20 21 15
-36.231688339722 233.532315042067 2770.5596574467 22 25 18
-15.8412188138284 232.623204517298 2729.75576814389 25 28 21
-27.6612779838405 232.117503185406 2731.06547550968 25 28 21
216.952832395846 248.708125493962 2994.93454175877 24 30 26
231.701155403759 248.412556118038 2974.7461471887 48 50 45
210.152889212653 247.793883193066 2982.58967828057 32 34 29
197.709979128962 247.25849616868 2983.44771736286 29 31 26
153.397418512936 246.461392099659 3009.37169773385 27 29 24
129.686678144491 245.846088210969 3019.35273209752 26 29 22
115.835503804895 245.315665876306 3021.6602832494 25 28 21
107.707746315805 244.832467546258 3019.47125526044 25 28 21
131.963997552652 244.592983219949 2991.35432187314 24 27 20
122.966586625366 244.098757766792 2989.76984432215 24 27 18
105.936832752433 243.548782391186 2994.71351728989 24 27 18
96.1919616974951 243.053521341937 2993.8225158015 22 28 18
92.8726168044118 242.602804897636 2987.70856451791 24 29 22
94.3293772086635 242.181982959495 2977.64625658382 23 28 21
102.115043095635 241.797836356287 2962.29121107986 25 30 23
100.297804656105 241.349730505322 2954.79610878576 30 33 26
84.2061212837093 240.81628372401 2959.18485617014 23 24 18
68.1704772407734 240.287414093236 2963.61425084455 29 30 24
59.2774945789785 239.801637292236 2962.10551836592 29 30 24
68.4605010515873 239.411543976489 2945.29303701651 32 33 27
72.0782921278555 238.987128619961 2933.09188376926 28 31 24
51.4375036314827 238.442285163773 2941.59363876939 27 32 25
38.6652242189589 237.939822176402 2943.44840886908 25 32 24
39.1307195055735 237.498050267086 2933.90244221003 27 30 23
41.1084772696895 237.05976024416 2922.98269127225 26 29 22
22.1964544615498 236.536068538538 2930.26769929286 27 30 23
13.3661058284247 236.055425536191 2928.80439756199 26 29 22
19.1374148114529 235.626845483389 2914.45894994406 27 30 23
17.1872492559082 235.167922511732 2906.86743115591 30 33 26
22.8467670089678 234.730237580722 2892.44089757163 27 30 23
11.6962229265023 234.240215460985 2893.00099350165 24 27 20
11.1992418155324 233.779959367875 2883.99254464192 23 26 19
-2.19263720103324 233.286980317856 2886.63323843294 25 28 21
-17.8049557869693 232.792733361143 2891.36968613601 25 28 21
-23.5818530464575 232.32146928345 2887.17950298206 24 27 20
-19.6090726544762 231.866178413058 2874.00049604584 23 26 19
-23.9210338698694 231.394551050883 2868.40220119503 23 26 19
-17.057722816368 230.935280992606 2852.37784599612 24 27 20
-25.8832618836378 230.455209740576 2850.91832819523 25 28 19
-29.5033231150443 229.980120717221 2844.58625776846 26 29 20
-30.1814065116068 229.505245595106 2835.44644994873 26 29 20
-30.154541248663 229.027943496119 2825.58233105728 26 29 20
-42.6532088761014 228.548068055441 2827.63556258952 25 28 19
-27.2799617031065 228.063735836913 2802.95879176842 20 23 14
-37.5944939637893 227.582232065503 2802.88993702734 19 22 11
-44.3563420980058 226.611449749009 2789.33736644761 20 21 15
-64.7676323215109 226.145686903106 2799.24092683156 23 26 19
-10.3899979439659 225.06677544423 2725.02335432586 25 28 21
229.759859165533 241.473108746073 2985.65496017033 27 33 29
221.385800146007 240.977600719583 2983.28732059458 51 53 48
212.201730726977 240.478679142671 2981.56750653265 32 34 29
168.578623271445 239.803235312824 3006.75657134022 28 30 25
148.065537952518 239.25773883036 3014.1158611621 26 28 23
127.630779456938 238.718603473655 3021.53166951313 24 27 20
133.316197683089 238.304211856518 3008.35936082599 24 27 20
140.563093433997 237.891782304085 2993.84864272295 24 27 20
135.597443635265 237.423427086442 2989.01152827093 24 27 20
133.048634021308 236.964136458762 2982.22107439608 23 26 17
124.846310129299 236.482448386722 2979.97770480305 23 26 17
107.824487942989 235.970898951722 2984.92761673168 20 26 16
98.8702193904576 235.490552733936 2983.37448430992 19 24 17
101.909929692406 235.048264436437 2971.98950854876 28 33 26
104.104339336702 234.599696216061 2961.2267611214 32 37 30
98.3130361750422 234.126581779746 2957.02612544909 32 35 28
82.2261521962555 233.62856066005 2961.41823697726 18 19 13
72.512959326096 233.148964728535 2960.55027902798 27 28 22
74.6337583806729 232.694362283682 2949.73413914867 30 33 26
75.924662933383 232.234735454364 2939.55140221383 40 43 36
75.6086918247667 231.769412795157 2930.6741457046 23 28 21
53.3945742350186 231.273106103446 2940.50567997512 32 37 30
37.5015695733367 230.790932418612 2945.03871350525 24 31 23
55.0569926657536 230.341554624735 2920.70898899994 29 32 25
39.9561380638422 229.861317731712 2924.58124219475 27 30 23
18.7296816761831 229.382928306303 2933.89380727368 28 31 24
10.6795947283911 228.913650694709 2931.76115482886 27 30 23
13.3907243985822 228.444515928306 2920.13784797282 27 30 23
15.2869305561163 227.971610668397 2909.15880320203 30 33 26
6.4508063798705 227.500921344409 2907.69136507404 27 30 23
13.6162873084009 227.019014106058 2891.88623908141 24 27 20
2.49008516655946 226.549618961274 2892.46408548336 24 27 20
-2.5519246395711 226.075007629248 2887.57128986689 25 28 21
-7.59956338117562 225.599958117027 2882.67470597252 25 28 21
-11.9003082387854 225.123167939702 2877.08451594816 25 28 21
-24.4629173465141 224.662059437539 2879.09119551798 24 27 20
-25.0190871047864 224.177289210905 2870.03971537575 24 27 20
-33.8108787418183 223.710363080472 2868.60443391285 24 27 20
-39.6117731789822 223.236658343299 2864.39684233025 25 28 19
-27.6199484814292 222.709724884078 2843.44436250994 26 29 20
-22.3876289181166 222.195660006663 2828.70775696156 25 28 19
-20.9075424812384 221.689007068797 2817.4268871862 26 29 20
-29.0250469889821 221.214518060212 2815.24533591665 24 27 18
-47.3871101143963 220.782117555639 2822.92948385592 20 23 14
-39.3806179620699 220.243672153162 2805.26337073512 19 22 11
-36.5563353795726 219.721390267064 2792.48649053315 19 22 11
-30.8820495599316 219.180844846171 2776.83510499764 22 23 17
-32.517323935761 218.671021997932 2768.23626862165 24 27 20
-61.6006207642623 218.304648429368 2786.67542723261 22 25 18
-64.6460595283038 217.805270927515 2779.52475324036 24 27 20
207.832926691712 234.070458523023 3003.07050779792 27 33 29
213.540802026971 233.619160987962 2989.91429181268 32 34 29
212.605285289951 233.149279374189 2981.82292699285 33 36 29
183.744669454162 232.625807519369 2995.48227508006 31 34 27
155.006287304868 232.112287341782 3009.2299889054 30 33 26
145.977537273717 231.636369929223 3007.62288570305 28 31 24
149.174969315855 231.176415643812 2996.35215631559 24 27 20
145.017593477314 230.705291712329 2990.86592625344 22 25 18
131.135821948061 230.225992068267 2993.15155579608 20 23 14
126.178680236036 229.754996226423 2988.32030118537 22 25 16
119.605747890412 229.283048058016 2984.78838285041 24 27 18
107.415456678466 228.810835339412 2985.8298707343 23 26 17
92.8570279702199 228.341718266349 2988.86006525323 22 27 20
96.7145666839673 227.870031530913 2976.83276522302 24 29 22
91.7579101408821 227.399007781371 2972.00186218027 25 30 23
85.2073195889305 226.928828473542 2968.48614884797 16 21 14
79.4525414772003 226.458116609331 2964.31200313334 19 22 15
83.9651223333071 225.974362663876 2951.52416490239 24 27 20
82.9061810983949 225.49410889046 2943.343274493 27 30 23
82.605407624817 225.010272078259 2934.4769412959 27 32 25
77.5734084909576 224.533051388909 2929.59138941249 29 34 27
64.7248068113799 224.07254029184 2931.39104436659 29 34 27
55.8094442399195 223.605722646315 2929.86618424569 28 33 26
36.8131867814143 223.167208736011 2937.09056021292 28 31 24
27.9595440925697 222.705439631147 2935.61046772395 27 30 23
18.3501402997592 222.24745973312 2934.81756370425 26 29 22
12.6123073501327 221.778157955902 2930.65570904162 26 29 22
21.4641288776729 221.255745214847 2913.60276891075 27 30 23
12.6196793022517 220.794769396545 2912.12934472404 27 30 23
17.5354151876821 220.278448382491 2898.39856058979 23 26 19
3.35510390618632 219.840280426897 2901.70301726418 22 25 18
8.20069299768988 219.318254336305 2887.92135332466 24 27 20
-1.39822105353371 218.861232509996 2887.13605839532 23 26 19
1.09973702851107 218.344026796876 2875.35797541691 23 26 19
-0.214469517374027 217.843052612598 2866.99193278299 27 30 23
-2.30639090827212 217.344077935332 2859.29715481776 25 28 21
-21.6292689271464 216.944637426203 2867.51999111403 24 27 20
-31.1763864383721 216.491957322835 2866.77226659361 25 28 21
-32.5214536828744 215.988564381959 2858.38413460621 26 29 20
-24.253437344687 215.418629980079 2840.90744645095 25 28 19
-12.3734411443008 214.816168437051 2819.87351720187 22 25 16
-6.49751882805649 214.247463614731 2804.36815963297 26 29 20
-18.3319500821648 213.804654555597 2805.66776693005 25 28 19
-34.5288497835667 213.398670281436 2811.21592300403 21 24 15
-25.8264163556556 212.79885448002 2792.81896508365 21 24 13
-31.0518544123923 212.306313231951 2787.79340207223 22 25 14
-23.2120888169653 211.701618532127 2770.00608974646 25 26 20
9.88081907368699 210.866467927377 2727.29492510246 23 26 19
-38.8220289027246 210.753968939903 2764.8610831137 23 26 19
203.269354608649 226.800760089786 3007.13626327694 32 38 34
209.817516802459 226.311017595051 2993.35395780757 27 29 24
209.716885989121 225.824101895654 2984.63240222395 33 36 29
184.143580635357 225.37222735348 2995.73471349495 31 34 27
175.863184978189 224.899623924525 2993.43508850575 27 30 23
165.14655329528 224.432725403222 2993.07452281372 27 30 23
145.500023926492 223.987176490954 2999.82746716202 25 28 19
140.542243234917 223.512880314689 2994.99573262456 23 26 17
126.672133058199 223.061354077244 2997.2899564083 20 23 14
113.65263416382 222.611045285491 2998.96577600094 20 23 14
111.141397179554 222.131797090988 2992.20245823819 22 25 16
104.596264247256 221.664271275967 2988.69042021429 23 26 17
95.6517763776814 221.205500782288 2987.14448730363 21 26 19
101.102177866546 220.693981288004 2973.80131799628 23 28 21
89.7618488578513 220.24426570846 2974.22403894364 23 28 21
76.0681899718683 219.80707133329 2976.64624862739 15 20 13
72.7163136060378 219.327308976591 2970.50856746168 19 22 15
79.6206256446408 218.797980239026 2955.74920547409 22 25 18
78.5756705824232 218.301869854131 2947.5783736229 27 30 23
75.1466218895036 217.815766062565 2941.38471646972 28 33 26
61.5186791711348 217.383940237721 2943.8545923986 28 33 26
59.6526268594615 216.888988436993 2936.32357212585 27 32 25
53.0890146751069 216.419901275076 2932.79842466626 29 34 27
38.7603796538345 215.999115133471 2935.99544633861 29 32 25
20.605636488221 215.607126366421 2942.59475852836 27 30 23
14.8798231345837 215.138230744281 2938.44161918464 26 29 22
11.4638194035064 214.653228547967 2932.25742418249 26 29 22
17.2508503774154 214.100837272692 2917.92274664303 26 29 22
14.5459840526643 213.605686370864 2911.01898228875 27 30 23
11.0589669081871 213.11490889217 2904.78327889479 23 26 19
17.4572378602886 212.544193957868 2889.65657281788 22 25 18
11.6352778906306 212.067509387572 2885.43369528777 23 26 19
7.32634457491432 211.577924125348 2879.83750446574 23 26 19
1.49793145420896 211.100746649757 2875.60994641206 23 26 19
11.4753783357218 210.48111805797 2856.90184149242 27 30 23
3.34711841535373 210.020914000131 2854.71256575083 26 29 22
-7.76227796048135 209.590294874082 2855.30279141939 25 28 21
-16.6037945507989 209.140175279845 2853.83184288212 25 28 21
-15.7577521469079 208.593925313701 2843.32617711851 24 27 18
-19.4026923944799 208.090458854125 2836.97592762468 23 26 17
-10.4902434949246 207.452240525491 2818.73101988527 19 22 13
-3.87896457174319 206.830873486585 2802.52343464032 26 29 20
-12.0457275687889 206.367744417536 2800.30623238099 27 30 21
-13.6041301836007 205.830031586774 2791.76298071682 23 26 17
-6.42162760673193 205.187141037743 2774.7340475619 22 25 14
-18.2606625103823 204.765503301421 2776.03071928912 22 25 14
-16.2657449939292 204.176812077079 2763.88731490406 24 25 19
-7.8036443958136 203.502020897879 2745.31575482134 22 25 18
-26.862795916317 203.173442927167 2753.7301310172 24 27 20
-31.4497449856392 202.661668456941 2747.9319937725 26 29 22
210.287081828482 219.51624313083 3002.30578400217 12 19 12
211.869032305628 219.005144833379 2992.33377175605 26 28 23
201.065489754722 218.54713017966 2991.9105419966 34 37 30
196.033791767308 218.063612244086 2987.02517652389 30 33 26
189.359460568233 217.587885615995 2983.41973285746 23 26 19
170.442232284179 217.176903622554 2989.46620710818 23 26 17
153.223057628922 216.762622883883 2994.27325222845 23 26 17
136.06439983707 216.353282025936 2999.12419233598 22 25 16
117.346584546119 215.95855926053 3005.31530767727 19 22 13
122.929118034055 215.419029939503 2992.06778180059 18 21 10
108.311910735949 215.004275118254 2995.05564182086 18 21 10
100.168695347424 214.550379753443 2992.85555649601 21 24 15
92.8388821609638 214.091939268355 2990.01006413517 21 24 17
93.506636811298 213.576802476788 2980.61034799772 24 27 20
82.983930003715 213.141486374409 2980.39081703457 24 27 20
65.3355959544948 212.763090702422 2986.12226822261 24 27 20
60.4302890514949 212.289647558747 2981.32857737511 26 29 22
68.9524925616487 211.706084116695 2965.27141699788 27 30 23
65.5752493651689 211.215447083097 2959.11529179289 30 33 26
55.1117599044115 210.784958118129 2958.93871319862 32 35 28
47.0245390008652 210.335576527139 2956.77924233407 29 32 25
47.5451239183324 209.808315710549 2947.27277830593 28 31 24
60.4968258045608 209.160476153008 2927.01552153125 31 34 27
53.1398630802062 208.699754104826 2924.15033633443 32 35 28
23.3210101792691 208.463294970781 2940.82160158694 27 30 23
16.8160553895533 208.001189746688 2937.3387170124 25 28 21
9.54396745123409 207.547448054401 2934.53509471616 23 26 19
9.96219828083378 207.011835671394 2924.95438972306 22 25 18
1.9176766822846 206.566017751981 2922.82589054664 22 25 18
8.39846549683054 205.957612966069 2907.75881252271 23 26 19
11.7612240600296 205.378542112678 2895.3722918805 21 24 17
15.8297314636919 204.786112510014 2882.26198486326 23 26 19
6.20962528627267 204.353661163827 2881.46145176371 24 27 20
2.65077798985125 203.848297236873 2875.17360327643 24 27 20
7.35912833746744 203.237165194738 2861.29200070344 25 28 21
4.49823357209 202.717843692809 2854.27500557389 25 28 21
-6.61431113337696 202.305609587289 2854.86304207487 24 27 20
-7.24958015439658 201.755109563733 2845.75388825463 22 25 18
-3.4523209322308 201.14063862153 2832.44683599817 20 23 16
-11.5831786004672 200.688028153002 2830.25571555673 19 22 13
-16.0035353828665 200.183491351265 2824.5783812763 19 22 13
-10.1095277728365 199.527344530863 2809.08598568888 24 27 18
-5.7573833042377 198.887285737814 2794.94572087566 25 28 19
-11.7308395020372 198.398007160498 2790.61295670556 23 26 17
-11.1278339772287 197.806859497114 2779.93117538297 24 27 16
2.55043100028862 197.005501577397 2756.49414325639 25 28 17
-2.05285556975343 196.486252864846 2750.68441922727 21 22 16
-14.6325385664463 196.096633705846 2752.67908367822 21 24 17
-18.5094467984721 195.565804905468 2746.16083152338 26 29 22
-17.3614589755577 194.948338931351 2734.63836060852 26 29 22
240.478270258296 212.016737282181 2979.68947643279 10 17 10
211.44452500634 211.707409955644 2993.22410951869 30 32 27
188.294708704898 211.362644276239 3002.37839788643 36 39 32
183.298095305818 210.87872748162 2997.51846396024 31 34 27
176.658691085911 210.408055785475 2993.93836521061 23 26 19
160.223875812441 210.021931817755 2998.0791151762 24 27 18
149.546412908099 209.589967710091 2997.74712071735 22 25 16
141.331131554086 209.137933682556 2995.49480266419 22 25 16
145.278840181037 208.573465889291 2983.53239877403 21 24 15
145.133993891515 208.04330124033 2974.77886586068 18 21 10
132.873099921801 207.629365739 2975.76946748432 17 20 9
105.380508126428 207.372134187077 2989.18654284691 19 22 11
94.8322245855131 206.9506379389 2988.94854076423 22 23 17
95.4966519332876 206.412763346628 2979.54659189972 24 27 20
89.7500538740132 205.941056267022 2975.37837103873 23 26 19
65.724465860916 205.672130021742 2986.36825120287 26 29 22
54.4790408513487 205.267405269138 2986.85999797196 28 31 24
54.327991216288 204.736603656422 2978.10196489469 29 32 25
53.3572751123423 204.212550564124 2969.98480891337 31 34 27
47.6437048841096 203.743519107168 2965.8405441845 32 35 28
39.577965597938 203.303562314984 2963.69669354128 29 32 25
38.5584805516355 202.775513586607 2955.54416367418 27 30 23
49.9815827099876 202.083945547599 2936.64864409985 30 31 25
51.2040200684898 201.51777145841 2926.41573415189 29 32 25
35.336580428817 201.177962239495 2930.96802141615 24 27 20
24.9346049528651 200.768430595907 2930.83614177521 22 25 18
24.5756263433776 200.22057531402 2921.92729016676 20 23 16
17.2692765650555 199.768964491417 2919.0988415248 20 23 16
11.5031791549987 199.295685214911 2914.9164772048 20 23 16
14.9041802309573 198.686238068684 2902.55723103729 21 24 17
22.8219592718331 198.00327078791 2886.06140696318 20 23 16
18.5061812753289 197.50098520937 2880.45989547935 22 25 18
17.2101565785754 196.95038432571 2872.10678188688 23 26 19
6.8242048976348 196.542307615735 2871.98652560643 24 27 20
10.0177514397055 195.915972190919 2859.47680567755 24 27 20
-4.86211159215011 195.583405380227 2863.51000835577 25 28 21
-3.2207122517558 194.977827070991 2852.34557667024 23 26 19
-10.5814286450405 194.521998645684 2849.47769514586 20 23 16
4.39210917052968 193.677906152067 2825.74438085383 19 22 15
-5.98711369039151 193.270583654909 2825.62900625885 19 22 13
-3.0244228837748 192.62550900106 2812.95183916275 20 23 14
2.83472548130836 191.922041096291 2797.4336391971 23 26 17
-1.67347192308953 191.404364457589 2791.69285529632 23 26 17
-8.39103032642319 190.927522806078 2788.05577518217 21 24 15
-4.87122848913613 190.254317693561 2774.54729064602 23 26 15
0.776586326146411 189.533707010469 2758.87580364849 25 28 17
-10.3590151565309 189.138685729835 2759.44721298596 23 24 18
-22.1893757647751 188.76073638321 2760.75039418535 24 27 20
-12.3196456862553 187.942543744463 2740.72816066119 27 30 23
-15.5078639325648 187.38548848886 2733.47369062599 27 30 23
-8.66576678733111 186.615114708601 2716.19734458136 28 31 24
274.818174537009 204.276967727848 2953.90367243718 16 23 16
182.951853777773 204.722236463608 3015.76330406976 31 33 28
188.691714273109 204.118128951928 3002.629500797 31 34 27
163.166917854956 203.865670515414 3013.76769283553 26 29 22
160.676834707101 203.353828131701 3007.01954484424 22 25 16
162.252524034766 202.791724151524 2997.04273540341 23 26 17
154.013372037614 202.345425947957 2994.77314206469 19 22 13
153.098128282694 201.809153402275 2986.69613727908 21 24 15
157.82729779445 201.198626899817 2974.06466665885 22 25 16
156.842780879801 200.656593096102 2965.93741509948 18 21 10
130.851115598528 200.442401525905 2977.9726888711 16 20 6
105.771989113149 200.226286299458 2989.43414064048 16 19 8
108.045659824414 199.644476739473 2978.72817635843 20 21 13
103.880717700974 199.148476397586 2973.23633533097 23 24 18
114.053452233595 198.447063637228 2955.90442097353 20 21 15
82.804879283711 198.33883942184 2972.77523229218 24 27 20
61.2078039173554 198.101322853923 2981.82034783257 26 29 22
56.2974262518754 197.620870120757 2977.0232400532 31 34 27
60.8411120949679 196.994936505744 2964.25723032308 30 33 26
59.8244438718893 196.450118856039 2956.10665749336 28 31 24
47.8058387809686 196.077314651866 2957.27340231108 28 29 23
38.9484056398892 195.65682764145 2955.79077114434 27 28 22
37.9026114365537 195.109613122638 2947.61907212933 23 24 18
46.1572150413456 194.404292745467 2931.36730614695 19 22 15
49.6813395703555 193.771430647334 2919.0971961968 18 21 14
42.3306692507115 193.321068615637 2916.23662497396 14 17 10
34.2173688692511 192.884888226309 2914.05802092897 14 17 10
29.1900506719576 192.394872390186 2909.17609202346 17 20 13
16.493978730578 192.043353524046 2911.08687110705 19 22 15
25.9966206241828 191.286934283483 2893.26920815346 15 18 11
20.9335245592226 190.794032086626 2888.36103401113 14 17 10
20.4234053303463 190.214105250333 2879.34245489344 17 20 13
12.3058652189503 189.777726177559 2877.16107084839 20 23 16
5.71111997661733 189.312778326134 2873.61337533707 22 25 18
-0.880165354709916 188.848137747594 2870.06789506847 25 28 21
-1.46048323671621 188.262568845381 2860.99839887083 25 28 21
-15.5502443771622 187.950451155833 2864.36913574435 22 25 18
-18.394367443364 187.409524319616 2857.36418934219 19 22 15
-15.3022448818576 186.74152335273 2844.78073396112 19 22 13
-1.13158622686282 185.830974479783 2821.70038992285 21 24 15
16.6189381024475 184.830329657943 2795.03893845624 19 22 13
9.14360044682727 184.370204240663 2792.08794376754 24 27 18
-5.67957391873541 184.074954518923 2796.16243028816 24 27 18
-10.1839551715712 183.551602291159 2790.4240895721 20 23 14
-2.99969522601029 182.758979280203 2773.39567194681 20 23 14
1.18820329902691 182.027674349507 2759.13617404126 21 24 15
-12.8554832930396 181.719829796953 2762.54062745949 26 27 21
-21.0551469778202 181.277347538757 2760.29938489263 27 30 23
-6.85033621795483 180.293293107258 2736.00838949468 23 26 19
-2.13168425533716 179.528978820983 2720.89814777776 20 23 16
-15.4287228265777 179.205868693034 2723.60845385117 25 28 21
201.550217723264 197.818561100117 3010.68366470275 23 30 23
189.126008849446 197.43427928397 3011.55632054587 29 31 26
174.266061010157 197.088571869349 3014.36856250623 24 27 20
166.84505175871 196.637709311656 3011.45699855535 21 24 17
150.422249080455 196.322697737154 3015.60681690586 22 25 18
153.661650819691 195.712931294794 3004.36545894237 24 27 18
160.110888080865 195.048489532884 2990.51055579195 25 28 17
157.556116808391 194.519726773784 2983.71542829357 24 27 16
159.034848595803 193.924362094135 2973.66816379063 22 25 14
156.432756873068 193.391646363201 2966.83871266542 18 22 8
138.499336874456 193.111477412246 2972.36370202539 16 20 5
129.472247627139 192.68754470531 2970.75806607347 15 19 5
125.271193983868 192.182562398324 2965.24000153919 18 21 12
118.662610114597 191.718521863101 2961.6819842306 21 24 17
104.882815403525 191.381589673755 2964.04226006425 16 19 12
96.710988230031 190.948273252447 2961.82153768228 18 21 14
82.2090974319423 190.63159485526 2964.89348987081 21 24 17
84.3575092703084 190.01146872078 2954.09652867763 21 24 17
87.2495868041039 189.372828704996 2942.60353621203 24 27 20
63.3605152237555 189.240005618442 2953.69306944102 23 26 19
56.0362451893543 188.796711169028 2950.85167214705 20 23 16
37.7741528878475 188.569056059132 2957.3737025626 18 21 14
33.614939770084 188.067425961447 2951.88598609779 17 20 13
48.1052580081753 187.187770968072 2930.27256322598 16 18 13
77.9859854329197 185.980697263522 2895.11181853473 15 17 12
46.5908100318422 186.027171651216 2913.11217481599 13 15 10
45.4038372225525 185.451381083869 2904.8379876733 13 15 10
21.897636478188 185.350127435217 2916.20523204759 17 19 14
21.4860523145903 184.758482515046 2907.25802374715 18 20 15
11.4225750221726 183.771219665223 2897.48742587625 14 17 10
5.62278825490736 183.294113382464 2893.2806200377 16 19 12
11.1875146075628 182.556806560361 2878.78414697739 19 22 15
2.33065102337982 182.146970217602 2877.30198264233 20 23 16
1.77670095114424 181.543784603144 2868.2515118006 28 31 24
-1.81357521617342 181.009549968574 2861.94073361826 25 28 21
17.049221240037 179.932167709671 2834.85016663404 21 24 17
-17.9973334510257 180.156654631826 2857.61527054152 21 24 17
-15.6479851678692 179.473771178907 2845.72861795798 20 23 16
48.2638937488025 177.24225401111 2775.94641687898 20 23 16
39.230090403898 176.818173190167 2774.33591298421 19 22 15
12.5028100384776 176.850793076509 2789.54457819583 21 24 17
-0.123617563288381 176.529624823733 2791.50570320232 23 26 19
2.69191338814556 175.80568105794 2778.72175177607 19 22 15
-1.85941295320013 175.272484161149 2772.94932969829 21 24 17
3.78674319266592 174.462817906398 2757.27618921187 18 21 12
-13.8995613796093 174.283364253533 2764.21615906716 29 30 22
-19.9212532131989 173.788759136167 2759.84840087529 25 28 19
15.9603760746374 172.120317827938 2714.21417811086 21 24 15
17.7319042085875 171.390561864684 2701.90811947435 21 24 15
5.09202168771594 171.068799390281 2703.85978219001 23 26 19
216.022447719862 190.329613075551 3000.13986500032 4 11 4
224.205002625335 189.601602538215 2985.07079107728 25 27 22
213.369546439489 189.204487795775 2984.62473491285 22 25 18
165.595428845519 189.477142872025 3012.98492381501 20 23 16
155.728954450818 189.077243188639 3012.00625249461 19 22 15
145.884045986058 188.679057823781 3011.04292898339 20 23 14
151.542612839067 187.990376537703 2997.84976583158 22 25 14
149.825061500258 187.436601697488 2990.42639360996 21 24 13
140.790797394827 187.022565318618 2988.81560657712 20 24 10
135.006444429611 186.546216459472 2984.61999286754 18 22 8
134.864146468907 185.957067068663 2975.86800852279 17 21 7
128.259146841183 185.495542354093 2972.31260225051 15 19 5
133.683609233429 184.787403109411 2958.94963322066 15 18 9
115.859547503757 184.556689320262 2964.55414922375 18 21 14
112.452517008093 184.028517287876 2958.37624044772 15 18 11
96.3090419549881 183.771218921633 2962.72884168363 15 18 11
101.631640379876 183.054610988245 2949.29198639437 16 19 12
109.264347643818 182.280779635819 2933.82408409019 16 19 12
96.3185507864615 181.956847722558 2935.55397198616 14 17 10
79.1689059180372 181.121550623991 2931.76344284345 10 13 6
51.1597677615496 180.546738697109 2937.39364538878 8 11 4
141.811890136087 177.783831416421 2849.9395766926 9 11 6
66.7543525370244 178.943689979283 2905.46114614747 9 11 6
66.3163695468394 178.330046218775 2896.49439486878 9 11 6
22.6687580747256 178.77719838559 2925.37678672645 10 12 7
43.0485230656057 177.650904875296 2898.1506182324 12 14 9
11.9133017262421 177.808763621674 2916.33998494442 13 15 10
-8.37595521794876 177.705041205164 2925.09880703382 10 13 6
-38.4918460993204 177.864402917469 2942.79207913205 10 13 6
-19.8249750836781 176.762106604683 2916.79439204932 11 14 7
7.03661828446256 175.427346471584 2883.14977025661 12 15 8
7.26035852603779 174.785914380522 2873.42753888793 14 17 10
4.43388285636281 174.223288855776 2866.43527555198 18 21 14
9.10135120771827 173.45298823813 2852.52323052722 20 23 16
19.6987779408815 172.511177512661 2833.02789368785 20 23 16
-1.16976072108965 172.442497142973 2842.60199622161 19 22 15
-15.9942900614847 172.211743121314 2846.6758271755 19 22 15
16.0081039602202 170.640750697913 2806.8755084589 19 22 15
31.4989677054855 169.524771531209 2782.28109546181 18 21 14
30.6241130349165 168.875721356505 2772.99746723824 21 24 17
14.2640910937857 168.683697375417 2778.42875074753 23 26 19
3.83407035099337 168.320171332699 2778.27647904456 18 21 14
2.20649114408555 167.691834399901 2769.68291524055 20 23 16
1.28078939833909 167.038854634868 2760.36270145993 17 20 13
-10.5824935221843 166.72245992472 2761.6420338819 28 29 21
-12.2638142422693 166.089878459266 2753.00919573168 23 26 17
-9.63681074588751 165.31726965198 2740.08803575483 21 24 15
-2.02097028967141 164.378228331134 2722.13699626232 21 24 15
-7.41789027527728 163.852308292275 2716.98665879387 24 27 20
209.795697215028 183.173764235023 3005.47089135347 7 14 7
261.774010842773 181.488653176637 2956.68350221623 24 26 21
240.130112277146 181.325202722691 2964.46001315048 23 25 20
204.602072823864 181.467085102324 2983.17025570551 21 24 17
194.632040782134 181.071805310379 2982.11653663741 20 23 16
155.264156422249 181.323464813279 3004.21922733908 19 22 13
136.45032966707 181.137229191542 3010.34179794946 20 23 12
134.775348139874 180.572703466335 3002.94893656039 20 23 12
129.835077683918 180.080143117729 2998.1300975318 20 24 10
122.464470391889 179.643064582839 2995.25514085573 19 23 9
128.002185995271 178.905398164603 2981.9738274576 18 22 8
127.045041944817 178.314660624084 2973.86646685464 17 21 7
126.863056579637 177.702443337907 2965.08530094295 16 19 10
117.053162335212 177.320031941776 2964.14773436258 16 19 12
119.226854089056 176.646123167081 2953.36882669996 15 18 11
118.174631737243 176.047426422193 2945.19220701531 15 18 11
110.750403945732 175.605757585616 2942.27835644407 14 17 10
106.497880908254 175.084347843204 2936.7226029623 14 17 10
132.995899372296 173.771587495129 2905.28489713121 13 16 9
110.54823664072 173.71192256916 2914.94934122095 12 15 8
148.586024220213 172.071046075482 2873.34837649646 11 14 7
152.945773101562 170.638824663592 2850.56406094307 9 12 5
61.3348214755076 172.468529638127 2920.02634180485 7 9 4
67.151419958341 171.66843400487 2905.71213818922 8 10 5
39.6463348446749 171.788945551079 2920.35710685123 9 11 6
