ply
format ascii 1.0
comment KinectMotionCapture
element vertex 762
property float x
property float y
property float z
property uchar red
property uchar green
property uchar blue
end_header
81.3946706506123 695.48622351632 3215.77239268167 184 185 189
84.2369773696325 694.880651966228 3224.37573137104 189 190 194
85.2279348745522 694.567736961178 3231.93973836901 191 192 196
89.0698398275114 693.808299993502 3240.99011179454 193 194 198
90.1120985468986 693.49049677563 3248.50423624588 194 195 199
91.1768848959236 693.170561218012 3255.99630558686 194 195 199
92.2642403147242 692.848606034111 3263.4662620078 199 200 204
92.4236639477476 692.67367645776 3270.41869092907 198 199 203
97.3633591435412 691.750472100284 3279.82005648155 180 181 185
96.6153762477013 691.720852091203 3286.23516749162 170 171 175
100.663268710226 690.940990194629 3295.08401107067 180 179 184
100.91254099986 690.758022983849 3301.94874474856 197 198 202
105.020327505399 689.972274656526 3310.7386448274 197 198 202
108.200302720687 689.333746545864 3319.01154467358 201 205 208
109.482454482865 688.993779727434 3326.29072755764 194 199 202
109.820601359453 688.803041692655 3333.06801813929 179 184 187
111.145211064946 688.459550409461 3340.30556057235 187 192 195
114.431280314641 687.811080689843 3348.47423899747 190 194 197
115.80404580062 687.46328767015 3355.66459782341 190 191 195
113.304380795496 687.721753268486 3360.94275750021 196 195 200
118.615750671816 686.762130894149 3369.98042716756 196 194 197
125.919741638405 685.493706575112 3379.91919190592 208 203 197
128.371676469198 684.984316719209 3387.47871287894 168 161 153
126.923884795887 685.084626577489 3393.15263145474 192 179 170
132.369573876502 684.111904106927 3402.05885635512 203 189 178
139.823108178052 682.828414517177 3411.85101114964 226 208 194
140.411627458782 682.6163606005 3418.38316655282 232 213 199
139.039564735745 682.711133501516 3423.98270352138 222 206 191
134.70441768433 683.268379996418 3428.2052078401 216 202 189
132.353517756251 683.517952224945 3433.33661819042 208 200 187
124.038996646718 684.696354525598 3435.75091810512 209 203 191
134.648917299119 682.932967834202 3446.73106681247 216 212 203
85.079846078794 702.692417459344 2570.55859072494 187 189 188
92.9422501947492 701.21179670639 2587.05908992196 189 191 190
100.079339085128 699.849932920201 2602.84537631457 187 189 188
113.629559296424 697.460538541751 2623.75114730053 191 193 192
132.84390732766 694.165756565185 2649.08555027171 195 197 196
148.190400118222 691.495392508583 2671.08294186384 194 195 197
154.043017211616 690.349918810933 2685.27892674281 197 198 200
160.75181978219 689.069202909771 2700.06126700054 200 201 203
161.895024751317 688.681250324804 2710.31967485688 201 202 204
163.069718278119 688.289105269414 2720.54709591327 199 200 202
161.853968700739 688.280095016791 2728.84090719968 201 201 203
160.65805798078 688.268360923568 2737.11508294784 200 200 202
162.727350101237 687.73569222337 2747.89217086918 200 200 202
162.392447807586 687.587845966138 2756.7487170001 202 202 204
166.972061225528 686.656811974468 2769.34262493293 203 203 205
163.428272457827 687.022256994053 2775.64180342921 206 206 208
163.168756309632 686.864553302391 2784.42494692778 208 208 210
160.470289589288 687.095876713189 2791.3214405678 212 212 214
166.012823436651 686.016059836683 2804.39839148475 214 214 216
168.306932307502 685.454531731378 2814.95616061503 221 221 223
169.809928205689 685.020042406431 2824.86416886997 223 223 225
169.687022366502 684.844821970538 2833.51424527937 227 226 231
172.910417905257 684.139045894587 2844.58778595781 229 228 233
174.507889909554 683.692600424385 2854.40340731383 230 229 234
173.633564927631 683.639250862309 2862.36473226033 230 229 234
171.942644995031 683.715942689324 2869.70048084412 231 230 235
170.267710973906 683.79067820702 2877.02064432316 230 229 234
168.60882825551 683.863272265308 2884.32518512808 230 229 234
164.439416500427 684.333727084458 2889.81318677901 228 227 232
161.96270338293 684.536505241834 2896.49369478928 226 225 230
157.805773402067 685.005340604099 2901.96920336692 223 222 227
153.653265743749 685.473559493514 2907.44041162731 222 221 226
146.955387856393 686.343854523209 2911.12905552153 220 218 221
143.657700521337 686.677226145851 2917.18825424922 212 210 213
136.953148517787 687.548244616288 2920.88341871526 210 208 211
131.952751370851 688.150378061815 2925.75989194133 203 201 204
126.095071433677 688.887564307462 2930.05045174649 194 192 195
120.234200258986 689.625139821395 2934.34446080599 175 173 176
112.646642586902 690.634453869479 2937.47877576842 164 162 165
105.04798793757 691.645166867869 2940.62390342905 153 151 154
99.1691314681415 692.385068682805 2944.93542832582 146 144 147
92.4193006078049 693.261867279327 2948.67436322389 146 144 147
87.4009170891159 693.866445099285 2953.56833590553 148 148 150
83.2541844662482 694.334453635248 2959.03417840249 156 156 158
83.4772940133477 694.117040751701 2967.3465546016 171 172 174
81.0988278075779 694.308553732477 2973.93116696435 169 170 172
79.6093624860066 694.361264256626 2981.07041256743 156 157 159
74.6197964432391 694.963211645903 2985.93615784599 151 152 154
71.3925010633973 695.289229395687 2991.92688106275 147 148 150
69.0559050998911 695.476466437185 2998.47054763794 157 158 160
68.5007953989816 695.385587282833 3006.12043394887 161 162 164
67.9651152574507 695.292625574667 3013.75099637868 165 166 168
67.4491573934732 695.197518335091 3021.36262924592 166 167 169
69.6240968227548 694.682991426508 3030.61487931925 168 169 171
70.9377936844589 694.304357285945 3039.28536178421 171 172 176
71.3842966540117 694.062248234775 3047.37989293724 176 177 181
69.1651971029343 694.236972770778 3053.80873318082 183 184 188
67.8560550850182 694.270724682177 3060.77171715239 194 195 199
66.5624291358489 694.302815390702 3067.71953896338 179 180 184
64.3822645278718 694.473810935006 3074.11026737624 161 162 166
63.117754751719 694.503115619684 3081.02958817011 152 153 157
63.6807730081075 694.248971562447 3089.01019668955 151 152 156
64.2669588054776 693.992378619165 3096.9681614426 138 139 143
63.9665623498704 693.874813945052 3104.36905784377 149 150 154
60.038266443549 694.322020546206 3109.620726127 168 169 173
57.0273260552199 694.627321889219 3115.39932967276 169 170 174
54.9397756313219 694.790003167151 3121.69931967667 176 177 181
62.0393301080568 693.527874712148 3133.25707166335 176 177 181
67.3500350184875 692.545367364781 3143.71603120038 168 169 173
71.7814289447398 691.701161572005 3153.61047147423 162 163 167
70.7111746361298 691.711225493962 3160.33973749355 165 166 170
72.432020563185 691.290050099525 3168.61220249658 197 198 202
73.2524667006529 691.009585925472 3176.3410714264 190 191 195
73.1664339309113 690.870789285562 3183.5319017519 166 167 171
70.306464096189 691.162293579117 3189.16296634605 174 175 179
71.1857781829721 690.87641310478 3196.83417905878 179 180 184
76.7624663740314 689.865753539708 3207.03283630969 170 171 175
79.5707431146333 689.284875223072 3215.66631762156 167 168 172
80.5317162578318 688.990777274002 3223.25731838131 171 172 176
82.4563374284968 688.549324866379 3231.33076633078 181 182 186
85.3499297007763 687.959768118203 3239.8804728849 181 182 186
90.1630937208715 687.075807712381 3249.40168552641 178 179 183
93.1212130320378 686.47964949515 3257.88829147127 192 193 197
94.2128039361627 686.172905037695 3265.35179385395 178 179 183
93.4264309342874 686.156839059884 3271.8033613689 162 163 167
96.4636956462797 685.553062060369 3280.21250081345 171 172 176
97.6228678237936 685.240097693814 3287.60981329247 175 176 180
101.672924228345 684.483727435035 3296.45303599129 205 204 209
101.924376962069 684.313412555541 3303.31339660494 186 187 191
103.154615204095 683.993965873073 3310.64109751481 190 191 195
107.293042154919 683.228931793498 3319.39784746375 166 170 173
107.609565495904 683.052949389568 3326.19442966011 171 175 178
106.978747955025 683.023831751872 3332.4931194904 182 186 189
107.330201790584 682.845201830963 3339.25574433313 181 185 188
110.609021483936 682.21863893534 3347.42838385585 172 176 179
112.946112021271 681.738292327568 3355.0976543306 177 178 182
111.414825248265 681.852843105917 3360.85237997291 177 176 181
114.771806765897 681.219126198511 3368.94879885048 180 178 179
121.090763104846 680.133113306625 3378.42151004659 191 182 175
123.533475382909 679.643107467416 3385.98732420161 117 107 98
126.002071991761 679.150781998249 3393.52777767381 200 183 173
135.379664488036 677.602207320049 3404.28298801789 208 190 176
143.82488459168 676.198623430085 3414.52538119596 227 206 189
145.408538834975 675.847402833951 3421.50649312069 225 204 187
144.046910535562 675.948231413383 3427.09477352571 221 199 185
139.722229166176 676.503450916854 3431.30718485591 218 199 184
134.403010450471 677.211750410545 3435.06765199955 204 191 175
126.093356540466 678.378010717784 3437.47891329449 203 193 181
128.732161114871 677.872247590468 3444.85233382077 205 199 187
81.9809437543415 695.491988968834 2569.03209161677 188 190 189
92.9946265319796 693.560887953709 2588.13788041717 188 190 189
99.339366036725 692.366448594948 2603.26932688781 186 188 187
120.031131467638 688.919111066432 2629.99299882026 192 194 193
140.055686250914 685.580623908932 2655.94588559199 191 192 194
153.025986116913 683.353692367815 2675.98660479951 193 194 196
158.090024992314 682.369873525517 2689.52451982954 199 200 202
162.403560202539 681.505333455831 2702.37315742535 201 202 204
162.746642287379 681.264333656384 2711.98713241655 201 202 204
164.72846357267 680.767399983109 2722.84579854889 200 201 203
165.130924094407 680.518560775248 2732.40196853561 202 202 204
165.561149933365 680.266044401499 2741.9311106354 201 201 203
165.20794364823 680.136840018168 2750.80307763962 201 201 203
166.504810374604 679.75022702312 2760.90836126668 204 204 206
167.833499816964 679.359471293517 2770.98299460269 206 206 208
165.92542480313 679.475037890138 2778.52863571832 209 209 211
163.214511276848 679.716068116652 2785.43605455752 211 211 213
162.978615743757 679.571426191943 2794.19381191265 214 214 216
168.526592407456 678.525773738404 2807.26030854573 215 215 217
172.475882645491 677.73082896354 2819.04311346957 219 219 221
173.988102527479 677.316654499621 2828.93862180266 221 221 223
175.532080811216 676.898404377805 2838.80353379579 224 223 228
177.107460464288 676.476208652347 2848.63750908148 227 226 231
178.714533127854 676.050122419077 2858.44092559659 228 227 232
177.015117510387 676.138676557408 2865.78335727661 227 226 231
174.495386137552 676.355192453934 2872.5045526185 228 227 232
171.149327975522 676.700146088759 2878.61007247609 227 226 231
168.652004758478 676.913660174718 2885.30945985432 226 225 230
166.166863244622 677.125579594604 2891.99698631217 223 222 227
163.693902895448 677.335963385131 2898.67264365876 221 220 225
159.540817204262 677.807026679617 2904.14400551251 217 216 221
154.544118511235 678.40875284509 2909.01686631499 216 215 220
148.698152034855 679.14185475661 2913.29673598522 214 212 215
143.700646592913 679.743564687949 2918.1704003007 205 203 206
138.703565784006 680.345280056373 2923.0436421457 201 199 202
133.707080753765 680.946861348604 2927.91631219008 190 188 191
127.85350424529 681.680863656761 2932.20360565645 182 180 183
120.277117326011 682.68069072473 2935.32823006772 163 161 164
112.6897190023 683.681846986366 2938.46359251212 156 154 157
104.227754649977 684.817627208663 2941.03060527109 149 147 150
96.6160790312136 685.82184400909 2944.18962308207 141 139 142
88.9933058966945 686.827518796538 2947.35944540041 134 132 135
82.2286015964484 687.700708325627 2951.11368326277 122 122 124
78.0704092417746 688.172638233584 2956.59032586575 113 113 115
74.7893767590426 688.50986609893 2962.63241612789 125 126 128
71.5166305163977 688.846272189446 2968.66673733108 135 136 138
69.128991864071 689.047020232083 2975.25909313075 154 155 157
67.6321575622181 689.111451028531 2982.40392398906 159 160 162
67.9128914577269 688.903625726717 2990.65799915995 160 161 163
63.8030322496781 689.370713856825 2996.0870240045 148 149 151
61.4668296608039 689.566039005255 3002.62910453419 148 149 151
60.9159759085105 689.48812718222 3010.27284805933 154 155 157
60.384424164134 689.408148885259 3017.89739198723 155 156 158
60.7631444833681 689.189680933762 3026.05573816983 151 152 154
61.1651609720609 688.968629942903 3034.19133268387 157 158 160
63.379184311438 688.471289196365 3043.40223174947 161 162 164
63.8319167645007 688.244611247098 3051.48829622317 162 163 165
62.5113698676998 688.290238406984 3058.46085025153 140 141 143
61.2062529283222 688.334333157349 3065.41830859352 133 134 136
59.916989205465 688.376770132924 3072.36060731755 133 134 136
60.4509582359394 688.141633124983 3080.36691507216 156 157 159
61.9144130172504 687.765748140507 3088.88861722704 146 147 149
62.496757414582 687.52551511897 3096.84764071584 155 156 158
60.3729672721274 687.699074653684 3103.1820094944 162 163 165
57.3491842273204 688.01064051699 3108.97277793652 167 168 170
55.2465154173682 688.182598811015 3115.28640958235 169 170 174
54.0709998936912 688.214011310891 3122.11704623378 172 173 177
61.1686220760306 686.986800122271 3133.67155626063 174 175 179
65.5579432561639 686.173726613649 3143.60317405532 165 166 170
69.0643618144131 685.496681838692 3152.9745129001 167 168 172
68.9118999676417 685.377463716488 3160.22841458472 181 182 186
71.5545017981842 684.834513345583 3169.02080779759 187 188 192
72.3733149766801 684.570117646279 3176.74892336625 173 174 178
69.4982975723812 684.868072562623 3182.39363917821 166 167 171
66.6310545867956 685.165447133834 3188.03105849422 176 177 181
68.435850253282 684.754681443062 3196.21862161534 162 163 167
72.1372110156335 684.057601705413 3205.3993411284 161 162 164
73.999179330344 683.641043745732 3213.53098705948 167 168 170
74.9490793323995 683.364073380808 3221.13079000462 173 174 176
77.8029018104425 682.799933461074 3229.71623195617 176 177 179
79.7445709415219 682.375391856023 3237.76991377771 174 175 177
83.6018932166755 681.662365727627 3246.79811807261 179 180 182
87.4935209116896 680.945663513058 3255.7927999024 184 185 187
91.419030228959 680.225469614301 3264.75401500783 166 167 169
91.5774905989992 680.07671265595 3271.70387000396 156 157 159
93.6591337158834 679.638358079614 3279.62059713952 180 181 183
95.7670874121135 679.197512200264 3287.51156569434 193 194 196
97.9011810805663 678.754255494467 3295.37693318942 192 192 194
99.1036049512584 678.453175399731 3302.72953960755 182 182 184
97.4483672110442 678.584826387657 3308.60482298912 178 179 181
102.537457694122 677.699752266805 3317.85220118054 154 155 157
100.917195955097 677.828704070004 3323.69315181422 175 179 180
104.136571720476 677.228799894633 3331.92087988894 183 187 188
104.482848620003 677.063677812942 3338.68664905294 171 175 176
109.695716745671 676.166537683084 3347.81289756636 171 172 174
111.059779503043 675.850977320994 3355.00713435774 171 171 173
111.472233291269 675.680238194902 3361.70768124771 171 171 173
113.853996333671 675.214309309053 3369.33046033154 171 169 170
119.194044012773 674.304615336448 3378.33227312082 165 156 149
119.67479537625 674.127995228314 3384.96620655751 114 104 95
127.04290240052 672.916648614705 3394.83286704284 211 194 184
138.389179145868 671.1090944127 3406.50524052105 212 194 180
148.810888370654 669.442893473602 3417.65758410455 225 202 186
147.443589109546 669.55086456995 3423.25044019749 223 200 184
147.075545766157 669.509907815711 3429.28994118142 220 199 182
143.748644841355 669.914721310376 3433.95101888237 216 197 180
139.43088999855 670.469480396899 3438.1566201187 204 188 172
132.126685853698 671.473560113864 3441.01033447171 199 186 170
125.805919629676 672.330882996567 3444.32608034517 196 186 174
78.8820805991861 688.268924548953 2567.5085613514 189 190 192
89.8874872703628 686.395169059928 2586.61443064614 186 187 189
102.558564800101 684.26734579711 2606.93763389663 185 186 188
125.638585266625 680.541452122771 2635.58196954567 191 192 194
142.493008689554 677.776472128646 2658.93010440023 192 193 195
153.873287493856 675.855634957248 2677.67067877723 194 195 197
161.337360048251 674.538362365092 2693.12533715677 201 202 204
165.658168748207 673.705161304539 2705.96212017789 202 204 203
167.615725256122 673.235522779687 2716.84084738185 201 203 202
167.99787996735 673.00829037284 2726.41398786283 200 202 201
169.215060549063 672.653659485938 2736.5936740679 201 202 204
169.654847504406 672.41885373694 2746.11104205717 200 201 203
168.499657041516 672.428817024343 2754.34157512473 200 201 203
166.551345671676 672.560424254694 2761.92480073801 203 204 206
168.694709144079 672.066595214872 2772.62259422705 205 206 208
167.605506623121 672.067813853995 2780.78923058999 209 210 212
168.174086413096 671.816136102576 2790.18086122315 211 212 214
168.770431520292 671.560781185269 2799.54546396938 214 215 217
175.977187576107 670.297252063844 2813.83078885662 214 215 217
179.118841175629 669.655619396736 2824.97602012128 217 218 220
181.473134404087 669.134963434322 2835.46832225188 218 219 221
180.548286250781 669.114990843307 2843.47488435269 222 221 226
181.30447459922 668.839485145637 2852.68373867399 223 222 227
182.088342153556 668.560431075432 2861.86563158257 223 222 227
182.899910172367 668.277825952712 2871.02054236444 222 221 226
179.557241752133 668.628000226155 2877.1222623922 222 221 226
173.707727287554 669.359262671639 2881.40558929744 222 221 226
168.695209520623 669.963277926865 2886.29382034769 222 221 226
165.367829786881 670.311112036663 2892.38070435892 220 219 224
163.736854352101 670.401711560089 2899.65487161878 218 217 222
160.429925369534 670.746967527753 2905.72182878005 214 213 218
157.131077097218 671.091217831402 2911.7805724713 213 212 217
148.741018995708 672.207554614779 2914.27905499202 208 206 209
142.891675918347 672.938369634486 2918.56261567855 203 201 204
138.746433283366 673.410920877829 2924.02596934335 199 197 200
133.749991308787 674.012437773383 2928.89860615063 187 185 188
127.896396516005 674.743788789376 2933.1863096334 180 178 181
119.460593187615 675.865538672505 2935.72941778688 165 163 166
111.871312850367 676.858853462623 2938.86780806461 161 159 162
103.407490717354 677.984135561275 2941.43821724536 158 156 159
95.7940181193622 678.980500170259 2944.60018003375 155 153 156
89.0366337951951 679.847341768018 2948.34808727313 148 146 149
79.6642607480331 681.108655727562 2950.38334833313 133 133 135
72.8867628204655 681.978078895538 2954.15118496507 121 121 123
65.2286455950328 682.980248575665 2957.35662254149 114 115 117
60.1845806381869 683.588181886617 2962.27560133076 116 117 119
56.8949491367814 683.932023826678 2968.32559083019 123 124 126
58.007860973861 683.613375498783 2977.18658991583 145 146 148
60.0289838847772 683.158987065482 2986.58269362535 153 154 156
58.5502451469675 683.232281736761 2993.70824524423 148 149 151
57.0874451984946 683.303848876609 3000.81856258007 144 145 147
54.7534241556811 683.507049742458 3007.35697493268 147 148 150
52.4315158968331 683.708946436821 3013.88388970972 148 149 151
51.9024303141213 683.64232497083 3021.50434841083 144 145 147
55.8549236900121 682.903662322927 3031.85874477992 146 147 149
57.1632190579674 682.563154331293 3040.52895597986 147 148 150
59.3948589141187 682.085293271046 3049.71948249475 145 146 148
58.0650725238376 682.142568629097 3056.69982772011 128 129 131
58.5508993782842 681.928583689061 3064.75115294279 135 136 138
58.1578076210345 681.84713086266 3072.23842199146 147 148 150
59.5922303837226 681.493022293071 3080.7853969834 156 157 159
61.0537322655795 681.135971720852 3089.30591683641 144 145 147
61.6345262872948 680.91178372521 3097.26444626528 164 165 167
60.4187485841958 680.957412080647 3104.13296275882 170 171 173
57.3951732536355 681.274141015002 3109.92276183798 166 167 169
56.2064709001513 681.317240624807 3116.7647658566 171 172 176
56.8643291361672 681.085460338205 3124.64789151874 171 172 176
62.1327563760516 680.166144219662 3135.13915592959 164 165 169
64.6853853463778 679.653878132484 3144.01635839896 176 177 181
65.4259238306039 679.413384782828 3151.81866913931 181 182 186
64.3427226669853 679.446073763804 3158.55744760319 187 188 192
67.9011664804849 678.787473161203 3167.87439855981 160 161 165
69.6395691000484 678.401647609179 3176.12420481638 159 160 164
67.6884039138885 678.566830948866 3182.28839245944 166 167 171
63.8864597853299 679.00842844542 3187.41542058274 172 173 177
64.7529006928416 678.755719162044 3195.09451386526 141 142 146
65.6420818157608 678.500850739106 3202.75134489759 160 161 163
69.3643956296666 677.82555566845 3211.90770011445 171 172 174
71.2436209625951 677.425987056027 3220.01969855323 172 173 175
74.09023287348 676.883853944825 3228.60938594987 145 146 148
77.9098030219672 676.198525945352 3237.67098489328 153 154 156
81.763424861327 675.50968482184 3246.69895140048 176 177 179
85.651434165396 674.817203200016 3255.69364655293 162 163 165
87.676757569858 674.402872671514 3263.6627492517 158 159 161
88.7781740699802 674.127027551993 3271.11192776365 178 179 181
91.8065503181156 673.566533795513 3279.52349633979 174 175 177
94.8653168799565 673.002962413943 3287.90567959881 156 157 159
96.0419677412254 672.719932592008 3295.28121117385 168 168 170
95.3247251116989 672.718988076133 3301.66155841967 160 160 162
91.7420709519408 673.143731882992 3306.57331933022 127 127 129
95.8581266295004 672.428870025541 3315.34486885171 160 161 163
94.2247851737927 672.567077713472 3321.19743982168 168 172 173
100.328506479451 671.560857779523 3330.87208922327 166 170 171
102.602821059196 671.123275655125 3338.59737657994 150 154 155
106.842612400699 670.396294111917 3347.24784604224 160 161 163
107.229826513516 670.240723966232 3353.97155217631 158 158 160
107.635105059462 670.083744597612 3360.67719050178 165 163 166
110.985155787108 669.492857746451 3368.77416149266 166 162 161
116.319946267573 668.610126623877 3377.77720966044 148 139 130
120.71250551641 667.868410411703 3386.27781826808 135 122 114
132.989361442174 665.96375133406 3398.45737423958 216 199 189
146.314213777734 663.90666045163 3411.0360307978 219 200 186
152.810966299515 662.859914918332 3420.3263840576 220 197 181
152.439478181295 662.82851956289 3426.36823042528 216 193 175
151.092470081402 662.94237821605 3431.93972907486 218 195 179
150.747154759419 662.909629335047 3437.95578551945 215 194 177
145.450576762684 663.608335713643 3441.69485011069 202 185 169
139.154066315649 664.455364051094 3444.98836901033 197 181 166
130.854134957533 665.598639179211 3447.39337286695 192 180 166
76.5715046609943 680.904468266506 2566.64039504181 189 190 192
89.1500532300968 678.850109079552 2587.04462295971 184 185 187
104.985880939254 676.307775297909 2609.95475992695 183 184 186
128.070759145961 672.677860166009 2638.58008618153 185 186 188
144.930257584458 669.987366670469 2661.91217239864 196 197 199
158.708451856198 667.76276822785 2682.56720500516 197 198 200
162.98555543948 666.967391808611 2695.44179738776 202 203 205
165.706694052596 666.406605023347 2706.99265726424 203 205 204
168.467225347592 665.840793195781 2718.50514232433 202 204 203
172.072726640443 665.148910863354 2730.61444001088 201 203 202
172.491955133304 664.935756804075 2740.14868490503 202 203 205
169.701909287336 665.203922845351 2747.13067264589 201 202 204
168.546447234648 665.227365263402 2755.35948319652 201 202 204
170.663717692046 664.761061850406 2766.07911915956 205 206 208
172.816468714629 664.290285548406 2776.76418348791 207 208 210
172.553450051928 664.18162675528 2785.54321837858 210 211 213
173.133358409648 663.947390882367 2794.92102167448 212 213 215
177.024772229553 663.218816075851 2806.75182712675 214 215 217
180.136418800119 662.607797087583 2817.92233112638 214 215 217
182.462748797295 662.114843553647 2828.43830675219 214 215 217
184.824306169176 661.617521056125 2838.91960896308 214 215 217
184.735566101665 661.486524826034 2847.52922193783 214 213 218
183.009464126288 661.600143731952 2854.89444900405 212 211 216
181.299601252866 661.711702403131 2862.24419274576 206 205 210
182.109020440045 661.448179230428 2871.39841704533 204 203 208
181.273296541629 661.430311103652 2879.31582856265 204 203 208
176.265965329004 662.033731480123 2884.19899721063 206 205 210
170.419044934149 662.762000266799 2888.48052846974 206 205 210
165.410971825355 663.365278295764 2893.36445487048 207 206 211
163.779897843663 663.46668153784 2900.63712320398 206 205 210
161.318865892185 663.691601085106 2907.29878709683 205 204 209
158.022048966763 664.041007399329 2913.35508941646 205 204 209
150.483859759076 665.020156424492 2916.44483914115 204 200 201
145.49013780535 665.621448355851 2921.31480817712 201 197 198
138.789349223466 666.475906935469 2925.00834521244 198 194 195
132.937182806635 667.204306347133 2929.29506654262 189 185 186
125.366300061393 668.187341036878 2932.41670713387 184 180 181
120.363097859295 668.789710166526 2937.29593098718 175 171 172
114.498898549316 669.519685484393 2941.59436823988 167 163 164
106.040789678522 670.633469078225 2944.16046569878 153 149 150
96.7025926621785 671.877075644529 2946.16474444195 148 144 145
89.0800101344347 672.866509975682 2949.33677781728 140 136 137
78.8386005425581 674.242880792107 2950.80109034199 128 126 127
72.0592383472534 675.107172817444 2954.57153659999 128 128 128
61.7800310052856 676.48830864085 2956.07267858334 119 121 120
53.2282124141732 677.613833827179 2958.73043361955 114 116 115
43.7841921134519 678.870853106678 2960.83747621332 110 112 111
39.5947434603099 679.352338444124 2966.34340665244 122 124 123
42.4562998329887 678.794328843044 2976.33750983359 137 138 140
48.0011753306413 677.841960133603 2987.97638935603 146 147 149
50.9384927224703 677.27517928492 2997.89621926978 141 142 144
49.4780596835223 677.357298302287 3005.00262666658 141 142 144
44.4789638746279 677.961095727098 3009.87756170933 143 144 146
43.9324141952393 677.909780005375 3017.5127624923 141 142 144
46.0829131536653 677.462479251788 3026.77968416013 143 144 146
46.4754974184523 677.274768390965 3034.9193795133 138 139 141
52.2693259072513 676.294022611441 3046.3152391539 139 140 142
51.8223338738486 676.231794155767 3053.85352846197 138 139 141
54.0950139676961 675.770813662559 3063.00080647371 146 147 149
53.6926143514416 675.703848156557 3070.49551498633 156 157 159
56.9253866539508 675.10412524613 3080.12682262849 150 151 153
58.381276710139 674.766357314047 3088.65006514156 144 145 147
59.8643704474986 674.425677607232 3097.1470621981 167 168 170
57.7350823515141 674.615628992101 3103.4841299755 167 168 170
55.6176487055247 674.804662585544 3109.80989959999 172 173 175
53.5116914601246 674.992603209299 3116.12443452947 170 171 175
55.9951739751954 674.509162501328 3125.06604007263 170 171 175
59.4267656204552 673.88803132088 3134.50308130131 162 163 167
59.2154822029318 673.801454212129 3141.81090718969 167 168 172
59.023159579076 673.712971582583 3149.09984852283 162 163 167
60.6968609248391 673.352567482431 3157.41048466325 157 158 162
65.1728828990632 672.583522907376 3167.24949983058 158 159 163
65.978441617836 672.352477441054 3174.98551028182 162 163 167
65.878228598871 672.254846585052 3182.18467536154 170 171 175
61.1417138378831 672.835389290556 3186.80230057941 165 166 170
61.0698070119744 672.735310396856 3193.97371900988 146 147 151
61.9514063023008 672.497155498967 3201.63527082036 157 158 160
67.5401260769299 671.573242456944 3211.80949727469 168 169 171
71.2931672828745 670.918722679753 3220.93226915773 149 150 152
70.3775043118924 670.946376261194 3227.5057617915 146 147 149
73.246921206302 670.42319972317 3236.06966388715 161 162 164
77.0913524565628 669.759268618608 3245.10341293726 164 165 167
80.9699599596989 669.091854617904 3254.10373923357 144 145 147
82.9860172172614 668.697031539488 3262.07916016059 183 184 186
86.9289416244654 668.02305559847 3271.0162508303 191 192 194
88.049426173145 667.761199982212 3278.44442684568 151 152 154
88.2382893897589 667.636207672761 3285.360578961 156 157 159
86.5333942311031 667.78779953505 3291.28222564064 188 186 189
85.7973078362289 667.79949115102 3297.67941740924 127 127 129
82.1958831481719 668.228842096629 3302.60913679878 117 117 119
84.3689906708063 667.819763406563 3310.43071146413 156 157 159
83.6770975865395 667.828288437504 3316.78482448388 173 177 178
92.6571509385803 666.432949916082 3327.91181099585 141 145 146
97.8195883290276 665.593971495774 3337.07954169958 135 139 140
99.1412395243616 665.314097246195 3344.31061940718 143 144 146
97.5701277850338 665.455457575725 3350.10092938981 143 143 145
94.0624420883878 665.878888114663 3354.93843960869 150 148 151
103.238587223217 664.46319280141 3365.87371280652 155 151 150
113.445356997571 662.899968237057 3377.22461242047 151 142 135
125.667386008149 661.04656552075 3389.45103666142 157 144 136
142.86069326352 658.474529197001 3403.93234412221 205 188 178
153.255196739706 656.890333936081 3415.09958301283 216 197 183
158.780913569978 656.013460192858 3423.91217277473 207 184 168
155.460032607242 656.419709660142 3428.56672248624 207 181 164
155.1089787658 656.396853863216 3434.58701517199 214 191 173
154.771864116514 656.373226833181 3440.59324217979 212 191 172
152.462587036314 656.636333411607 3445.68132005587 202 185 167
146.180417550133 657.47550953836 3448.96175872269 197 180 164
138.891839623811 658.461196504014 3451.8026744503 189 181 170
73.5687163846315 673.766957796442 2555.0901130991 190 192 191
78.2007561914209 672.94274071854 2569.03342051931 188 189 191
90.7824399353636 670.949726654306 2589.4254683799 183 184 186
108.204904049294 668.246552630566 2613.61764269538 182 183 185
127.327802387295 665.295955528994 2638.99164834762 183 184 186
146.571807311087 662.330195917721 2664.24797222418 196 197 199
161.150800769846 660.052391871717 2685.53257248267 197 198 200
165.433242773834 659.288657376636 2698.39718707202 200 201 203
168.961219286523 658.636517476329 2710.57725625519 201 203 202
171.729137928198 658.096546203556 2722.07858634812 200 202 201
175.341957663694 657.433402584868 2734.17636914359 200 202 201
175.768581887536 657.23818620066 2743.700618787 202 203 205
172.986029780952 657.51354523507 2750.67410201264 202 203 205
171.026911133283 657.668333360309 2758.26463328643 202 203 205
172.336368511513 657.344703978534 2768.34810525953 206 207 209
175.307631905279 656.778390242827 2779.65140441217 208 209 211
174.233425686079 656.804667113533 2787.79944563008 210 211 213
174.816946286563 656.588786915671 2797.17094895477 212 213 215
179.532647246558 655.769430774933 2809.61355185099 214 215 217
182.649831129087 655.184544536557 2820.77469480896 213 214 216
184.156784458166 654.83560487031 2830.66579123234 213 214 216
186.522093406343 654.36203257676 2841.14019564473 213 214 216
185.608268651829 654.367632102784 2849.13169395786 211 210 215
184.714594577456 654.370678277485 2857.10389757393 208 207 212
180.510750893345 654.856631934504 2862.62346207592 200 199 204
181.317999451807 654.612252428515 2871.77701241632 198 197 202
180.480343343627 654.608059742009 2879.69465926439 198 197 202
177.985923272239 654.845502996839 2886.38762705536 200 199 204
172.982992585074 655.448368617154 2891.26650790922 200 199 204
166.296216122995 656.296107365003 2894.94712389065 201 200 205
162.97889890369 656.653523199042 2901.02259950163 202 201 206
159.669663471652 657.009815295639 2907.08987802429 201 200 205
155.520966393657 657.488332058192 2912.55611814294 201 201 203
147.976983055738 658.460191765135 2915.65269888265 202 198 199
144.681013514321 658.814752516606 2921.70706007187 200 196 197
139.685931550168 659.416156930063 2926.57836299349 197 193 194
132.980044945874 660.26587899529 2930.27800033719 189 185 186
125.409235976188 661.240825655226 2933.4007630755 185 181 182
121.265559450358 661.718604597663 2938.86178891913 178 174 175
116.264780187541 662.320727246142 2943.73864318772 168 164 165
107.810847982496 663.423297909391 2946.30258826403 153 149 150
97.6111246628855 664.7783150192 2947.72866177265 151 147 148
89.9905706227764 665.75953283568 2950.89989522706 147 143 144
81.4897861293167 666.867833067856 2953.50951849058 142 140 141
72.9739494862516 667.978148800311 2956.13379087111 138 138 138
62.6968454844912 669.342862005807 2957.6352714623 132 134 133
51.5220354019852 670.836978645162 2958.59215237347 127 129 128
38.5665701384648 672.587936900621 2958.44513264619 119 121 120
27.3346600563658 674.089192933379 2959.45765950182 128 130 127
24.884175001759 674.321805107163 2966.10771320332 141 143 140
32.1557596115873 673.151369682624 2978.89799385262 142 144 141
41.2512780958587 671.719049456789 2992.74994413859 140 142 139
53.0686884071985 669.895763056307 3008.20786602835 138 140 137
53.4087092504278 669.729702662813 3016.39689554853 137 139 136
50.2101233534686 670.074522318076 3022.35599306897 135 137 136
49.6969912469925 670.032779447791 3029.95693268677 133 135 134
45.6259076336707 670.50429637265 3035.34679821862 142 143 145
50.5214446169386 669.684825064462 3046.19359114726 141 143 142
49.1726298030746 669.765669066362 3053.18934844326 141 143 142
50.5394592455626 669.456347537083 3061.79682509637 147 148 150
45.6191697772756 670.052450985885 3066.59464144422 152 153 155
47.0268506658491 669.738805046295 3075.16219115343 154 155 157
50.2735132704091 669.161731098841 3084.77669585548 167 168 170
53.5547824428773 668.580838200974 3094.35706232122 163 164 166
54.1416589354968 668.388198330138 3102.3048889675 157 158 160
51.1051072068689 668.716823721464 3108.10581551062 170 171 173
49.9033293698981 668.782682543604 3114.95743987599 171 172 176
54.2102567275089 668.05866050002 3124.95771418681 159 158 163
55.8033226151187 667.725181965244 3133.34410510039 155 156 160
55.5845636426975 667.652697317274 3140.65727146575 142 143 147
53.5422060864965 667.842585921324 3146.90836305305 137 136 141
54.2809223789122 667.634532305067 3154.70735083638 142 143 147
58.7438157989721 666.893783664528 3164.5555585673 168 169 173
61.3905110710373 666.414488371398 3173.33414089754 160 159 164
63.1388162183359 666.065095528529 3181.56872905918 177 176 181
58.3970320227647 666.646007685857 3186.19153229868 144 145 149
54.5878104352817 667.093947753779 3191.32484961699 163 164 168
56.3913687383582 666.7394043684 3199.50566966808 166 167 169
65.7155754061773 665.310127458667 3211.71283224666 148 149 151
68.5263508134675 664.81409816874 3220.33095385448 139 140 142
64.7833442684407 665.256331337729 3225.39969997597 162 163 165
67.6414708613327 664.755747930313 3233.97147425309 164 165 167
71.4745881157368 664.117007571773 3243.01273508707 142 143 145
77.2346941227049 663.204406215035 3253.014762775 172 173 175
80.1918202535012 662.693570120325 3261.4900822322 166 167 169
88.8809035289593 661.365606274563 3272.89604838391 141 142 144
89.0533701273997 661.2550055041 3279.82635552028 151 152 154
86.3818765611857 661.551214865931 3285.26922714458 160 161 163
83.7176014596341 661.847267782429 3290.70529169131 121 121 123
80.1020901308416 662.279868793591 3295.64851896508 102 102 104
75.5296850730924 662.849747563908 3300.10475694661 107 107 109
70.9565074367129 663.420519809193 3304.56163005494 126 127 129
76.0206749040795 662.618608328016 3313.82146576757 158 162 163
87.8829087471487 660.849453450547 3326.39272013481 115 119 120
95.9391890337184 659.624485600716 3336.9949369281 122 126 127
95.3180151231399 659.636904629389 3343.27791138979 123 124 126
91.7967944040798 660.063355233651 3348.12875356367 125 125 127
86.3310576886107 660.767553626655 3352.0349835459 129 127 130
94.5165586212711 659.529745137501 3362.51078016827 139 135 134
117.412097279798 656.200601171706 3379.94371932041 152 143 136
142.373272053746 652.580235442261 3398.20231235914 181 168 160
155.674387498652 650.620883429712 3410.78975639641 201 184 174
160.195451325339 649.911957230543 3419.15824955099 205 186 172
159.824298156376 649.899992400073 3425.196553644 204 181 165
157.493360699993 650.167644608797 3430.30580659365 209 183 166
156.157565986869 650.294995711571 3435.86451384823 217 194 176
156.813810195231 650.140403146403 3442.32058679246 214 193 174
153.516562794026 650.548702024488 3446.95170296797 205 188 170
150.221434816107 650.957719739138 3451.58027043911 199 182 166
144.935100489031 651.650522134034 3455.31037336315 187 177 167
134.649446300825 653.054023790923 3456.8146114997 202 195 185
72.0508299541174 666.232426542504 2554.8771785565 189 189 189
78.2541320810584 665.217169359723 2570.12225354478 187 187 189
91.6249222561052 663.172482718605 2591.15525355617 181 181 183
106.673074315095 660.888398884726 2613.3921476988 177 177 179
124.997613659278 658.135527199249 2638.11280258595 176 176 178
148.213209013195 654.68255084479 2666.58217330695 197 197 199
164.390800938209 652.242549379429 2689.13780868399 198 198 200
167.081429705895 651.739565321192 2700.71042207019 200 200 202
169.009815855841 651.346443722073 2711.60646886063 201 201 203
170.973936299961 650.948686271815 2722.46805398747 200 200 202
175.389675869797 650.200049635674 2735.19807066647 199 199 201
175.816001296722 650.023623006384 2744.71983990207 200 201 203
173.84239042992 650.191206307843 2752.32287104223 202 203 205
171.884894641576 650.35664010995 2759.91021736633 204 205 207
173.19613006121 650.05429716156 2769.98911543447 207 208 210
174.538852961502 649.747879816174 2780.03701032096 209 210 212
175.096264698435 649.554279017541 2789.43114724763 210 211 213
174.862562757475 649.474108327165 2798.17719751308 211 212 214
181.219531352264 648.452469077413 2811.85371337617 212 213 215
183.517463667207 648.01156789791 2822.39019500497 212 213 215
185.850961581645 647.566183109476 2832.89202214317 210 211 213
186.566476587545 647.352297068674 2842.1321583365 209 210 212
186.481140410224 647.25318664105 2850.7336784903 206 206 208
185.589046693214 647.269491516942 2858.70201531591 205 205 207
182.219571389163 647.639320620143 2864.82745000031 201 201 203
181.361578045351 647.651149695681 2872.76258617258 200 200 202
179.687446688934 647.779609525403 2880.07435000584 199 199 201
176.352564233323 648.144795844178 2886.16578183989 198 198 200
173.0261827576 648.508897441453 2892.2492702386 198 198 200
168.023785150386 649.111518952091 2897.12765781549 197 197 199
163.866009059635 649.593964841216 2902.60199496283 197 197 199
160.558804435983 649.9554719851 2908.66682392303 198 198 200
154.715827969923 650.677654576279 2912.9450004976 198 198 200
147.170172753286 651.641633282962 2916.04474408798 199 197 200
143.020434558711 652.122829992251 2921.51128411383 198 196 199
138.875075092511 652.60353366208 2926.97354886869 196 194 197
132.167366737634 653.448119224705 2930.67575441049 190 188 191
126.309767063065 654.171850459538 2934.96822315842 187 185 188
123.02773367172 654.530066431982 2941.00854314653 181 179 182
118.892237646789 655.009585627142 2946.46118842324 180 178 181
110.444185783119 656.100682653506 2949.02099003216 177 175 178
99.3851069556788 657.561634348924 2949.86784986046 172 170 173
90.033934576339 658.780058887765 2951.88839738156 165 163 166
83.271720306783 659.631397849345 2955.64372995296 164 162 165
73.8886175446329 660.853847720292 2957.69538987389 160 160 162
63.6136158060645 662.202256381307 2959.1971926912 133 133 133
48.9409426555873 664.172560262169 2957.88914795758 125 125 125
37.7339488026895 665.651923121513 2958.88016843076 119 119 117
28.2579046184575 666.885971797839 2961.02240625937 139 140 135
24.9287557581575 667.250835049697 2967.10853013966 143 144 139
52.3842973327664 662.358945634747 3063.84768514109 133 135 134
42.056205886424 663.716864562749 3065.40113905172 133 135 134
43.0716143664296 663.380926175451 3081.44640030611 154 156 155
47.2454951921018 662.698089855404 3091.57270455799 149 151 150
46.9093769769873 662.651014593504 3098.99865489007 156 158 157
42.0341809770681 663.24332029656 3103.75225406239 175 177 176
41.7268832273354 663.193568296194 3111.14964302508 175 175 177
45.1011525861262 662.626943461697 3120.63588795946 154 152 155
47.5924507907886 662.18551877428 3129.56318461584 146 146 148
47.3565648694638 662.128343298661 3136.89109560566 144 144 146
45.297171885716 662.32816337413 3143.1576357572 147 145 148
46.9421785577313 662.008422154483 3151.49041833487 156 156 158
50.4644662605953 661.426026728299 3160.83200975204 154 154 156
54.948244905193 660.709842840271 3170.65550964457 161 159 162
57.6123430312463 660.250172106674 3179.41391018221 148 146 149
54.7214011972077 660.57099647708 3185.07139693498 135 135 137
49.971961759848 661.153109574579 3189.7016244443 158 158 160
52.7007532238506 660.687229189072 3198.39670132485 159 160 164
62.9542013321505 659.167548548905 3211.1117222079 133 134 136
65.7597208843601 658.693397582647 3219.73216719283 142 143 145
62.9516614110699 659.006911700248 3225.30809314633 145 146 148
63.9211679339349 658.791981518011 3232.87925701455 142 143 145
68.6913291801345 658.045768341746 3242.42281306587 155 156 158
74.4458537122545 657.163089672119 3252.42596068074 173 174 176
84.0358943139536 655.744749628351 3264.36786761121 138 140 139
103.185995261233 652.990152223873 3281.18409825236 134 136 135
105.292219625313 652.622498277089 3289.0659663239 148 150 149
97.8834806124791 653.586920206627 3292.02934674978 123 125 124
87.594159378499 654.954795231097 3293.5424919177 101 101 101
83.0289502207116 655.522616951768 3297.99188829524 101 101 101
75.5831163246232 656.493897127334 3300.99109084278 106 106 106
67.1630670105237 657.601867201344 3303.52059167695 111 113 112
80.8941008213724 655.615235972303 3317.10239943747 107 109 108
103.389261015652 652.406073873595 3334.91484921373 99 101 100
126.959597878524 649.049073227004 3353.09873029658 110 112 109
153.549999590267 645.272804548763 3372.59667576686 118 118 116
85.7947969220496 654.548132225946 3359.15503913623 120 119 115
127.242339323451 648.704866779868 3385.46011662613 164 160 148
152.222893687116 645.162108127157 3403.68799515374 192 178 165
161.618746073808 643.795551604706 3414.39783311079 203 176 159
161.236195806655 643.79432759623 3420.44620504398 203 174 156
160.867500774364 643.792225001142 3426.48061053687 208 183 163
160.512998124709 643.789247247526 3432.50105213204 208 185 167
159.183767966416 643.923230340407 3438.05226048139 219 191 177
158.855566472222 643.918794426271 3444.04680015587 217 188 174
153.577061519314 644.605273125352 3447.77006303511 211 188 170
150.282637215993 645.016295523978 3452.39763545555 202 185 165
142.006786358568 646.122215065348 3454.78424815842 188 175 159
130.717611493515 647.648675725974 3455.84991455707 201 189 177
72.8907663594582 658.354843773089 2556.6243219002 190 190 190
78.3075617965117 657.490352869952 2571.21121715023 187 187 189
91.6776145725882 655.510212117033 2592.23540955561 179 179 181
105.14162780851 653.518213117271 2613.16838832107 174 174 176
123.461456197238 650.846486739556 2637.88172801557 174 174 176
149.854753793434 647.044545584219 2668.91514539296 196 196 198
162.845023227699 645.123857337171 2688.89077189886 197 197 199
167.130448083709 644.424199733539 2701.74295393549 198 198 200
169.058399782706 644.055428060375 2712.63583323372 198 198 200
173.432368766384 643.344372187237 2725.4017743019 197 197 199
173.826739221056 643.190961952071 2734.95187348432 197 197 199
175.056225337035 642.920979143452 2745.10716700495 201 202 204
173.080389527102 643.099693198418 2752.71076242602 203 204 206
172.743091490779 643.049211651004 2761.55529710323 204 205 207
172.429478498811 642.995698296492 2770.37642243904 207 208 210
175.400059446348 642.483250163726 2781.67243795828 208 209 211
177.593134102592 642.079981052384 2792.30748278901 209 210 212
178.18379307728 641.900940997977 2801.66645264547 210 211 213
182.085791040403 641.259779975886 2813.4738281679 211 212 214
186.030797017451 640.613269117007 2825.23894895827 210 211 213
187.544924750841 640.306531215258 2835.11668368975 209 210 212
187.437480912258 640.226365268068 2843.73735709206 208 209 211
185.696605128122 640.374338470717 2851.11217721872 206 206 208
183.972076354351 640.520060928578 2858.47143502352 205 205 207
181.43103532827 640.779774829284 2865.20740651996 202 202 204
178.902240319617 641.03782698726 2871.93146314491 201 201 203
177.221933452697 641.177810702535 2879.24731828414 200 200 202
174.719499618159 641.432480646825 2885.94569776321 199 199 201
173.069444783474 641.568532675099 2893.23209328885 198 198 200
168.909006780791 642.05414464419 2898.70860580885 197 197 199
163.909074630013 642.656514313696 2903.58458237307 197 197 199
158.909738796409 643.258690870294 2908.45999532752 198 198 200
152.215172036692 644.09654840696 2912.15014547035 198 198 200
145.513296392926 644.935163476025 2915.84710363814 197 195 198
141.359663827455 645.419622667489 2921.31702863842 196 194 197
138.064359135457 645.784818892637 2927.36949554597 194 192 195
133.065917777615 646.386705779873 2932.24406308577 191 189 192
128.067986625623 646.988528347555 2937.11813349002 191 189 192
123.070608196636 647.590281235719 2941.99166533076 188 186 189
116.350749412163 648.430986458931 2945.70617209923 186 184 187
106.170154140063 649.751513132814 2947.11834884528 179 177 180
96.8323238474729 650.954915696929 2949.12820556031 169 167 170
90.9446443481272 651.679713367695 2953.45072424213 158 156 159
85.0533947817658 652.405092077697 2957.77636433393 147 145 148
74.8032425223975 653.734269577388 2959.2563336083 151 151 153
61.9113952598793 655.429017203828 2959.05478601399 135 135 135
48.1100321627612 657.249186008296 2958.3206167335 137 137 137
37.7782060656835 658.588482886494 2959.88019369636 136 136 134
30.0600935407962 659.566018948145 2963.14884833008 146 147 142
29.3769694078199 659.570191374761 2970.91146844031 146 147 141
81.1634230279612 651.31318700331 3104.91886107433 150 152 149
51.8299627045526 655.276171317272 3095.20243913846 153 155 152
49.6842141246079 655.491890238026 3101.55238183121 153 155 152
47.5500684196999 655.706618182631 3107.89094916336 137 139 138
46.3409979707228 655.794448225443 3114.74656786344 123 121 122
48.809359404661 655.376731078174 3123.69313710813 123 121 122
52.2261339457142 654.829337790716 3133.13433135394 122 120 121
53.8387526780486 654.531193326954 3141.4960836434 134 132 133
50.8718956449332 654.864005736332 3147.22718348416 136 134 135
53.4518021667267 654.434408404941 3156.06474269369 131 129 130
52.3619632558852 654.510391734489 3162.80371365288 122 120 121
61.4853816850229 653.183073809151 3175.19553026929 122 120 121
63.2341559368994 652.870713220053 3183.42417925222 123 121 122
60.3551570901759 653.195162275046 3189.06927071523 135 133 134
57.4833407083886 653.519308592383 3194.70693678689 128 128 128
61.1627786640736 652.944286508824 3203.89138590308 118 118 120
92.0419763707656 648.635121349373 3227.71138700782 128 129 131
104.294033629415 646.886065031897 3241.30947972007 133 134 136
117.555938321217 644.99991212983 3255.34228897796 128 130 129
97.9020944604243 647.63269056802 3251.79748467208 127 129 128
107.464358505853 646.256506266278 3263.76074353327 153 154 156
148.799919417513 639.658872086434 3396.56448486203 176 173 158
161.092395128612 637.932069323013 3408.70224307021 195 179 164
163.637628052223 637.539587739445 3416.15183866628 203 170 153
161.293097711515 637.816884854382 3421.27316403807 202 169 150
158.954769517911 638.094268176023 3426.3879800028 199 174 152
159.584219419809 637.96698176457 3432.86696209384 198 175 157
158.253559783593 638.108693075646 3438.41844770863 212 183 169
159.905692238728 637.843809007882 3445.31879925551 212 180 167
155.622617417511 638.391070778838 3449.49107081771 208 182 165
151.338088127674 638.939488894311 3453.66461578154 199 183 160
142.06838600246 640.16983153837 3455.60283848719 185 169 153
131.778743454062 641.540341697993 3457.11591325326 193 179 166
71.50333310625 650.871484512506 2546.3549034758 189 190 184
