ply
format ascii 1.0
comment KinectMotionCapture
element vertex 799
property float x
property float y
property float z
property uchar red
property uchar green
property uchar blue
end_header
102.07713819507 284.128917609401 2931.6001712113 35 37 32
93.0866857787733 283.57292685448 2930.02042518 32 34 29
93.524401966735 283.263949471571 2920.45499348996 34 36 31
86.8870482720805 282.769402956269 2916.87626027919 37 39 34
71.6744745842948 282.053858768778 2920.66603956959 31 33 28
58.0689251517579 281.382378885012 2923.15093497421 31 33 28
39.8531414075838 280.595803689018 2929.70399888783 28 31 24
52.6391941921083 280.5981647702 2909.32995293862 29 32 25
44.4986662520392 280.067964976456 2907.13142930554 31 34 27
43.2907499763937 279.711805952751 2898.8431722742 29 32 25
33.621482477761 279.14388250521 2898.00631489085 23 26 19
40.0281269762925 278.973960026842 2882.88800354627 22 25 18
31.8791254622788 278.443073078985 2880.68333375802 24 27 20
32.1039901882059 278.116853987485 2870.96351416803 20 23 16
17.8916033447556 277.439270421521 2874.24350589577 24 27 20
2.21499651619039 276.729199198259 2878.93225648732 26 29 22
-2.85592401535717 276.275416663537 2874.018902848 22 25 18
-3.42421553167949 275.928013028794 2864.95933117354 25 28 21
4.21650879383506 275.771924630066 2848.26503849201 25 28 21
14.0176533286871 275.661673463016 2829.4320028129 25 28 21
-0.851541471794448 274.973948285022 2833.47114017256 25 28 21
-14.9263281431853 274.307507200071 2836.85093764042 25 28 21
-28.2135388400389 273.661806969139 2839.56673416725 24 27 20
-27.4329188293667 273.337548320386 2829.0147667444 26 29 22
2.00893490129372 273.655702796562 2791.07352546931 24 27 20
-18.6564613145026 272.842920159555 2800.7911212729 24 27 20
1.00028142559117 272.928188356492 2771.81162421188 25 28 21
-27.6352563518585 271.94343741337 2789.33720408209 25 28 21
0.582047955543619 272.20544363834 2751.74271854712 22 27 20
-25.779498690814 271.275717746017 2767.21163746574 22 29 22
-12.2682729669223 271.207644700393 2743.65752372888 24 29 23
65.3951216535416 272.116487413037 2645.57121059897 25 26 18
96.2924986364975 272.380305958563 2603.74409849884 30 27 20
99.8305133023027 272.064118788856 2589.01558856783 32 28 19
100.458763977691 271.684458558759 2577.11784811298 35 26 17
98.2037066487069 271.243468148126 2568.07006649728 45 32 23
90.2627492729238 270.686356502881 2564.78074840524 43 29 18
79.5089253659525 270.073630413519 2564.39277710791 39 22 12
68.780450130157 269.462956915721 2564.02319200006 45 27 15
51.7712301055111 268.731041682973 2570.21615993761 49 23 10
41.8120070322354 268.13961308082 2569.16898851199 70 44 31
35.3549419087149 267.616587406612 2564.4854749752 106 86 77
34.4492100924323 267.198781443692 2553.9458923951 132 115 108
431.068300029946 302.214125292166 3135.60081467609 209 204 200
426.969185308145 301.790234863217 3130.15676411081 59 50 43
417.4728151712 301.203889302357 3128.21040825094 63 48 41
410.683232046403 300.699411020105 3124.52097589414 87 62 57
411.943445496694 300.434880035792 3115.55230962932 83 62 57
246.139156140456 285.708097597871 2960.69897186905 13 20 13
257.427979718096 285.660304654518 2942.94470283992 30 37 30
235.025796226822 284.761021487965 2951.4028263404 30 35 29
209.441461719917 283.787158013645 2962.49420388905 30 35 29
172.549916725675 282.538528903453 2982.67933669938 31 33 28
168.340853043881 282.105452266923 2977.15553525662 29 31 26
173.85089213734 281.910105440878 2963.85719999847 36 37 31
161.511276225369 281.276382075441 2964.78962113729 36 35 30
157.269425878584 280.840641418673 2959.24203844758 63 60 55
146.584800951142 280.249390552605 2958.90433974353 84 81 76
130.311805368143 279.526042719672 2963.16068815079 25 24 19
120.493144079532 278.959146785912 2962.21583170243 30 31 26
113.088641810005 278.45040266487 2959.31564635648 23 25 20
108.077990154933 277.998185866039 2954.44599084268 23 25 20
119.719545374149 277.933090902327 2935.71200576382 25 27 22
121.771609588645 277.640785353614 2924.84686059784 29 31 26
104.058356236886 276.892377232671 2930.52937621202 29 31 26
91.1297137413056 276.256753618238 2932.27012089102 30 32 27
88.4375565892967 275.854927070732 2925.37574791653 34 36 31
91.2023860226734 275.574554005079 2913.79232528005 35 37 32
78.3170262004997 274.942439570385 2915.56446426739 29 31 26
56.9139073017966 274.124150121286 2924.74724126127 33 35 30
39.47589607911 273.398053594933 2930.62910430438 32 35 28
46.8535539302994 273.216534273305 2914.97931141508 29 32 25
45.6717107141831 272.845455103258 2906.70987972754 24 27 20
44.4623327865457 272.472155206131 2898.4207707686 23 26 19
29.4219709906316 271.802886657016 2902.33562452984 22 25 18
31.2562738149347 271.492925071199 2891.31253005354 22 25 18
32.2829696499114 271.16335065161 2880.93921579884 27 30 23
30.228181564703 270.76735332549 2873.27187815996 27 30 23
21.3274277377518 270.229022596815 2871.75724600185 20 23 16
20.0022072474715 269.846326401579 2863.38381822593 30 33 26
8.85118084454062 269.263137292739 2863.94338707941 29 32 25
4.49363703016248 268.818019974109 2858.31188823138 28 31 24
3.12340031805558 268.43167976336 2849.9058087779 27 30 23
11.4380524279047 268.234420434213 2832.46481556149 25 28 21
3.2800574253522 267.710471141835 2830.25366134206 25 28 21
-7.83664662369032 267.130068504257 2830.83783083935 25 28 21
1.81047036368787 266.949139460441 2811.89277930659 27 30 23
8.41086864355178 266.704620772891 2795.67921526228 25 28 21
-9.35611491926958 265.997760370257 2802.55802777639 23 26 19
16.980488320423 266.115242200064 2767.30485422135 24 27 20
-46.1452988954898 264.573993836002 2817.87574169676 25 28 21
-21.3888886546423 264.655083731046 2783.94723591696 24 27 20
-17.9101721567414 264.340911422941 2770.41078631343 23 26 19
6.5376546622824 264.39699804182 2736.25874965616 23 28 22
-45.8265773512485 263.086274277091 2777.34010061938 21 26 20
7.30988440571778 263.634048483389 2714.58226479973 24 27 20
59.3653172573432 264.14003060311 2652.27559300034 31 31 23
104.615808343579 264.507022413221 2596.15167724813 31 28 19
96.7066906465917 263.957438021802 2592.88547854576 29 25 16
98.059316895168 263.56263554442 2580.27774007519 53 40 32
95.8140831044028 263.105415946288 2571.23699754796 165 151 142
89.2964318537421 262.576955627734 2566.50953630709 30 13 3
79.9567560868106 262.003126137242 2564.67654045941 35 19 6
70.6334974285583 261.430635950613 2562.85545250801 43 27 14
57.8226359999263 260.804679938244 2564.68162816432 54 26 14
47.8448479184839 260.224998444806 2563.62135254654 53 23 12
39.9774215135933 259.678840988348 2560.38539410964 95 70 63
32.8117390415845 259.143741927723 2556.42345868643 122 103 96
435.845900393215 294.369196073606 3116.79233131469 85 81 78
425.427793658014 293.767325800777 3115.41245244036 45 36 31
427.54826319528 293.501803517735 3105.83206804442 54 45 40
233.366686091172 277.986788240053 2971.16288425049 21 26 20
244.694050638479 277.884071671211 2953.43598171676 26 31 24
231.339772406867 277.238023502668 2954.86812116477 29 34 27
204.945188552723 276.312196973942 2966.60770609285 29 32 25
185.181489478469 275.535233838718 2973.27373846573 29 30 24
167.11761789158 274.798911701025 2978.70214465659 29 30 24
159.660317316005 274.290804723917 2975.76368791907 32 31 26
163.532715709859 274.020955432256 2963.74788785751 41 38 33
157.673704944576 273.545241364525 2959.49815633073 82 79 74
145.379471528814 272.936538055287 2960.46389741811 44 41 36
137.130108949981 272.412800572719 2958.18650996561 36 33 28
109.694998216158 271.499820295177 2971.64193307986 27 28 22
87.1637471593916 270.692867594822 2981.24199704889 23 26 19
102.90982131053 270.656743570004 2959.30813445906 24 27 20
124.88352158226 270.736756703106 2932.00851721813 25 28 21
115.056620791813 270.182291552632 2931.05745626641 26 29 22
104.461681635732 269.614159815708 2930.78488979495 25 28 21
87.5978561588107 268.926539049527 2935.848150597 29 32 25
74.7174727436244 268.318910584551 2937.62402111423 34 37 30
74.3939228884876 267.951797700662 2928.74176806177 32 35 28
75.5992328004562 267.611437158986 2918.49758585245 29 32 25
52.6457694955811 266.818891521284 2929.02698323321 30 33 26
33.6670293568684 266.10562243213 2936.26237171322 29 32 25
41.8386352419122 265.892681790244 2919.95263843595 26 29 22
44.5301526947341 265.575624909171 2908.31588456946 22 25 18
47.9416115966242 265.26832982644 2895.96574996292 23 26 19
32.1235773839827 264.616944030788 2900.55227407882 23 26 17
27.0692004491053 264.157865014175 2895.65088641805 21 24 15
22.0094793608081 263.698353061535 2890.74562247352 26 29 20
23.0279856107316 263.342841603494 2880.36594556061 26 29 20
20.972691514344 262.932526469897 2872.69846305793 24 27 18
18.1385652406503 262.507653347965 2865.70105690191 28 31 22
14.5318745092209 262.068754443623 2859.37886234601 29 32 23
10.1590707690016 261.616353329682 2853.73655883524 28 31 24
1.27984004128923 261.090185440098 2852.23759083828 26 29 22
6.61502735898178 260.793056996725 2837.57665514617 27 30 23
4.43238793290002 260.372432939205 2829.81680507958 28 31 24
6.68380841928595 260.019699958322 2817.86083482351 26 29 22
6.66393451493219 259.628613656128 2807.96327041223 25 28 21
-5.94616677559334 259.043005212638 2809.93518574548 21 24 17
-13.3639625894149 258.538165863503 2807.02567788103 23 26 19
-54.5403208012805 257.532016435151 2836.45684160089 24 27 20
-42.1376900676087 256.932462492946 2804.68558291228 24 27 20
2.87127265009079 257.17880443325 2750.85604023427 23 26 19
11.3085784304592 256.890192837 2732.26846193473 26 29 22
-15.7722775590692 256.103475574831 2748.45169915577 18 21 14
93.5985961423049 256.317568410857 2607.88534778071 23 19 10
92.8665585808668 255.868790867067 2597.4715229956 38 29 22
93.5221947011851 255.435315882562 2585.59336225188 49 32 25
92.003071373679 254.971342613014 2575.84392185755 160 140 133
90.4518826614473 254.504780091173 2566.07122346646 40 20 11
80.4040798289871 253.932607044645 2564.95993621621 40 22 12
69.673839622975 253.353733785578 2564.58923271826 50 32 22
56.8660449614766 252.752251865861 2566.41775550562 58 25 16
50.38587726128 252.226351582647 2561.71747985751 58 24 14
40.42189212801 251.66103498281 2560.66698857542 101 74 67
33.2561328001848 251.128192026259 2556.7050088654 125 104 99
218.940905596595 270.321688548202 2982.89863457818 22 27 21
227.022690298518 270.1031311814 2967.75909066479 27 32 25
212.895517562973 269.469824570734 2969.86604356022 28 33 26
204.53461175024 268.944712986553 2967.50778907692 28 31 24
205.97110819451 268.597961658461 2957.43116654803 29 30 24
167.519806190613 267.532468314839 2978.95689356939 28 29 23
174.660703794293 267.288877792519 2964.37019035028 34 33 28
163.127462896371 266.71186927395 2964.65242058836 38 37 32
157.270794837342 266.235770890828 2960.40438539271 41 38 33
140.150916634182 265.565143619009 2965.28211418448 27 24 19
116.673322025703 264.78973569008 2975.43164440362 28 27 22
101.292325845853 264.157439151775 2979.09975230096 29 30 24
94.7396379748757 263.67625203624 2975.58246282062 25 28 21
97.7390980535566 263.353483006565 2964.16861972526 25 28 21
95.9282557653376 262.948722295711 2956.67837368943 26 29 22
101.216604606524 262.657505017626 2943.21884483356 26 29 22
85.925591899541 262.032507479119 2946.9522206416 25 28 21
80.9162704737747 261.573750544012 2942.08349631233 28 31 24
71.9779719537397 261.053131317541 2940.54173691721 33 36 29
80.2722216441092 260.800240195872 2924.32100287174 30 33 26
69.7583926140841 260.254544910738 2924.10705402966 26 29 22
51.488204431906 259.593394760541 2930.62131430772 25 28 21
33.2871517812867 258.937871497341 2937.18572090932 27 30 23
34.4998267916692 258.572859314375 2926.94675295158 26 29 22
31.8138603772979 258.148462060939 2920.05704792687 25 28 21
33.725786175729 257.788797644901 2909.08997224644 25 28 21
24.0848220074352 257.262583038061 2908.27413829179 25 28 19
17.5250040948316 256.78080795126 2904.7513826369 24 27 18
14.0196161745556 256.341318427596 2898.50262165911 25 28 19
21.9089186916284 256.055534320061 2881.98816615625 25 28 19
15.3085617300919 255.570484453164 2878.43600629224 23 26 17
14.0050112665104 255.155478595135 2870.07812392632 26 29 20
7.39593944892514 254.669732062678 2866.51964294842 27 30 19
3.04552069385622 254.213093453897 2860.89354532736 27 30 23
-4.31301800518158 253.717936691903 2858.02674877721 25 28 21
8.51595028101215 253.473213802411 2836.4475250328 25 28 21
11.5463119663697 253.101521846723 2823.82079873813 25 28 21
10.8076857566717 252.680991143275 2814.6373774063 23 26 19
0.406610419305231 252.144578680661 2814.50550761867 22 25 18
-7.01475554465869 251.644376173811 2811.59343516271 23 26 19
-37.2569574924391 250.885729692978 2830.42552841001 24 27 20
-40.9444110010657 250.019603133228 2814.16144673639 24 27 20
-45.3805333318873 249.556103726763 2808.47318601297 24 27 20
-8.35350211168295 249.527377850533 2762.44226392911 24 27 20
1.57301402272747 249.201339855445 2742.46368868903 27 30 23
9.23185297112372 248.84549751134 2724.5464792619 21 24 17
100.490284749272 248.384297210002 2601.72517772835 32 25 17
96.1678654940052 247.878650775313 2594.88379820171 29 18 12
92.5432038965259 247.378242349313 2587.31322799444 85 65 58
92.4495967568091 246.907365670243 2576.12677200412 79 54 49
88.0686063024871 246.397013522104 2569.24290912995 57 32 25
78.7343455636607 245.844559649264 2567.41394702342 49 27 16
68.0098428533933 245.282123326931 2567.04748601491 53 29 19
57.3107836095677 244.721774347053 2566.69948009101 59 26 17
54.3253735032749 244.221941668122 2558.35698874205 65 32 23
46.4396092401427 243.684310020327 2555.1080744623 96 71 66
37.8671341385664 243.142381954262 2552.59636370761 124 105 99
166.556403847359 262.544788810957 3032.5786789568 11 18 11
226.765284046837 263.099366036837 2977.41819239307 23 28 22
220.031875457943 262.605742424469 2973.76953713721 28 33 26
202.643233542234 261.951089183832 2978.45251428966 26 31 24
187.768428964108 261.338047515907 2981.25263218228 28 31 24
185.990001872556 260.921731109356 2973.7858260824 29 30 24
181.749008440984 260.467936959338 2968.23877314432 28 29 23
175.064907953697 259.978271536621 2964.62617690964 31 30 25
161.103655765371 259.38521824474 2966.85361304166 35 34 29
145.572059301834 258.772981197125 2970.41264918466 27 24 19
123.655248523169 258.075643165274 2979.22365261481 28 25 20
110.651888897525 257.506203903832 2980.91056848848 29 28 23
95.2864446731989 256.907482206814 2984.59041487049 29 30 24
99.1258531416563 256.568051024253 2972.55034726197 26 29 22
102.911633029127 256.224267016984 2960.47167557972 25 28 21
93.152081592188 255.701511588034 2959.56959822765 25 28 21
88.9537964403329 255.251119408148 2954.05352266462 25 28 21
80.0100178172234 254.740450812467 2952.50813550477 25 28 21
64.7865006564872 254.153242569958 2956.29063168494 28 31 24
62.1728115777307 253.723175631416 2949.45329332522 33 36 29
69.7156758117217 253.413534309201 2933.9226131053 30 33 26
53.7679653661769 252.821719987224 2938.41543389379 25 28 21
47.9944289802172 252.351768093551 2934.22769375524 24 27 20
44.5482172576859 251.908262156109 2928.02181052215 24 27 20
39.5399935986784 251.446282104596 2923.15386566172 24 27 20
30.6678493644461 250.941436206835 2921.6601428152 24 27 20
30.2770586436232 250.529331258258 2912.72891753054 24 27 20
32.1565411691407 250.139031794931 2901.73816785665 24 27 18
24.8095290887655 249.649677938536 2898.87975659122 24 27 18
22.0477458153181 249.207587580711 2891.93500068829 26 29 20
23.8319009208654 248.809552464285 2880.87510695067 26 29 20
17.9856158194052 248.333722049294 2876.63459993985 24 27 18
17.4326240583706 247.908454603612 2867.58572498896 27 30 21
5.53562679584862 247.374764344487 2868.83951652012 27 30 19
1.9442070312623 246.919515473169 2862.52830939818 27 30 23
1.33748424393065 246.489906417097 2853.44046168853 23 26 19
22.3781631326543 246.246785879807 2824.22750949343 22 25 18
19.407765087434 245.787799132919 2817.13143870684 23 26 19
9.73024977527048 245.271851129878 2816.28916005033 21 24 17
-4.37193344939169 244.721727132092 2819.64968634103 21 24 17
-15.4718470954882 244.198675861206 2820.24631805572 24 27 20
-15.4938516439644 243.762419681677 2810.34727477774 24 27 20
-19.9581452644078 243.290558129975 2804.63825525233 24 27 20
-26.6287769354188 242.802107896793 2801.03513452816 24 27 20
-17.2373179178995 242.425854737625 2781.90376172188 24 27 20
-13.0337173550441 242.007649089523 2767.65723246824 24 27 20
3.44151765262346 241.66473814489 2741.3096647373 21 24 17
25.5656720052904 241.347034660685 2709.17636488657 21 24 17
66.266265691906 241.128894708915 2658.39701296047 25 28 21
91.581801781266 240.799373132884 2622.40138187713 30 31 23
105.950917848598 240.39382634748 2596.99738852909 26 19 11
99.4699971280149 239.866680453381 2592.29656069116 65 52 44
97.9742873855312 239.365031979334 2582.56360799493 88 65 59
97.1564386283674 238.86427927247 2572.08731357829 72 45 38
91.3467760796403 238.337526826515 2566.63806047819 55 28 19
79.886073513288 237.785436195872 2566.97300151489 51 27 17
67.7516034308807 237.232853383895 2568.05454823649 50 23 12
56.3526675516206 236.685839356523 2568.43429097682 52 22 12
52.673267860865 236.16960786974 2560.82395981064 70 40 32
44.7938467323326 235.637501099088 2557.57967178912 113 90 84
251.268867981709 256.444011724237 2967.97478545664 3 10 3
227.996471003535 255.747690149307 2977.03813729887 26 31 25
228.661094156722 255.344833771852 2967.63701427176 27 32 25
194.026744496395 254.522592435463 2985.75489704708 24 29 22
189.806837632924 254.064520105551 2980.22340301942 27 30 23
174.97358670866 253.484397398593 2983.05381078355 28 29 23
174.017688489323 253.063691708227 2974.94792007797 27 28 22
167.355373728309 252.577971821555 2971.35113676611 32 33 27
157.460241473575 252.057357803723 2970.35078483245 33 32 27
145.972464689786 251.521234112351 2970.66618006683 26 25 20
131.295401737626 250.953785933334 2973.61017050116 33 32 27
115.863462238221 250.38193988125 2977.2416546926 26 25 20
115.690412120538 249.967824235625 2968.4682640334 30 31 25
118.678537338123 249.582736273133 2957.04618287467 28 31 24
105.697631796563 249.039183465469 2958.74950731308 27 30 23
98.312267156973 248.551599212972 2955.86330242238 25 28 21
92.5178681072745 248.079369107688 2951.66042695408 24 27 20
85.9330699130734 247.599887853544 2948.11986865569 25 28 21
61.2455748838965 246.959493271223 2959.86307336692 29 32 25
57.8584410049032 246.5120002921 2953.69999672824 32 35 28
63.8515101853794 246.14317608716 2939.51561048519 27 30 23
59.6291071818955 245.684767118485 2933.98230524723 24 27 20
52.2834142496609 245.200400450704 2931.12487552153 25 28 21
48.0504194367057 244.741129693351 2925.58388768971 25 28 21
46.9039711274131 244.304808089178 2917.3397840597 25 28 21
34.9240474855606 243.785670533709 2918.53353420106 24 27 20
25.2871204784295 243.286051590689 2917.72076158298 24 27 20
29.4859631122795 242.885327576864 2904.70590838219 26 29 20
38.2185102473564 242.511200834839 2887.56696031958 27 30 21
30.0784204414133 242.019289029455 2885.36894823547 27 30 21
18.1460610721835 241.504068188323 2886.59719857206 27 30 21
29.0086617180956 241.132127143158 2867.29727294043 25 28 19
26.9131233437738 240.675665893483 2859.60008828562 27 30 21
13.4799280125733 240.152462512346 2862.21067790623 27 30 19
12.1233736580844 239.699101305401 2853.81417761123 25 28 21
15.9884315755083 239.271280153657 2840.55751397086 22 25 18
33.2543190866179 238.906906942933 2814.78299840241 20 23 16
13.107102397639 238.350930005739 2823.64249774579 22 25 18
4.19210540715032 237.853127468287 2822.11774569775 20 23 16
-14.3408508556724 237.314437471284 2829.67717670042 20 23 16
-14.3273798530905 236.858539256675 2819.8037509157 24 27 20
-16.5602813339385 236.391021009234 2812.00693280763 24 27 20
-1.92278771735754 235.984022073953 2788.03252134627 24 27 20
-26.9541038486751 235.430145260291 2801.99728876804 24 27 20
-21.2076741027998 234.984361768944 2786.39868189214 24 27 20
1.93675371916147 234.584947298743 2753.76954954157 24 27 20
0.955826415419914 234.10529870961 2744.41017953196 18 23 17
5.00751206420258 233.635768790549 2730.05296947051 27 32 25
55.8800747407364 233.267460501511 2669.35474911964 19 22 15
71.9849645307766 232.294934580315 2631.61960249606 29 22 14
101.343631494407 231.830711237693 2591.14372672495 136 123 115
96.2821614318203 231.304433874954 2585.00152562544 70 45 40
94.7619581511479 230.781060577628 2575.25100147717 76 47 41
84.7130062027421 230.248417748234 2574.13937591361 62 33 25
76.096690221465 229.718266104572 2571.59594361952 66 38 27
66.0853070199794 229.188734818038 2570.51127372592 60 33 22
59.6019742408083 228.661044392373 2565.80869457709 42 14 3
53.8167021967455 228.13313129901 2560.37711679543 64 35 27
-9.18627589697962 227.114551549486 2603.62886991473 64 53 49
219.433249141988 248.730611278839 2993.02735832308 15 22 15
208.611982601037 248.207668044667 2992.59095118894 27 32 26
229.068557650251 247.958075484747 2967.89497786694 28 31 24
201.811031043893 247.293295512385 2980.24535605929 25 28 21
170.576472716253 246.603811756966 2995.88805157632 27 30 23
172.927050661334 246.196064119456 2985.2387206473 27 30 23
158.959897049928 245.656186426523 2987.46214805668 26 29 22
155.585038920813 245.200998928921 2981.30793139681 32 33 27
153.005550015437 244.750742290858 2974.49528320782 31 32 26
155.25055162975 244.334318571516 2963.76937379746 29 28 23
147.792028274957 243.84572073241 2960.83042393583 30 29 24
132.314445017093 243.302449889027 2964.42896473175 27 26 21
122.492159050597 242.80086135876 2963.48181147192 31 32 26
120.674578263386 242.352732351392 2955.98616640837 31 34 27
118.03799454065 241.897745844706 2949.1321050101 29 32 25
92.3582344259599 241.301563419251 2961.39155063437 26 29 22
115.876920373998 241.001798696214 2932.73934061967 25 28 21
92.6473903794074 240.425645400309 2943.06970743538 26 29 22
78.1747978404859 239.904361775111 2946.16186219142 28 31 24
77.0975151870768 239.456660337366 2937.96813505735 30 33 26
63.4652097910937 238.943980029996 2940.43443884422 25 28 21
56.9031086160083 238.46848910846 2936.91005983417 22 25 18
48.7871517324319 237.98615714334 2934.72959074429 26 29 22
45.3419606230625 237.525133732389 2928.524358646 26 29 22
43.4311260777172 237.069375450848 2920.96107329927 26 29 22
34.5488831341285 236.584501449103 2919.46042532144 24 27 20
23.3739321582447 236.092449822968 2920.0028178937 22 25 18
34.4901008595153 235.680224789903 2900.88621063345 26 29 20
49.3357937966068 235.272495845775 2878.29776023429 28 31 22
41.1645654362078 234.785693742604 2876.07720102918 25 28 19
10.9350404985928 234.23808314149 2893.68451642082 27 30 21
18.0289667662326 233.797529093348 2877.8274339125 26 29 20
33.3700407547814 233.370309133611 2854.36296045446 27 30 21
20.6721868985627 232.874009869902 2856.27171444871 26 29 18
18.5445540798659 232.400669840474 2848.5511783519 23 26 17
17.8938461602591 231.927926555558 2839.4312263978 20 23 14
1.5063280250569 231.430442451692 2844.84073563645 20 23 14
-5.12718018656999 230.949297453437 2841.26456350269 21 24 15
-1.34909332342681 230.478199786442 2827.94463348494 20 23 14
-2.81794680807423 229.998743982136 2819.46659297962 22 25 16
-12.4438679754446 229.51334781723 2818.66157629381 24 27 18
-17.627994036387 229.030631771505 2813.66601099637 23 26 17
-6.6549897337278 228.547029592598 2793.21022263977 22 25 16
-7.5037239166833 228.05831118369 2783.94663630413 22 25 16
-13.4961497825381 227.569680234949 2779.60012389718 22 25 16
1.62385708000423 227.064739377347 2754.7396693838 22 25 18
-8.06403030333458 226.574468039842 2753.89000184892 15 22 15
-33.6509783634171 226.106158231299 2768.6874498707 13 20 12
-5.01200711296868 225.565073476752 2730.15953525823 29 32 23
98.9284249328559 223.793728038661 2594.29262403488 66 53 45
100.289622459447 223.245800143203 2581.69032345623 90 65 58
95.9178632690811 222.709848807894 2574.81302285738 92 63 57
86.5743351186641 222.188002206361 2572.97749763828 75 45 35
77.2472702624567 221.667534123124 2571.15391399496 71 43 32
67.9365279423521 221.148458449539 2569.34246443625 59 35 23
61.4488421854973 220.619903827718 2564.63672534367 101 76 69
52.8620824820858 220.099988791516 2562.11447639958 95 75 68
40.1042227287269 219.599563976659 2563.97970994168 138 123 116
199.162887411764 241.296567794738 3009.17326268719 16 23 16
201.591647814972 240.867376668175 2998.58049927507 27 32 26
202.330822875293 240.425710891356 2989.2332239392 28 31 24
196.471578123408 239.947241788065 2984.98330883575 25 28 21
196.339024552132 239.497084181967 2976.23909242764 25 28 21
172.511174953107 238.931895063192 2986.13548565201 27 30 23
160.985909982215 238.42998383577 2986.42417266942 25 28 21
149.490924662579 237.930504037444 2986.73452789086 30 31 25
148.548508016792 237.476892540054 2978.63824359126 29 30 24
156.458915789605 237.055855442134 2963.37343928484 30 29 24
155.438508136467 236.595839921633 2955.22058520196 27 26 21
157.602489395512 236.144814130682 2944.43576714068 30 31 25
144.50891315875 235.640242447352 2946.05761163471 33 34 28
122.670693644145 235.111893849319 2954.92644351419 32 35 28
107.289685830415 234.60876809797 2958.59519725338 30 33 26
97.5189600879043 234.124492692227 2957.68550879466 27 30 23
81.4341025186405 233.626649826667 2962.07938469025 26 29 22
93.0458110215788 233.193973879395 2943.32190121966 27 30 23
91.9595464779244 232.728511196652 2935.12127848044 27 30 23
86.9193762760427 232.253958433775 2930.23011120604 28 31 24
77.9581776561402 231.772998527408 2928.67195192209 23 26 19
56.5183491674821 231.277163020721 2937.82975064358 21 24 17
49.1828541692145 230.803460715298 2934.98006211198 26 29 22
39.5256961247803 230.328431211091 2934.15245365654 26 29 22
36.0843606623869 229.858934075723 2927.94997367794 26 29 22
24.1349152871422 229.385015189923 2929.1663416837 22 25 18
24.5394026964254 228.915781277825 2919.57601001195 20 23 16
33.3532175007911 228.442931337492 2902.4957690417 24 27 18
51.2698497790973 227.960311315072 2877.19239329916 28 31 22
36.9865629801116 227.48412634435 2880.42230273666 26 29 20
24.2732201326774 227.010627496795 2882.31964944221 27 30 21
29.0551771680025 226.522362127628 2868.4920282719 25 28 19
29.9905825818683 226.03380147984 2858.0514358691 26 29 20
28.6214239683487 225.545349433145 2849.64591521274 25 28 17
14.4340307140332 225.07706444216 2852.94508546517 23 26 17
2.54460860952666 224.608173249768 2854.20469661009 19 22 13
-7.06686596774642 224.137056609632 2853.41051937137 19 22 13
-10.6908207124417 223.652825019584 2847.07558014483 21 24 15
4.26127984019553 223.116554713027 2823.32828470347 20 23 14
-7.60190443189002 222.649907721717 2824.60722205739 23 26 17
-11.2995716278737 222.159734472958 2818.21881700614 24 27 18
-13.5374674855169 221.663261549613 2810.4182317066 22 25 16
4.04117706135443 221.090568164081 2783.63464305301 21 24 15
15.6171248642414 220.52977685251 2762.38021922278 21 24 15
-5.78205619786587 220.100429229469 2772.80315201169 21 24 15
-19.807726013378 219.645633975417 2776.21962736444 20 26 16
-36.8601281991257 218.692943040134 2772.49899689474 16 23 15
-20.4700372207149 218.086151215919 2746.08866430827 18 24 14
100.801267513361 215.75251105993 2593.13948398224 29 19 10
97.8833171283089 215.200927465738 2584.84563349629 82 59 53
88.5469645813455 214.690083729873 2583.01536575695 87 60 53
78.5186509227986 214.185545736357 2581.91884368669 92 63 55
71.3360022813485 213.662393607429 2577.94437516171 113 85 74
67.6762299027667 213.113188487739 2570.34810523505 118 96 83
62.5943752965799 212.573404336306 2564.19105853031 114 94 85
50.5071377054187 212.089189029635 2565.30748586472 115 98 90
50.3086554504719 211.508994874504 2554.04444995065 168 157 151
274.827575052225 234.236269247186 2951.59216358141 130 136 132
253.961351224486 233.710707300629 2958.69526225723 32 34 29
224.945999999792 233.174621739891 2972.24237546791 24 27 20
216.565936247378 232.686225929565 2969.87041895792 22 25 18
204.106900008673 232.192182122849 2970.71697725784 24 27 20
191.682288027587 231.700923330922 2971.58850454341 26 29 22
160.570430589146 231.190043130606 2987.32134769282 26 29 22
147.452940271491 230.707674375353 2988.92596882146 26 29 22
144.089306821856 230.235846456257 2982.77980488427 24 25 19
133.445150737574 229.758926568285 2982.47202201722 25 26 20
153.424647877957 229.293869822173 2957.42911336918 29 30 24
165.233010818446 228.816492573051 2938.81396247627 33 34 28
144.910875215595 228.335178760434 2946.31200092027 34 35 29
110.291417828603 227.865274170374 2965.67779518365 32 33 27
108.483261630778 227.389369786132 2958.18884151832 32 33 27
88.3845093388698 226.926276578151 2965.84861310559 30 31 25
84.2049464590047 226.453209623333 2960.3462893419 27 28 22
85.5449068864371 225.972367380873 2950.19900659731 25 26 20
89.9953831083482 225.483526257611 2937.3661216241 28 29 23
92.8167758213521 224.992649312251 2925.8226366725 29 30 24
78.3566590399181 224.531519005596 2928.9241400598 24 25 19
74.8791731805607 224.050254934253 2922.69539428511 25 26 20
50.3568884712893 223.618975327271 2934.55971716861 26 27 21
36.8131867814143 223.167208736011 2937.09056021292 24 27 20
27.1850554104498 222.707693025355 2936.28407239295 26 29 22
26.8456702563569 222.220709566481 2927.38973282625 25 28 21
29.5551277154447 221.72070860739 2915.76505740534 24 27 20
39.1266462882269 221.191548572248 2897.99847573906 23 26 17
37.1234601970305 220.699706434035 2890.36806001401 24 27 18
32.8064885761026 220.215441470562 2884.76577452433 22 25 16
24.672928474136 219.747041342929 2882.57261505328 24 27 18
27.9386848669838 219.227006635015 2870.11607449737 24 27 18
34.178560607192 218.687834640811 2854.87470412225 19 22 13
26.0066756347133 218.216348441197 2852.6537465031 22 25 14
17.8468729198671 217.74588211307 2850.44155273621 29 32 23
14.2013569042536 217.251046799017 2844.09092957429 28 31 22
6.80091922832737 216.777117672461 2841.19386708379 25 28 19
-0.592101595969119 216.303837091863 2838.30247898935 24 27 18
-10.2084509298064 215.845522300849 2837.50453830244 24 27 18
-10.9052676458885 215.32956796331 2828.35094222527 24 27 18
-13.1127848301142 214.821291371838 2820.57261376352 22 25 16
-10.9205020756011 214.279311346234 2808.57281472996 21 24 15
11.801253407326 213.579663113454 2776.87079406655 22 25 16
-5.95150396484234 213.177638604525 2783.76146350376 24 27 18
-22.9042384327076 212.775463707636 2789.99675474967 24 27 18
-25.9534141166498 212.264122227668 2782.84331118453 23 26 17
-20.307531537697 211.676789089128 2767.17109854468 19 26 18
-11.83749367682 211.058094379195 2748.6055764928 20 27 19
18.1954946222405 210.235127393681 2708.61671354119 26 33 25
42.9702517500772 209.441331889727 2673.46203971509 30 33 24
72.5757391046016 208.58350936436 2633.16280117826 27 27 17
94.0928993272703 207.785826559267 2600.58734161594 28 21 13
91.1978119971679 207.221827557637 2592.31000215996 102 85 78
86.1473051808508 206.678391973934 2586.17566164187 104 84 77
80.3782057779814 206.141845433629 2580.75576402284 59 36 30
73.8973463621915 205.612723625029 2576.05497061767 47 27 20
66.7112257542697 205.091567961051 2572.0779953026 73 59 50
298.098882299937 226.219409780194 2925.19190259667 31 33 28
273.900667527733 225.743352743846 2934.82055615161 28 31 24
234.205311128751 225.298157753042 2956.68232567816 23 26 19
228.246953645193 224.810445866902 2952.36051482383 24 27 20
195.349828225368 224.374542268627 2969.2696321437 24 27 20
162.596604419453 223.950393389614 2986.28312635447 23 26 19
143.789898469272 223.505155223459 2992.40954708941 25 28 21
128.29150946606 223.057136113221 2995.99378230234 22 25 18
144.339426830812 222.524049674365 2974.27621508711 25 28 21
153.825500323185 222.000956258478 2957.68275981637 29 32 25
147.967386364322 221.52128306804 2953.43365834997 33 36 29
120.482134911514 221.117855611798 2966.85531437247 32 33 27
107.492391602912 220.669927482429 2968.55271648279 33 34 28
104.897100369711 220.183728064802 2961.72843079186 34 35 29
114.994175623635 219.642154377699 2944.34247902506 33 34 28
94.1061068595097 219.231596736718 2952.665655466 27 28 22
82.7808486384396 218.783079655116 2953.09930761956 23 24 18
72.2730775776146 218.333096595906 2952.89052960696 26 27 21
78.2891322459887 217.799433447896 2938.7222655699 27 28 22
81.8883506473047 217.273099080183 2926.50713235433 23 24 18
74.4962749479701 216.804573752775 2923.61645348744 25 26 20
63.2168006466265 216.359810487128 2924.08331439531 28 29 23
43.4216431286809 215.97030550407 2931.96354105213 25 28 21
34.5498052077695 215.517450338356 2930.47030360199 26 29 22
31.8743562122181 215.024675100288 2923.58787653065 25 28 21
41.5048795439357 214.444920059953 2905.86381239967 23 26 19
36.4528932895265 213.962808373466 2900.96404112919 21 24 15
32.9273140542683 213.4688621275 2894.70036720223 22 25 16
25.5692192285668 213.003176355145 2891.83404170171 20 23 14
25.0721940153498 212.483591080774 2882.82526035732 21 24 15
31.3771136803713 211.905261375297 2867.63084336987 22 25 16
24.7397392486786 211.430258392541 2864.05219411822 18 21 12
20.3706224097697 210.935734959537 2858.41205548602 22 25 14
12.2280167730873 210.47433886678 2856.21237419063 31 34 25
19.8582013163127 209.867793119885 2839.50845381774 29 32 23
22.170138414888 209.304686933499 2827.59499328655 27 30 21
6.52575685233669 208.913241810069 2832.30871856517 26 29 20
-6.08689349606828 208.496422514205 2834.27964098227 25 28 19
-11.9855567164766 208.013658548763 2830.00112883543 21 24 15
-6.053183007656 207.405073786314 2814.53649208598 21 24 15
2.75686324587543 206.758507425488 2796.21730819867 21 24 15
0.45107579769077 206.227987340875 2788.3676288577 23 26 17
-13.6041301836007 205.830031586774 2791.76298071682 26 29 20
-23.958664622437 205.393089712948 2791.6653532579 25 28 19
-16.803580922796 204.747977929078 2774.61653232274 24 27 18
-12.6343486743576 204.132101872068 2760.34408750493 20 26 16
4.50592885887069 203.346954202552 2733.24134664808 22 30 19
25.8352579569836 202.494409304111 2701.76448303694 29 37 26
57.2260539447336 200.893029062171 2649.16940021003 26 27 19
72.3602833182957 200.080702843127 2623.08266230176 28 24 15
69.5343482845807 199.508086920696 2614.8554091748 43 30 24
66.6850642859282 198.933642105926 2606.61151509819 60 43 36
73.0253413510855 198.222372538143 2588.97168834264 59 42 35
244.210426261571 219.376792288745 2976.25650399729 10 17 10
255.605039495703 218.815373069691 2958.57632252946 23 25 20
243.039603208593 218.355377958461 2959.34592162695 23 26 19
237.075353122087 217.866658479406 2955.01983399533 22 25 18
229.473039557815 217.38608268089 2951.97668817544 22 25 18
203.917028368688 217.000689687198 2963.0915786206 20 23 16
158.922881814065 216.73128057061 2989.7591723071 19 22 15
147.433429303152 216.28808705477 2990.07382348079 22 25 18
154.601502388075 215.736106757261 2975.50525829298 22 27 20
131.006125128779 215.368876540923 2985.57147285552 27 32 25
124.42206641409 214.90037795267 2982.03121177395 28 33 26
117.841813671764 214.432142882761 2978.49371105775 29 32 25
108.060388718371 213.986409235712 2977.57646173433 29 30 24
101.496023999724 213.51946127291 2974.05048510502 26 27 21
105.292794263608 212.975916138379 2961.97876875168 25 26 20
113.009197235857 212.397518213753 2946.57223468442 24 25 19
102.425686754865 211.957201655958 2946.30860051252 20 21 15
85.5462672387208 211.570586764173 2951.36208151684 18 19 13
70.3031367953879 211.175649995776 2955.13162797984 22 23 17
77.8997178963952 210.587413630103 2939.63847712437 23 24 18
75.2340548906871 210.083878206086 2932.76308962346 20 21 15
78.0198901459181 209.528633965888 2921.19320780183 23 24 18
68.2889229419805 209.086965555335 2920.31255696903 28 29 23
55.4709731969023 208.677165801615 2922.13468902754 25 28 21
34.1685072178386 208.355342234262 2931.39294616848 27 30 23
33.0412040817594 207.835481473844 2923.16229814082 26 29 22
27.2639084380759 207.361810305934 2918.97181399727 24 27 20
29.1679805855227 206.805561144713 2907.99804929714 21 24 15
24.8989073625281 206.313093299028 2902.43044482911 21 24 15
29.7860668937755 205.716506538719 2888.67853852403 19 22 13
31.5640981796772 205.149971982296 2877.61335201598 20 23 14
30.2593829054914 204.615664180366 2869.25402096612 21 24 15
20.5973003960263 204.179785301643 2868.42333544355 19 22 13
4.16078753663918 203.829633290689 2873.79807362713 22 25 14
6.60614997359632 203.246675421966 2861.98152989551 23 26 17
24.0153792604869 202.465850057816 2836.30881642713 21 24 15
21.0786577669722 201.940340937403 2829.23682154263 22 25 16
6.18300789674597 201.574166344746 2833.25840977476 25 28 19
-2.70834086541338 201.130402322289 2831.75107454785 26 29 20
-10.0993630731971 200.667201968828 2828.86089187449 20 23 14
5.44648535131742 199.876292358583 2804.30798498621 23 26 17
1.68985293180945 199.354965374712 2797.87667698623 24 27 18
-13.109958966627 198.996820683354 2801.96748640541 27 30 21
-16.1292122079901 198.464812270367 2794.83562957538 29 32 23
-13.3202483511123 197.840800299501 2782.04712921936 28 31 22
-9.10803435097018 197.189415936335 2767.80566293407 27 30 21
-3.50564663431885 196.50959695407 2752.10145148128 27 33 21
-6.66589735049739 195.96622591699 2744.86732501879 29 37 26
-21.3975733211083 195.613947412997 2749.00785181656 33 41 30
3.51368367534244 194.594068048248 2713.95098449894 30 36 26
266.959759948835 211.820720700049 2959.36136368522 23 30 23
241.982704497306 211.474125011014 2969.66111138688 22 24 19
236.861740246466 210.980062621233 2964.71127596205 22 25 18
230.09398091391 210.49888528743 2961.03778216188 21 24 17
231.518024090293 209.949543872313 2950.9511058346 21 24 17
205.13720925019 209.635666622772 2962.70377185854 19 22 15
174.793296624371 209.366692008527 2977.75920878464 19 22 15
176.25691872442 208.820497183809 2967.70124000189 22 25 18
144.468849725046 208.581020678593 2984.18029430213 22 27 20
133.824180491001 208.151686242441 2983.87238047155 27 32 25
115.14850985429 207.803632186238 2990.09428375834 27 32 25
113.415170239617 207.291120493598 2982.65938080756 24 29 22
117.267946204475 206.718775396561 2970.62811830459 26 27 21
113.076669650567 206.226628099189 2965.11691192588 21 22 16
117.641559552699 205.638646873346 2952.36646570701 19 20 14
113.407052442482 205.142922739023 2946.82390245806 18 19 13
103.615035552299 204.709399986543 2945.89903666421 16 17 11
96.2153357599949 204.250059585847 2943.00258297607 15 16 10
88.0351611599006 203.800712769386 2940.77572816929 20 21 15
75.9375294599272 203.400080902827 2941.88504395901 21 22 16
81.900365520875 202.778686261741 2927.67746176335 18 19 13
78.4177903135004 202.270614332101 2921.44489082458 20 21 15
77.2590811614884 201.731147897328 2913.19167107615 23 24 18
64.4158209441441 201.343349176276 2914.99527199571 23 26 19
52.3858291696833 200.948279045771 2916.15364958223 25 28 21
37.2990560946431 200.598506713017 2920.03647712808 26 29 22
35.3637172100578 200.069372337962 2912.45535087552 25 28 21
31.1003227840603 199.5713080089 2906.89183474134 22 25 16
47.5142956783476 198.771114638162 2882.96790830679 22 25 16
42.4079837601039 198.27794799963 2878.02869920771 20 23 14
38.0581224446566 197.772834080355 2872.4024656725 20 23 14
33.6982011547926 197.266952889222 2866.76923003778 21 24 15
17.967527275367 196.938507005265 2871.4207192779 19 22 13
3.0482833013572 196.602620053062 2875.42506257653 22 25 14
12.2767650937163 195.879238879877 2857.408822459 24 27 18
19.1638595376116 195.185858086011 2841.40081700734 22 25 16
14.7458714419835 194.675332579847 2835.72546398155 21 24 15
2.85407703720875 194.291880761791 2836.98378816265 23 26 17
-3.7941439682676 193.820514321217 2833.39699994097 24 27 18
-5.98711369039151 193.270583654909 2825.62900625885 21 24 15
1.41445730531764 192.5455558999 2808.75846443476 23 26 17
-4.54139276491872 192.057106177113 2804.43846752056 23 26 17
-13.440038434736 191.623350973379 2802.92618778323 25 28 19
-21.5888306767524 191.177136448083 2800.72209858323 26 29 20
-12.1812703015629 190.394795446241 2781.60004660274 25 28 19
5.8781884715251 189.43411190163 2753.92771408996 24 27 18
10.7122101242951 188.720825516372 2738.90165926694 31 34 23
-8.42583766932115 188.483534315101 2747.25900977916 31 37 27
-7.26430891586616 187.839155816423 2735.7465131336 29 37 26
-17.6678476031769 187.430341416671 2735.61350392037 28 36 25
4.25425282205971 186.342746707866 2703.32983121477 24 29 22
251.468884372613 203.972806533357 2962.9135636144 24 29 23
231.504343666424 203.639261503631 2969.43624760224 24 27 20
226.393913086552 203.142751612884 2964.49403586322 23 26 19
218.0030076636 202.684044779371 2962.11407589839 20 23 16
212.074640981172 202.197089655765 2957.81400984898 18 21 14
202.072803490587 201.759682862101 2956.73702095067 18 21 14
166.096198362655 201.647432153105 2976.35583807029 15 20 13
149.725456605187 201.301501262475 2980.54323988088 13 18 11
136.642748986263 200.918279727748 2982.17357793035 13 18 11
129.239453130589 200.463699248598 2979.27483596609 15 20 13
127.469638241278 199.933946412119 2971.81340398051 17 20 13
123.272820513585 199.435331028493 2966.29814792454 15 18 11
137.44879549053 198.678611596522 2945.69280471338 15 16 10
117.241589356636 198.401590605068 2953.27489828854 14 15 9
102.676199071577 198.050152935289 2956.30093675828 15 16 10
96.0849730268074 197.585315524245 2952.75549847076 14 15 9
105.306803793799 196.882591474121 2935.9695781446 13 14 8
103.408216504294 196.342192956186 2928.41503685253 17 18 12
101.487095493161 195.799906321281 2920.84385634406 19 20 14
97.9753030509256 195.280625385129 2914.59004843238 15 16 10
85.0688529027397 194.911742415026 2916.34823191157 16 17 11
71.421537736466 194.558837060872 2918.80446408727 16 17 11
60.9262521990326 194.157503692938 2918.6049835173 18 21 14
52.0067146300729 193.73192578744 2917.07730573903 21 24 17
43.1036893261103 193.307715431464 2915.56160498095 25 28 21
38.8415969579508 192.80371041272 2909.99929712254 24 27 20
37.6439106338622 192.244063982571 2901.71742529757 23 26 19
45.6149959978798 191.515488792489 2885.25971862465 23 26 17
62.6756622892817 190.611505186306 2860.56903168758 22 25 18
37.696240060956 190.480489064626 2873.33852335067 19 22 15
29.5402843585117 190.040915752808 2871.12927484438 20 23 14
20.6388881624586 189.616979264302 2869.61475644859 18 21 12
16.2862756379671 189.105668084893 2863.98649711289 20 23 14
21.7145697881698 188.398912832161 2849.39127618714 20 23 14
20.3173696409871 187.823081153368 2840.9646905525 20 23 12
4.66625480653882 187.536396502078 2845.67406537108 19 22 11
-9.43559251153125 187.223329569261 2849.0360359084 19 22 13
-13.0691104610694 186.694433952733 2842.69393787848 22 25 16
-10.7796656191623 186.037383570089 2830.76399086158 24 27 16
-7.05981755058849 185.344194617232 2817.40042288559 26 29 20
-7.82484780739878 184.743699292574 2808.19694914023 22 25 16
-5.67957391873541 184.074954518923 2796.16243028816 22 25 14
-17.517515082442 183.717604694735 2797.45992604474 22 25 14
-12.5047184395255 182.977126875936 2782.56303682034 22 25 16
-11.2039461153568 182.316023746003 2771.15139609724 21 24 13
11.8540937141147 181.136985196967 2738.45569029765 31 33 22
0.681180937218695 180.757648567526 2739.00013132753 32 35 26
-3.23854923444067 180.205768204453 2732.45043552745 18 26 15
16.5919132080719 179.069171881841 2702.3556459722 27 35 24
283.50673241863 196.672761403611 2947.81242694135 0 5 1
242.793703728603 196.670298849556 2970.17403773921 21 26 20
231.908768289004 196.253231605074 2969.69201194444 20 25 18
221.870953412918 195.826118202687 2968.58869993262 18 23 16
229.87433199806 195.130259772816 2953.38990012792 15 20 13
227.999768966828 194.577872242833 2945.85271380666 17 20 13
197.587772399374 194.466437877637 2960.85959320291 18 21 14
172.181666652194 194.288730403662 2972.08420527017 17 20 13
146.069454049094 194.132574918281 2984.0323856798 15 18 11
149.15957507966 193.510379014732 2972.68274798711 14 17 10
148.170706221181 192.950998430011 2964.55254822294 14 17 10
131.883577671244 192.64688546686 2968.80048037109 12 15 8
117.255410612974 192.31989802698 2971.78113446343 12 15 8
113.066918448332 191.815922981475 2966.27188663805 12 15 8
130.393178912552 190.930574638048 2943.0088656054 11 14 7
107.046054000837 190.762702011987 2953.25605337817 11 14 7
95.6869299786014 190.385859812608 2953.66551853714 11 14 7
97.0074766107629 189.77729950443 2943.50351540086 11 14 7
105.38345932611 189.032067994748 2927.33953756833 13 15 10
112.893497024996 188.295257678244 2911.78289699739 14 16 11
113.271697467289 187.688824664473 2902.17281440178 15 17 12
80.7758882053733 187.724426938906 2920.61057374545 13 15 10
75.7166410105792 187.228401274083 2915.70517391025 12 14 9
48.8826704164951 187.172050690682 2929.60100981607 16 18 13
57.8289048662066 186.394052309107 2912.61492255867 18 20 15
55.09457512585 185.850302700978 2905.68955338361 24 26 21
52.3418015578176 185.305041110762 2898.75051174876 26 28 23
44.1895189922175 184.873352828522 2896.54396591699 23 25 20
36.0494155942477 184.442681066594 2894.34625417263 22 25 18
54.6715526228496 183.424982903479 2868.31686145135 22 24 19
35.0475389134122 183.244771965033 2876.32221402295 16 18 13
32.2191805475613 182.693412457579 2869.32864294497 21 24 17
18.7645305990696 182.383365782434 2871.92475933638 18 21 14
12.9076436502435 181.901626280193 2867.67653688946 18 21 14
16.0895803879564 181.207377514916 2855.15805677118 23 26 19
22.222001397882 180.437193752857 2839.83762004873 20 23 14
10.3089769644691 180.094771655888 2841.08105642965 19 22 13
-6.79655456559902 179.882940459833 2847.20654595269 20 23 16
-8.94731403913518 179.307916558603 2839.4690242784 20 23 14
-7.4094643716569 178.637977084183 2828.22920122312 25 28 19
-9.61713718627522 178.058347145185 2820.45010404578 26 29 22
-22.1788780076155 177.742452005338 2822.45844306626 22 25 18
-18.516370103985 177.008435511569 2809.05310118147 21 24 15
-12.7116499682967 176.211674452165 2793.49497248255 21 24 15
-22.3360074647785 175.818880076394 2792.69185285848 21 24 17
-13.7118273930255 174.935502375962 2774.23673111329 21 24 15
2.81912180689181 173.826209917873 2747.92566991585 29 30 22
-1.80396795239379 173.287336697885 2742.10149073023 30 33 26
-4.26929980362201 172.686982862965 2734.13550604792 18 23 16
-9.98766327208367 171.501403945474 2718.8679240489 20 25 18
247.486063939484 189.786300401776 2976.01112872214 25 32 25
248.979118458247 189.167272467885 2965.97412721377 19 24 18
226.381115442231 188.37913942628 2965.64501460063 19 24 17
245.02626707475 187.440281764349 2942.10277825797 17 22 15
219.418741884683 187.311221000252 2953.18162347775 17 20 13
215.102080652878 186.790866045475 2947.57938019285 17 20 13
193.709642834438 186.596436907263 2955.53802347603 15 18 11
165.105349456775 186.55040055151 2969.38560348826 13 16 9
190.48553421285 184.846198513287 2930.95980131714 12 15 8
137.446985950413 184.107390900525 2946.85272346286 9 12 5
97.3028918797754 184.348122521729 2970.86303556362 9 12 5
105.850799493569 183.567201607664 2954.82350898517 9 12 5
185.685700378203 181.233297597174 2879.29203701844 9 12 5
107.789434763373 181.086648124271 2916.69218566776 10 12 7
105.047319133653 180.53069240808 2909.761110509 10 12 7
89.7748970811412 180.262598206555 2913.50977086498 10 12 7
40.2425043808661 180.802461699275 2946.77247418248 10 12 7
61.326435629308 179.074077060184 2910.17283913829 9 11 6
63.2233576269088 178.405288747413 2899.19332110896 15 17 12
62.7623619004138 177.789765762665 2890.20987788796 17 19 14
45.3550687230826 177.59340026679 2896.11698676683 20 22 17
36.4457879281415 177.189533737784 2894.59685431533 20 22 17
26.024036346652 176.826112913507 2894.45087211383 18 20 15
24.7747407013952 176.22825398205 2886.1313940367 16 18 13
24.2579455126064 175.608280720755 2877.10777253016 19 21 16
13.8573244529621 175.246668788102 2876.97711745729 18 20 15
4.99338519013337 174.846684532213 2875.48987371454 19 21 16
12.7218569038416 173.998491482381 2858.85597981785 24 27 20
25.6291052534241 172.99940419773 2837.32938748057 21 24 17
24.9421670757375 172.365587713031 2828.18235557169 20 23 16
