ply
format ascii 1.0
comment KinectMotionCapture
element vertex 761
property float x
property float y
property float z
property uchar red
property uchar green
property uchar blue
end_header
46.7741265892982 832.33767747879 2582.00001716614 227 229 226
53.9635606110096 835.235416889191 2591.00008010864 220 221 216
61.2488016486168 838.777303695679 2601.99999809265 209 208 203
68.6198398470879 842.641234397888 2614.00008201599 198 191 181
75.8241564035416 843.925714492798 2618.00003051758 197 189 178
83.1450372934341 846.176743507385 2625 198 188 176
90.4349833726883 847.782552242279 2630.00011444092 138 121 105
98.2341468334198 853.578388690948 2648.00000190735 124 106 86
105.931721627712 857.761919498444 2661.00001335144 139 114 92
113.699600100517 861.944913864136 2674.00002479553 136 112 88
120.99501490593 862.259268760681 2674.99995231628 124 97 70
128.34358215332 862.895548343658 2677.00004577637 122 95 66
135.702788829803 863.531291484833 2678.99990081787 120 90 62
142.965883016586 863.521933555603 2678.99990081787 116 86 58
150.509133934975 865.123808383942 2684.00001525879 111 84 57
158.255606889725 867.692112922668 2691.99991226196 121 95 70
166.906133294106 874.772369861603 2713.99998664856 135 110 88
176.317796111107 885.075151920319 2746.00005149841 125 104 83
185.701906681061 894.410371780396 2775.00009536743 100 87 71
-2.27284175343812 836.912095546722 2618.00003051758 208 210 207
4.823905415833 836.272656917572 2615.9999370575 231 233 230
11.8596777319908 832.11624622345 2602.9999256134 234 236 233
18.8103765249252 827.320098876953 2588.00005912781 232 234 231
25.7495399564505 824.761092662811 2579.99992370605 232 234 233
32.7087230980396 823.799967765808 2576.99990272522 234 235 237
39.6207757294178 822.199106216431 2572.00002670288 228 232 233
46.451274305582 819.638729095459 2563.99989128113 224 228 229
53.4674227237701 820.594191551209 2566.99991226196 225 227 226
60.7351511716843 824.745953083038 2579.99992370605 221 223 220
68.2045519351959 830.495476722717 2598.00004959106 205 202 197
75.4528567194939 832.728207111359 2605.00001907349 202 198 189
82.8340128064156 835.919320583344 2615.00000953674 194 185 176
90.3036445379257 839.429497718811 2625.99992752075 182 168 155
98.1666818261147 845.816254615784 2645.99990844727 145 128 112
105.899170041084 850.284457206726 2660.00008583069 143 121 100
113.409705460072 852.514505386353 2667.00005531311 140 118 95
120.822317898273 853.78497838974 2671.0000038147 125 101 77
128.256410360336 855.055034160614 2674.99995231628 124 94 66
135.762646794319 856.64427280426 2680.0000667572 120 90 62
143.135651946068 857.274055480957 2681.99992179871 115 88 61
150.967881083488 860.460519790649 2691.99991226196 114 88 63
158.912897109985 863.966047763824 2703.00006866455 121 97 73
168.024316430092 873.224318027496 2732.00011253357 127 109 89
-9.37751587480307 830.18684387207 2618.99995803833 217 219 216
-2.26084724999964 825.432538986206 2604.00009155273 226 228 225
4.77445544674993 820.677578449249 2588.99998664856 232 234 233
11.7602739483118 818.141162395477 2581.00008964539 234 236 235
18.6881367117167 814.970254898071 2571.00009918213 230 234 233
25.6116222590208 813.383758068085 2565.99998474121 228 232 233
32.4952453374863 811.479687690735 2559.99994277954 229 233 234
39.3462665379047 809.575259685516 2553.99990081787 226 231 234
46.092189848423 806.402385234833 2543.99991035461 228 233 236
52.9712587594986 806.081891059875 2542.99998283386 227 231 232
60.0096024572849 807.979762554169 2549.00002479553 223 227 228
67.2904253005981 812.413096427917 2562.99996376038 217 217 215
74.704997241497 817.47967004776 2578.9999961853 214 213 209
82.0795148611069 821.277856826782 2591.00008010864 188 179 170
89.6221324801445 826.026320457459 2605.99994659424 195 185 175
97.5056663155556 832.993149757385 2628.00002098084 186 172 159
105.508372187614 839.959383010864 2650.00009536743 134 115 98
113.204911351204 843.755185604095 2661.99994087219 144 123 104
120.830655097961 846.599757671356 2671.0000038147 130 108 85
128.265231847763 847.858965396881 2674.99995231628 133 106 79
135.822609066963 849.751651287079 2680.99999427795 119 92 65
143.252164125443 850.692927837372 2684.00001525879 110 84 61
151.146411895752 854.169189929962 2694.9999332428 119 94 72
159.746810793877 861.131370067596 2717.00000762939 122 101 80
-16.4319761097431 820.626795291901 2611.00006103516 212 214 211
-9.30298957973719 816.541910171509 2598.00004959106 227 227 225
-2.24624807015061 813.084959983826 2586.99989318848 231 231 229
4.74713277071714 808.999061584473 2573.99988174438 225 225 225
11.6790924221277 805.541276931763 2562.99996376038 222 222 222
18.5804311186075 803.340077400208 2555.99999427795 220 222 221
25.4637245088816 801.767110824585 2551.00011825562 222 224 223
32.2817601263523 799.250543117523 2542.99998283386 222 226 227
39.0871539711952 797.362208366394 2536.99994087219 226 230 231
45.8961613476276 796.102046966553 2532.99999237061 214 218 221
52.7250468730927 795.469880104065 2530.99989891052 210 214 217
59.6607029438019 796.408712863922 2533.99991989136 208 212 215
66.5862783789635 797.03289270401 2536.00001335144 207 211 214
73.6094787716866 798.599243164063 2540.99988937378 208 209 211
80.8814316987991 802.365183830261 2552.99997329712 214 213 209
88.5278657078743 808.959066867828 2573.99988174438 199 194 188
96.4364781975746 816.80953502655 2598.99997711182 196 187 178
104.639798402786 825.916469097137 2628.00002098084 171 157 144
112.74503916502 833.137154579163 2651.00002288818 135 119 106
120.612882077694 837.84294128418 2665.99988937378 148 129 114
128.130301833153 839.719831943512 2671.99993133545 122 100 77
135.882690548897 842.853248119354 2681.99992179871 129 107 86
143.475577235222 844.729125499725 2687.99996376038 118 100 80
151.661619544029 849.747061729431 2703.9999961853 104 87 69
-16.3828115910292 811.110198497772 2602.9999256134 216 218 215
-9.27501264959574 807.060360908508 2589.99991416931 225 225 223
-2.24033184349537 803.944647312164 2579.99992370605 225 225 223
4.73272055387497 799.582064151764 2565.99998474121 219 219 219
11.6571504622698 797.08868265152 2558.00008773804 215 215 215
18.5454245656729 794.906318187714 2551.00011825562 216 216 216
25.395680218935 792.723417282104 2543.99991035461 216 218 217
32.1825295686722 789.9169921875 2535.00008583069 215 217 216
38.9513038098812 787.733197212219 2528.00011634827 215 217 216
45.77262327075 787.106871604919 2526.00002288818 204 205 207
52.6246726512909 787.103235721588 2526.00002288818 200 201 203
59.5001727342606 787.410855293274 2526.99995040894 192 196 199
66.2759467959404 786.471486091614 2523.9999294281 193 197 200
73.1222406029701 786.466419696808 2523.9999294281 196 200 203
80.1268145442009 788.018941879272 2529.00004386902 202 202 200
87.4679312109947 792.375206947327 2542.99998283386 208 204 201
95.2558889985085 799.846887588501 2566.99991226196 203 194 187
103.532247245312 810.122072696686 2599.99990463257 194 181 172
112.115025520325 821.331441402435 2635.99991798401 169 155 144
120.395191013813 829.112708568573 2661.00001335144 143 127 114
128.379121422768 834.08921957016 2677.00004577637 140 119 100
136.044234037399 836.572349071503 2684.99994277954 108 87 70
143.645763397217 838.43195438385 2690.99998474121 107 90 74
152.289196848869 845.899224281311 2714.99991416931 97 84 68
-23.562828078866 808.122038841248 2615.9999370575 213 218 214
-16.3903031498194 804.416656494141 2604.00009155273 219 219 217
-9.26136504858732 798.857092857361 2585.99996566772 215 214 212
-2.236153697595 795.459389686584 2575.00004768372 211 210 208
4.72568813711405 791.443407535553 2562.00003623962 211 207 206
11.6534437984228 789.898276329041 2556.99992179871 212 208 207
18.5249671339989 787.116944789886 2548.00009727478 209 208 206
25.367584079504 784.952819347382 2540.99988937378 205 205 203
32.1594849228859 782.479465007782 2532.99999237061 199 200 195
38.9695465564728 781.241297721863 2529.00004386902 197 193 190
45.7759536802769 780.311346054077 2526.00002288818 191 187 184
52.6076629757881 779.99883890152 2525.00009536743 188 187 185
59.4103001058102 779.376924037933 2523.00000190735 181 182 184
66.1494582891464 778.136670589447 2519.00005340576 188 189 193
72.9247182607651 777.513802051544 2516.99995994568 196 200 203
79.8474326729774 778.434991836548 2519.99998092651 187 188 190
86.9926661252975 781.209170818329 2529.00004386902 186 186 186
94.5205241441727 786.762654781342 2546.99993133545 199 194 190
102.623753249645 796.022415161133 2576.99990272522 201 194 188
111.229814589024 807.752788066864 2615.00000953674 199 190 185
119.77031826973 817.628979682922 2647.0000743866 174 158 145
128.148436546326 825.342178344727 2671.99993133545 138 122 107
136.307254433632 830.8926820755 2690.00005722046 117 101 88
144.403293728828 835.515856742859 2704.99992370605 98 86 74
-31.1777628958225 814.556002616882 2660.00008583069 207 213 211
-23.6546415835619 804.146289825439 2625.99992752075 211 215 214
-16.4040997624397 798.023343086243 2605.99994659424 214 214 212
-9.25488490611315 791.287362575531 2584.00011062622 209 208 206
-2.23458162508905 787.919282913208 2572.99995422363 209 205 204
4.72050299867988 783.632099628448 2559.00001525879 208 204 201
11.6406287997961 782.100200653076 2553.99990081787 209 205 202
18.4827074408531 778.424501419067 2542.00005531311 204 203 199
25.3295172005892 776.891648769379 2536.99994087219 200 199 195
32.1237593889236 774.746000766754 2529.99997138977 195 194 189
38.9570072293282 774.131059646606 2528.00011634827 201 196 190
45.7430705428123 772.903025150299 2523.9999294281 197 192 188
52.5281764566898 771.9806432724 2520.99990844727 199 195 192
59.2969097197056 771.057844161987 2517.99988746643 181 181 183
66.075511276722 770.440816879272 2516.00003242493 173 174 178
72.9880034923553 771.354377269745 2519.00005340576 173 174 178
79.8849388957024 771.961212158203 2520.99990844727 209 210 212
86.8613868951797 773.179948329926 2525.00009536743 201 201 203
94.0820351243019 776.235401630402 2535.00008583069 200 196 193
101.834677159786 782.964825630188 2556.99992179871 195 190 186
110.216930508614 793.367981910706 2591.00008010864 191 183 180
118.873924016953 804.382860660553 2627.00009346008 198 184 175
127.91782617569 816.621840000153 2667.00005531311 161 147 134
136.317014694214 823.65471124649 2690.00005722046 120 106 95
144.89409327507 830.993115901947 2713.99998664856 103 95 84
-31.1683565378189 807.095587253571 2658.99991989136 206 210 209
-23.5663168132305 794.045627117157 2615.9999370575 205 207 206
-16.3549594581127 788.58357667923 2598.00004959106 203 203 201
-9.24482755362988 783.424437046051 2581.00008964539 200 200 198
-2.23040510900319 779.478907585144 2568.00007820129 201 200 198
4.71531972289085 775.836408138275 2555.99999427795 205 204 202
11.6232624277472 774.014472961426 2549.99995231628 196 195 193
18.4695385396481 770.978093147278 2539.99996185303 196 195 191
25.2914652228355 768.851697444916 2532.99999237061 191 190 186
32.0880524814129 767.028391361237 2526.99995040894 202 201 196
38.8982445001602 766.115069389343 2523.9999294281 212 209 204
45.7283407449722 765.808463096619 2523.00000190735 197 194 189
52.5112338364124 764.894187450409 2519.99998092651 175 174 169
59.27774310112 763.979375362396 2516.99995994568 144 143 139
66.0803988575935 763.671338558197 2516.00003242493 148 147 143
72.9933902621269 764.576733112335 2519.00005340576 154 155 150
79.8591375350952 764.874577522278 2519.99998092651 165 164 162
86.8333652615547 766.082465648651 2523.9999294281 169 168 166
93.8662365078926 767.593383789063 2529.00004386902 191 190 186
101.244710385799 771.531999111176 2542.00005531311 201 200 196
109.246514737606 779.415488243103 2568.00007820129 201 196 192
117.841735482216 790.333569049835 2604.00009155273 183 174 167
127.159655094147 804.589331150055 2651.00002288818 204 194 185
136.174857616425 815.505862236023 2687.00003623962 133 124 115
-30.7721234858036 789.712250232697 2625 207 209 208
-23.4960131347179 784.599959850311 2608.00004005432 203 205 204
-16.2869337946177 778.283655643463 2586.99989318848 199 199 197
-9.21686366200447 774.072766304016 2572.99995422363 198 198 196
-2.22536106593907 770.763993263245 2562.00003623962 195 195 193
4.70644934102893 767.454624176025 2551.00011825562 190 190 188
11.5922261029482 765.047252178192 2542.99998283386 200 200 198
18.4272937476635 762.33845949173 2533.99991989136 187 186 182
25.2234619110823 759.930074214935 2526.00002288818 191 190 186
32.0269614458084 758.724570274353 2522.0000743866 202 201 197
38.8549268245697 758.421063423157 2520.99990844727 181 180 175
45.6955023109913 758.417785167694 2520.99990844727 153 152 147
52.4943210184574 757.8125 2519.00005340576 149 148 143
59.2821761965752 757.206678390503 2516.99995994568 159 158 153
66.1378428339958 757.502734661102 2517.99988746643 153 152 147
73.056772351265 758.400022983551 2520.99990844727 146 145 140
79.865075647831 758.093535900116 2519.99998092651 164 163 159
86.8054032325745 758.989870548248 2523.00000190735 174 173 169
93.724712729454 759.584784507751 2525.00009536743 164 163 159
100.973360240459 762.585818767548 2535.00008583069 188 187 183
108.488753437996 767.090260982513 2549.99995231628 190 189 185
116.718947887421 775.805771350861 2578.9999961853 184 184 182
125.921756029129 789.634346961975 2625 185 185 183
135.22182404995 802.559614181519 2667.99998283386 184 186 183
-38.403183221817 793.081104755402 2660.00008583069 208 210 209
-30.7627264410257 782.350242137909 2624.00007247925 200 202 201
-23.3806632459164 773.705840110779 2595.00002861023 196 198 197
-16.2189099937677 768.0424451828 2575.99997520447 196 196 194
-9.18890256434679 764.763712882996 2565.00005722046 196 196 194
-2.22118617966771 762.378931045532 2556.99992179871 193 193 191
4.70680557191372 760.589957237244 2551.00011825562 193 193 191
11.583985760808 757.607698440552 2540.99988937378 195 196 191
18.4432324022055 756.115794181824 2536.00001335144 192 191 187
25.2353567630053 753.430843353271 2526.99995040894 206 205 201
32.0420823991299 752.236008644104 2523.00000190735 170 169 165
38.8578586280346 751.636981964111 2520.99990844727 159 158 153
45.6808283925056 751.335680484772 2519.99998092651 147 146 141
52.5191202759743 751.331984996796 2519.99998092651 148 147 142
59.2866353690624 750.433266162872 2516.99995994568 156 155 150
66.0902857780457 750.130474567413 2516.00003242493 153 152 147
72.9173570871353 750.125229358673 2516.00003242493 153 152 148
79.8076540231705 750.715732574463 2517.99988746643 150 149 145
86.8118926882744 752.200186252594 2523.00000190735 178 177 173
93.7688276171684 753.087818622589 2526.00002288818 166 165 161
100.821517407894 754.571080207825 2530.99989891052 173 172 168
108.071334660053 757.246494293213 2539.99996185303 192 191 187
115.777134895325 762.604534626007 2558.00008773804 182 182 180
124.347925186157 772.731840610504 2592.00000762939 184 184 182
133.812561631203 787.032008171082 2640.00010490417 171 173 170
-38.5216139256954 788.286030292511 2667.99998283386 208 210 207
-30.8236908167601 776.765704154968 2628.99994850159 203 205 202
-23.409478366375 767.608523368835 2598.00004959106 194 196 193
-16.2138491868973 760.814368724823 2575.00004768372 193 193 191
-9.18243825435638 757.26979970932 2562.99996376038 193 193 191
-2.21788068301976 754.315674304962 2552.99997329712 192 193 188
4.69793844968081 752.247333526611 2546.0000038147 181 182 177
11.5575147792697 748.996615409851 2535.00008583069 203 204 199
18.3937270194292 747.222661972046 2529.00004386902 207 206 202
25.2073183655739 745.743691921234 2523.9999294281 164 163 159
32.0318229496479 745.150566101074 2522.0000743866 180 179 175
38.8916507363319 745.443344116211 2523.00000190735 159 158 153
45.6661731004715 744.258344173431 2519.00005340576 155 154 149
52.502267062664 744.254589080811 2519.00005340576 152 151 146
59.2911280691624 743.659317493439 2516.99995994568 151 150 145
66.1215633153915 743.654549121857 2516.99995994568 150 149 144
72.893887758255 743.058443069458 2515.00010490417 152 151 147
79.718604683876 743.05272102356 2515.00010490417 154 153 149
86.7151990532875 744.523584842682 2519.99998092651 174 173 169
93.7387645244598 745.994031429291 2525.00009536743 158 157 153
100.789256393909 747.463822364807 2529.99997138977 176 175 171
107.951767742634 749.524056911469 2536.99994087219 175 174 170
115.378394722939 753.060877323151 2549.00002479553 188 188 186
123.397633433342 759.846925735474 2572.00002670288 180 180 178
132.504552602768 772.245407104492 2614.00008201599 191 193 190
-38.4668074548244 779.934108257294 2664.00003433228 205 207 204
-30.861234292388 770.568192005157 2631.99996948242 201 203 200
-23.4473217278719 761.787176132202 2601.99999809265 192 194 191
-16.2213928997517 754.176676273346 2575.99997520447 192 192 190
-9.17597860097885 749.786138534546 2561.00010871887 191 191 189
-2.21457611769438 746.273338794708 2549.00002479553 189 190 185
4.68907272443175 743.93105506897 2540.99988937378 176 177 172
11.5401651710272 741.00261926651 2530.99989891052 202 203 198
18.3733198791742 739.537715911865 2526.00002288818 168 167 163
25.1992642879486 738.657653331757 2523.00000190735 151 150 146
32.0342816412449 738.362729549408 2522.0000743866 178 177 173
38.8483814895153 737.774431705475 2519.99998092651 160 159 154
45.6152856349945 736.600160598755 2516.00003242493 151 150 145
52.4229109287262 736.303687095642 2515.00010490417 150 149 144
59.2485442757607 736.299335956573 2515.00010490417 154 153 148
66.1003366112709 736.587285995483 2516.00003242493 153 152 147
72.8994384407997 736.289203166962 2515.00010490417 154 153 149
79.7563642263412 736.576199531555 2516.00003242493 156 155 151
86.7217853665352 737.740814685822 2519.99998092651 161 160 156
93.7458574771881 739.197671413422 2525.00009536743 166 165 161
100.757040083408 740.361273288727 2529.00004386902 173 172 168
107.917368412018 742.402613162994 2536.00001335144 175 174 170
115.206010639668 745.028913021088 2545.00007629395 177 177 175
123.02304059267 750.581920146942 2563.99989128113 177 177 175
131.449893116951 759.061813354492 2592.99993515015 187 189 186
-38.412019610405 771.603047847748 2660.00008583069 199 201 198
-30.8401677757502 762.903392314911 2630.00011444092 190 192 189
-23.4401226043701 754.493236541748 2601.0000705719 188 190 187
-16.2415411323309 748.113036155701 2578.9999961853 190 190 188
-9.17310547083616 742.602527141571 2559.99994277954 188 189 184
-2.21300963312387 738.831877708435 2546.99993133545 176 177 172
4.68205381184816 735.930979251862 2536.99994087219 178 179 174
11.5410583093762 734.189927577972 2530.99989891052 173 174 169
18.3747410774231 732.738375663757 2526.00002288818 157 156 152
25.2012144774199 731.866478919983 2523.00000190735 162 161 157
32.0240519940853 731.284022331238 2520.99990844727 170 169 164
38.8513840734959 730.991244316101 2519.99998092651 158 157 152
45.6369332969189 730.117797851563 2516.99995994568 151 150 145
52.4477921426296 729.82394695282 2516.00003242493 151 150 145
59.3237839639187 730.399668216705 2517.99988746643 153 152 147
66.2105083465576 730.975031852722 2519.99998092651 151 150 145
73.0499774217606 730.969607830048 2519.99998092651 146 145 141
79.7624662518501 729.803502559662 2516.00003242493 160 159 155
86.6251662373543 730.087101459503 2516.99995994568 154 153 149
93.7158837914467 732.110679149628 2523.9999294281 181 180 176
100.844390690327 734.133660793304 2530.99989891052 160 159 155
107.968121767044 735.866010189056 2536.99994087219 178 177 173
115.078926086426 737.307786941528 2542.00005531311 157 157 155
122.648477554321 741.359412670136 2555.99999427795 167 167 165
130.648627877235 747.440755367279 2576.99990272522 168 170 167
139.40341770649 757.001936435699 2609.99989509583 194 196 193
-38.2994711399078 762.143135070801 2651.99995040894 197 199 196
-30.7018421590328 752.374827861786 2618.00003051758 190 192 189
-23.3698412775993 745.192170143127 2592.99993515015 186 188 185
-16.2113141268492 739.733397960663 2573.99988174438 191 192 187
-9.15948487818241 734.561443328857 2555.99999427795 187 188 183
-2.21144407987595 731.400668621063 2545.00007629395 176 177 172
4.68057254329324 728.81406545639 2536.00001335144 175 176 171
11.5373963490129 727.089107036591 2529.99997138977 151 152 146
18.3616206049919 725.363612174988 2523.9999294281 158 157 152
25.1831952482462 724.499702453613 2520.99990844727 173 172 167
32.0011340081692 723.922729492188 2519.00005340576 166 165 160
38.8235598802567 723.632514476776 2517.99988746643 157 156 151
45.6404723227024 723.341941833496 2516.99995994568 153 152 147
52.4935498833656 723.625481128693 2517.99988746643 152 151 146
59.3519508838654 723.908543586731 2519.00005340576 153 152 147
66.1893635988235 723.903656005859 2519.00005340576 153 152 147
73.0556175112724 724.185585975647 2519.99998092651 151 150 146
79.8320323228836 723.60497713089 2517.99988746643 156 155 151
86.7006778717041 723.885953426361 2519.00005340576 148 147 143
93.7230810523033 725.315749645233 2523.9999294281 179 178 174
100.852124392986 727.319836616516 2530.99989891052 172 171 167
108.061507344246 729.610800743103 2539.00003433228 185 184 180
115.132987499237 730.751574039459 2542.99998283386 173 173 171
122.609823942184 734.190821647644 2555.0000667572 166 166 164
130.354359745979 738.77888917923 2571.00009918213 171 173 170
138.612747192383 745.664954185486 2595.00002861023 184 186 183
-38.1002612411976 751.017451286316 2638.00001144409 192 194 189
-30.610416084528 743.048787117004 2609.99989509583 188 190 185
-23.2995674014091 735.933601856232 2585.00003814697 186 188 183
-16.1873903125525 731.664657592773 2569.9999332428 187 188 183
-9.15661919862032 727.395296096802 2555.0000667572 183 184 179
-2.21074838191271 724.263966083527 2543.99991035461 170 171 165
4.68093948438764 721.986353397369 2536.00001335144 182 183 177
11.5428604185581 720.562279224396 2530.99989891052 162 163 157
18.3848850429058 719.422340393066 2526.99995040894 170 169 164
25.2151377499104 718.566536903381 2523.9999294281 178 177 172
32.0290513336658 717.710196971893 2520.99990844727 163 162 157
38.8420186936855 717.138111591339 2519.00005340576 157 156 151
45.6440411508083 716.565370559692 2516.99995994568 153 152 147
52.5185018777847 717.130959033966 2519.00005340576 152 151 146
59.403695166111 717.695832252502 2520.99990844727 153 152 147
66.2470683455467 717.69106388092 2520.99990844727 153 152 147
73.0902850627899 717.685580253601 2520.99990844727 151 150 146
79.9016356468201 717.394948005676 2519.99998092651 157 156 152
86.8106484413147 717.95779466629 2522.0000743866 155 154 150
93.8417315483093 719.374179840088 2526.99995040894 164 163 159
100.820064544678 720.220685005188 2529.99997138977 178 177 173
108.069822192192 722.774624824524 2539.00003433228 174 173 169
115.232385694981 724.47407245636 2545.00007629395 182 182 180
122.715204954147 727.880895137787 2556.99992179871 155 155 153
130.161479115486 730.717718601227 2566.99991226196 179 181 178
138.03568482399 735.54664850235 2584.00011062622 178 180 177
146.563172340393 743.221402168274 2611.00006103516 191 193 190
-45.9687039256096 755.473017692566 2678.99990081787 207 212 208
-38.0021519958973 741.940438747406 2631.00004196167 190 192 187
-30.6714717298746 737.431108951569 2615.00000953674 187 189 184
-23.3554858714342 730.66520690918 2591.00008010864 186 188 183
-16.2138603627682 725.87263584137 2573.99988174438 183 184 179
-9.1716768220067 721.6437458992 2559.00001525879 177 178 173
-2.21439893357456 718.542218208313 2548.00009727478 169 170 164
4.68684639781713 716.004014015198 2539.00003433228 183 184 178
11.5437703207135 713.747441768646 2530.99989891052 166 167 161
18.379058688879 712.336242198944 2526.00002288818 174 173 168
25.1971408724785 711.206436157227 2522.0000743866 178 177 172
32.0061556994915 710.358202457428 2519.00005340576 162 161 156
38.814228028059 709.791362285614 2516.99995994568 157 156 151
45.6294938921928 709.506094455719 2516.00003242493 153 152 147
52.501767873764 710.066199302673 2517.99988746643 153 152 147
59.3612268567085 710.343837738037 2519.00005340576 153 152 147
66.2259757518768 710.620880126953 2519.99998092651 153 152 147
73.0959996581078 710.897326469421 2520.99990844727 153 152 148
79.9712911248207 711.173415184021 2522.0000743866 154 153 149
86.7829918861389 710.884869098663 2520.99990844727 156 155 151
93.7376096844673 711.723744869232 2523.9999294281 160 159 155
100.748181343079 712.844133377075 2528.00011634827 177 176 172
108.120761811733 716.219842433929 2539.99996185303 157 156 152
115.467689931393 719.030857086182 2549.99995231628 185 185 183
122.916646301746 722.123324871063 2561.00010871887 164 164 162
130.171477794647 723.80530834198 2566.99991226196 181 183 180
137.832567095757 727.460563182831 2579.99992370605 170 172 169
145.956858992577 733.088850975037 2599.99990463257 193 195 192
155.425295233727 744.637608528137 2641.00003242493 195 197 194
-45.4232133924961 739.320933818817 2647.0000743866 191 196 192
-38.0051583051682 734.85541343689 2631.00004196167 190 192 187
-30.6973587721586 730.94779253006 2617.00010299683 186 188 183
-23.3573354780674 723.687946796417 2591.00008010864 186 188 183
-16.1836463958025 717.544674873352 2569.00000572205 178 179 174
-9.16523486375809 714.193940162659 2556.99992179871 170 171 166
-2.21196701750159 710.842788219452 2545.00007629395 170 171 165
4.68721706420183 709.166765213013 2539.00003433228 177 178 172
11.5492474287748 707.211017608643 2532.00006484985 169 170 164
18.3950643986464 706.092536449432 2528.00011634827 174 173 168
25.2191200852394 704.973578453064 2523.9999294281 174 173 168
32.0213958621025 703.854084014893 2519.99998092651 162 161 156
38.8327166438103 703.292608261108 2517.99988746643 157 156 151
45.6512272357941 703.010022640228 2516.99995994568 154 153 148
52.4642020463943 702.7268409729 2516.00003242493 153 152 147
59.3423284590244 703.280985355377 2517.99988746643 154 153 148
66.2049055099487 703.555345535278 2519.00005340576 153 152 147
73.1307417154312 704.387784004211 2522.0000743866 156 155 151
80.0092816352844 704.661071300507 2523.00000190735 150 149 145
86.8242159485817 704.375147819519 2522.0000743866 154 153 149
93.7449410557747 704.926729202271 2523.9999294281 160 159 155
100.756041705608 706.036329269409 2528.00011634827 174 173 169
108.086600899696 709.100186824799 2539.00003433228 163 162 158
115.340799093246 711.325705051422 2546.99993133545 171 171 169
122.734151780605 714.109182357788 2556.99992179871 184 184 182
130.029395222664 716.054439544678 2563.99989128113 169 171 168
137.629479169846 719.395279884338 2575.99997520447 171 173 170
145.518943667412 723.852634429932 2592.00000762939 196 198 195
154.142364859581 731.381177902222 2618.99995803833 197 199 196
-45.5641038715839 734.404802322388 2654.99997138977 189 194 190
-38.1237454712391 729.982376098633 2638.99993896484 189 191 186
-30.7584516704082 725.282728672028 2621.99997901917 184 186 181
-23.3682058751583 716.986358165741 2592.00000762939 183 185 180
-16.2164326757193 712.008774280548 2573.99988174438 170 171 166
-9.1731334105134 707.860589027405 2559.00001525879 163 164 158
-2.21475074067712 704.818367958069 2548.00009727478 175 176 170
4.69312909990549 703.158557415009 2542.00005531311 156 157 151
11.5547273308039 700.668334960938 2532.99999237061 178 179 173
18.3746963739395 698.454260826111 2525.00009536743 175 174 169
25.1811537891626 697.069346904755 2519.99998092651 166 166 158
32.0112332701683 696.79057598114 2519.00005340576 162 162 154
38.8512276113033 696.787714958191 2519.00005340576 158 157 152
45.6729829311371 696.507692337036 2517.99988746643 154 153 148
52.4683631956577 695.95068693161 2516.00003242493 153 152 147
59.2998936772347 695.946156978607 2516.00003242493 154 153 148
66.1838501691818 696.494400501251 2517.99988746643 154 153 148
73.10751080513 697.31867313385 2520.99990844727 153 152 148
79.9838751554489 697.58927822113 2522.0000743866 154 153 149
86.7966115474701 697.306036949158 2520.99990844727 156 155 151
93.6780199408531 697.575509548187 2522.0000743866 155 154 150
100.724078714848 698.950886726379 2526.99995040894 167 166 162
108.009904623032 701.708555221558 2536.99994087219 178 177 173
115.259222686291 703.912615776062 2545.00007629395 158 158 156
122.503697872162 705.839395523071 2552.00004577637 172 174 171
129.887342453003 708.318829536438 2561.00010871887 160 162 159
137.586697936058 712.180495262146 2575.00004768372 164 166 163
145.305603742599 715.764999389648 2588.00005912781 185 187 184
153.389051556587 720.731616020203 2605.99994659424 189 191 188
162.124022841454 728.186726570129 2632.99989700317 192 194 191
-45.8080172538757 731.088221073151 2668.99991035461 187 192 188
-38.2134728133678 724.517583847046 2644.99998092651 188 190 185
-30.7139791548252 717.124462127686 2618.00003051758 182 184 179
-23.3520399779081 709.45680141449 2589.99991416931 182 184 179
-16.2051282823086 704.527735710144 2572.00002670288 168 169 164
-9.16669704020023 700.420022010803 2556.99992179871 162 163 158
-2.21405830234289 697.681188583374 2546.99993133545 176 177 171
4.69350395724177 696.31153345108 2542.00005531311 148 149 143
11.5602118894458 694.119453430176 2533.99991989136 182 183 177
18.3761660009623 691.65301322937 2525.00009536743 176 175 170
25.1931566745043 690.555512905121 2520.99990844727 165 165 157
32.0392027497292 690.553188323975 2520.99990844727 161 161 153
38.8851724565029 690.550327301025 2520.99990844727 158 157 152
45.6766225397587 689.725279808044 2517.99988746643 154 153 148
52.5142475962639 689.721286296844 2517.99988746643 154 153 148
59.3517459928989 689.716875553131 2517.99988746643 154 153 148
66.1891102790833 689.711928367615 2517.99988746643 154 153 148
73.055312037468 689.980328083038 2519.00005340576 150 149 145
79.9902081489563 690.795958042145 2522.0000743866 158 157 153
86.9067758321762 691.337108612061 2523.9999294281 158 157 153
93.7597006559372 691.329956054688 2523.9999294281 151 150 146
100.732006132603 692.14403629303 2526.99995040894 165 164 160
107.890658080578 694.053053855896 2533.99991989136 180 179 175
115.177683532238 696.50936126709 2542.99998283386 160 160 158
122.417271137238 698.417246341705 2549.99995231628 185 187 184
129.846751689911 701.146304607391 2559.99994277954 164 166 163
137.543976306915 704.970240592957 2573.99988174438 158 160 157
145.204558968544 708.245754241943 2585.99996566772 177 179 176
153.165474534035 712.616205215454 2601.99999809265 185 187 184
161.397591233253 717.807531356812 2621.00005149841 193 195 192
-45.8975099027157 725.25429725647 2674.00002479553 183 188 184
-38.3032225072384 719.01947259903 2651.00002288818 184 186 183
-30.8103021234274 712.241590023041 2625.99992752075 181 183 180
-23.4260503202677 704.649448394775 2598.00004959106 179 181 178
-16.2631385028362 700.04016160965 2581.00008964539 157 157 155
-9.18177329003811 694.616556167603 2561.00010871887 158 159 154
-2.214235952124 690.8198595047 2546.99993133545 155 156 151
4.68834163621068 688.650012016296 2539.00003433228 161 162 157
11.5565778687596 687.021911144257 2532.99999237061 171 172 167
18.3849185705185 685.122132301331 2526.00002288818 171 170 165
25.195175781846 683.764159679413 2520.99990844727 164 163 158
32.0290625095367 683.490693569183 2519.99998092651 157 156 151
38.8574376702309 683.216631412506 2519.00005340576 157 156 152
45.6802807748318 682.941973209381 2517.99988746643 153 152 148
52.51844227314 682.937979698181 2517.99988746643 153 152 148
59.3564845621586 682.933568954468 2517.99988746643 154 153 149
66.1943778395653 682.928562164307 2517.99988746643 154 153 149
73.0611234903336 683.194160461426 2519.00005340576 153 152 150
79.9648314714432 683.730483055115 2520.99990844727 154 153 151
86.8792310357094 684.266328811646 2523.00000190735 154 153 151
93.7671214342117 684.530377388 2523.9999294281 153 152 150
100.700102746487 685.065150260925 2526.00002288818 160 159 157
107.856586575508 686.955213546753 2532.99999237061 178 177 175
115.232042968273 689.929664134979 2543.99991035461 170 170 168
122.570902109146 692.361056804657 2552.99997329712 178 178 176
130.059823393822 695.334315299988 2563.99989128113 168 168 166
137.554705142975 698.035717010498 2573.99988174438 163 163 161
145.047411322594 700.465261936188 2582.99994468689 170 170 168
152.765274047852 703.707873821259 2595.00002861023 183 183 181
160.855814814568 708.305656909943 2611.99998855591 187 189 186
170.002788305283 716.970384120941 2644.00005340576 198 200 197
-45.7123704254627 715.095996856689 2663.00010681152 181 186 182
-38.2918529212475 711.608529090881 2650.00009536743 184 186 183
-30.8245159685612 705.435037612915 2627.00009346008 178 180 177
-23.454986512661 698.455333709717 2601.0000705719 174 176 173
-16.2644498050213 693.086266517639 2581.00008964539 153 153 151
-9.18968301266432 688.25364112854 2562.99996376038 156 157 152
-2.21615307964385 684.494614601135 2549.00002479553 153 154 149
4.6887188218534 681.809186935425 2539.00003433228 164 165 160
11.5575082600117 680.197358131409 2532.99999237061 170 171 166
18.386397510767 678.316473960876 2526.00002288818 169 168 163
25.1872111111879 676.703453063965 2519.99998092651 162 161 156
32.0062153041363 676.164031028748 2517.99988746643 157 156 151
38.8605557382107 676.429748535156 2519.00005340576 157 156 151
45.7202345132828 676.694869995117 2519.99998092651 154 153 149
52.5643788278103 676.690876483917 2519.99998092651 153 152 148
59.3612380325794 676.149368286133 2517.99988746643 154 153 149
66.1996826529503 676.144301891327 2517.99988746643 153 152 148
73.0669647455215 676.407277584076 2519.00005340576 151 150 146
79.9712166190147 676.938116550446 2520.99990844727 153 152 148
86.8861526250839 677.468597888947 2523.00000190735 154 153 151
93.8488990068436 678.267002105713 2526.00002288818 152 151 149
100.787833333015 678.796231746674 2528.00011634827 157 156 154
107.822552323341 679.861962795258 2532.00006484985 177 176 174
115.150548517704 682.538211345673 2542.00005531311 180 180 178
122.628577053547 685.750782489777 2553.99990081787 167 167 165
130.323693156242 689.768314361572 2569.00000572205 176 176 174
137.725815176964 691.905736923218 2576.99990272522 163 163 161
145.114928483963 693.774044513702 2584.00011062622 164 164 162
152.71832048893 696.447372436523 2594.00010108948 177 177 175
160.683572292328 700.462281703949 2608.99996757507 184 186 183
169.244304299355 706.624388694763 2631.99996948242 195 197 194
-45.6988885998726 707.654297351837 2661.99994087219 176 181 177
-38.2082313299179 702.872693538666 2644.00005340576 178 180 177
-30.7917986065149 697.558760643005 2624.00007247925 174 176 173
-23.44786003232 691.18070602417 2599.99990463257 171 173 170
-16.2846688181162 686.928927898407 2584.00011062622 150 150 148
-9.20118391513824 682.1448802948 2565.99998474121 152 153 148
-2.22067930735648 678.955137729645 2553.99990081787 152 153 148
4.69463830813766 675.765037536621 2542.00005531311 172 173 168
11.5630039945245 673.637688159943 2533.99991989136 168 169 164
18.3806046843529 671.243965625763 2525.00009536743 167 166 161
25.1692514866591 669.381260871887 2517.99988746643 161 160 155
31.9706611335278 668.581485748291 2515.00010490417 157 156 151
38.8328321278095 669.110238552094 2516.99995994568 155 154 149
45.7057729363441 669.638514518738 2519.00005340576 155 154 149
52.526880055666 669.368624687195 2517.99988746643 155 154 149
59.3424402177334 669.098377227783 2516.99995994568 153 152 148
66.2312880158424 669.624984264374 2519.00005340576 153 152 148
73.1018334627151 669.885218143463 2519.99998092651 152 151 147
79.9776166677475 670.144855976105 2520.99990844727 154 153 149
86.8586599826813 670.404076576233 2522.0000743866 157 156 152
93.930684030056 671.991765499115 2528.00011634827 155 154 152
100.835725665092 672.249794006348 2529.00004386902 155 154 152
107.831127941608 673.038959503174 2532.00006484985 176 175 173
114.978477358818 674.624979496002 2538.00010681152 183 183 181
122.638277709484 678.868412971497 2553.99990081787 160 160 158
130.435451865196 683.377087116241 2571.00009918213 180 180 178
138.110816478729 686.82199716568 2584.00011062622 162 162 160
145.407125353813 688.139736652374 2588.99998664856 161 161 159
152.789145708084 689.722776412964 2595.00002861023 168 168 166
160.634502768517 693.16577911377 2608.00004005432 186 188 185
168.935939669609 698.202729225159 2627.00009346008 192 194 191
178.278431296349 706.959903240204 2660.00008583069 197 199 196
-45.6854104995728 700.217127799988 2661.00001335144 173 178 174
-38.1968691945076 695.483922958374 2642.99988746643 175 177 174
-30.7825524359941 690.223932266235 2622.99990653992 172 174 171
-23.4587788581848 684.436976909637 2601.0000705719 170 172 169
-16.2985920906067 680.49144744873 2585.99996566772 149 149 147
-9.21985972672701 676.545381546021 2571.00009918213 151 152 147
-2.22781579941511 674.177408218384 2562.00003623962 152 153 148
4.70979372039437 671.019613742828 2549.99995231628 176 177 172
11.5821957588196 667.861223220825 2538.00010681152 166 167 162
18.3966495096684 664.965391159058 2526.99995040894 167 166 161
25.1812860369682 662.858486175537 2519.00005340576 160 159 154
31.9732464849949 661.803543567657 2515.00010490417 156 155 150
38.8359725475311 662.32693195343 2516.99995994568 153 152 147
45.7276068627834 663.112938404083 2519.99998092651 155 154 149
52.572850137949 663.109004497528 2519.99998092651 155 154 149
59.370793402195 662.578165531158 2517.99988746643 153 152 148
66.2366226315498 662.836313247681 2519.00005340576 153 152 148
73.0786994099617 662.830710411072 2519.00005340576 154 153 149
79.9523144960403 663.087606430054 2519.99998092651 155 154 150
86.9000628590584 663.870334625244 2523.00000190735 157 156 152
94.0125212073326 665.704965591431 2529.99997138977 157 156 154
100.843772292137 665.434002876282 2529.00004386902 156 155 153
107.754535973072 665.688812732697 2529.99997138977 174 173 171
114.8516908288 666.995525360107 2535.00008583069 177 177 175
122.551970183849 671.458959579468 2552.00004577637 159 159 157
130.445778369904 676.448106765747 2571.00009918213 171 171 169
138.228625059128 680.3839802742 2585.99996566772 161 161 159
145.755589008331 682.740688323975 2595.00002861023 156 156 154
153.095543384552 684.044420719147 2599.99990463257 153 153 151
160.893470048904 687.189161777496 2611.99998855591 177 179 176
169.013410806656 691.385686397552 2628.00002098084 183 185 182
177.756056189537 697.686076164246 2651.99995040894 189 191 188
-45.7749627530575 694.346785545349 2665.99988937378 168 173 169
-38.2288694381714 688.880860805511 2644.99998092651 172 174 171
-30.8319963514805 684.195697307587 2627.00009346008 168 170 167
-23.5148034989834 678.988933563232 2607.00011253357 168 170 167
-16.3377337157726 675.083816051483 2592.00000762939 148 148 146
-9.2349536716938 670.657157897949 2575.00004768372 150 151 146
-2.22973595373333 667.792737483978 2563.99989128113 152 153 148
4.7157178632915 664.92772102356 2552.99997329712 178 179 174
11.605953797698 662.322461605072 2542.99998283386 164 165 160
18.4345487505198 659.456431865692 2532.00006484985 166 165 160
25.2233184874058 657.110571861267 2523.00000190735 158 157 152
31.9885537028313 655.285120010376 2516.00003242493 153 152 147
38.839116692543 655.542612075806 2516.99995994568 152 151 146
45.6950142979622 655.799627304077 2517.99988746643 155 154 149
52.5771044194698 656.316578388214 2519.99998092651 155 154 149
59.3991801142693 656.051635742188 2519.00005340576 153 152 147
66.2682577967644 656.306922435761 2519.99998092651 154 153 149
73.1135979294777 656.301319599152 2519.99998092651 156 155 151
79.9587517976761 656.29518032074 2519.99998092651 154 153 149
86.9414955377579 657.330214977264 2523.9999294281 156 155 151
94.057209789753 659.145832061768 2530.99989891052 159 158 154
100.891724228859 658.877670764923 2529.99997138977 157 156 152
107.933506369591 659.910976886749 2533.99991989136 171 170 168
114.951461553574 660.683393478394 2536.99994087219 180 180 178
122.657760977745 665.100932121277 2553.99990081787 159 159 157
130.456119775772 669.517993927002 2571.00009918213 164 164 162
138.506844639778 674.715459346771 2591.00008010864 162 162 160
146.160289645195 677.568674087524 2601.99999809265 151 151 149
153.460934758186 678.598523139954 2605.99994659424 155 155 153
160.967692732811 680.408835411072 2612.99991607666 172 174 171
168.898016214371 683.78096818924 2625.99992752075 178 180 177
177.099615335464 687.933623790741 2641.99995994568 184 186 183
-53.5388067364693 693.857312202454 2691.99991226196 215 220 216
-45.881699770689 688.706338405609 2671.99993133545 175 180 176
-38.419883698225 685.101270675659 2657.99999237061 170 172 169
-30.9636145830154 679.949045181274 2638.00001144409 163 165 162
-23.6159414052963 674.796283245087 2618.00003051758 163 165 162
-16.3768846541643 669.642806053162 2598.00004959106 149 149 147
-9.25005134195089 664.746582508087 2578.9999961853 150 151 146
-2.23252666182816 661.653935909271 2566.99991226196 147 148 143
4.71794884651899 658.303081989288 2553.99990081787 180 181 176
11.6114616394043 655.724883079529 2543.99991035461 163 164 159
18.4433292597532 652.888357639313 2532.99999237061 173 172 167
25.2753626555204 651.597917079926 2528.00011634827 150 149 144
32.0674441754818 650.048971176147 2522.0000743866 152 151 146
38.9040000736713 649.788320064545 2520.99990844727 152 152 144
45.7350239157677 649.527132511139 2519.99998092651 155 154 149
52.6231043040752 650.038719177246 2522.0000743866 153 152 147
59.4511553645134 649.77639913559 2520.99990844727 155 154 149
66.2999153137207 649.771213531494 2520.99990844727 157 156 151
73.0904936790466 649.250149726868 2519.00005340576 155 154 149
79.9969360232353 649.759411811829 2520.99990844727 158 157 152
87.0173946022987 651.041448116302 2526.00002288818 159 158 154
94.1019579768181 652.580559253693 2532.00006484985 161 160 156
100.979596376419 652.572691440582 2532.00006484985 157 156 152
107.942163944244 653.079748153687 2533.99991989136 166 165 161
115.141898393631 654.874861240387 2540.99988937378 179 179 177
122.763611376286 658.73122215271 2555.99999427795 167 167 165
130.618736147881 663.360059261322 2573.99988174438 155 155 153
138.571292161942 667.988121509552 2592.00000762939 157 157 155
146.396562457085 671.584844589233 2605.99994659424 155 155 153
153.767496347427 672.861456871033 2611.00006103516 153 153 151
161.165192723274 674.137532711029 2615.9999370575 163 165 162
168.782606720924 676.186144351959 2624.00007247925 169 171 168
176.778271794319 679.522633552551 2637.00008392334 180 182 179
185.890361666679 686.723530292511 2664.99996185303 197 199 196
-54.0006160736084 692.465245723724 2714.99991416931 213 218 214
-46.2117157876492 686.348140239716 2690.99998474121 163 168 164
-38.6109352111816 681.250512599945 2671.0000038147 169 171 168
-31.0835223644972 675.3870844841 2648.00000190735 162 164 161
-23.6900337040424 669.778048992157 2625.99992752075 161 163 160
-16.4223480969667 664.423525333405 2605.00001907349 149 149 147
-9.26515273749828 658.813238143921 2582.99994468689 150 151 146
-2.23444821313024 655.242919921875 2569.00000572205 148 149 144
4.71463892608881 650.9068608284 2552.00004577637 179 180 175
11.6078453138471 648.610711097717 2542.99998283386 164 165 160
18.452113494277 646.313965320587 2533.99991989136 174 173 168
25.3074150532484 645.546972751617 2530.99989891052 151 150 145
32.1209207177162 644.269406795502 2526.00002288818 152 151 146
38.9534682035446 643.756449222565 2523.9999294281 152 152 144
45.7568950951099 642.987787723541 2520.99990844727 155 154 149
52.6482351124287 643.493890762329 2523.00000190735 153 152 147
59.4795644283295 643.234312534332 2522.0000743866 155 154 149
66.357895731926 643.484234809875 2523.00000190735 157 156 151
73.1834694743156 643.223583698273 2522.0000743866 156 155 150
80.1620706915855 644.237518310547 2526.00002288818 157 156 151
87.1622189879417 645.250916481018 2529.99997138977 157 156 152
94.2210331559181 646.518766880035 2535.00008583069 163 162 158
101.187132298946 647.020995616913 2536.99994087219 158 157 153
108.163826167583 647.522628307343 2539.00003433228 166 165 161
115.287072956562 648.788809776306 2543.99991035461 170 170 168
122.869484126568 652.349650859833 2558.00008773804 171 171 169
130.832150578499 657.439947128296 2578.00006866455 157 157 155
138.742700219154 661.764442920685 2595.00002861023 159 159 157
146.520525217056 665.06826877594 2608.00004005432 159 159 157
153.956353664398 666.586518287659 2614.00008201599 156 156 154
161.177888512611 667.084038257599 2615.9999370575 162 164 161
168.667212128639 668.600976467133 2621.99997901917 168 170 167
176.658049225807 671.902418136597 2634.99999046326 178 180 177
185.695633292198 678.772926330566 2661.99994087219 194 196 193
-54.1243627667427 686.658143997192 2720.99995613098 210 215 211
-46.2670028209686 679.848670959473 2694.00000572205 157 162 158
-38.6429950594902 674.552619457245 2673.00009727478 167 169 166
-31.1564952135086 669.760644435883 2654.00004386902 159 161 158
-23.7461011856794 664.210915565491 2631.99996948242 156 158 155
-16.4615176618099 658.913016319275 2611.00006103516 148 148 146
-9.28384717553854 653.109848499298 2588.00005912781 149 150 145
-2.23550060763955 648.567736148834 2569.9999332428 146 147 142
4.71132807433605 643.520355224609 2549.99995231628 172 173 168
11.5950973704457 640.996158123016 2539.99996185303 163 164 159
18.4463337063789 639.228343963623 2532.99999237061 171 170 165
25.3194812685251 638.97430896759 2532.00006484985 151 150 145
32.1744047105312 638.467192649841 2529.99997138977 150 149 144
38.9720797538757 637.202620506287 2525.00009536743 153 153 145
45.7969233393669 636.694371700287 2523.00000190735 156 156 148
52.5899119675159 635.93327999115 2519.99998092651 154 154 146
59.4372153282166 635.928690433502 2519.99998092651 155 154 149
66.3369819521904 636.428356170654 2522.0000743866 156 155 150
73.2474327087402 636.927306652069 2523.9999294281 157 156 151
80.2320316433907 637.930512428284 2528.00011634827 155 154 149
87.1692597866058 638.428449630737 2529.99997138977 165 164 159
94.228632748127 639.682829380035 2535.00008583069 171 170 166
101.275064051151 640.684366226196 2539.00003433228 161 160 156
108.257733285427 641.180515289307 2540.99988937378 166 165 161
115.386970341206 642.433285713196 2546.0000038147 170 170 168
123.023442924023 646.208643913269 2561.00010871887 177 177 175
131.045609712601 651.497304439545 2582.00001716614 151 151 149
138.914167881012 655.523657798767 2598.00004959106 152 152 150
146.644532680511 658.540010452271 2609.99989509583 162 162 160
154.086336493492 660.041928291321 2615.9999370575 157 157 155
161.252245306969 660.281836986542 2617.00010299683 159 161 158
168.809175491333 662.034869194031 2624.00007247925 166 168 165
176.671892404556 664.796590805054 2634.99999046326 174 176 173
185.012489557266 669.0713763237 2651.99995040894 185 187 184
195.329397916794 679.904758930206 2694.9999332428 194 196 193
-54.1884452104568 680.068492889404 2723.99997711182 210 215 211
-46.373825520277 674.080789089203 2700.00004768372 156 161 157
-38.7328937649727 668.841361999512 2678.99990081787 167 169 166
-31.1707761138678 662.852346897125 2654.99997138977 159 161 158
-23.802176117897 658.610343933105 2638.00001144409 154 156 153
-16.5259148925543 654.367804527283 2621.00005149841 147 147 145
-9.32406727224588 648.876190185547 2598.99997711182 146 147 142
-2.24351231008768 643.883347511292 2578.9999961853 146 147 142
4.72095189616084 637.891352176666 2555.0000667572 168 169 164
11.6097396239638 634.894669055939 2542.99998283386 163 164 159
18.4696931391954 633.145868778229 2536.00001335144 171 170 165
25.3315474838018 632.395029067993 2532.99999237061 153 152 147
32.1770347654819 631.643772125244 2529.99997138977 150 149 144
38.9906913042068 630.642175674438 2526.00002288818 153 153 145
45.8188056945801 630.139410495758 2523.9999294281 156 156 148
52.6150614023209 629.386365413666 2520.99990844727 154 154 146
