ply
format ascii 1.0
comment KinectMotionCapture
element vertex 756
property float x
property float y
property float z
property uchar red
property uchar green
property uchar blue
end_header
-18.4535909838708 709.278558898148 2878.49135382409 184 184 186
-25.0019448727588 708.653932589286 2874.97647959206 186 186 188
-33.7857854006003 707.484335192954 2873.54340288941 184 184 186
-40.320173337979 706.860680564002 2870.03836331842 181 181 183
-46.1089934482588 706.418636165054 2865.83968503891 181 181 181
-51.8986752264423 705.976432345672 2861.64038131045 179 179 177
-58.4269227214456 705.352897184611 2858.14008815932 174 174 172
-64.2159654036016 704.910506163874 2853.941246777 178 178 176
-67.0729846760851 705.190882912925 2846.93081722724 175 175 173
-69.9485786664169 705.469675645333 2839.90720892176 166 166 164
-75.0289712370069 705.205724876478 2834.98795033451 165 165 163
-80.8412675232812 704.761001975862 2830.77224010688 180 180 178
-86.6542520165474 704.316044091359 2826.55602979307 169 169 167
-91.0236639212798 704.230712016897 2820.91774989626 164 164 162
-95.4028316599314 704.144360994203 2815.27268710309 164 164 162
-97.6381318350681 704.59577715061 2807.47878471426 166 164 165
-101.327531963767 704.686415943929 2801.099314564 152 150 151
-105.744474134285 704.59664630809 2795.42685096308 165 163 164
-111.593319072383 704.147767682771 2791.18462478818 142 140 141
-119.569842227824 703.162024344386 2789.10238982862 138 136 137
-126.827386853621 702.355628077125 2786.30752402506 199 197 198
-134.781531320139 701.371080710436 2784.24181238954 192 190 191
-138.50892446645 701.457446769314 2777.83477864776 182 180 181
-145.051063304454 700.829669217782 2774.32409940007 186 184 185
-150.891642627444 700.379996475995 2770.08786112361 197 195 196
-156.733070414152 699.9299264082 2765.85100576516 196 194 195
-160.494616489633 700.012539925981 2759.41919482881 202 202 202
-161.5047598808 700.803866845076 2750.04508319544 202 202 202
-162.546598848419 701.592476709462 2740.64798099987 197 197 197
-164.306945521749 702.201190564939 2731.96414265516 201 201 201
-163.35565936601 703.515425891837 2720.30915742887 201 201 201
-152.893806852542 707.3015751518 2698.26941473537 199 199 197
290.388831340352 743.994087011938 2917.2849119387 198 200 199
267.899189049933 739.831929089503 2925.66310758532 203 205 204
261.014955912181 739.180291560627 2921.9043160236 218 218 218
253.320227112208 738.344990575497 2918.79237967411 168 168 168
248.883502902918 738.246886836317 2913.10523896021 149 149 149
243.627513943528 737.964528734598 2908.05859356654 204 204 204
238.366791867852 737.682056044844 2903.00851645545 172 172 172
227.461064821953 736.114629627193 2902.50529710854 147 147 147
209.348890167141 732.899099853198 2907.88612969918 136 136 136
192.103483391654 729.871971444055 2912.66092400712 149 149 149
177.316587034638 727.398919963475 2915.5156416059 161 161 161
168.953608573003 726.392693424344 2913.15344767308 150 150 150
153.450056381243 723.743320868052 2916.72249521423 143 143 143
141.168893399219 721.828221287597 2917.69109418329 143 143 143
126.551224063413 719.368868724632 2920.66826297193 192 192 192
120.651878329981 718.917571798515 2916.38941544359 173 173 173
111.607715284986 717.738206828074 2914.76757591801 156 156 156
105.716057981053 717.287801597658 2910.49430641291 156 156 156
99.042130294809 716.655710395986 2906.88806876713 172 172 172
93.1514259982627 716.205561601242 2902.61549141631 161 161 161
83.373567658112 714.848605501243 2901.69621208558 216 216 216
72.0670435725261 713.131064247744 2902.13701715615 177 177 177
64.6548533682205 712.320892432893 2899.23002634853 173 173 173
58.7923010003744 711.873263233594 2894.97786969387 171 171 171
51.3920879262906 711.064170829118 2892.07927235396 180 180 180
43.2335903972971 710.075256323656 2889.86539870192 199 199 201
34.3234578954288 708.90686880959 2888.34077638039 192 192 194
26.1920247543088 707.920027333746 2886.14653278101 195 195 197
16.5534695774987 706.574027752548 2885.32829278318 189 189 191
6.17868434570656 705.049833004801 2885.21047794213 214 214 216
-1.14900836158394 704.246376583544 2882.36448071113 195 195 197
-8.46884389278402 703.44347742383 2879.52447661443 184 184 186
-15.7807288100515 702.641102864882 2876.69023874464 186 186 188
-26.0793740601266 701.122587995893 2876.62735369392 188 188 190
-34.1128893842453 700.142991901363 2874.50412950904 187 187 189
-40.6455288347434 699.52190890224 2871.00066495633 184 184 186
-44.9478714369766 699.437170940228 2865.41100803753 180 180 180
-51.4796919656919 698.816054308802 2861.90784249132 179 179 177
-58.0081295512163 698.195072732343 2858.40742447393 174 174 172
-62.3261510897915 698.108765882554 2852.80639361284 177 177 175
-64.4536925781876 698.555678439281 2845.09058498408 176 176 174
-68.066626412516 698.644994492883 2838.76683465958 169 169 167
-73.8802674724801 698.200102906785 2834.55014872237 157 157 155
-78.9679346772516 697.93250551848 2829.62530364969 184 184 182
-83.3365005285764 697.841606551621 2823.98790335466 174 174 172
-88.4368151520558 697.572715734184 2819.05388334678 158 158 156
-93.5425300898474 697.303188686086 2814.11623979018 166 166 164
-96.4996324641478 697.563578926885 2807.03345110545 166 164 165
-100.190881431614 697.645703809518 2800.65259756788 162 160 161
-103.182705948431 697.903012322372 2793.54462245147 128 126 127
-107.61557658474 697.806057178991 2787.86028109273 143 141 142
-114.894830544815 697.003488260265 2785.04969711572 147 145 146
-124.286756950601 695.673395422191 2784.4100296711 135 133 134
-131.54346656562 694.871995664869 2781.61579449297 172 170 171
-135.27944892438 694.949301767623 2775.20248835733 177 175 176
-141.130429331574 694.498816293926 2770.95870599631 179 177 178
-148.378392798557 693.697457531791 2768.17051681818 189 187 188
-154.922704674466 693.071455972325 2764.65856576171 187 185 186
-160.075703863879 692.795489158178 2759.68631774631 194 194 194
-161.776623960592 693.392717525934 2751.04579529598 201 201 201
-163.504622166966 693.987592546909 2742.38533694889 199 199 199
-165.259883260328 694.580049866641 2733.70510290707 199 199 199
-164.302814443125 695.867211754804 2722.05417252319 201 201 201
-151.102170222706 700.284659960172 2697.06230056953 199 199 197
270.793458123267 732.853577771872 2924.02047391355 214 216 215
265.53642699664 732.56734151072 2918.97305338697 210 210 210
257.015979965491 731.55504956862 2916.4966764051 228 226 227
251.758715441515 731.26944122327 2911.4487953873 190 188 189
245.686179786135 730.802560642811 2907.0443198542 132 130 131
240.421525441474 730.516871820378 2901.99137586706 154 152 153
231.928368951476 729.507806361323 2899.53479872366 135 133 134
216.214261540606 726.873977093669 2902.95158349985 135 133 134
199.75085272034 724.06394066856 2907.05932779869 146 144 145
184.143481088067 721.438717959039 2910.55323673552 152 150 151
173.371165222858 719.898748345776 2910.14716355178 144 142 143
157.059758431214 717.10090629253 2914.36515913195 141 139 140
144.768965547989 715.206733101128 2915.32658869938 141 139 140
130.931388930494 712.95610340217 2917.63528394078 179 179 179
123.444350620146 712.144767048845 2914.67402824514 165 165 165
113.606827672982 710.79627044916 2913.71153961651 149 149 149
107.710850475867 710.345276283959 2909.43513554558 162 162 162
99.469004458205 709.357515318523 2907.16055216125 157 157 157
92.0190200473523 708.549509335278 2904.2261744971 185 185 185
83.0224465826941 707.384932769758 2902.6389085801 178 178 178
73.2673903199892 706.043236378839 2901.73623625536 161 161 161
66.6259518019192 705.416555249525 2898.15357810403 164 164 164
58.446458744549 704.433855927629 2895.92451582653 177 177 177
51.8168623754258 703.808164016355 2892.35044731228 203 203 203
45.1906888424038 703.182759751354 2888.77915601897 183 183 185
37.0397942276557 702.20237722225 2886.57083709786 187 187 189
27.3772774153809 700.86801784093 2885.73499128201 186 186 188
13.1766357242995 698.471365174565 2889.01478989745 214 214 216
2.05408278481922 696.786989729523 2889.58942204635 194 194 196
-3.74994305915544 696.343564137028 2885.37971380996 188 188 190
-9.55469438707079 695.900139516058 2881.1694796597 183 183 185
-15.3602608878871 695.456589113176 2876.9586539361 185 185 187
-24.9110404665893 694.130564768123 2876.20385104406 187 187 189
-31.4537558978962 693.511433231213 2872.69279760535 186 186 188
-38.7376484265067 692.716195488865 2869.87888816487 183 183 185
-43.0441533127555 692.625414801077 2864.28618330996 179 179 179
-50.3208639053314 691.830609516104 2861.47748239867 178 178 176
-56.851513245646 691.211917772794 2857.97517815446 172 172 170
-61.171625607918 691.119806110809 2852.37289668516 175 175 173
-64.0341506627329 691.377392643207 2845.35836043934 178 178 176
-66.9152520859193 691.633424897159 2838.33064439195 174 174 172
-71.2730973366251 691.538017475141 2832.70099285289 162 162 160
-76.3672933677555 691.266933860238 2827.77139723622 175 175 173
-80.7422378478289 691.16984249087 2822.12934157135 182 182 180
-85.1266441265079 691.071914508101 2816.48012813211 156 156 154
-88.8004952758836 691.147293777252 2810.1118524763 163 163 161
-93.9246243829381 690.8731981696 2805.16083695478 165 163 164
-97.6222188443112 690.94635524661 2798.77533800955 154 152 153
-97.7653168962191 691.887193270684 2788.7954867203 139 137 138
-98.6558599713177 692.651396600666 2779.50764404509 137 135 136
-105.252766131895 692.02540600038 2775.95756632476 137 135 136
-116.088592644475 690.359886936695 2776.73985361383 124 122 123
-126.189564706595 688.869464409491 2776.82070284589 173 171 172
-132.751403285873 688.245467902585 2773.29576198707 177 175 176
-139.30963851821 687.621464587892 2769.77343323687 178 176 177
-145.864508278027 686.997475425214 2766.25383873823 188 186 187
-151.719562214116 686.54588328065 2762.00709778367 187 185 186
-157.575493638257 686.093981074507 2757.75971914878 190 188 189
-160.665334650426 686.330045800869 2750.58028770213 200 200 200
-163.084409957569 686.736234622324 2742.65322818979 198 198 198
-164.151757898323 687.483854879804 2733.23742637476 199 199 199
-163.880571997417 688.571867622574 2722.32331272691 202 202 202
-154.772891340997 691.884522456999 2701.76957687055 200 200 198
274.507826071297 726.037573024559 2921.73813310601 217 219 218
270.059571349993 725.92676565372 2916.04256933148 206 206 206
260.713250129026 724.742906807443 2914.2016661334 208 206 207
253.00929588731 723.917851320643 2911.08309395977 224 222 223
246.934844314018 723.45063629802 2906.67722784288 139 137 138
243.285032169046 723.518553343725 2900.32634077674 131 129 130
238.815650375019 723.407617655482 2894.61546088637 121 119 120
227.905763029689 721.872544432468 2894.10968400195 140 138 139
209.004718730883 718.561990171698 2900.15320346378 136 134 135
189.373686821881 715.07927275493 2906.90170391715 148 146 147
176.19547041637 713.022058937614 2908.45432650803 141 139 140
160.670746519108 710.436191969724 2912.00864237338 139 137 138
147.577120600618 708.385760823044 2913.6223262921 140 138 139
134.522251382966 706.33856937546 2915.2644166571 172 172 172
127.026254735277 705.531794624549 2912.29668997695 162 162 162
115.606624105771 703.842788826978 2912.65564623773 147 147 147
109.706323714428 703.391265203386 2908.37610550923 160 160 160
100.677670537743 702.234813838256 2906.76562548011 155 155 155
94.0051938509789 701.607948279923 2903.16046616373 200 200 200
84.2258965349547 700.277790195575 2902.24027942591 163 163 163
75.2434630635168 699.125083142027 2900.66332401318 156 156 156
68.5976009496581 698.500552892358 2897.07746999749 168 168 168
58.871172373081 697.174588149791 2896.19563017727 184 184 184
53.7789334798386 696.901881128804 2891.26773958577 202 202 202
46.3819429181678 696.103564695245 2888.3715328963 180 180 182
37.4637964806901 694.955926607237 2886.84150067877 187 187 189
26.2759997645032 693.28546296687 2887.36861221058 181 181 183
14.3581788462552 691.442624102804 2888.60067713353 220 220 222
3.99018590466182 689.951151650794 2888.48795191347 185 185 187
-3.32950842780844 689.158778841226 2885.64810349278 181 181 183
-9.88772422699991 688.540960585706 2882.12582015862 181 181 183
-15.6910628294207 688.097351692181 2877.91660918984 184 184 186
-24.4915097928449 686.958581033848 2876.47165027115 186 186 188
-30.2876199642279 686.515438236219 2872.26768170716 184 184 186
-37.5740641741338 685.725221363058 2869.45194793015 183 183 185
-41.8825166501884 685.628577364425 2863.857801527 180 180 180
-47.6811620292334 685.184930467626 2859.65199258351 179 179 177
-53.4806707267053 684.741153888592 2855.44555714521 170 170 168
-58.5451332326725 684.469890523241 2850.53780956203 169 169 167
-61.4139229488622 684.715837685045 2843.5189674508 179 179 177
-65.0324748823725 684.787780751882 2837.19076197167 184 184 182
-69.394323363055 684.686422746586 2831.55788378787 174 174 172
-75.2201089296627 684.239890138044 2827.33238572652 149 149 147
-80.3218545090949 683.965068733612 2822.39759282555 174 174 172
-83.2606532896969 684.204915815352 2815.32767427434 167 167 165
-84.777252414693 684.786218556877 2806.82068936357 154 154 152
-89.1940434738534 684.679692664205 2801.14795595573 150 148 149
-92.1884467990366 684.914627309385 2794.03799807804 172 170 171
-93.0597234245214 685.661164286536 2784.76432705679 165 163 164
-93.962649131456 686.405017847499 2775.46769934894 132 130 131
-100.572941760494 685.780501419654 2771.90763048189 112 110 111
-112.130474601976 683.962219762175 2773.40100030771 163 161 162
-121.538620422961 682.657379454817 2772.74999744894 167 165 166
-129.51974027146 681.694424819795 2770.66484015478 172 170 171
-136.787771141659 680.902164389028 2767.86214977264 168 166 167
-144.048007150917 680.110276940137 2765.06540641779 178 176 177
-149.907693926109 679.658070508678 2760.81530390782 180 178 179
-155.074251792533 679.375101011156 2755.83348592516 185 183 184
-158.862267881978 679.430119297331 2749.3823465355 195 195 195
-162.664329260918 679.483760783159 2742.92101844198 194 194 194
-165.105502450885 679.874109274715 2734.97756499138 196 196 196
-166.88442878616 680.431133165606 2726.27999603335 200 200 200
-159.811699865375 683.178490106107 2707.95391573218 199 199 197
-138.526640909328 689.457518826949 2674.0107148412 195 197 192
277.74148811563 718.256452582686 2928.98331181648 195 197 196
273.307092391855 718.140793563687 2923.29777015047 214 216 215
270.498118040997 718.377307665333 2916.32224169379 196 196 194
261.151395213785 717.204170171206 2914.48110166853 133 132 130
254.260159942742 716.560280140132 2910.71756783058 213 212 210
247.373233459053 715.917087273401 2906.95686657879 139 138 136
244.532417039909 716.152216688706 2899.95824811355 131 130 128
241.673766969755 716.386259842284 2892.94669615198 138 137 135
235.580983784959 715.918216936657 2888.52753686529 106 105 103
219.86542377324 713.349679111394 2891.94330485713 128 127 125
197.804464187162 709.386156425798 2900.63326787131 146 145 143
181.413125520039 706.652605548308 2904.79364477659 141 140 138
165.873409027763 704.098114264207 2908.33725111389 139 138 136
152.765245610827 702.070950996818 2909.94080882315 142 141 139
139.696122061464 700.046969907617 2911.5723890069 168 168 168
131.398091512092 699.070410222205 2909.25742747021 161 161 161
119.179915652373 697.22553405967 2910.2720428439 146 146 146
112.486698987974 696.599407956364 2906.65185242061 155 155 155
102.668579126255 695.279487427457 2905.70357424613 162 162 162
95.9916290476528 694.654798586641 2902.09518309805 206 206 206
88.5407155281239 693.857341375959 2899.15989085778 161 161 161
81.0978003202187 693.060512604188 2896.2306944245 159 159 159
72.889596118737 692.091468829988 2893.98088799395 164 164 164
61.6093130627378 690.432660657428 2894.44101324151 192 192 192
53.4347658851857 689.466283733705 2892.21561901401 192 192 192
44.5060048356307 688.328559144006 2890.67764777446 178 178 180
36.3585668904318 687.364318626618 2888.47191642935 186 186 188
24.4115763442512 685.540873804488 2889.68322837817 187 187 189
14.019469919059 684.063777466464 2889.55280112008 222 222 224
4.41076466063572 682.760284161545 2888.75641526779 178 178 180
-1.39761931890736 682.316087304759 2884.54354381932 178 178 180
-8.71412941295069 681.529080550214 2881.70603090114 181 181 183
-13.7681612381679 681.256262075345 2876.80554238708 185 185 187
-21.0752714009206 680.469807716712 2873.97484647769 186 186 188
-26.1333379950435 680.196583123219 2869.07172549349 184 184 186
-31.9413203051442 679.752120087061 2864.85914387552 183 183 185
-36.2648674007307 679.64860746537 2859.2540202696 181 181 181
-42.819395239968 679.033179009268 2855.73442252113 180 180 178
-49.3704919904883 678.417889508455 2852.21760722295 171 171 169
-55.1819193216812 677.97275905237 2848.00252485505 167 167 165
-59.5264380604559 677.867189030808 2842.3821880363 175 175 173
-62.4174281593901 678.100105876768 2835.34718639272 182 182 180
-66.7856951617314 677.992402877655 2829.70962314694 176 176 174
-71.8909911469852 677.714456019535 2824.77224064999 146 146 144
-79.1764432229518 676.928491228973 2821.95695315266 155 155 153
-81.3943298069884 677.325916050247 2814.1756952479 178 178 176
-83.6349248114558 677.721550621652 2806.37767197955 155 155 153
-84.4616423180371 678.452519619695 2797.13622395965 155 153 154
-88.1849560836578 678.506775262254 2790.73198480241 146 144 145
-89.0663055584038 679.233079486342 2781.45090927488 165 163 164
-90.6910935253169 679.788640123223 2772.86507109789 118 116 117
-95.8913660596052 679.501863972933 2767.85879335153 111 109 110
-108.878445473264 677.368377163269 2770.78462551833 156 154 155
-119.706690214432 675.740961551656 2771.57260199679 164 162 163
-129.801974032411 674.283112136331 2771.65773974765 170 168 169
-135.666804811386 673.830787702274 2767.40390764186 163 161 162
-142.231007721777 673.211050572413 2763.87727440354 173 171 172
-146.702629603273 673.092206946412 2758.16502504772 177 175 176
-151.18372910352 672.972376065865 2752.44560568613 182 180 181
-154.982526677385 673.018186669345 2745.9866039296 194 194 194
-160.17498630785 672.729623826882 2740.98598087401 193 193 193
-164.685000778041 672.606643969795 2735.24558448346 196 196 196
-165.777926609173 673.313209293488 2725.8110327585 200 200 200
-161.437240422051 675.344608991844 2710.44125090425 200 200 198
-145.587113198229 680.188827550334 2682.43176640469 192 194 189
282.287217794749 711.592345139402 2926.06908115351 197 199 198
277.022878948773 711.296615043022 2921.01631501707 213 215 212
272.571205103715 711.174309206148 2915.31850888179 190 190 188
263.219649631315 710.011563972508 2913.47391820775 140 139 137
256.324364822866 709.369964253234 2909.70716589757 178 177 175
250.243863418492 708.901960407749 2905.29691013347 150 149 147
248.205841823824 709.298393035215 2897.64603517235 135 134 132
245.339420621943 709.520743676269 2890.62849604964 116 115 113
240.84643517498 709.396883453377 2884.90073437923 116 115 113
225.918015252568 707.032083232953 2887.65311236215 121 120 118
203.838643495335 703.121465699889 2896.32999597555 144 143 141
184.239522175195 699.73387656643 2903.1021109393 142 141 139
169.486993917753 697.383126787493 2905.98236218914 139 138 136
154.782317809719 695.036243207944 2908.89702758935 151 150 148
142.498525403806 693.207638404206 2909.86386406899 166 166 166
134.19355451869 692.238492273526 2907.54390888592 156 156 156
124.327701887864 690.928147216408 2906.56107671011 150 150 150
116.052191113275 689.961477298952 2904.26249033237 147 147 147
106.224848749231 688.654271516453 2903.30729649482 192 192 192
99.5388559575261 688.031399585551 2899.69265377106 179 179 179
91.3009369358377 687.067954250761 2897.4213347904 161 161 161
83.0757238293582 686.105527878426 2895.15893728305 165 165 165
74.0890815694124 684.973848638379 2893.57933181676 167 167 167
64.3481620756003 683.673614200277 2892.68682307343 193 193 193
54.6283397776115 682.375009612972 2891.80991087012 172 172 172
44.1627747602618 680.908402217305 2891.62657951647 177 177 179
33.723062687848 679.443819096306 2891.46170529066 179 179 181
24.0711885821767 678.150450223191 2890.63407670198 215 215 217
16.7217823689194 677.366145101112 2887.77243589223 205 205 207
8.62206246451258 676.413507101264 2885.60135514228 171 171 173
2.04662170433112 675.799411886381 2882.06689840126 172 172 174
-6.03272108878783 674.848215556446 2879.9105967565 181 181 183
-11.844940205203 674.403409291726 2875.69494204869 185 185 187
-19.1565821700863 673.621834903941 2872.86069118021 186 186 188
-24.9660470883633 673.177072528541 2868.64703327172 181 181 183
-30.0314062351736 672.900180350469 2863.73860718341 180 180 182
-34.3590674692489 672.790628903327 2858.13047056287 179 179 179
-39.4370789863368 672.512532510713 2853.21286640174 178 178 176
-45.2587547125387 672.066452332709 2848.99034994306 175 175 173
-51.0811974661149 671.620250273118 2844.76727683251 170 170 168
-59.1065611519896 670.672411208003 2842.65012279977 167 167 165
-63.4605315805798 670.560250472176 2837.02290086609 172 172 170
-67.8243125907088 670.44718584058 2831.38885693111 179 179 177
-70.742771258635 670.666485870942 2824.33357928678 163 163 161
-76.5806083418801 670.218379516998 2820.0993368525 145 145 143
-80.2504604370014 670.2688513506 2813.73412851241 178 178 176
-82.4926180546384 670.650379280156 2805.93490101951 173 173 171
-83.3205737064047 671.361831234693 2796.69245658407 165 163 164
-84.8965698586084 671.904855259714 2788.14192513442 165 163 164
-86.4998612231778 672.445608324313 2779.57159529995 149 147 148
-90.2664606204784 672.487694494768 2773.13591582376 120 118 119
-97.5960812767616 671.702075134891 2770.28890580665 110 108 109
-110.578371422731 669.596010385696 2773.21834871395 157 155 156
-120.695941292668 668.152814972707 2773.28740505555 160 158 159
-128.678420674771 667.205642055143 2771.20134214397 170 168 169
-133.1436437366 667.08207886269 2765.49341304652 160 158 159
-139.714846028439 666.46428394511 2761.96171564491 168 166 167
-144.192896334731 666.339273754474 2756.2447749519 174 172 173
-148.6805380215 666.213147605692 2750.52058113291 179 177 178
-151.101516014804 666.577809696327 2742.5919319817 193 193 193
-155.615014465157 666.449200526533 2736.84898146599 192 192 192
-160.826022798324 666.155878994363 2731.83488795626 195 195 195
-163.300023703311 666.515548225572 2723.86748159797 199 199 199
-160.330388824183 668.178908016183 2709.97200445458 199 199 197
-147.202337570115 672.283223298537 2684.92621670745 195 197 192
281.902908722254 703.873666164941 2926.98672178081 199 201 200
275.821472185895 703.404212455586 2922.57578077573 213 215 212
272.192463701862 703.447587294966 2916.23985041627 186 186 186
263.657963598549 702.46629906987 2913.75344310243 136 135 133
259.202179644237 702.338661301364 2908.05233597693 142 141 139
252.304380555819 701.699665856687 2904.28377420271 163 162 160
250.262982638128 702.081994271118 2896.63038023236 141 140 138
244.973191033618 701.783037213042 2891.55914650287 133 132 130
241.287323243732 701.823538385175 2885.18198306347 110 109 107
229.566100852097 700.166886787766 2885.32247289999 116 115 113
209.875013328142 696.818178694844 2892.02811654008 143 142 140
189.460034944898 693.306056355616 2899.44349962852 142 141 139
170.714906904328 690.138364209333 2905.60047526112 140 139 137
156.79983948003 687.989951659212 2907.85351351294 155 154 152
146.884142279032 686.688891506816 2906.83459497435 166 166 166
137.778758807555 685.558216945123 2905.16862208162 153 153 153
128.69046534739 684.428956736848 2903.5150452668 151 151 151
118.049753882604 682.964590074827 2903.20475786534 146 146 146
109.781937361742 682.006549148968 2900.91179292389 201 201 201
101.526826308254 681.049627123384 2898.62804411432 163 163 163
93.2840405094986 680.093703580888 2896.35323520246 156 156 156
84.2779763072086 678.971164603362 2894.75930217589 164 164 164
74.5149419680153 677.682591332948 2893.85111545232 170 170 170
66.3162574713505 676.730240487753 2891.60829461194 188 188 188
56.5914046328722 675.444630498701 2890.72750700565 168 168 168
46.1206135851064 673.993760438298 2890.54046690373 182 182 184
34.9104823635153 672.378034974991 2891.05166493558 179 179 181
24.4930032680726 670.93121493011 2890.90329231976 219 219 221
17.1433049122092 670.152173468866 2888.04146639107 192 192 194
9.80132424742663 669.373588353602 2885.18553196986 172 172 174
5.49206777698474 669.26006133848 2879.59071721822 176 176 178
-3.35059783932579 668.150112645101 2878.11559356301 181 181 183
-8.41753957963642 667.870273941615 2873.20571081715 185 185 187
-17.2376648370229 666.762001909148 2871.74693564177 185 185 187
-22.3040720249745 666.482116894642 2866.83744016975 180 180 182
-27.3759052505249 666.201623437508 2861.92430264241 179 179 181
-30.9670853645341 666.250930499863 2855.61582492355 178 178 178
-37.535175355881 665.639362094851 2852.0864152335 176 176 174
-43.3612207713139 665.192718819934 2847.86072824165 176 176 174
-49.1881743496534 664.745882486063 2843.63438192524 171 171 169
-57.218501103647 663.805557412593 2841.51366811835 165 165 163
-63.7726395236955 663.194532160675 2837.99466944827 169 169 167
-67.4041823743294 663.240001824981 2831.65691248308 181 181 179
-68.1396084923267 663.939891426625 2822.48148611575 171 171 169
-73.9841677934985 663.490911907078 2818.24236617947 152 152 150
-78.3831977950882 663.368917358446 2812.58242978951 171 171 169
-80.6290862251018 663.736192869746 2804.78042555979 182 182 180
-80.7417657792635 664.591223644426 2794.82219065808 158 156 157
-81.6070894926562 665.280171885478 2785.55254333155 163 161 162
-83.2183908604109 665.80360752605 2776.97631915866 170 168 169
-86.9934765770153 665.836522588242 2770.53444131503 125 123 124
-93.622356773031 665.217968337076 2766.9609281236 105 103 104
-106.617365152213 663.138026833158 2769.88128363161 141 139 140
-117.452745280705 661.547771753268 2770.66457021797 157 155 156
-124.741254410018 660.769833825697 2767.84710725507 169 167 168
-129.918603664 660.47783507466 2762.85742063031 159 157 158
-137.896844682045 659.538383873028 2760.77446931131 165 163 164
-144.469228314178 658.922703774872 2757.24192624289 171 169 170
-148.954743139522 658.791024877703 2751.5195405824 176 174 175
-151.372743449065 659.142027398522 2743.59268635225 191 191 191
-155.193918479585 659.168848831583 2737.11736651594 190 190 190
-160.405004138586 658.872563716306 2732.10320193994 193 193 193
-164.249862781915 658.896958690174 2725.61070105677 197 197 197
-163.3244744182 660.043456279475 2713.93609234365 196 196 194
-154.26872306174 663.1101807852 2693.34346614394 197 199 196
283.475799420962 695.786598762958 2935.49678995397 196 197 199
280.696286248337 695.991494959379 2928.54216390618 212 213 215
277.898992073963 696.195319517626 2921.57493707971 205 206 208
275.083865899102 696.39802807595 2914.59477780278 192 192 194
268.173720659857 695.760153360807 2910.81727171706 165 163 164
263.707231133687 695.625953145615 2905.10866513099 135 133 134
257.609606427182 695.156263402616 2900.68598778034 188 187 185
253.938438375036 695.188963973256 2894.31944098295 148 147 143
247.833469140163 694.719157192073 2889.89143883413 136 135 131
243.337158455124 694.583665904549 2884.16091323702 112 111 107
234.017663638772 693.44625046328 2882.33969231714 112 111 107
217.513773477498 690.809656803429 2886.41896934977 133 132 128
196.278439519837 687.178152773373 2894.47409111246 143 142 138
174.330234715215 683.386745610399 2903.24666427308 137 136 134
158.024192677263 680.765851264018 2907.46944515271 169 167 168
147.314181739171 679.311881914282 2907.10897374857 160 160 158
138.208401613017 678.191839490149 2905.44276716628 143 143 141
131.4805856931 677.570438181999 2901.79751893629 147 147 145
121.617149029551 676.287143690103 2900.81657516317 146 146 144
113.340223973739 675.336370542567 2898.51704406306 170 170 168
103.515153140393 674.056203624316 2897.56363386377 157 157 155
94.4892908390162 672.942795153174 2895.95568949749 160 160 158
85.4804692007378 671.830726935501 2894.35981058319 169 169 167
73.393136113471 670.061142690211 2895.46936356633 181 181 179
65.1983506265728 669.116964019989 2893.22941059501 171 171 169
56.2465880390528 668.009398734137 2891.67491781253 166 166 164
49.613183397851 667.395775638475 2888.09844420853 177 177 177
36.0980527659027 665.306049707442 2890.64170243549 183 183 183
27.2032113946548 664.202856699651 2889.1284952039 198 198 198
19.8464451333269 663.428390985725 2886.2618632538 174 174 174
12.4978126127337 662.654543965224 2883.40083628271 167 167 167
5.91342881775692 662.044642771164 2879.85962331143 174 174 174
-2.17569732554512 661.108515863691 2877.69630583693 182 182 182
-8.74875251496832 660.499363539953 2874.16360348378 187 187 187
-16.0677125366522 659.727651475612 2871.32409755438 187 187 187
-22.6314640858374 659.119043747137 2867.79814236707 183 183 183
-27.7007825835831 658.835846077586 2862.88651964519 182 182 182
-32.0325653180282 658.71438080118 2857.2756293922 181 179 180
-36.3737425843591 658.592173976451 2851.65763060944 178 176 177
-41.4634554268132 658.307065648744 2846.73150839101 175 173 174
-47.2949181793931 657.859565302395 2842.50188991461 176 174 175
-54.5957309190621 657.088516828777 2839.67554269843 170 168 169
-62.6208554330328 656.156409762649 2837.55864173218 165 163 164
-66.2541907242919 656.19322072561 2831.2195415305 168 166 167
-69.9016277031874 656.228799678883 2824.87021247413 179 177 178
-72.1122079736769 656.585204825754 2817.09404329925 178 176 177
-75.068962591142 656.778769909534 2810.01116822827 141 139 140
-75.1596521177973 657.613496423592 2800.06847704468 160 158 159
-76.7243298700491 658.124249675895 2791.52598708688 172 171 169
-78.3164859614682 658.632637875118 2782.96385999215 152 151 149
-80.6502520301682 658.978635033444 2775.0980436077 153 152 150
-83.7194191643662 659.162525883464 2767.93362930243 113 112 110
-90.3574171449852 658.545742230299 2764.35351540279 102 101 99
-99.8235599777988 657.290331414746 2763.66071964255 136 135 133
-112.091180747658 655.398373293761 2765.87399501845 154 153 151
-118.692388021757 654.783654427368 2762.32085642269 166 165 163
-126.692462848404 653.850708962146 2760.22211026271 160 159 157
-135.379216670621 652.759534117454 2758.85981101059 157 156 154
-143.352389982082 651.82811079301 2756.78057404302 168 167 165
-148.534608972643 651.531923806736 2751.78733602805 165 165 163
-151.644475009583 651.710535687469 2744.59309700359 183 185 184
-156.153528357671 651.570766422577 2738.85360678632 185 187 186
-161.360122021243 651.271877531795 2733.84239088801 191 193 192
-166.572085324272 650.972235407728 2728.8275730852 195 197 196
-164.952942941845 652.249694914397 2716.42150818443 197 199 198
-157.931623390675 654.783922770611 2698.05678611624 197 199 196
-144.202786754623 658.885658409322 2672.21117634127 193 195 192
286.385073886747 688.754857202374 2933.86476357931 197 198 200
283.600056925865 688.948254924755 2926.90608947592 217 218 220
281.616895659835 689.306026687999 2919.29478811291 195 196 198
276.340404832464 689.000948011476 2914.23316539342 199 199 201
270.243643164032 688.530521642681 2909.81110994633 167 165 166
263.333203290597 687.895341402474 2906.03340392205 139 137 138
258.049205342523 687.590461106956 2900.96634013538 158 157 155
252.760567716004 687.285433562625 2895.89561772394 163 162 158
249.080893538276 687.309319883364 2889.52286000867 128 127 123
246.192236157727 687.496721686906 2882.48931885977 118 117 113
239.272975582358 686.861972362337 2878.7055151801 108 107 103
221.953814773149 684.095416085417 2883.42816346423 112 111 107
200.704742870892 680.514507400688 2891.4735825731 141 140 136
175.558749912077 676.121639663476 2902.86540533399 139 138 136
159.248547213067 673.535627236205 2907.08534674543 171 169 170
147.744111423717 671.934236118641 2907.38326972163 155 155 153
140.2164269251 671.151181577097 2904.39269198963 140 140 138
132.697108642233 670.368913921585 2901.40788861468 145 145 143
123.615818146931 669.261609317402 2899.759499608 160 160 158
114.551285147992 668.155702487593 2898.12356002507 162 162 160
103.942780657034 666.726136507647 2897.83650194157 154 154 152
94.916280973349 665.623340672442 2896.22814927835 163 163 161
85.906873399336 664.521829514636 2894.63189908031 172 172 170
74.5923268667594 662.935761800761 2895.06755444725 180 180 178
65.6231722537797 661.837451837898 2893.50050069439 166 166 164
57.4403709240201 660.902160073567 2891.26928030826 163 163 161
50.8048524696041 660.290804873507 2887.69099136626 175 175 175
39.5814697283257 658.7117743389 2888.19306343276 183 183 183
29.9142755820685 657.457331728984 2887.35423171189 176 176 176
22.5505796975982 656.687472478316 2884.48259966273 173 173 173
13.6776861474477 655.596632144093 2882.98536544376 166 166 166
7.09090582035543 654.98895642872 2879.4424264477 175 175 175
-1.0008740563261 654.060560466668 2877.277224384 182 182 182
-6.82416692414378 653.613990819267 2873.05353314559 186 186 186
-14.1480283026083 652.847030016849 2870.21079266115 186 186 186
-20.7162096018396 652.240592182987 2866.68134276742 183 183 183
-26.5354450412627 651.794112257275 2862.46059329991 182 182 182
-32.3554973041096 651.347536287848 2858.23925121318 181 179 180
-38.1764560793401 650.90073752127 2854.01725084776 178 176 177
-42.5204874478604 650.772444588545 2848.39715223808 175 173 174
-46.8744256889715 650.643239959402 2842.77016178414 176 174 175
-50.5033575026719 650.672163006657 2836.43421380346 172 170 171
-57.075398976977 650.064695529782 2832.9019603711 169 167 168
-62.9140198731819 649.615898368188 2828.667146235 164 162 163
-68.7534800150509 649.16697347452 2824.43172306481 178 176 177
-70.965598825947 649.509273929705 2816.65436712611 175 173 174
-71.7536348968162 650.165888827123 2807.44058348628 149 147 148
-71.8519585120991 650.977831939427 2797.49224278651 143 141 142
-73.4246446170128 651.471238029507 2788.94385953615 177 176 174
-76.4584258180159 651.647122160386 2781.80505669343 167 166 164
-78.0813883714875 652.136246194081 2773.2202052831 155 154 152
-79.7316444868019 652.623069529157 2764.61555653383 114 113 111
-83.5401815789454 652.636198284101 2758.14962332966 99 98 96
-92.3189998921208 651.549513951948 2756.72060730862 136 135 133
-105.316215486728 649.523282560269 2759.63963481137 149 148 146
-116.159233984376 647.969917444856 2760.41727655884 168 167 165
-124.166632660454 647.044324593573 2758.31325842655 161 160 158
-131.462285700571 646.275725402877 2755.49066399279 153 152 150
-139.447169055926 645.351388977427 2753.40297406104 162 161 159
-146.030155303575 644.739490453224 2749.86305856179 165 165 163
-151.224045991358 644.43915127682 2744.86104397574 183 185 184
-157.80428065683 643.826908095215 2741.32312141139 182 184 183
-163.692608944223 643.370111116872 2737.05223280595 190 192 191
-168.209747303799 643.223433288818 2731.30655212105 194 196 195
-166.582450765994 644.471173642985 2718.90624780816 195 197 196
-160.233313615417 646.799027986151 2701.28823767937 195 197 194
-147.170853093566 650.667418561062 2676.19370680552 192 194 191
293.418166328602 682.522229373365 2929.05045643069 196 197 199
288.97138585454 682.377109481912 2923.35608204679 218 219 221
285.335937546006 682.394481886509 2917.01535161366 184 185 187
277.597320813303 681.59785400834 2913.87150137501 174 174 176
272.314286304864 681.289556748989 2908.8051186987 176 174 175
266.213090296443 680.818860764925 2904.37984733827 161 159 160
262.54580322067 680.834789006788 2898.01602898833 125 124 122
256.437261033357 680.364005722735 2893.58543178385 142 141 137
253.556409486611 680.540598945259 2886.55749450287 145 144 140
250.657631298849 680.716038629013 2879.51655597433 114 113 109
245.333098005805 680.405982229934 2874.41978655603 108 107 103
228.796853652176 677.837354837328 2878.47595360669 87 86 82
204.334327366059 673.661901341726 2889.12930056132 135 134 130
179.175823944906 669.333330465927 2900.51267437438 143 142 140
162.854907841692 666.781758728215 2904.72502385936 172 170 171
152.132561012985 665.359130951315 2904.35547417908 149 149 147
143.014535096478 664.259405510088 2902.68078774856 140 140 138
135.488431627047 663.481756018808 2899.69108903899 143 143 141
127.185113014479 662.544706681759 2897.37249420013 172 172 170
116.545532849215 661.128794286016 2897.06327233226 153 153 151
105.931521259463 659.714893486222 2896.77259585956 157 157 155
95.3431679341827 658.303131035815 2896.50053044152 166 166 164
86.333171123389 657.212236414271 2894.90390686802 176 176 174
75.7916218517645 655.804146126554 2894.66578930755 176 176 174
66.819664958317 654.716243546825 2893.09675683722 162 162 160
57.8645092030254 653.629731918566 2891.53991091594 164 164 162
48.9262109840309 652.544466451118 2889.99529169453 169 169 169
38.4737009462905 651.143260743355 2889.82175544665 203 203 203
29.5732998585874 650.060945878552 2888.30462360986 168 168 168
22.9724231886537 649.454647800817 2884.75176732907 168 168 168
14.857665564401 648.532455800008 2882.56993963007 171 171 171
8.26853354967394 647.927068940041 2879.02530743896 171 171 171
0.928582141720202 647.164111506968 2876.1706287496 183 183 183
-5.65143596166306 646.559294102393 2872.63290078874 184 184 184
-12.2277480622088 645.954706823185 2869.09756607704 182 182 182
-20.2962114273162 645.035787223133 2866.94931464983 182 182 182
-26.1154768565102 644.588976276931 2862.7285417654 181 181 181
-32.6790171884008 643.985184678159 2859.20246961164 179 177 178
-37.756647466229 643.694991175693 2854.28508054474 178 176 177
-42.1004084292986 643.560954870658 2848.66514886644 175 173 174
-46.4540264689097 643.425981031334 2843.03836131121 175 173 174
-50.0826323200783 643.446416991525 2836.70260663896 175 173 174
-57.3873315799949 642.685269858821 2833.87349215356 175 173 174
-61.7634652206824 642.548173285632 2828.23037180653 172 170 171
-66.8772936471105 642.254479763192 2823.28672420092 176 174 175
-68.367171472461 642.738075082519 2814.79832074615 168 166 167
-69.1608252808853 643.374788268699 2805.58036388239 181 179 180
-70.7075322979398 643.853660302092 2797.05073980938 146 144 145
-72.2816050951263 644.330225786378 2788.50126601521 179 178 176
-73.8829971774413 644.804518360081 2779.9319763755 173 172 170
-73.3672568380921 645.740698758665 2769.19437639836 157 156 154
-75.7426310261047 646.055285832443 2761.298532779 122 121 119
-79.5617324999638 646.059124518333 2754.82459969602 100 99 97
-89.0607018907519 644.827909230421 2754.10812981847 137 136 134
-101.362314207609 642.982008112057 2756.29699728433 147 146 144
-115.033020202517 640.83100727042 2759.96249634726 166 165 163
-123.043077115709 639.913134641329 2757.85629582958 160 159 157
-130.34165919655 639.14947636406 2755.03189757542 152 151 149
-137.632232614795 638.386168158701 2752.21330674487 157 156 154
-144.219815471309 637.776396139779 2748.66977535991 164 164 162
-149.418375228432 637.472701884304 2743.66465354874 183 185 184
-155.312697633849 637.015419315552 2739.38941721962 180 182 181
-161.207871804031 636.557798897187 2735.11356171677 190 192 191
-165.731459360122 636.404893077941 2729.36317432568 195 197 196
-166.161220404974 637.164874146243 2719.17459883901 193 195 194
-158.446097949348 639.747711030871 2700.07803888786 195 197 194
-146.063184402003 643.38722501347 2675.72447275706 193 195 192
295.505025811345 675.282827517856 2928.05652314951 204 205 207
292.699765585513 675.452330738857 2921.08305324098 217 218 220
286.595207362514 674.980346733057 2916.65533801536 186 187 189
279.672245654604 674.348673101034 2912.86886688472 155 155 157
271.937515536944 673.557826641119 2909.72786342028 183 181 182
265.024735922762 672.927425950856 2905.94877995438 175 173 174
262.174229366055 673.09481705365 2898.9424993167 131 130 128
258.496131333694 673.101724815065 2892.57109266011 138 137 133
258.033505713833 673.744184923018 2883.592839827 143 142 138
255.92956394991 674.066601766047 2875.89380302385 117 116 112
251.394894109447 673.911214947071 2870.13536928156 109 108 104
235.642108984774 671.535093850386 2873.52542110028 90 89 85
208.76313698919 666.9452571376 2886.13034042254 130 129 125
184.38647601245 662.839102360809 2896.84628398407 147 146 144
168.050466912661 660.321586644924 2901.04786473419 171 169 170
157.313900295423 658.913888351233 2900.66837692354 145 145 143
145.813441280021 657.350637231726 2900.96937593465 141 141 139
135.130458983032 655.947309737473 2900.62875468025 146 146 144
127.614371465193 655.175669361895 2897.64634718509 168 168 166
115.407618158478 653.461332760602 2898.66990421983 152 152 150
105.5782106188 652.220962364584 2897.7135518268 158 158 156
94.9910926667665 650.825281463751 2897.44246341341 167 167 165
89.8652563223887 650.528792979678 2892.49009685478 174 174 172
80.8627587232324 649.449170148922 2890.89896671367 172 172 170
72.6490863027709 648.527239464894 2888.64543489158 163 163 161
61.3681906935746 646.981416967039 2889.10568838097 165 165 163
47.8139589566928 644.969685383378 2891.62099643926 176 176 176
37.3650384714188 643.584841555684 2891.45014521071 207 207 207
28.4683380503448 642.513401141438 2889.93575114737 170 170 170
22.6329837627501 642.065436177815 2885.70330926081 166 166 166
15.2788306588243 641.306625935009 2882.83865094232 173 173 173
10.2031175562067 641.014038274593 2877.92234507275 171 171 171
3.61280210282589 640.410895910066 2874.37716082753 182 182 182
-4.47845423252802 639.498244625719 2872.21212356299 182 182 182
-12.5575202944246 638.586501632126 2870.05622236552 180 180 180
-19.8764044647282 637.830070615752 2867.21714330094 180 180 180
-25.6957529807893 637.383013963327 2862.99630894052 180 180 180
-31.5159150192279 636.935801790793 2858.77488405262 178 176 177
-36.5956862784291 636.642358038476 2853.85592647949 178 176 177
-40.9413433847319 636.502402846528 2848.23459026615 175 173 174
-45.2968139257834 636.361503297384 2842.60613530118 174 172 173
-50.3967964028917 636.066242979569 2837.67251698359 175 173 174
-56.2347425766436 635.617052399404 2833.43818997545 176 174 175
-60.6127723605643 635.474036939301 2827.79366509341 172 170 171
-63.5440177190842 635.63617179075 2820.72882855129 170 168 169
-66.4939100137418 635.79671677507 2813.65076087125 176 174 175
-67.2909444432714 636.413739353301 2804.43025358629 172 170 171
-68.8412544973316 636.875621104167 2795.89793153574 165 163 164
-69.6995715797482 637.48755961644 2786.63297339607 155 153 154
-70.5896323841437 638.096777173679 2777.34498977271 173 172 170
-70.081424081337 639.007464094275 2766.60180053205 183 182 180
-72.4650066156725 639.307436019612 2758.69993247867 114 113 111
-75.5818822827648 639.453756076261 2751.50044845926 106 105 103
-85.0928123166188 638.23501420129 2750.77537123659 124 123 121
-97.4072447131225 636.412370732754 2752.95535743473 146 145 143
-113.202598519074 633.836770328246 2758.78361316431 158 157 155
-121.217902869809 632.926399012083 2756.67394113982 155 154 152
-129.920338459469 631.865946582376 2755.3004294549 156 155 153
-136.513993413329 631.258400999442 2751.75250755433 151 150 148
-142.40903043411 630.801359257952 2747.47675440512 162 162 160
-148.304943292418 630.343977716687 2743.20036462144 182 184 183
-153.510976630671 630.036392107957 2738.18980534134 179 181 180
-160.787884535732 629.278253541001 2735.38114711817 190 192 191
-165.311439112958 629.119525371429 2729.63075414281 195 197 196
-165.740119906177 629.857428996725 2719.44284992701 193 195 194
-160.067805983097 631.937141762556 2702.56827041669 195 197 194
-149.03374845047 635.204838215351 2679.70537418113 195 197 194
316.925131091089 671.030788662153 2921.33045099169 197 198 200
300.067209011629 668.505255252388 2925.15364527348 220 221 223
293.138356402298 667.875065579177 2921.3626167422 213 214 216
287.854571059764 667.56025516185 2916.29565677981 230 231 233
283.384308709856 667.402538833657 2910.58419607954 200 200 202
277.27284752084 666.930324201609 2906.15147557837 165 163 164
271.161134050531 666.458298235316 2901.71857314875 165 163 164
269.10783211053 666.770080260012 2894.05589789019 146 145 143
267.032127646091 667.080316277558 2886.37697473274 128 127 123
265.741252643291 667.54539199042 2878.03303334253 136 135 131
262.008311480081 667.540020048442 2871.62151305384 111 110 106
258.261778423746 667.533815858707 2865.20013549627 102 101 97
243.290537026355 665.34453909157 2867.92236033901 97 96 92
216.387960120015 660.823616410675 2880.51051702087 116 115 111
189.598828928347 656.311615250683 2893.18095811161 146 145 143
174.836223553215 654.138851993325 2896.05451130358 165 163 164
162.497218193547 652.435518377649 2896.98225173503 136 136 134
147.823301829428 650.269850303548 2899.92013342231 140 140 138
134.772119809996 648.417632781946 2901.56588429736 154 154 152
125.687090938819 647.341958396846 2899.91494547552 156 156 154
115.052284252697 645.958545006814 2899.60934861841 150 150 148
106.786321711763 645.040294295386 2897.31792921185 153 153 151
96.9751971721515 643.814698025151 2896.37490538961 167 167 165
91.8451462877235 643.514851053664 2891.41946660955 169 169 167
81.2886740234138 642.137753753502 2891.1706880388 165 165 163
73.0746123598318 641.223707591954 2888.91691398273 164 164 162
61.7926320765418 639.696556781372 2889.3764757445 163 163 161
49.7726724324372 638.018372014504 2890.53533213079 203 203 203
37.7869055673092 636.342877986716 2891.71928369841 190 190 190
28.126167565226 635.12895688075 2890.88533742364 167 167 167
22.2930444770739 634.68087395009 2886.65451238365 166 166 166
14.9407258863148 633.927350291416 2883.79121072049 172 172 172
9.11030720025119 633.479337087947 2879.56234651247 176 176 176
3.27906838971748 633.031287317157 2875.33288759349 181 181 181
-4.81069005792811 632.126594176586 2873.1692709663 180 180 180
-12.8880718042681 631.222843943035 2871.01463125003 177 177 177
-19.4567969666917 630.623591051828 2867.48482349142 179 179 179
-23.7842319883268 630.47946626142 2861.8766757363 179 179 179
-29.608898249436 630.031500861819 2857.65198182602 178 176 177
-33.9514398605023 629.88604313994 2852.0331707073 178 176 177
-38.3035154884634 629.739742954174 2846.40714943199 175 173 174
-41.9282502663989 629.743585014769 2840.07411693197 172 170 171
-49.2418020857008 628.992156380156 2837.23892874048 175 173 174
-55.8146281508294 628.391854344313 2833.70614283585 177 175 176
-58.7313617256027 628.544003077022 2826.65207009083 174 172 173
-60.2098855245756 628.995121406417 2818.17173290973 164 162 163
-62.441933535101 629.293926959725 2810.37970955865 175 173 174
-65.4206474250569 629.440835133949 2803.28038493894 166 164 165
-66.9747419924012 629.885602771433 2794.74552720461 170 168 169
-69.275460895742 630.178595882946 2786.90339893963 165 163 164
-68.0125432244547 631.216848521815 2775.47292414279 159 158 156
-67.5096473124124 632.102132164763 2764.72575516409 182 181 179
-69.8991977755736 632.387640568554 2756.81948757114 115 114 112
-73.733055543308 632.373286714649 2750.33476518701 103 102 100
-82.5406769303669 631.316291697234 2748.88501958526 116 115 113
-93.4505685313773 629.814564458167 2749.61444514898 145 144 142
-107.851205108387 627.572716412923 2753.98537842566 156 155 153
-117.988347340893 626.224242450379 2754.04072612676 154 153 151
-126.000774606492 625.321721546635 2751.93317952657 155 154 152
-134.0006753348 624.419966098474 2749.83442308076 150 149 147
-139.90255823837 623.962100916963 2745.55370303413 164 164 162
-147.191508130062 623.20875209296 2742.73633957886 180 182 181
-151.708829543753 623.045331167227 2736.99044138703 179 181 180
-158.990693105379 622.291958976837 2734.1782148453 189 191 190
-163.518531980959 622.127208068875 2728.42468558427 194 196 195
-164.634825034054 622.695813847888 2718.97249566914 192 194 193
-161.690464831078 624.14186914172 2705.05759568351 195 197 194
-153.365594335936 626.755482939393 2685.1681743608 196 198 195
-141.746025797365 630.09330568342 2661.49504612317 197 199 196
316.538088038939 663.26019944633 2922.24555228617 198 199 201
