ply
format ascii 1.0
comment KinectMotionCapture
element vertex 758
property float x
property float y
property float z
property uchar red
property uchar green
property uchar blue
end_header
-31.2777907810586 849.46238666733 2622.87988197223 243 243 245
168.134502964752 828.079828798943 2985.94689315703 254 255 255
156.611406001748 826.05580212328 2986.2294419948 254 255 255
151.599045099014 825.83295963371 2981.35941475997 253 254 255
144.966373566432 825.160817117225 2977.78317618964 252 253 255
137.532575866217 824.264974307416 2974.85979322961 253 254 255
128.500513683465 822.921607096114 2973.24589517363 252 253 255
121.889358529923 822.252163547332 2969.68526795646 251 252 254
117.67954111026 822.255276588412 2964.16312949974 254 255 255
115.851144786149 822.929233978658 2956.66562208851 254 255 255
112.411284300514 823.154647031643 2950.46773120915 249 250 252
108.165683481502 823.155936606981 2944.91964336637 251 252 254
101.540279911242 822.486941502175 2941.34839496228 238 239 241
94.9186711371071 821.818503151815 2937.78019478398 229 229 231
89.8730394960685 821.596490246492 2932.88605308292 236 236 238
86.3898651027029 821.819828241465 2926.6567525169 233 233 235
85.2374943515159 822.710208726453 2918.41537006703 247 247 249
80.1621654537197 822.486506937923 2913.49969163625 211 211 213
77.4131178196762 822.929421532505 2906.56865079467 223 223 225
70.7716889519578 822.260741282896 2902.98578690526 239 239 241
66.4520704161387 822.258195733428 2897.38431709131 251 251 253
59.8118319823922 821.589850897508 2893.80231787183 231 231 233
56.2486983336892 821.808264640262 2887.51502819289 232 232 234
51.1395645068555 821.582910022527 2882.57512995274 231 231 233
45.2615929271145 821.136003241006 2878.3117992415 233 233 235
40.9066363031809 821.13136122352 2872.68440699728 233 233 235
37.301682628232 821.346924772095 2866.36678665204 238 238 240
36.7123386970558 822.44450409045 2857.2992727563 239 239 241
32.3158171813809 822.436863674457 2851.64202852456 235 235 237
30.9218501670707 823.31023079345 2843.22512713456 233 233 235
26.4979227411049 823.300479322337 2837.54771060364 227 227 229
26.5557547487525 824.610591254138 2827.71538824776 221 221 223
22.099797343611 824.598483972764 2822.01474056875 218 218 220
21.3550448854618 825.684250136866 2812.83450787927 216 216 218
18.3529185175222 826.108873052751 2805.71991221156 217 217 219
16.0724744232761 826.75151637341 2797.89425263563 215 213 216
10.0814689817992 826.296109770466 2793.54893821249 220 218 221
4.089744658474 825.84058518626 2789.20310205895 226 224 227
-3.36912600387174 824.946963356153 2786.26184890031 236 234 237
-10.819953062279 824.053933403855 2783.3264297198 242 240 243
-17.5337710643972 823.379866777574 2779.69106211894 245 243 246
-20.6111838312846 823.798151680265 2772.52185763066 251 249 252
-25.1555581598677 823.778403691517 2766.75707593524 233 231 234
-26.098697560182 824.848158044645 2757.43294721462 238 236 239
-29.9531994010827 825.043684640184 2750.93432258714 239 237 240
-30.9506162802073 826.108922424578 2741.57082408648 232 230 233
-35.5573192590704 826.083766657157 2735.76083163085 236 234 237
-38.0336682280202 826.709773186951 2727.79336663883 231 231 233
-43.377204018817 826.465000830926 2722.68315258092 230 230 232
-45.18134660719 827.304791049498 2713.9690305671 230 230 232
-50.5462392053855 827.057930091005 2708.84332392454 231 231 233
-49.5753063711906 828.761016428045 2697.20455060178 231 231 233
-52.8633620130017 829.161042032407 2689.88255411118 232 232 234
-49.868277835067 831.50691568318 2676.00898277487 233 233 235
-49.7230544543557 832.98318543247 2665.00552280623 234 234 236
-47.5311256491917 835.104199473569 2651.78391914798 235 235 237
-39.8442766525715 838.947998993049 2632.67325018735 238 238 240
-28.7895184241282 843.863404157354 2609.83370629743 243 243 245
172.758593008267 820.857437039889 2991.73277960984 190 190 192
166.111092011604 820.185755639879 2988.14549870315 251 251 253
157.030694356502 818.848101828887 2986.49688464826 250 251 253
149.588441231011 817.956473028179 2983.56739351479 253 254 255
142.962635991308 817.287744102745 2979.9958552802 254 255 255
137.146830437915 816.841332932699 2975.77759255852 251 252 254
128.116383361617 815.509040039589 2974.16521589831 250 251 253
120.7063665623 814.62127736093 2971.2591131483 250 251 253
114.903212009015 814.176966451654 2967.05003204482 250 251 253
112.287606084031 814.617069722991 2960.21571170602 251 252 254
108.859419050426 814.835183809279 2954.02624619046 242 243 245
104.625106912458 814.831842077242 2948.48661277202 242 243 245
99.5915421718747 814.607640303225 2943.60120753757 234 235 237
94.5530611882028 814.383229848513 2938.7125318336 226 226 228
91.0819520131705 814.599181126599 2932.49194018666 234 234 236
89.1648412962933 815.254301617696 2924.93002640625 233 233 235
87.2255111817792 815.907970194302 2917.35170347905 244 244 246
81.3666099016692 815.461652418686 2913.10220021843 207 207 209
75.5071757197236 815.015351215894 2908.85231072984 223 223 225
68.0970564204859 814.130398551289 2905.94644238576 245 245 247
64.5596712227245 814.342354840152 2899.67778560013 232 232 234
58.6965997179352 813.896236924167 2895.42526026697 224 224 226
56.6753944301706 814.54464680639 2887.78755764306 222 222 224
52.3327026019933 814.535213582445 2882.16932661964 224 224 226
46.4526607646216 814.088139086968 2877.90449428496 225 225 227
40.571993035408 813.641013887271 2873.63920797111 226 226 228
34.6907858022658 813.194024213186 2869.3735312458 230 230 232
34.1115417600992 814.273353099765 2860.31295205609 232 232 234
29.7241411740981 814.260835662166 2854.66229507784 228 228 230
29.8461710156701 815.553913276841 2844.87613034263 225 225 227
26.9286791878454 815.974160697089 2837.82286589649 218 218 220
26.2391052381958 817.045159427257 2828.68255848543 215 215 217
22.5321204172184 817.244810106775 2822.29089298316 213 213 215
20.2997288773425 817.877436269673 2814.50031146753 212 212 214
16.5605729416578 818.074659961563 2808.08531214447 213 213 215
13.5474027488898 818.487395342476 2800.96265035975 222 220 223
6.82743974605149 817.815997324812 2797.32284163376 225 223 226
2.31772191218971 817.793978674345 2791.58317166962 230 228 231
-3.66821174379384 817.338684223512 2787.24153446009 246 244 247
-9.65486098057911 816.883212315024 2782.89937761191 251 249 252
-16.3713265934187 816.211630032809 2779.26239776225 245 243 246
-21.6304024876073 815.971728324431 2774.21343515665 213 211 214
-27.6193396023303 815.515652865609 2769.86961671982 229 227 230
-29.9973548540315 816.13618316473 2761.97340819979 228 226 229
-33.1180668500095 816.539837638975 2754.77244659326 226 224 227
-34.8215879991725 817.371708229999 2746.13122709362 227 225 228
-35.8363816779317 818.416300791339 2736.75502720794 224 222 225
-36.8825915152891 819.458278191278 2727.35574535511 226 226 228
-41.5172486835267 819.424953543437 2721.52574141106 225 225 227
-47.5795789818778 818.961976517193 2717.12868373134 225 225 227
-51.5219468762038 819.141244178769 2710.56628077187 226 226 228
-51.9545775703696 820.389388104299 2700.37780317926 226 226 228
-52.4233752206769 821.634433229967 2690.1633861693 226 226 228
-53.6284178774871 822.662777088956 2680.64918843643 227 227 229
-49.97824121951 825.183110689057 2666.01635466411 225 225 227
-49.8699991172902 826.631650602872 2654.98594572039 227 227 229
-47.0273709902664 828.929506555613 2641.00161252009 232 232 234
-46.3173553019374 830.583435844681 2629.1734457999 229 229 231
-36.0019426884051 835.213492248428 2607.03182025381 232 234 233
174.811943132161 814.075307699307 2990.71657637772 244 244 246
167.345364265636 813.186378618249 2987.76975914707 255 255 255
157.450143653066 811.6401158535 2986.76444252485 254 255 255
150.007731267887 810.753970581978 2983.83486371578 253 254 255
142.573880085937 809.868768197034 2980.91179035857 254 255 255
136.760571497819 809.422678796653 2976.69533937014 247 248 250
127.732205373677 808.101596731309 2975.08423354458 245 246 248
121.125838843828 807.438146674701 2971.52681358412 246 247 249
115.322828727122 806.993847466399 2967.31783724506 241 242 244
112.708157310219 807.423212812762 2960.48413996141 247 248 250
108.485808786336 807.415094502252 2954.9528605508 236 237 239
102.668786951307 806.970556345731 2950.73372560779 235 236 238
97.6419744996937 806.744163725302 2945.85349863167 230 231 233
93.3987405530532 806.735140490602 2940.3073688258 221 221 223
90.7189790436593 807.160835538201 2933.42617327719 229 229 231
88.8049800961479 807.802586527457 2925.86644756564 232 232 234
87.6505588714998 808.660110675939 2917.62311778296 237 237 239
82.5712980663447 808.430664030257 2912.70485440681 207 207 209
75.9324707391684 807.767392246367 2909.1239038246 221 221 223
66.9719309489816 806.454612829808 2907.56200881057 242 242 244
61.1203794291635 806.009189185819 2903.31783807699 217 217 219
56.8099315874693 805.996513190485 2897.72296498222 222 222 224
54.796270758537 806.631852924333 2890.09066529464 221 221 223
51.227102038665 806.833527441285 2883.79891587634 222 222 224
46.1156687486328 806.602549854204 2878.85732222479 222 222 224
41.761415808288 806.58697198094 2873.23038470356 222 222 224
36.6377950980095 806.355126564531 2868.27995173525 226 226 228
35.2975610417987 807.199688834946 2859.90185661106 227 227 229
29.3975256068268 806.751233610349 2855.62252349713 222 222 224
29.5228832372234 808.022784678863 2845.83895658787 220 220 222
25.8572361145699 808.21742003883 2839.47723226173 214 214 216
25.9221085570607 809.484240005642 2829.64949990796 211 211 213
21.4710064565962 809.461424066845 2823.95261217848 210 210 212
19.2439850220882 810.080853319926 2816.16556224486 211 211 213
16.2519355171065 810.484247106284 2809.05816398044 212 212 214
11.0212575924455 810.24426655591 2804.03008174666 221 219 222
5.04769733672106 809.789974488491 2799.69741935631 230 228 231
-1.66224560401651 809.121897447841 2796.06489120857 233 231 234
-4.70113740504186 809.521436742005 2788.92351644032 252 250 253
-9.22084478212448 809.492933164687 2783.17657199568 255 254 255
-14.4793277136621 809.25028189196 2778.12831979129 212 210 213
-20.4697606407467 808.794144999469 2773.78341669699 208 206 209
-27.1856406162814 808.124989554638 2770.1465792037 233 231 234
-32.4529176738997 807.881327140547 2765.09194682801 229 227 230
-35.5645758012728 808.274433856426 2757.8977896146 226 224 227
-37.2582659723297 809.090720702574 2749.26332338903 229 227 230
-37.5472730512827 810.329051713019 2739.17891191582 224 222 225
-40.7271434862837 810.716453239809 2731.93527724698 224 224 226
-43.9254437547185 811.10218251311 2724.67827392828 224 224 226
-49.2699448663525 810.851367932189 2719.56762396065 223 223 225
-51.7911723387705 811.445887826446 2711.56717162067 223 223 225
-55.0401467390742 811.827093723226 2704.27341063054 223 223 225
-56.1995021581587 812.840020737127 2694.79225446196 223 223 225
-58.0908698879405 813.639277851598 2686.01440129647 224 224 226
-57.2163588452614 815.279409406775 2674.30541088091 222 222 224
-56.3866920592839 816.915848333228 2662.56389320276 226 226 228
-54.2140199014391 818.969394584602 2649.32769377523 230 230 232
-52.0952180837899 821.018587096019 2636.05271501292 224 224 226
-49.3404455799602 823.273419730556 2622.00447547485 229 231 230
185.164580507658 808.383990768336 2992.01711888215 254 254 255
171.146580087435 805.761894921066 2994.19313950924 253 253 255
159.616990875892 803.79462626126 2994.47097499101 255 255 255
152.181139070238 802.914101052515 2991.5464750298 254 255 255
146.374947487042 802.467871283121 2987.33518259913 247 248 250
140.568636505469 802.022050047833 2983.12380568332 252 253 255
133.956132947163 801.360253600826 2979.56194523581 245 246 248
126.543803127421 800.482888555383 2976.65451287103 234 235 237
119.941807127864 799.822600519785 2973.1002772175 226 227 229
115.742519999126 799.81025657032 2967.5856941007 216 217 219
112.331424252209 800.013206204629 2961.40854161266 224 225 227
108.906879398222 800.215365030353 2955.22163557428 221 222 224
104.67586420017 800.201417012852 2949.68433845502 222 223 225
98.8543483259639 799.756813508114 2945.4619453561 212 213 215
95.3980775010219 799.957238589786 2939.25203170256 210 210 212
91.9282579769116 800.156924538616 2933.032292564 216 216 218
90.797293151561 800.999620648781 2924.80589171881 227 227 229
86.5117012936714 800.982625420927 2919.22901537939 222 222 224
81.4373027934474 800.750873846109 2914.31397063991 211 211 213
74.802619675804 800.090576875654 2910.73633382867 216 216 218
67.3967544794993 799.216891600634 2907.83331196912 227 227 229
63.0915792264215 799.198967081336 2902.24223450155 195 195 197
57.2352962408402 798.753399111114 2897.99463309642 216 216 218
54.453785295776 799.161591028326 2891.03958855365 214 214 216
49.3540719843755 798.928575699459 2886.10648064317 212 212 214
45.013998555012 798.908470862277 2880.48979922208 217 217 219
40.6642939220299 798.887715636198 2874.86642711863 218 218 220
37.0653736952922 799.079093765691 2868.55305804484 219 219 221
36.4839203312761 800.119898501584 2859.49097661518 219 219 221
32.0929788177686 800.09615073281 2853.83740138215 212 212 214
30.7063122927773 800.920760881506 2845.42554530899 209 209 211
26.2875920132828 800.894832825082 2839.7521160891 206 206 208
24.1066895073123 801.504137660582 2831.99844746884 206 206 208
19.6624454967855 801.476261384926 2826.30650568351 206 206 208
17.4427376966175 802.082422558827 2818.52469035407 209 209 211
15.2002549641503 802.686868555226 2810.72665077947 211 211 213
10.7145465496532 802.655742329678 2805.00433962415 229 227 230
1.79094627535115 801.357067775492 2803.46929429742 227 225 228
-4.90834620770952 800.692373139308 2799.84479850331 241 239 242
-7.9355649499302 801.081914604858 2792.71154066651 254 252 255
-9.51848794266441 801.890994612221 2784.15762990535 222 220 223
-12.5867200711995 802.277094048456 2776.99462315498 202 200 203
-18.5817202211898 801.820467672344 2772.646406704 231 229 232
-26.0272013808593 800.943523677043 2769.71494435811 230 228 231
-32.7418926973229 800.276914023275 2766.07898144408 229 227 230
-37.2917217779019 800.239647766014 2760.31045122607 225 223 226
-40.4144490055542 800.620794797137 2753.10791473046 223 221 224
-39.9754550326759 802.047567937751 2742.3174591004 226 224 227
-41.7183163308579 802.843143105976 2733.64724276668 220 220 222
-44.1999683998304 803.427366947036 2725.67542732969 219 219 221
-50.2517142499266 802.964948660066 2721.28604537252 217 217 219
-52.7680790061122 803.54601228182 2713.28934443765 216 216 218
-56.7172499644197 803.70800055109 2706.72192226839 216 216 218
-55.7605450435532 805.32760729114 2695.072411987 217 217 219
-59.753072013732 805.485665033222 2688.47354021058 220 220 222
-60.2673843376376 806.682802181115 2678.22559150202 220 220 222
-61.5140488987458 807.669000465615 2668.68100768683 225 225 227
-57.9341082242946 810.106813621418 2653.99684036882 227 227 229
-55.8002727858016 812.124235079419 2640.73230439542 217 217 219
-55.099349506373 813.722403728172 2628.89726395534 236 238 237
-44.1321352898123 818.42544746057 2605.99347636742 226 228 227
188.967597457012 800.948839352022 2998.44175088603 184 184 184
178.210618727318 799.210956209834 2998.04579344809 255 255 255
162.576913232781 796.1888429049 3001.51860207707 252 252 254
153.515374239224 794.885217491275 2999.88383142893 250 250 252
148.535740397161 794.653913908976 2995.03748588171 249 250 252
145.172642375721 794.850356470491 2988.89509500958 235 236 238
139.370953364673 794.404909666362 2984.68707055542 227 228 230
132.762735151433 793.746159210157 2981.12862655157 251 252 254
125.354956528799 792.874708678872 2978.22422892785 232 233 235
121.16283077003 792.857160088544 2972.71510535545 215 216 218
117.761499159323 793.052357361206 2966.54499183089 214 215 217
114.346759984979 793.246886678395 2960.36515549399 206 207 209
110.123279012592 793.227803252562 2954.83299960682 204 205 207
105.0975570909 792.995703827145 2949.95353427302 215 216 218
100.067052256873 792.763515651565 2945.07060125446 211 212 214
96.609211563182 792.955628653678 2938.85950746724 206 206 206
90.7783290485016 792.510744297124 2934.63032286818 201 201 201
88.0844970850183 792.913731963739 2927.73881232977 225 225 225
83.0260150289943 792.680233222209 2922.83559138764 205 205 205
78.7425016497529 792.658029430937 2917.26019539935 203 203 203
72.8944812585866 792.212593128673 2913.01858439217 227 227 227
68.5970262111857 792.189667755128 2907.43278365912 201 201 201
65.0635560584778 792.377267010627 2901.16684160003 196 196 196
60.7453304829635 792.353017455557 2895.56597716064 211 211 211
54.8798035563327 791.906700623018 2891.31167083224 210 210 210
48.2468165566639 791.249826966871 2887.73528091288 204 204 204
42.3823389284723 790.803774370654 2883.48173658171 217 217 219
38.8042530079469 790.988356689543 2877.183436319 217 217 219
36.7328586525422 791.592134647047 2869.50912449937 214 214 216
37.6705299395721 793.033855346243 2859.08024640897 214 214 216
33.2777770202224 793.004404658581 2853.42532916278 210 210 212
30.3826721118288 793.393367595353 2846.38813501023 205 205 207
25.2152809322879 793.152768212492 2841.40563307706 209 209 211
24.5378475602984 794.167097683185 2832.27383958886 208 208 210
20.8409951593609 794.342775518421 2825.88939786694 206 206 208
18.6197368172878 794.935140105834 2818.10668311117 208 208 210
15.6332351947452 795.31699760855 2811.0031975396 205 205 207
9.66690337005849 794.863171637028 2806.67577755404 227 225 228
1.48517605288934 793.783924541266 2804.44460658043 238 236 239
-5.94792599516336 792.913887671388 2801.52185862567 255 254 255
-8.23662961748961 793.500668951299 2793.69022306633 229 227 230
-10.5478283064246 794.085737009195 2785.84197719832 195 193 196
-14.3407145270988 794.253336314957 2779.38787759166 220 218 221
-19.6020100173921 794.004721787346 2774.33755629834 233 231 234
-26.3184212126408 793.34078076353 2770.70036012461 225 223 226
-31.585666941917 793.091325737311 2765.64572111878 218 216 219
-36.8580850142242 792.841391949808 2760.58733014609 225 223 226
-40.6987981786227 793.00457904541 2754.09853741853 222 220 223
-41.6886894142057 793.993476456892 2744.74010773844 225 223 226
-45.5661966292751 794.153443848791 2738.22462590989 220 220 222
-48.0339938744239 794.725049007599 2730.26279021426 219 219 221
-50.5247629004613 795.294564579084 2722.28458567727 217 217 219
-53.7455173791723 795.656060521862 2715.01088759872 216 216 218
-56.9848656969254 796.015881283244 2707.72399644134 216 216 218
-58.1335286394984 796.99125923382 2698.25040128376 216 216 218
-60.01462135076 797.758310409579 2689.47983356905 218 218 220
-62.6216189092084 798.317633504123 2681.41732086157 214 214 216
-64.5549297102268 799.080095969368 2672.60887589648 217 217 219
-63.0446141410577 800.865344060465 2660.12649216558 226 226 228
-59.5074718725015 803.261204692728 2645.41079239495 221 221 223
-58.1022480841058 805.03775994612 2632.85218135846 236 238 237
-51.9331765566184 808.242016353547 2615.10807696593 227 229 228
183.635293965019 792.230541553731 3003.17793574901 252 252 252
172.073537441357 790.29824584266 3003.43262960462 255 254 255
161.359695827854 788.580436196679 3003.06804485901 255 253 255
153.932696260144 787.711202773219 3000.15001926912 255 255 255
149.766334815568 787.688561763472 2994.65925252679 240 241 243
144.780239931468 787.454385242389 2989.80850315733 254 255 255
138.981052837265 787.009170993334 2985.60229357401 235 236 238
130.762523933492 785.931632448126 2983.34445299903 246 247 249
126.577932400388 785.908948449465 2977.84047065873 237 238 240
120.780329437336 785.464818433743 2973.63541493775 212 213 215
118.981559154186 786.072818580747 2966.15875551241 223 224 226
115.56530320819 786.258950504113 2959.97777710091 188 189 191
112.135360280703 786.444312578696 2953.78716728202 206 207 209
107.898968023053 786.419104970474 2948.24562070844 192 193 195
103.653370066741 786.393330829441 2942.69739785783 194 195 197
99.3985161678816 786.36711593129 2937.14275742144 193 193 193
92.7746445359352 785.712344470957 2933.57269159769 193 193 193
89.2924795756644 785.894839727861 2927.34391591475 209 209 209
84.2321272556701 785.658441258593 2922.43932449066 194 194 194
79.9471765289699 785.630673980588 2916.86256388134 209 209 209
74.8748643121746 785.393665089189 2911.94929938092 230 230 230
71.3490814359528 785.573463221873 2905.68889047839 190 190 190
67.8096634726493 785.752335991886 2899.41859252309 196 196 196
61.1713303074111 785.097587862381 2895.83804334341 203 203 203
55.3058581283996 784.65115597738 2891.58377611996 205 205 205
47.9059312327763 783.789074478944 2888.68541231373 205 205 205
42.8083511476434 783.550735534197 2883.75382385933 209 209 211
37.7059421030075 783.312174262945 2878.81843918598 211 211 213
37.1602749378446 784.317283575429 2869.78211913122 207 207 209
36.5832518308746 785.320091682197 2860.72305682902 205 205 207
35.9748279376184 786.32053520653 2851.64121944963 203 203 205
32.3200420199914 786.491137274296 2845.28724690944 200 200 202
27.8998140309219 786.454034470771 2839.61266811641 199 199 201
26.4675298349015 787.242269212461 2831.16755857138 205 205 207
22.7667550365194 787.409324899448 2824.78022974696 199 199 201
20.5420594695482 787.987719341255 2816.99465803494 212 212 214
16.0661686499832 787.946226715321 2811.27970583287 211 211 213
10.0997504373832 787.492214513969 2806.95222227958 247 245 248
2.65600000700017 786.626691949736 2804.02177795107 255 254 255
-4.0438236957745 785.967211734567 2800.39692347653 246 244 247
-6.3359196985191 786.540086245589 2792.56246379068 188 186 189
-10.1144396187367 786.700664479225 2786.1187430587 196 194 197
-16.0956602450659 786.244975166758 2781.7805204249 236 234 237
-21.350297639082 785.994032316069 2776.73501393425 232 230 233
-28.060395977755 785.333111944277 2773.10240938517 211 209 212
-31.1521051368682 785.694856163076 2765.92255474736 216 214 217
-36.4244610500009 785.44205970803 2760.8641943352 220 218 221
-38.1091283613701 786.209490139828 2752.2360215058 222 220 223
-41.2537843952272 786.566706096032 2745.01776161199 218 216 219
-42.9884683063293 787.329965137821 2736.35330955313 218 218 220
-45.462240082397 787.88722572787 2728.38707013446 216 216 218
-48.6687159374617 788.239015382415 2721.12396824768 214 214 216
-51.8935975531969 788.589134733634 2713.84751517177 213 213 215
-55.8422053099619 788.734440360255 2707.28041677845 213 213 215
-58.3984206631638 789.284484406783 2699.25437569807 215 215 217
-60.2767168053147 790.035223457397 2690.48604712888 218 218 220
-62.1820686348875 790.783640849588 2681.6977990778 214 214 216
-63.4181544812071 791.732161367164 2672.16069315341 218 218 220
-63.2971211240716 793.08268226969 2661.13906037774 226 226 228
-63.2165857220848 794.429623667126 2650.08805163921 222 222 224
-62.4865098330043 795.975249436218 2638.27387840797 232 234 233
-59.7381678804894 798.122440463743 2624.22043200006 228 230 229
-54.3058108403145 801.071492912701 2607.17630600128 220 222 221
191.527022387791 785.883717491328 3006.39630244996 221 221 221
181.588416650269 784.387201658858 3005.35978700279 255 255 255
167.573366256205 781.847014591975 3007.53836105093 255 254 255
160.141993729815 780.982505134385 3004.61718933778 246 244 247
152.719547009736 780.119156486886 3001.70219953483 240 240 242
150.184314056672 780.508805137507 2994.92588771602 255 255 255
144.38779312217 780.063478286138 2990.72161031842 198 199 201
139.399715177815 779.826691618635 2985.86941016535 248 249 251
131.180876816743 778.757342778524 2983.61138674064 205 206 208
126.997018988597 778.729281530965 2978.1079090419 237 238 240
123.606093038514 778.908653253746 2971.94525864325 228 229 231
121.801721834994 779.502548201966 2964.46446754559 206 207 209
118.379519281089 779.680023839468 2958.27942894234 189 190 192
114.148215282566 779.649403414999 2952.74154353941 201 202 204
108.321127731494 779.204109567038 2948.5151079163 183 184 186
104.076119043562 779.172946476133 2942.96728494282 194 195 197
99.0327626234597 778.934429851111 2938.07500348041 187 187 187
92.4110517791643 778.282551782267 2934.50651871334 190 190 190
88.1469954510905 778.250483288522 2928.94517759 199 199 199
83.8739149006322 778.217972092821 2923.37699789589 189 189 189
81.9320503703636 778.80324814682 2915.79678577203 213 213 213
76.0777278668216 778.357211687448 2911.55060318918 226 226 226
73.3263219801055 778.734475529342 2904.61722578889 190 190 190
67.4620699444834 778.287843770487 2900.36384206102 198 198 198
62.3686559419228 778.046765518408 2895.43525981365 199 199 199
55.7319058180203 777.394863976498 2891.85587263294 204 204 204
49.8659040382194 776.948389187926 2887.60122127326 209 209 209
43.234354833845 776.296979080692 2884.02590131635 205 205 207
38.8947608340722 776.260393917752 2878.4094839679 208 208 210
35.3061722115715 776.427695851474 2872.10348254384 204 204 206
35.4951347769594 777.616307373562 2862.3656041042 201 201 203
34.1361409010039 778.393691436465 2853.97356931545 201 201 203
31.996286469901 778.964859416067 2846.24946414997 201 201 203
29.0820274879087 779.330344679089 2839.19826588165 199 199 201
26.8989362758294 779.898139843249 2831.44309484396 203 203 205
25.4405020817865 780.667826594287 2822.97893465807 200 200 202
20.9746391521151 780.621579806079 2817.2709333296 207 207 209
15.756239643633 780.371242619462 2812.25169952333 214 214 216
9.0512524542552 779.714081961415 2808.62281919915 254 252 255
3.82688950260501 779.463142181765 2803.59925931342 249 247 250
-1.40257027274049 779.211670014924 2798.57200193477 224 222 225
-4.43469730789525 779.567656036576 2791.43501600673 186 184 187
-11.8768909924418 778.70728842497 2788.50602078437 208 206 209
-18.5812740271332 778.049698759669 2784.87757625181 234 232 235
-23.0995780662739 777.998616576979 2779.13182922873 220 218 221
-27.6273679767831 777.946695830726 2773.37890697054 207 205 208
-29.9954659412009 778.499204665616 2765.48954316158 218 216 219
-33.8281424789029 778.646553524615 2759.00649613243 218 216 219
-35.5186183034331 779.397083852891 2750.37402698552 221 219 222
-40.8189643939925 779.138853459112 2745.29534837243 218 216 219
-43.9814199986717 779.483385255939 2738.06382646509 217 217 219
-44.3139430854398 780.630138959229 2727.94769992905 215 215 217
-46.1022242110403 781.372268016841 2719.24428707803 212 212 214
-50.0409705751044 781.510247367382 2712.68430030971 212 212 214
-55.4047503274409 781.246041726155 2707.55960701565 213 213 215
-59.3670889648299 781.381691632742 2700.98250590581 210 210 212
-62.6423403626799 781.716140169722 2693.66945932414 212 212 214
-62.441428223128 783.048637180228 2682.70564108797 210 210 212
-62.9777914959877 784.177861910295 2672.44165766316 213 213 215
-64.2444679905525 785.104536889706 2662.88197079604 223 223 225
-64.1584483101734 786.427258737557 2651.83510952819 222 222 224
-64.1127724824748 787.746582437406 2640.75869045124 228 230 229
-64.1075049209661 789.062453385603 2629.6529610709 219 221 220
-60.714357344978 791.369470191041 2614.83272094015 221 223 222
191.989593575605 777.663934534477 3015.33584071303 229 229 229
187.000409903071 777.421800834924 3010.48281191024 255 255 255
179.540654655087 776.559801437475 3007.54107767044 255 254 255
167.990410645678 774.666674410173 3007.80431559043 255 254 255
161.376917270964 774.013998324537 3004.24178380031 255 254 255
154.767406322912 773.361983809235 3000.68243678428 248 248 250
150.602271560621 773.328568800068 2995.19250471769 238 238 240
144.8060411498 772.88323561245 2990.98843789481 239 240 242
139.818445470171 772.6438592859 2986.1365742286 183 184 186
134.019529093369 772.198995558957 2981.93056266957 222 223 225
129.82956995597 772.164973478214 2976.42263180875 202 203 205
125.630587798875 772.130578895139 2970.90815808159 206 207 209
123.822693737395 772.710487605366 2963.42503682298 188 189 191
120.396891397856 772.879536102843 2957.23705149615 188 189 191
117.753152410562 773.252299267638 2950.38199580917 175 176 178
112.711166779296 773.010776655032 2945.4903983579 180 181 183
107.664171914936 772.768978084688 2940.59546268589 177 178 180
101.034233978274 772.11894276985 2937.0210232579 178 178 178
95.9818718531702 771.877127598235 2932.12219665995 185 185 185
90.9248729028329 771.635205639233 2927.22000818753 182 182 182
87.4281527637617 771.800241574691 2920.98059270994 186 186 186
84.698179097479 772.167870827042 2914.06299765955 212 212 212
78.8373170549761 771.721155232545 2909.8120709854 201 201 201
73.7520109138869 771.477676514714 2904.88905966398 192 192 192
66.3401888354183 770.625146285282 2901.98212116492 194 194 194
61.2514573120331 770.381609535015 2897.05692089386 196 196 196
55.3883043708998 769.935216174609 2892.80433513057 202 202 202
50.2919497969629 769.691260617208 2887.87331214912 210 210 210
44.425418416373 769.244742925067 2883.61827665321 199 199 201
40.0838298839559 769.202360750581 2878.0006785395 199 199 201
36.4935817037466 769.361223851308 2871.69343132229 193 193 195
35.9232566451286 770.326129429614 2862.6390325945 192 192 194
33.8090144494059 770.885451976977 2854.93343428558 197 197 199
30.9180476554527 771.241681945459 2847.89907414156 197 197 199
30.2644077290113 772.200256297024 2838.78424661915 197 197 199
28.0800458407175 772.754256830183 2831.02779009161 196 196 198
25.8727711856386 773.306411532079 2823.25500873797 206 206 208
19.9165730287998 772.85298829396 2818.93493690443 204 204 206
15.4458206806485 772.800729489699 2813.2233606801 221 221 223
10.9653523914885 772.747604328514 2807.50503125155 255 253 255
7.95294487228748 773.094224860789 2800.38229298341 229 227 230
1.97610218780486 772.638949954251 2796.04724611213 196 194 197
-2.53300608741092 772.583385147163 2790.30814258919 197 195 198
-10.7121025889338 771.528188959069 2788.07900057257 222 220 223
-16.689118049243 771.072541592872 2783.74382656583 227 225 228
-21.9390601531229 770.816203476504 2778.70140198609 204 202 205
-26.4689890328556 770.758474017731 2772.94719419822 207 205 208
-30.2851277698482 770.898888104618 2766.47610064775 221 219 222
-33.3941706906149 771.237033268067 2759.28356086232 217 215 218
-35.0838524891102 771.971078884498 2750.65158382352 219 217 220
-40.3842086387849 771.70997997269 2745.57288338875 219 217 220
-43.5461257681709 772.043502786211 2738.34169607097 216 216 218
-43.8775752053993 773.16829799928 2728.22623662231 214 214 216
-46.3751190710582 773.695971398525 2720.24261444362 212 212 214
-50.3113330309963 773.825791767915 2713.68442214224 211 211 213
-54.967377061617 773.756501339602 2707.83873223147 211 211 213
-57.5224010490236 774.278980513612 2699.81341517606 208 208 210
-60.8016637238156 774.602051486614 2692.49740310453 209 209 211
-62.0021658565266 775.515039408663 2682.98591259392 207 207 209
-61.1436603171251 777.016583052264 2671.26461747237 210 210 212
-63.1086486988499 777.726772425952 2662.43294397948 220 220 222
-65.7935119957371 778.237787625219 2654.31374004745 222 222 224
-66.4302048676633 779.33647024978 2643.97657637633 221 223 222
-65.0389568988767 781.021082706827 2631.40736826156 204 206 205
-61.6394532447906 783.290258896122 2616.59154411729 225 227 226
184.967744684403 768.623109856917 3021.31597213263 255 255 255
184.120680286284 769.400175117997 3013.29504433269 253 253 253
177.491870144986 768.748210235821 3009.72170717101 255 254 255
165.947550902044 766.87468120154 3009.98933934835 244 242 245
157.704983213041 765.818106999766 3007.71417873347 254 252 255
153.553700846186 765.779959295227 3002.23426459192 237 237 239
150.206969902867 765.944659570892 2996.10357778308 250 250 252
144.413096972312 765.499547237374 2991.90122106662 224 225 227
138.619112895995 765.054694746978 2987.69878509439 228 229 231
135.245503825169 765.218322855142 2981.54860832657 171 172 174
131.858487190706 765.381283007833 2975.38870874642 203 204 206
130.062920500393 765.948210319848 2967.9144581089 188 189 191
126.644667602855 766.109327040748 2961.73190535768 195 196 198
123.212965598247 766.269652953062 2955.53959905613 188 189 191
118.971818112007 766.227301978131 2949.99451848133 167 168 170
114.721464479269 766.184484408209 2944.44305628808 172 173 175
108.087448218118 765.536478584304 2940.86567067541 173 174 176
102.246715676825 765.090437802852 2936.62933972432 171 171 171
96.4055415731786 764.644510609464 2932.39268925061 179 179 179
92.1336655200147 764.60084564069 2926.82562070325 173 173 173
87.0700154917303 764.355805527769 2921.9183004514 185 185 185
82.001309735348 764.110455818589 2917.00760810322 208 208 208
76.1493130717774 763.664338931025 2912.76311116402 185 185 185
72.6252869445423 763.819455824755 2906.50385075097 190 190 190
69.0876224291785 763.973706832209 2900.23469919342 188 188 188
64.7644107689827 763.926888393236 2894.630105919 198 198 198
57.353345846348 763.079886060961 2891.72374429825 203 203 203
52.2526268963768 762.832749467584 2886.78983585191 208 208 208
46.3818155155153 762.385795431966 2882.5316954823 201 201 203
42.7992529612688 762.536887148074 2876.22998037576 199 199 201
37.6812382136933 762.288558505556 2871.28352779867 191 191 193
37.1100408156586 763.234235163495 2862.22810481813 190 190 192
34.9942563306467 763.779612433385 2854.52161231224 195 195 197
32.8560681185097 764.323373496502 2846.79857620301 194 194 196
29.9429840286791 764.666818855363 2839.74811800263 195 195 197
27.0116992793845 765.008819629735 2832.68445843868 196 196 198
23.3144708670774 765.151189698795 2826.29957542768 206 206 208
17.3670384970714 764.698416843353 2821.9858613944 216 216 218
12.9053655351603 764.641158164374 2816.28084168557 245 245 247
9.91610862063075 764.978552162561 2809.17513352763 214 212 215
7.64724640018688 765.511946635417 2801.35761100925 192 190 193
3.14590152460514 765.451474088997 2795.6238160047 180 178 181
-2.09960752818228 765.192906601623 2790.58488822313 223 221 224
-8.8146837896832 764.539767865248 2786.94871448707 230 228 231
-14.7962166768485 764.083605177557 2782.61026309099 201 199 202
-20.778466795339 763.627294770407 2778.27129101038 190 188 191
-26.0359841708069 763.367246652546 2773.22365063975 214 212 215
-29.8517844261665 763.499383769908 2766.75276053736 217 215 218
-32.9603112938801 763.826488261691 2759.56053892662 216 214 217
-36.8063337355709 763.955938069652 2753.06772650463 210 208 211
-42.0999126278399 763.692450385954 2747.99363247177 216 214 217
-45.254904194918 764.015432256009 2740.76770672697 210 210 212
-47.7159794568514 764.532239684025 2732.81076085614 211 211 213
-50.1996843188335 765.047143759872 2724.83710618742 209 209 211
-54.1224094663664 765.169632995557 2718.28865508038 208 208 210
-56.6475898114833 765.6807991183 2710.28520949235 206 206 208
-57.788306319879 766.579661681344 2700.81698730897 204 204 206
-59.6619927227793 767.281236191074 2692.05145693303 203 203 205
-59.465256199839 768.563927051087 2681.0843594253 202 202 204
-59.3090034624237 769.843218785354 2670.08789714023 203 203 205
-62.6673995702485 770.148229023796 2662.71442807311 213 213 215
-66.7367996589225 770.257521589549 2656.05958232731 219 219 221
-67.3682224157406 771.334536298963 2645.72642379986 208 210 209
-66.6592875894974 772.795763965966 2633.89649746797 206 208 207
-62.5651157916622 775.220729579972 2618.34971108398 224 226 225
-58.5380925961423 777.640086535258 2602.75451331321 202 204 203
182.058485729373 759.673636783227 3032.74823821328 254 255 255
179.596648802545 760.033882505444 3026.02468933159 250 251 253
180.415209412271 761.19857974635 3016.74309882003 254 255 255
173.79765505936 760.550234693776 3013.17764507769 254 255 255
165.544059616447 759.500653304556 3010.89452562863 239 239 241
156.485629949825 758.251576550723 3009.26199082064 219 220 222
154.786561654131 758.810369710227 3001.85765272768 252 252 254
150.624871569382 758.766300640177 2996.37016381643 203 203 203
145.642608177557 758.52147152261 2991.52213801999 238 238 238
139.846698280188 758.076463019232 2987.31830518874 223 223 223
137.278503607774 758.431747309025 2980.51792465387 197 197 197
134.692801197207 758.786080868921 2973.70455309332 165 165 165
131.286393799336 758.939504712573 2967.53084290869 157 157 157
127.866574334095 759.092249877521 2961.34711211553 192 192 192
126.029881004761 759.642870706844 2953.84267082713 189 189 189
122.578825276444 759.793772440001 2947.6362868629 156 156 156
118.320110795764 759.744751245247 2942.07873228998 149 149 149
111.677374433321 759.09875733948 2938.49503548054 163 163 163
105.828073638869 758.651992562059 2934.2524895527 166 164 165
99.9782831365383 758.205337472377 2930.00958918076 175 175 175
94.9130727264063 757.957134374926 2925.1014162307 168 168 168
89.0599918230555 757.510511445141 2920.85613073973 184 184 184
82.4259219357 756.866085905828 2917.27872438712 205 205 205
76.5740298157978 756.419828127929 2913.03430252022 175 175 175
73.0506036695435 756.566748980313 2906.77543553163 189 189 189
69.5134975917275 756.712681093309 2900.50664666054 185 185 185
65.1906908704221 756.660309412182 2894.90231880669 202 202 202
57.7794251446644 755.818667755981 2891.99583877235 204 204 204
53.4465461052229 755.765659336201 2886.38420605492 207 207 207
49.1041321532153 755.712008328174 2880.76595249808 204 204 204
46.2786841313627 756.051022629554 2873.77900110944 201 201 201
41.1522484750293 755.79922335373 2868.82613197941 191 191 193
39.0556197733041 756.332321762481 2861.13346371478 191 191 193
36.1797485307065 756.667520067814 2854.10994012857 194 194 196
31.7770287687127 756.609391464958 2848.44765244616 192 192 194
28.8689880619311 756.942133044465 2841.40079608503 196 196 198
25.1927799358489 757.077841857007 2835.03111738753 198 198 200
21.5026112576631 757.212389837228 2828.65131250804 205 205 207
16.3072739537893 756.955198349363 2823.64876226769 222 222 224
12.5935139677167 757.087835170548 2817.25184586525 249 249 251
11.0895247277307 757.804333703934 2808.75439244555 189 187 190
8.08027387205001 758.129025492191 2801.63412591377 184 182 185
5.05263472636974 758.45216788007 2794.50052147013 190 188 191
-0.931700504460231 757.995957402735 2790.16003835326 233 231 234
-6.91689080110125 757.539468552181 2785.81893397091 229 227 230
-12.9028464745935 757.082828081843 2781.47727398257 188 186 189
-18.8896605149431 756.625968714678 2777.13499063702 192 190 193
-24.1513586918085 756.36273371568 2772.08400889502 216 214 217
-29.4184812557492 756.098860535857 2767.02938614358 214 212 215
-33.9692296702749 756.027963291686 2761.25972465617 216 214 217
-39.2489274346344 755.762802533218 2756.19597935174 206 204 207
-42.3828481099755 756.07646864659 2748.98528115989 212 210 213
-46.2499594451982 756.195517293874 2742.47712826499 208 208 210
-47.9933044495378 756.891759055655 2733.80605813906 209 209 211
-51.1847342709593 757.20031820822 2726.55364447215 208 208 210
-54.394598877384 757.507294321886 2719.28785901776 206 206 208
-54.7988051034807 758.581825282493 2709.11910754478 204 204 206
-55.9429827038871 759.461140078085 2699.64827732864 201 201 203
-55.7155671748395 760.721731699782 2688.70330775016 200 200 202
-57.6268199825036 761.403504771613 2679.9104443875 198 198 200
-60.2626151738215 761.891341470648 2671.8266935687 199 199 201
-63.6162293979456 762.185567001558 2664.45663636446 209 209 211
-68.37370632541 762.095592433544 2658.53701633581 215 215 217
-68.3068339846864 763.342341853146 2647.47559546047 201 203 202
-68.2806252552433 764.585538577949 2636.38497314743 212 214 213
-66.2362094985789 766.397725040937 2623.05457538265 215 217 216
-64.2455175471723 768.205439788922 2609.6852094348 200 202 201
195.722708126481 754.763169141053 3031.51263905735 254 255 255
186.617940509247 753.519449428262 3029.84654001453 243 244 246
176.703858226536 752.078629958982 3028.82808425618 253 254 255
174.234220010728 752.427818394039 3022.09882404627 248 249 251
168.456827144169 751.982039711687 3017.90841070473 254 255 255
161.858893451889 751.338401188207 3014.35749871452 254 255 255
155.265557420122 750.695483231017 3010.80962883933 227 228 230
151.940122929511 750.845061000972 3004.69430368507 239 240 242
148.601425311842 750.993982516426 2998.56936048291 242 242 242
144.437715936601 750.944562507781 2993.08067511835 218 218 218
140.26521976556 750.894778775198 2987.58532369864 240 240 240
136.890924728554 751.042011378997 2981.43456661284 196 196 196
134.308009015557 751.385438829317 2974.62345442426 192 192 192
133.312989115018 752.121841013362 2966.49506455658 164 164 164
132.291376378729 752.856387600215 2958.34738757579 172 172 172
132.041436591484 753.785801444615 2949.52506319595 175 175 175
126.983129676478 753.534334003088 2944.62187820228 156 156 156
121.92022957803 753.282752951268 2939.71506845943 150 150 150
113.684999661342 752.246458777992 2937.44532987464 163 163 163
108.620976913245 751.995155600299 2932.53800218361 162 160 161
103.552128058855 751.743670557527 2927.62717502395 160 158 159
97.6932795954872 751.296401159614 2923.37770523116 168 166 167
91.833846783711 750.849203910592 2919.12781219718 180 178 179
82.8504774575558 749.620994475694 2917.54979592895 179 177 178
77.7773571358642 749.369790706494 2912.63587371619 170 168 169
73.4758653665719 749.313290880302 2907.04697661607 189 187 188
70.7135555924263 749.645740168014 2900.10576223755 189 187 188
64.8446532470315 749.198373219314 2895.849003677 204 202 203
58.2053547744787 748.556660656587 2892.26782075316 203 201 202
54.6405723989967 748.692374881488 2885.97891698763 184 182 183
51.0619656553741 748.827088666027 2879.67998657519 208 207 205
46.7060857791131 748.766850336961 2874.05193791639 188 187 185
41.5798567185326 748.512200094569 2869.09920411133 191 190 188
38.7251160668605 748.837878376165 2862.09095032064 185 183 184
38.1223438769793 749.74259220904 2853.01272509188 194 192 193
34.4700015747437 749.871780669623 2846.66031421255 188 186 187
30.0512736309058 749.806779537165 2840.98668152379 190 188 189
24.1228802005899 749.355160713368 2836.68677506959 199 197 198
20.4375084167889 749.481703289496 2830.31040701226 199 197 198
16.7382192748411 749.607178148219 2823.9239445568 241 239 242
13.0250177263163 749.731496074946 2817.52739084081 214 212 215
13.0046357621043 750.81606138644 2807.63693259245 184 182 183
9.25248118175581 750.937283426988 2801.21212531112 196 194 195
4.74921629582825 750.865314371807 2795.47717469503 212 210 211
-0.498330035724415 750.600756820151 2790.43673970574 227 225 226
-5.75088800574619 750.335782911511 2785.39237508683 206 204 205
-11.0088222173172 750.070174722372 2780.34440437995 189 187 188
-17.7282582333114 749.421522046292 2776.7050928876 201 199 200
-22.2664005669122 749.346219706457 2770.94484198163 218 216 217
-27.5376798594869 749.079161595659 2765.88689531957 210 208 209
-32.0928300829721 749.002272323713 2760.11430699312 201 199 200
-38.0962562607721 748.543230774739 2755.75997010143 202 200 201
-41.9489996450155 748.655228611699 2749.26219712708 203 201 202
-45.8157724986055 748.766000289459 2742.75424768026 201 201 201
-48.9838943118404 749.065454788629 2735.51868436903 202 202 202
-50.7492580169953 749.743214393739 2726.83155880122 201 201 201
-52.5419344051861 750.418582135477 2718.12462157133 200 200 200
-55.0679308791526 750.902100013593 2710.12014983325 198 198 198
-56.9130424598046 751.572961431176 2701.37547286493 195 195 195
-58.0836076407947 752.43060231089 2691.88540394583 194 194 194
-58.5861201511659 753.474825179245 2681.64523463294 193 193 193
-60.5194846496513 754.138048817361 2672.83624807719 190 190 190
-63.1753943019115 754.610126608444 2664.73783603441 206 206 206
-65.1611420984497 755.268688408516 2655.89085209485 203 203 203
-65.7925935601753 756.301689114246 2645.55715534197 199 199 199
-67.1487550738357 757.143338720141 2635.93246268154 190 190 190
-67.8503286068444 758.170280779652 2625.5481967315 223 223 223
-66.5356373892409 759.757731327437 2612.92299884976 207 207 207
213.596667149429 750.78995350391 3027.15803756489 185 186 188
205.283673593525 749.750037721918 3024.83161363729 239 240 242
193.666605799384 747.926486069257 3025.04705645965 254 255 255
182.080522715215 746.105732884354 3025.28468045727 254 255 255
172.999663961824 744.875629972044 3023.63598243188 249 250 252
165.581558301884 744.038721532538 3020.72456795795 225 226 228
158.992815091931 743.398445910113 3017.18004090126 253 254 255
155.68147948542 743.540592609435 3011.07489868913 254 255 255
151.54073731263 743.486809485169 3005.60254616271 212 213 215
148.204997156208 743.627755813378 2999.47970649142 241 241 241
144.855667959871 743.767910355258 2993.34730630156 182 182 182
141.493215569322 743.907409620382 2987.20509503202 191 191 191
138.117360566707 744.046151715442 2981.05316408776 209 209 209
133.923076177809 743.989853260915 2975.54198492559 173 173 173
133.734279712401 744.904206218184 2966.76390835825 180 180 180
135.916843208379 746.398723404118 2956.00241551583 161 161 161
137.25671197282 747.696234276885 2945.86407403189 164 164 164
132.981911591235 747.634678107507 2940.29479495399 154 154 154
125.521354980365 746.798353016698 2937.35231535755 150 150 150
118.068979360083 745.962850395278 2934.41606497876 157 157 157
112.204618919039 745.514686387088 2930.16259490434 159 157 158
104.76469033058 744.680510346666 2927.23507988692 157 155 156
98.1182182874796 744.040049189462 2923.64899750434 163 161 162
92.2588435243692 743.592677411585 2919.39914566706 183 181 182
85.6180814404564 742.952937313547 2915.81691173103 168 166 167
81.317627103989 742.890815996632 2910.22873821414 167 165 166
75.4544240864527 742.443582166066 2905.97611189226 184 182 183
71.1394227511146 742.380501841741 2900.37768256491 188 186 187
64.4984433272482 741.741192215356 2896.79529325493 204 202 203
58.6312791723698 741.29387646375 2892.53979500511 193 191 192
55.8347992155395 741.612863442669 2885.57374174268 179 177 178
52.2545329142083 741.739138394213 2879.27356553708 200 199 197
50.1874105471485 742.24677616888 2871.60186360399 183 182 180
45.0523910231602 741.988526584257 2866.64303365005 189 188 186
40.6713458597543 741.920753155283 2860.99670397078 186 184 185
37.7947656795357 742.233778458764 2853.97225967291 192 190 191
34.899746965432 742.545380137559 2846.93473615442 185 183 184
31.2339511020676 742.665144447433 2840.57252476633 187 185 186
26.0535702396885 742.403369448055 2835.58079355321 201 199 200
22.3642777089661 742.521260137738 2829.20153943925 201 199 200
17.9151885100257 742.448143256105 2823.50556164383 234 232 235
13.4563800690293 742.374219493944 2817.80282855244 184 182 185
12.6955765403904 743.247281852271 2808.6098827127 187 185 186
8.20681542777857 743.170951103198 2802.88512962155 205 203 204
3.70838201595003 743.093747174296 2797.15336045145 223 221 222
-3.00461200943403 742.448494432806 2793.51903059394 217 215 216
-6.05036941481307 742.747794980799 2786.37217107356 194 192 193
-10.575415749023 742.668226005036 2780.62109764865 190 188 189
-16.5668270020496 742.210546133762 2776.27547752951 206 204 205
-21.1068333907534 742.129526251485 2770.5135518927 216 214 215
-26.3804001996391 741.85933586588 2765.45422557268 203 201 202
-31.659256414325 741.588597491786 2760.39106207385 194 192 193
-36.2236718997782 741.50515212184 2754.61142947632 199 197 198
-38.6459942519593 741.983786119524 2746.68238306085 198 196 197
-41.8059899551884 742.273104807211 2739.45236472328 196 196 196
-44.2718002367193 742.748006694274 2731.49177407586 197 197 197
-47.471128947163 743.0337609933 2724.23351882465 196 196 196
-49.9802615019123 743.504903959451 2716.24120942014 195 195 195
-52.5124463084556 743.974100178774 2708.23247356271 194 194 194
-55.7713813485847 744.254537391449 2700.93068700193 191 191 191
-56.9432186506622 745.092837706675 2691.43959793133 190 190 190
-58.8463580369196 745.742140110599 2682.65245169067 189 189 189
-60.0793701471691 746.575155993139 2673.1169889294 186 186 186
-62.0392806764654 747.21956058227 2664.2886632672 200 200 200
-63.3334435221238 748.047293982286 2654.708844276 197 197 197
-63.9684852961033 749.057938851346 2644.37272606944 196 196 196
