ply
format ascii 1.0
comment KinectMotionCapture
element vertex 782
property float x
property float y
property float z
property uchar red
property uchar green
property uchar blue
end_header
128.945156931877 228.457540273666 2401.99995040894 198 198 198
135.662972927094 228.736907243729 2404.99997138977 221 221 221
142.337501049042 228.920876979828 2407.00006484985 202 202 202
149.084225296974 229.199647903442 2410.00008583069 198 198 198
155.717581510544 229.287922382355 2411.00001335144 201 201 201
162.625029683113 229.756265878677 2415.99988937378 201 201 201
169.489115476608 230.129241943359 2420.00007629395 202 202 202
176.519885659218 230.692133307457 2426.00011825562 203 203 203
183.431684970856 231.06449842453 2430.0000667572 203 203 203
190.364599227905 231.436535716057 2434.00001525879 205 205 205
197.15678691864 231.618165969849 2436.00010871887 206 206 206
204.377382993698 232.274889945984 2443.00007820129 207 207 207
211.28985285759 232.550993561745 2446.00009918213 209 209 209
218.841642141342 233.49229991436 2456.00008964539 211 211 211
225.987911224365 233.957931399345 2460.99996566772 216 216 216
233.917012810707 235.183760523796 2473.99997711182 214 214 214
241.818815469742 236.314192414284 2486.00006103516 215 215 215
251.684933900833 239.250257611275 2516.99995994568 210 210 210
287.20897436142 258.902370929718 2723.99997711182 178 180 177
297.432214021683 261.361002922058 2750 174 176 173
305.245697498322 261.633306741714 2753.00002098084 189 191 188
312.847256660461 261.715263128281 2753.99994850159 193 195 192
320.569545030594 261.89199090004 2756.00004196167 155 157 154
332.229733467102 265.204101800919 2790.99988937378 24 29 25
-141.125500202179 235.215246677399 2546.0000038147 159 159 159
-133.129790425301 233.373552560806 2526.00002288818 127 129 128
-125.592425465584 232.178166508675 2513.00001144409 147 149 148
-118.408985435963 231.536820530891 2506.00004196167 146 146 146
-111.307792365551 230.987533926964 2500 143 143 143
-104.238897562027 230.437934398651 2493.99995803833 136 136 136
-97.2413793206215 229.980438947678 2489.00008201599 133 133 131
-90.4161185026169 229.892179369926 2487.99991607666 130 130 128
-83.4279134869576 229.341670870781 2482.00011253357 131 131 129
-76.4412134885788 228.698372840881 2474.99990463257 142 143 138
-69.3797767162323 227.685198187828 2463.99998664856 145 146 141
-62.505230307579 227.133721113205 2457.99994468689 161 162 157
-55.5723644793034 226.212278008461 2447.99995422363 167 168 162
-48.8536395132542 226.029813289642 2446.00009918213 173 172 168
-42.0766472816467 225.477397441864 2440.00005722046 134 133 128
-35.0709334015846 223.261281847954 2415.99988937378 28 29 21
-27.3355580866337 214.298963546753 2319.00000572205 35 36 28
-20.7182411104441 211.342886090279 2286.99994087219 35 36 28
-14.2944604158401 208.663761615753 2257.99989700317 37 38 30
-8.25940817594528 211.898669600487 2292.99998283386 35 37 26
-2.01497925445437 213.192641735077 2306.99992179871 38 40 29
4.32997476309538 215.687707066536 2334.00011062622 22 26 12
10.4693053290248 211.06681227684 2283.99991989136 21 23 10
16.4746735244989 208.201467990875 2253.00002098084 26 28 15
22.3007593303919 205.243438482285 2220.99995613098 24 26 15
28.3990651369095 205.519556999207 2223.99997711182 29 30 22
34.7615927457809 207.273900508881 2243.00003051758 19 20 12
40.9178137779236 207.457035779953 2244.99988555908 25 26 18
53.4519515931606 208.561688661575 2256.99996948242 25 26 18
60.6922134757042 212.347820401192 2298.00009727478 26 27 19
66.7572543025017 211.698114871979 2290.99988937378 30 31 23
72.8794559836388 211.325421929359 2286.99994087219 42 43 35
80.2595391869545 214.371263980865 2319.9999332428 38 39 31
88.3791819214821 218.802765011787 2368.00003051758 41 42 34
95.7590714097023 220.923826098442 2391.00003242493 54 55 47
102.408520877361 221.19665145874 2394.00005340576 79 80 75
109.028406441212 221.376731991768 2395.99990844727 130 130 128
115.465871989727 221.186980605125 2394.00005340576 217 217 215
122.197724878788 221.551299095154 2398.00000190735 211 211 209
128.789857029915 221.638157963753 2398.9999294281 184 184 184
135.55620610714 222.001910209656 2403.00011634827 199 199 199
142.284661531448 222.272932529449 2405.99989891052 205 205 205
149.028956890106 222.543701529503 2408.99991989136 198 198 198
155.724465847015 222.721815109253 2411.00001335144 199 199 199
162.362962961197 222.807258367538 2411.99994087219 198 198 198
169.356495141983 223.354265093803 2417.99998283386 199 199 199
176.309332251549 223.808631300926 2423.00009727478 203 203 203
183.288738131523 224.262684583664 2427.99997329712 203 203 203
190.2164965868 224.624067544937 2431.99992179871 204 204 204
197.084411978722 224.892839789391 2434.99994277954 205 205 205
204.302564263344 225.530683994293 2441.99991226196 207 207 207
211.12622320652 225.706547498703 2444.00000572205 208 208 208
218.316406011581 226.25145316124 2450.00004768372 210 210 210
225.354805588722 226.611405611038 2453.9999961853 216 216 216
233.170613646507 227.709800004959 2466.00008010864 214 214 214
241.829141974449 229.546561837196 2486.00006103516 216 216 216
251.995652914047 232.675492763519 2519.99998092651 211 211 211
287.642866373062 251.8570125103 2727.9999256134 180 182 179
297.228395938873 253.691256046295 2747.99990653992 175 177 174
305.480271577835 254.32500243187 2755.00011444092 174 176 173
313.201099634171 254.496842622757 2756.99996948242 198 200 197
322.327673435211 255.776077508926 2770.99990844727 48 50 45
-142.960906028748 231.238916516304 2578.9999961853 131 131 131
-133.978873491287 227.927312254906 2542.00005531311 135 137 136
-126.047715544701 226.139560341835 2522.0000743866 126 130 131
-118.650414049625 225.158467888832 2510.99991798401 150 150 150
-111.535280942917 224.625423550606 2505.00011444092 148 148 148
-104.661419987679 224.540397524834 2503.99994850159 137 137 137
-97.636342048645 224.096417427063 2499.00007247925 133 133 131
-90.8198654651642 224.10050034523 2499.00007247925 132 132 130
-83.7341099977493 223.386868834496 2490.9999370575 131 131 129
-76.8461003899574 223.121300339699 2487.99991607666 132 133 128
-69.7488933801651 222.138032317162 2476.99999809265 128 129 123
-62.8640130162239 221.692487597466 2471.99988365173 112 113 107
-55.6883327662945 219.991117715836 2453.00006866455 105 106 100
-48.9356927573681 219.724342226982 2450.00004768372 32 33 25
-41.7336001992226 217.035815119743 2420.00007629395 27 28 20
-20.5742064863443 203.676760196686 2270.99990844727 26 28 17
-14.3330777063966 203.049704432487 2263.99993896484 28 30 19
-8.23455769568682 205.023303627968 2286.00001335144 25 25 15
-1.99847295880318 205.202922224998 2288.00010681152 28 28 18
4.21514082700014 203.767880797386 2272.0000743866 24 24 14
10.3643368929625 202.780976891518 2260.99991798401 22 22 12
16.4242126047611 201.435118913651 2246.00005149841 21 21 11
22.3318729549646 199.461191892624 2223.99997711182 23 23 13
28.1832311302423 197.935417294502 2207.00001716614 23 23 13
34.8251201212406 201.521441340446 2246.99997901917 22 22 12
40.9560762345791 201.519817113876 2246.99997901917 21 21 11
46.1019650101662 197.302788496017 2200.00004768372 24 24 14
59.7176365554333 202.768787741661 2260.99991798401 27 27 17
65.885990858078 202.766060829163 2260.99991798401 30 30 20
71.8628838658333 202.225014567375 2255.00011444092 34 34 24
79.3289765715599 205.629482865334 2292.99998283386 33 33 23
86.7034792900085 208.316162228584 2322.99995422363 33 33 23
102.798007428646 215.481892228127 2403.00011634827 31 33 22
109.488241374493 215.746328234673 2405.99989891052 54 56 45
115.663848817348 215.024128556252 2398.00000190735 109 110 102
122.050166130066 214.750021696091 2394.99998092651 174 175 170
128.527030348778 214.654996991158 2394.00005340576 199 199 197
135.392844676971 215.187311172485 2400.00009536743 170 170 168
142.11343228817 215.45036137104 2403.00011634827 207 207 207
148.911684751511 215.802773833275 2407.00006484985 198 198 198
155.537396669388 215.885952115059 2407.99999237061 196 196 194
162.167981266975 215.96884727478 2408.99991989136 194 194 192
169.153615832329 216.499716043472 2414.99996185303 196 196 194
176.098570227623 216.940686106682 2420.00007629395 203 203 203
182.919099926949 217.202052474022 2423.00009727478 203 203 203
189.755275845528 217.463135719299 2426.00011825562 203 203 203
196.769014000893 217.903226613998 2430.99999427795 204 204 204
204.143911600113 218.701556324959 2440.00005722046 206 206 206
210.96234023571 218.872159719467 2441.99991226196 208 208 208
218.058243393898 219.311371445656 2447.00002670288 208 208 208
225.180566310883 219.750314950943 2451.99990272522 210 210 210
232.802093029022 220.637053251266 2461.99989318848 211 211 211
240.866377949715 221.881955862045 2476.0000705719 216 216 216
251.606076955795 225.456297397614 2516.00003242493 213 213 213
287.54922747612 244.34095621109 2726.99999809265 178 180 177
297.02427983284 246.031522750854 2746.00005149841 183 185 180
305.160075426102 246.55693769455 2752.00009346008 191 193 188
312.986642122269 246.813297271729 2755.00011444092 66 69 62
321.875423192978 247.875601053238 2766.99995994568 24 27 20
333.447337150574 250.908315181732 2801.00011825562 39 42 35
-127.002686262131 220.920443534851 2540.99988937378 119 123 122
-119.269751012325 219.447553157806 2523.9999294281 145 145 145
-111.896246671677 218.496024608612 2513.00001144409 147 147 147
-104.958489537239 218.326658010483 2510.99991798401 137 137 137
-97.9530811309814 217.983141541481 2506.99996948242 132 132 130
-91.1144912242889 217.98712015152 2506.99996948242 132 132 130
-84.0066149830818 217.295199632645 2499.00007247925 130 130 128
-77.220045030117 217.385530471802 2500 126 127 122
-70.3432336449623 217.214718461037 2497.99990653992 125 126 120
-63.5533630847931 217.304542660713 2499.00007247925 122 123 117
-48.1987297534943 209.830895066261 2413.00010681152 21 22 14
-41.8906062841415 211.224153637886 2428.99990081787 28 29 21
-26.9607044756413 198.87875020504 2286.99994087219 25 27 16
-20.5569714307785 197.314471006393 2269.00005340576 24 26 15
-14.3273649737239 196.793451905251 2263.00001144409 21 23 12
-8.13764985650778 196.446090936661 2259.0000629425 19 19 9
-1.9714804366231 196.272358298302 2256.99996948242 23 23 13
4.18563699349761 196.185350418091 2256.00004196167 21 21 11
10.3372791782022 196.09808921814 2255.00011444092 18 18 8
16.5931191295385 197.314992547035 2269.00005340576 17 17 7
22.3830435425043 193.835720419884 2229.00009155273 20 20 10
28.235524892807 192.269340157509 2210.99996566772 21 21 11
34.625131636858 194.268077611923 2233.99996757507 22 22 12
40.5385941267014 193.396896123886 2223.99997711182 23 23 13
46.732634305954 193.916797637939 2230.00001907349 24 24 14
52.4144768714905 192.436426877975 2213.00005912781 27 27 17
59.1919347643852 194.868847727776 2240.9999370575 29 29 19
65.539114177227 195.561856031418 2249.00007247925 31 31 21
71.8022137880325 195.906788110733 2253.00002098084 31 31 21
78.1214460730553 196.338385343552 2257.99989700317 29 29 19
85.8113616704941 199.899926781654 2299.00002479553 31 31 21
93.324102461338 202.591612935066 2329.99992370605 33 33 23
100.920014083385 205.109044909477 2358.99996757507 30 32 21
110.175512731075 210.495293140411 2421.0000038147 34 36 25
115.716986358166 208.577781915665 2398.9999294281 48 49 41
122.055336833 208.225056529045 2394.99998092651 86 87 82
128.586158156395 208.219826221466 2394.99998092651 211 211 209
135.285705327988 208.475142717361 2398.00000190735 178 178 176
142.001122236252 208.730176091194 2401.00002288818 191 191 191
148.670464754105 208.898037672043 2403.00011634827 208 208 208
155.414715409279 209.15250480175 2405.99989891052 189 189 187
161.972805857658 209.145963191986 2405.99989891052 190 190 188
168.810471892357 209.48688685894 2410.00008583069 198 198 196
175.669267773628 209.827467799187 2414.00003433228 201 201 201
182.473719120026 210.080906748772 2417.00005531311 202 202 202
189.372032880783 210.420966148376 2421.0000038147 204 204 204
196.372404694557 210.847675800323 2426.00011825562 205 205 205
203.817620873451 211.708635091782 2436.00010871887 205 205 205
210.711792111397 211.960941553116 2438.99989128113 205 205 205
217.888921499252 212.473720312119 2444.9999332428 205 205 205
225.281581282616 213.159993290901 2453.00006866455 206 206 206
232.811540365219 213.932871818542 2461.99989318848 206 206 206
240.486979484558 214.79232609272 2471.99988365173 212 212 212
250.016123056412 217.215418815613 2500 212 212 212
287.560790777206 236.916393041611 2726.99999809265 175 177 174
296.927899122238 238.468632102013 2744.99988555908 173 175 170
305.504888296127 239.325538277626 2755.00011444092 181 183 178
314.021497964859 240.095242857933 2763.99993896484 22 25 18
321.771740913391 240.25659263134 2766.00003242493 33 36 29
329.888880252838 240.678235888481 2770.99990844727 39 42 35
-128.607392311096 216.691806912422 2572.99995422363 123 125 124
-120.36157399416 214.507177472115 2546.99993133545 103 103 103
-112.524271011353 212.827518582344 2526.99995040894 118 118 118
-105.339050292969 212.242409586906 2519.99998092651 132 132 130
-98.2697308063507 211.825430393219 2515.00010490417 128 128 126
-91.4817377924919 211.997762322426 2516.99995994568 124 125 120
-84.4135209918022 211.495995521545 2510.99991798401 122 123 118
-77.6248201727867 211.667776107788 2513.00001144409 112 113 108
-70.881225168705 212.007746100426 2516.99995994568 113 114 108
-64.0392303466797 212.094753980637 2517.99988746643 76 77 71
-46.2830998003483 195.168539881706 2316.99991226196 26 27 19
-32.941322773695 191.128611564636 2269.00005340576 23 25 14
-26.6317408531904 190.287470817566 2259.0000629425 23 25 14
-20.5034706741571 190.625384449959 2263.00001144409 23 25 14
-14.3342958763242 190.710321068764 2263.99993896484 19 21 10
-8.11637658625841 189.784198999405 2253.00002098084 20 20 10
-1.96195440366864 189.19475376606 2246.00005149841 19 19 9
4.17839083820581 189.70014154911 2252.00009346008 19 19 9
10.2872848510742 189.025938510895 2243.99995803833 21 21 11
16.3159091025591 187.930300831795 2230.99994659424 25 25 15
22.5145276635885 188.856109976768 2242.00010299683 26 26 16
28.9518870413303 190.960943698883 2266.99995994568 27 27 17
35.1690724492073 191.128075122833 2269.00005340576 29 29 19
41.0324595868587 189.610287547112 2250.99992752075 28 28 18
46.2106540799141 185.733765363693 2204.99992370605 28 28 18
52.5114014744759 186.742514371872 2217.00000762939 29 29 19
58.8510148227215 187.666788697243 2227.9999256134 26 26 16
65.3378516435623 188.843458890915 2242.00010299683 25 25 15
71.6139674186707 189.261794090271 2246.99997901917 25 25 15
77.9517069458961 189.764112234116 2253.00002098084 24 24 14
85.0310623645782 191.86644256115 2278.00011634827 25 25 15
92.0862630009651 193.631529808044 2299.00002479553 27 27 17
99.5551496744156 195.98588347435 2326.99990272522 25 27 16
108.951292932034 201.624482870102 2394.00005340576 31 33 22
116.975925862789 204.230695962906 2424.99995231628 40 41 33
122.111313045025 201.783508062363 2395.99990844727 23 24 19
128.645122051239 201.778441667557 2395.99990844727 163 163 161
135.291263461113 201.941534876823 2398.00000190735 181 181 179
141.947790980339 202.10437476635 2400.00009536743 173 173 173
148.49092066288 202.098518610001 2400.00009536743 195 195 195
155.162662267685 202.260807156563 2401.99995040894 185 185 183
161.844745278358 202.422842383385 2404.00004386902 193 193 191
168.6772108078 202.75305211544 2407.99999237061 187 187 185
175.458058714867 202.998787164688 2411.00001335144 196 196 196
182.17907845974 203.160047531128 2413.00010681152 198 198 198
189.066767692566 203.489452600479 2417.00005531311 204 204 204
196.137428283691 203.986957669258 2423.00009727478 205 205 205
203.574746847153 204.820930957794 2433.00008773804 203 203 203
210.547417402267 205.149501562119 2437.00003623962 203 203 203
217.630237340927 205.561995506287 2441.99991226196 202 202 202
225.106835365295 206.310912966728 2450.99997520447 201 201 201
232.631638646126 207.059562206268 2460.00003814697 200 200 200
240.399166941643 207.976222038269 2470.99995613098 202 202 202
249.42584335804 209.902510046959 2493.99995803833 209 209 209
287.466526031494 229.406803846359 2726.0000705719 177 179 176
297.155767679214 231.162801384926 2746.99997901917 187 189 184
306.071132421494 232.245221734047 2759.99999046326 15 17 12
314.60165977478 232.990771532059 2769.00005340576 26 29 22
320.15535235405 231.548368930817 2752.00009346008 36 39 32
328.830003738403 232.377529144287 2762.00008392334 36 39 32
-113.731101155281 208.141341805458 2553.99990081787 103 103 103
-105.928510427475 206.515744328499 2533.99991989136 124 124 122
-98.6253619194031 205.704808235168 2523.9999294281 125 125 123
-91.8852463364601 206.034615635872 2528.00011634827 118 119 114
-85.1565450429916 206.445649266243 2532.99999237061 116 117 112
-78.6473527550697 207.508444786072 2546.0000038147 119 120 115
-71.6163143515587 207.266911864281 2542.99998283386 73 74 68
-39.2379499971867 185.431867837906 2275.00009536743 22 24 13
-32.9281352460384 184.862703084946 2267.99988746643 21 23 12
-26.5738721936941 183.722794055939 2253.99994850159 21 23 12
-20.5496065318584 184.86487865448 2267.99988746643 20 22 11
-14.3158826977015 184.294983744621 2260.99991798401 18 20 9
-8.15273262560368 184.45847928524 2263.00001144409 19 19 9
-1.97164318524301 183.969616889954 2256.99996948242 26 26 16
4.16928296908736 183.154463768005 2246.99997901917 31 31 21
10.2464416995645 182.176038622856 2234.99989509583 29 29 19
16.3970217108727 182.746082544327 2242.00010299683 28 28 18
22.7665044367313 184.783026576042 2266.99995994568 29 29 19
29.1446354240179 186.004653573036 2282.00006484985 29 29 19
35.6200151145458 187.307521700859 2298.00009727478 30 30 20
40.979441255331 183.230549097061 2247.99990653992 28 28 18
52.4898432195187 180.618569254875 2216.00008010864 27 27 17
58.6684942245483 181.023895740509 2220.99995613098 26 26 16
64.9616196751595 181.67345225811 2229.00009155273 25 25 15
71.1069032549858 181.833758950233 2230.99994659424 23 23 13
77.1936327219009 181.830808520317 2230.99994659424 22 22 12
84.026612341404 183.457642793655 2250.99992752075 21 21 11
92.370368540287 187.936633825302 2305.99999427795 21 21 11
99.9869927763939 190.45926630497 2336.99989318848 22 24 13
107.499279081821 192.492559552193 2361.99998855591 24 25 17
116.064071655273 196.073934435844 2405.99989891052 37 38 30
122.371047735214 195.661753416061 2401.00002288818 31 32 27
128.811329603195 195.493832230568 2398.9999294281 117 117 115
135.296642780304 195.407167077065 2398.00000190735 181 181 179
141.835138201714 195.401728153229 2398.00000190735 171 171 171
148.249313235283 195.233076810837 2395.99990844727 180 180 180
154.910415410995 195.390149950981 2398.00000190735 186 186 184
161.581844091415 195.546939969063 2400.00009536743 188 188 186
168.473690748215 195.947900414467 2404.99997138977 181 181 179
175.246611237526 196.185678243637 2407.99999237061 193 193 193
182.110697031021 196.504637598991 2411.99994087219 195 195 195
189.152374863625 196.986317634583 2417.99998283386 201 201 201
196.145087480545 197.386249899864 2423.00009727478 203 203 203
203.331649303436 197.948828339577 2430.0000667572 202 202 202
210.209995508194 198.185294866562 2433.00008773804 202 202 202
217.371255159378 198.665857315063 2438.99989128113 200 200 200
224.656283855438 199.227675795555 2446.00009918213 199 199 199
232.35684633255 200.114950537682 2457.00001716614 198 198 198
240.311071276665 201.164826750755 2470.00002861023 196 196 196
249.035283923149 202.784433960915 2490.00000953674 200 200 200
296.517908573151 223.193854093552 2740.9999370575 177 179 174
307.967901229858 226.113989949226 2776.99995040894 19 21 16
314.045280218124 225.044041872025 2763.99993896484 9 12 5
320.167273283005 224.055409431458 2752.00009346008 22 25 18
329.913675785065 225.590378046036 2770.99990844727 21 24 17
-107.186771929264 201.972335577011 2563.99989128113 87 87 85
-99.410742521286 200.400874018669 2543.99991035461 114 114 112
-92.5431102514267 200.562119483948 2546.0000038147 112 112 110
-86.4374414086342 202.534973621368 2571.00009918213 102 103 98
-80.133244395256 204.350054264069 2594.00010108948 96 97 91
-52.7684353291988 183.087214827538 2323.99988174438 20 21 13
-44.6486808359623 176.077544689178 2234.99989509583 20 22 11
-38.842786103487 177.41847038269 2252.00009346008 21 23 12
-32.6245315372944 177.025929093361 2246.99997901917 22 24 13
-26.5277568250895 177.263423800468 2250 18 20 9
-20.3510746359825 176.949188113213 2246.00005149841 17 19 8
-14.2847876995802 177.737727761269 2256.00004196167 19 21 10
-8.22510942816734 179.865345358849 2282.99999237061 25 25 15
-1.96298491209745 177.02928185463 2246.99997901917 36 36 26
4.1397581808269 175.768688321114 2230.99994659424 43 43 33
10.219338349998 175.610840320587 2229.00009155273 35 35 25
16.4122954010963 176.792085170746 2243.99995803833 30 30 20
22.7473173290491 178.445816040039 2265.00010490417 29 29 19
29.1968695819378 180.099248886108 2286.00001335144 24 24 14
34.5828458666801 175.764933228493 2230.99994659424 24 24 14
42.0566238462925 181.750923395157 2306.99992179871 20 20 10
48.3311899006367 181.670397520065 2305.99999427795 19 19 9
53.2262250781059 177.020341157913 2246.99997901917 20 20 10
58.5122965276241 174.497202038765 2214.99991416931 20 20 10
64.7893026471138 175.12509226799 2223.00004959106 21 21 11
70.8547085523605 175.122454762459 2223.00004959106 22 22 12
76.7122358083725 174.646958708763 2217.00000762939 23 23 13
83.544597029686 176.298141479492 2237.99991607666 22 22 12
91.2924110889435 179.524540901184 2279.00004386902 21 21 11
98.7500995397568 181.805282831192 2308.00008773804 21 23 12
104.089930653572 180.147215723991 2286.99994087219 21 22 14
115.007273852825 187.783643603325 2384.0000629425 23 24 16
122.528702020645 189.354464411736 2404.00004386902 28 29 24
128.708943724632 188.798308372498 2397.0000743866 64 64 62
135.189026594162 188.714519143105 2395.99990844727 185 185 183
141.722306609154 188.709259033203 2395.99990844727 171 171 171
148.255005478859 188.703760504723 2395.99990844727 172 172 172
154.916375875473 188.855543732643 2398.00000190735 191 191 189
161.588028073311 189.007073640823 2400.00009536743 179 179 177
168.480142951012 189.394623041153 2404.99997138977 181 181 179
175.398871302605 189.781919121742 2410.00008583069 189 189 189
182.193145155907 190.011456608772 2413.00010681152 191 191 191
189.081311225891 190.31947851181 2417.00005531311 198 198 198
195.828676223755 190.469786524773 2418.99991035461 200 200 200
202.837228775024 190.856084227562 2424.00002479553 201 201 201
209.785863757133 191.163375973701 2427.99997329712 200 200 200
216.933757066727 191.627889871597 2434.00001525879 197 197 197
224.389120936394 192.328318953514 2443.00007820129 196 196 196
231.987193226814 193.107187747955 2453.00006866455 196 196 196
240.028098225594 194.200664758682 2467.00000762939 192 192 192
248.144343495369 195.293828845024 2480.99994659424 196 196 196
259.212642908096 198.590606451035 2523.00000190735 203 203 203
294.7978079319 214.469715952873 2724.99990463257 0 1 0
304.652005434036 216.190412640572 2746.99997901917 11 13 8
310.307085514069 214.920252561569 2730.99994659424 32 35 28
320.062458515167 216.482907533646 2750.99992752075 16 19 10
-141.519606113434 215.273216366768 2831.00008964539 134 135 130
-100.938551127911 196.432024240494 2582.99994468689 103 104 99
-93.7461629509926 196.131452918053 2578.9999961853 104 105 100
-86.9114100933075 196.591094136238 2585.00003814697 96 97 92
-52.2027760744095 174.850285053253 2299.00002479553 14 15 7
-45.4494953155518 173.026785254478 2275.00009536743 22 23 15
-38.5682843625546 170.062154531479 2236.00006103516 23 25 14
-32.6983779668808 171.280428767204 2252.00009346008 22 24 13
-26.6348868608475 171.813949942589 2259.0000629425 20 22 11
-20.4424653202295 171.586647629738 2256.00004196167 19 21 10
-14.2536731436849 171.207010746002 2250.99992752075 18 20 9
-8.12814477831125 171.587705612183 2256.00004196167 26 26 16
-1.94646092131734 169.458270072937 2227.9999256134 33 33 23
4.13620565086603 169.534295797348 2229.00009155273 37 37 27
10.19680313766 169.153720140457 2223.99997711182 36 36 26
16.3397807627916 169.913813471794 2233.99996757507 32 32 22
22.366538643837 169.380679726601 2226.99999809265 23 23 13
28.9297606796026 172.269895672798 2265.00010490417 21 21 11
35.2662391960621 173.029273748398 2275.00009536743 19 19 9
41.000846773386 171.050369739532 2249.00007247925 20 20 10
47.4736876785755 172.265604138374 2265.00010490417 21 21 11
53.0150532722473 170.210227370262 2237.99991607666 19 19 9
58.7522760033607 169.143378734589 2223.99997711182 20 20 10
64.8792013525963 169.293195009232 2226.0000705719 19 19 9
70.4749003052711 168.149873614311 2210.99996566772 20 20 10
76.19608938694 167.462661862373 2201.99990272522 23 23 13
82.8011408448219 168.676495552063 2217.99993515015 22 22 12
89.9738967418671 170.802637934685 2246.00005149841 20 20 10
96.8283787369728 172.091960906982 2263.00001144409 20 22 11
103.638701140881 173.15286397934 2276.99995040894 16 17 9
122.890084981918 183.334201574326 2411.00001335144 23 24 19
128.874868154526 182.4931204319 2400.00009536743 56 56 54
135.137677192688 182.108074426651 2394.99998092651 156 156 154
141.668438911438 182.102963328362 2394.99998092651 170 170 170
148.322433233261 182.249739766121 2397.0000743866 164 164 164
155.051335692406 182.472258806229 2400.00009536743 195 195 193
161.796033382416 182.69456923008 2403.00011634827 176 176 174
168.486356735229 182.840585708618 2404.99997138977 175 175 173
175.405338406563 183.214485645294 2410.00008583069 181 181 181
182.048827409744 183.284014463425 2411.00001335144 189 189 189
188.931807875633 183.581382036209 2414.99996185303 188 188 188
195.673942565918 183.726489543915 2417.00005531311 192 192 192
202.677235007286 184.099361300468 2421.99993133545 195 195 195
209.620699286461 184.396028518677 2426.00011825562 198 198 198
217.030763626099 185.07245182991 2434.99994277954 194 194 194
224.489077925682 185.748636722565 2444.00000572205 193 193 193
231.900960206985 186.348512768745 2451.99990272522 190 190 190
239.452913403511 187.024161219597 2460.99996566772 188 188 188
247.453063726425 188.003480434418 2473.99997711182 191 191 191
257.064253091812 190.122336149216 2502.00009346008 194 194 194
289.615303277969 203.400552272797 2677.00004577637 12 12 10
301.002770662308 206.201508641243 2713.99998664856 20 21 16
310.545235872269 207.634463906288 2733.00004005432 22 23 17
317.979395389557 207.623660564423 2733.00004005432 38 39 31
334.580659866333 213.46190571785 2809.99994277954 57 58 50
-150.616809725761 209.456875920296 2857.00011253357 95 96 90
-142.274603247643 208.655640482903 2845.99995613098 149 150 144
-133.755549788475 207.487538456917 2829.99992370605 110 109 105
-62.583401799202 162.931799888611 2221.99988365173 19 20 12
-58.7837770581245 169.460132718086 2311.00010871887 18 19 11
-51.7278388142586 167.042285203934 2278.00011634827 21 23 12
-44.9117459356785 164.844170212746 2247.99990653992 20 22 11
-38.6042036116123 164.112389087677 2237.99991607666 19 21 10
-32.5834229588509 164.553672075272 2243.99995803833 18 20 9
-26.6830362379551 165.948033332825 2263.00001144409 18 20 9
-20.6969473510981 167.48882830143 2283.99991989136 19 21 10
-14.3301887437701 165.949523448944 2263.00001144409 20 22 11
-8.05638451129198 163.969948887825 2236.00006103516 21 21 11
-1.9552696030587 164.11679983139 2237.99991607666 24 24 14
4.11965698003769 162.796810269356 2220.00002861023 28 28 18
10.1375728845596 162.136524915695 2210.99996566772 30 30 20
16.1355827003717 161.769419908524 2206.00008964539 29 29 19
22.096186876297 161.328747868538 2200.00004768372 21 21 11
28.5604130476713 163.967728614807 2236.00006103516 20 20 10
34.7869656980038 164.553225040436 2243.99995803833 18 18 8
40.9294255077839 164.625152945518 2244.99988555908 20 20 10
47.1400693058968 164.916902780533 2249.00007247925 21 21 11
52.9696308076382 163.961842656136 2236.00006103516 19 19 9
58.7808564305305 163.153186440468 2224.99990463257 20 20 10
65.0273114442825 163.590908050537 2230.99994659424 19 19 9
70.2862292528152 161.681994795799 2204.99992370605 19 19 9
76.4757171273232 162.045985460281 2210.00003814697 22 22 12
83.065502345562 163.142949342728 2224.99990463257 21 21 11
90.5380398035049 165.706098079681 2259.99999046326 20 20 10
95.9333553910255 164.382994174957 2242.00010299683 20 22 11
105.190068483353 169.438391923904 2311.00010871887 15 16 8
113.76141756773 172.88039624691 2358.00004005432 23 24 16
123.098447918892 177.055150270462 2414.99996185303 23 24 19
129.040628671646 176.170885562897 2403.00011634827 60 60 58
135.255426168442 175.726309418678 2397.0000743866 145 145 143
141.791865229607 175.721392035484 2397.0000743866 170 170 170
148.513406515121 175.93614757061 2400.00009536743 163 163 163
155.250743031502 176.150694489479 2403.00011634827 190 190 188
162.071153521538 176.438301801682 2407.00006484985 174 174 172
168.702572584152 176.505774259567 2407.99999237061 173 173 171
175.557136535645 176.792904734612 2411.99994087219 178 178 178
181.828781962395 176.493495702744 2407.99999237061 184 184 184
188.703790307045 176.780179142952 2411.99994087219 186 186 186
195.27605175972 176.773473620415 2411.99994087219 191 191 191
202.433347702026 177.279576659203 2418.99991035461 192 192 192
209.455236792564 177.638858556747 2424.00002479553 198 198 198
217.127531766891 178.510904312134 2436.00010871887 193 193 193
224.405080080032 179.016247391701 2443.00007820129 192 192 192
231.814488768578 179.594606161118 2450.99997520447 189 189 189
239.266648888588 180.172756314278 2459.00011062622 187 187 187
247.461646795273 181.263476610184 2473.99997711182 190 190 190
257.073134183884 183.306336402893 2502.00009346008 193 193 193
290.598899126053 196.767762303352 2686.00010871887 16 16 14
300.458490848541 198.442697525024 2709.00011062622 31 32 27
307.828634977341 198.432549834251 2709.00011062622 32 33 27
320.666253566742 201.86473429203 2756.00004196167 32 33 25
-150.885686278343 202.021062374115 2861.99998855591 89 90 84
-143.029496073723 201.955527067184 2861.00006103516 143 144 138
-134.611025452614 201.042652130127 2848.00004959106 115 114 109
-126.307487487793 200.200080871582 2835.99996566772 101 102 97
-118.319742381573 199.780717492104 2829.99992370605 95 95 93
-110.520616173744 199.643522500992 2828.00006866455 85 86 81
-63.6841133236885 159.626573324203 2260.99991798401 20 21 13
-58.0736137926579 161.181896924973 2282.99999237061 23 24 16
-51.2755140662193 159.418776631355 2257.99989700317 18 20 9
-45.053206384182 159.208670258522 2255.00011444092 17 19 8
-38.7435853481293 158.574685454369 2246.00005149841 18 20 9
-32.5410179793835 158.222913742065 2240.9999370575 19 21 10
-26.2830778956413 157.376706600189 2229.00009155273 20 22 11
-20.6251889467239 160.695940256119 2276.00002288818 20 22 11
-14.5333427935839 162.038043141365 2295.00007629395 20 22 11
-1.97456055320799 159.567445516586 2259.99999046326 20 20 10
4.1402168571949 157.519832253456 2230.99994659424 22 22 12
10.1516917347908 156.319320201874 2213.99998664856 25 25 15
16.0556957125664 154.977351427078 2194.9999332428 24 24 14
22.0869276672602 155.259117484093 2198.99988174438 20 20 10
28.1399060040712 155.540660023689 2203.00006866455 19 19 9
34.2301093041897 155.892580747604 2207.99994468689 18 18 8
40.5297838151455 156.950324773788 2223.00004959106 18 18 8
46.4709922671318 156.525194644928 2217.00000762939 18 18 8
52.6635386049747 156.947076320648 2223.00004959106 18 18 8
58.5980080068111 156.592100858688 2217.99993515015 21 21 11
64.5632520318031 156.378164887428 2214.99991416931 18 18 8
70.5756172537804 156.305223703384 2213.99998664856 18 18 8
76.6168460249901 156.302645802498 2213.99998664856 18 18 8
83.2177773118019 157.358825206757 2229.00009155273 18 18 8
90.4611051082611 159.403085708618 2257.99989700317 18 18 8
99.1032421588898 163.494259119034 2315.99998474121 16 18 7
114.199638366699 167.087063193321 2367.00010299683 21 22 14
123.051792383194 170.400679111481 2414.00003433228 18 19 14
129.367351531982 170.043364167213 2408.99991989136 36 36 34
135.485857725143 169.47415471077 2401.00002288818 70 70 68
141.974285244942 169.398799538612 2400.00009536743 166 166 166
148.518592119217 169.393837451935 2400.00009536743 157 157 157
155.320733785629 169.670969247818 2404.00004386902 177 177 175
162.144094705582 169.947847723961 2407.99999237061 170 170 168
168.778464198112 170.012801885605 2408.99991989136 171 171 169
175.344854593277 170.006960630417 2408.99991989136 172 172 172
181.684002280235 169.789224863052 2405.99989891052 173 173 173
188.632026314735 170.13581097126 2411.00001335144 181 181 181
195.363715291023 170.270472764969 2413.00010681152 185 185 185
202.440246939659 170.687153935432 2418.99991035461 183 183 183
209.28955078125 170.891970396042 2421.99993133545 196 196 196
216.867476701736 171.660974621773 2433.00008773804 190 190 190
223.95333647728 172.00642824173 2437.99996376038 191 191 191
231.443956494331 172.633856534958 2447.00002670288 189 189 189
239.080026745796 173.331543803215 2457.00001716614 187 187 187
247.469916939735 174.522802233696 2473.99997711182 189 189 189
256.67068362236 176.207512617111 2497.99990653992 191 191 191
290.933072566986 189.66206908226 2688.99989128113 11 11 9
299.13741350174 190.21674990654 2697.00002670288 22 23 18
309.656858444214 192.181661725044 2724.99990463257 22 23 17
321.025788784027 194.56934928894 2759.0000629425 18 19 11
333.173871040344 197.309166193008 2798.00009727478 25 26 18
-143.284320831299 194.494158029556 2865.9999370575 111 112 104
-135.135531425476 194.023758172989 2858.99996757507 118 119 111
-127.291619777679 193.960264325142 2858.00004005432 106 107 102
-119.787149131298 194.439455866814 2865.00000953674 91 92 87
-113.338299095631 196.818724274635 2900.00009536743 72 73 68
-65.2918294072151 157.329693436623 2318.00007820129 16 17 9
-57.6177202165127 153.734475374222 2265.00010490417 17 19 8
-51.0274730622768 152.514562010765 2246.99997901917 13 15 4
-44.8149926960468 152.244672179222 2243.00003051758 16 18 7
-38.6414080858231 152.04244852066 2240.00000953674 17 19 8
-32.2371907532215 150.686100125313 2220.00002861023 22 24 13
-26.260394603014 151.16223692894 2226.99999809265 22 24 13
-20.4899646341801 153.470858931541 2260.99991798401 21 23 12
-14.3501907587051 153.81084382534 2266.00003242493 18 20 9
4.06241463497281 148.584738373756 2188.99989128113 20 20 10
10.0878467783332 149.33118224144 2200.00004768372 20 20 10
16.1440279334784 149.805873632431 2207.00001716614 20 20 10
22.0073331147432 148.719191551208 2190.99998474121 19 19 9
27.8343018144369 147.903814911842 2178.99990081787 19 19 9
34.0297445654869 148.988798260689 2194.9999332428 19 19 9
40.0024317204952 148.919686675072 2194.00000572205 18 18 8
45.8227656781673 148.375242948532 2186.00010871887 17 17 7
52.0256832242012 149.052336812019 2196.00009918213 17 17 7
58.4150776267052 150.068581104279 2210.99996566772 19 19 9
64.6237581968308 150.473743677139 2217.00000762939 18 18 8
70.5142766237259 150.132119655609 2211.99989318848 17 17 7
76.8617168068886 150.74048936367 2220.99995613098 16 16 6
83.2579582929611 151.348650455475 2230.00001907349 16 16 6
90.5443131923676 153.381779789925 2259.99999046326 16 16 6
98.2935577630997 155.889719724655 2296.99993133545 16 18 7
105.42494058609 157.175779342651 2315.99998474121 15 16 8
114.20351266861 160.633221268654 2367.00010299683 19 20 12
122.189372777939 162.665173411369 2397.0000743866 15 16 11
129.156917333603 163.20389509201 2404.99997138977 23 23 21
135.716140270233 163.199484348297 2404.99997138977 48 48 46
142.156556248665 163.059189915657 2403.00011634827 167 167 167
148.709237575531 163.054391741753 2403.00011634827 157 157 157
155.455157160759 163.252934813499 2405.99989891052 172 172 170
162.284195423126 163.519144058228 2410.00008583069 166 166 164
168.784081935883 163.445830345154 2408.99991989136 168 168 166
175.350666046143 163.440212607384 2408.99991989136 170 170 170
181.841060519218 163.366571068764 2407.99999237061 171 171 171
188.716515898705 163.631901144981 2411.99994087219 178 178 178
195.370152592659 163.693517446518 2413.00010681152 182 182 182
202.363237738609 164.026275277138 2417.99998283386 179 179 179
209.382832050323 164.35880959034 2423.00009727478 193 193 193
216.874554753304 165.030285716057 2433.00008773804 189 189 189
223.960638046265 165.362358093262 2437.99996376038 191 191 191
231.735229492188 166.168987751007 2450.00004768372 190 190 190
239.379703998566 166.839703917503 2460.00003814697 187 187 187
247.577920556068 167.849287390709 2474.99990463257 189 189 189
255.856901407242 168.858572840691 2490.00000953674 191 191 191
287.588238716125 180.23382127285 2657.99999237061 16 17 12
298.703253269196 182.597905397415 2693.00007820129 19 20 15
308.757573366165 184.215694665909 2717.00000762939 22 23 17
320.919513702393 186.985731124878 2757.99989700317 24 25 17
331.755369901657 188.873931765556 2786.00001335144 30 31 23
-143.838942050934 187.395587563515 2877.00009346008 109 110 102
-136.038050055504 187.465205788612 2878.00002098084 115 116 108
-128.542900085449 187.990561127663 2885.99991798401 112 113 108
-121.505349874496 189.297333359718 2905.99989891052 88 89 84
-116.390526294708 193.99131834507 2977.9999256134 76 77 72
-58.4845505654812 149.772226810455 2299.00002479553 18 20 9
-51.2108355760574 146.907538175583 2255.00011444092 15 17 6
-44.8963902890682 146.38788998127 2246.99997901917 19 21 10
-38.3321680128574 144.760549068451 2221.99988365173 19 21 10
-32.136607915163 144.175335764885 2213.00005912781 20 22 11
-26.2140948325396 144.827798008919 2223.00004959106 20 22 11
-20.1190747320652 144.633084535599 2220.00002861023 17 19 8
-14.0973459929228 145.024552941322 2226.0000705719 16 18 7
-7.96713121235371 144.047647714615 2210.99996566772 19 19 9
-1.92226865328848 143.331155180931 2200.00004768372 18 18 8
4.01429645717144 140.920549631119 2163.00010681152 17 17 7
10.046910494566 142.744526267052 2190.99998474121 16 16 6
16.3201261311769 145.350113511086 2230.99994659424 15 15 5
22.2792718559504 144.502550363541 2217.99993515015 13 13 3
28.1034857034683 143.329039216042 2200.00004768372 17 17 7
34.0928845107555 143.26286315918 2198.99988174438 23 23 13
40.0949157774448 143.261641263962 2198.99988174438 22 22 12
45.9290891885757 142.739072442055 2190.99998474121 18 18 8
52.0274043083191 143.063232302666 2196.00009918213 17 17 7
58.4698505699635 144.168958067894 2213.00005912781 14 14 4
64.5092949271202 144.166961312294 2213.00005912781 18 18 8
70.58035582304 144.229918718338 2213.99998664856 18 18 8
76.8988430500031 144.748687744141 2221.99988365173 14 14 4
83.7460607290268 146.114110946655 2243.00003051758 14 14 4
90.988002717495 147.935256361961 2270.99990844727 14 14 4
97.9544371366501 149.104744195938 2289.00003433228 18 20 9
115.268722176552 155.611738562584 2388.99993896484 17 18 10
121.63258343935 155.412539839745 2385.99991798401 20 21 16
128.946289420128 156.385570764542 2401.00002288818 20 20 18
135.664120316505 156.576737761497 2404.00004386902 68 68 66
142.101988196373 156.442046165466 2401.99995040894 166 166 166
148.775920271873 156.567692756653 2404.00004386902 152 152 152
155.524805188179 156.758278608322 2407.00006484985 165 165 163
162.424102425575 157.078847289085 2411.99994087219 155 155 153
168.929666280746 157.00851380825 2411.00001335144 157 157 155
175.429090857506 156.937971711159 2410.00008583069 160 160 160
181.997895240784 156.93236887455 2410.00008583069 168 168 168
188.800767064095 157.121926546097 2413.00010681152 169 169 169
195.619255304337 157.311260700226 2415.99988937378 172 172 172
202.537044882774 157.565534114838 2420.00007629395 177 177 177
209.648698568344 157.949775457382 2426.00011825562 187 187 187
216.970503330231 158.464029431343 2434.00001525879 187 187 187
224.24328327179 158.91295671463 2440.99998474121 191 191 191
232.026249170303 159.687146544456 2453.00006866455 191 191 191
239.581778645515 160.265788435936 2461.99989318848 188 188 188
247.48557806015 161.039501428604 2473.99997711182 189 189 189
255.762100219727 162.008225917816 2489.00008201599 191 191 191
292.944431304932 171.876311302185 2641.00003242493 24 25 20
310.24432182312 177.659258246422 2730.00001907349 30 31 25
324.536502361298 181.489214301109 2789.00003433228 34 35 29
-136.704087257385 180.490240454674 2891.99995994568 118 119 111
-129.215076565742 181.056052446365 2901.00002288818 104 105 99
-122.470900416374 182.807460427284 2928.99990081787 92 93 88
-59.0969584882259 144.999742507935 2322.99995422363 16 17 9
-51.4168553054333 141.318693757057 2263.99993896484 12 13 5
-44.7179898619652 139.697268605232 2237.99991607666 21 23 12
-38.298886269331 138.575002551079 2220.00002861023 20 22 11
-32.1811959147453 138.326406478882 2216.00008010864 17 19 8
-26.0734185576439 138.015195727348 2210.99996566772 16 18 7
-19.9022050946951 137.07959651947 2196.00009918213 16 18 7
-13.8697978109121 136.705577373505 2190.00005722046 17 19 8
-8.06107558310032 139.639794826508 2236.99998855591 20 20 10
-1.89436879009008 135.332763195038 2167.99998283386 17 17 7
3.96802555769682 133.460059762001 2138.00001144409 17 17 7
10.010545141995 136.268869042397 2183.00008773804 17 17 7
16.357222571969 139.576852321625 2236.00006103516 15 15 5
22.4909279495478 139.7635191679 2239.00008201599 10 10 0
28.5898149013519 139.700293540955 2237.99991607666 15 15 5
34.2955254018307 138.076350092888 2211.99989318848 24 24 14
40.3149984776974 138.012751936913 2210.99996566772 24 24 14
46.3498160243034 138.011410832405 2210.99996566772 19 19 9
52.3607544600964 137.947469949722 2210.00003814697 18 18 8
58.048952370882 137.134298682213 2197.00002670288 12 12 2
64.336434006691 137.756586074829 2207.00001716614 18 18 8
70.7419961690903 138.503506779671 2219.00010108948 18 18 8
77.5588527321815 139.87435400486 2240.9999370575 14 14 4
86.1383229494095 143.991231918335 2306.99992179871 13 13 3
93.0342599749565 144.924685359001 2322.00002670288 13 13 3
105.431705713272 144.544094800949 2315.99998474121 11 12 4
117.057643830776 151.405826210976 2426.00011825562 20 21 13
122.146189212799 149.529859423637 2395.99990844727 24 25 19
129.057750105858 149.962902069092 2403.00011634827 16 17 12
135.724797844887 150.083646178246 2404.99997138977 73 73 71
142.165571451187 149.954587221146 2403.00011634827 161 161 159
148.90430867672 150.137349963188 2405.99989891052 147 147 147
155.723452568054 150.382325053215 2410.00008583069 164 164 162
162.631154060364 150.689482688904 2414.99996185303 153 153 151
169.145077466965 150.622069835663 2414.00003433228 156 156 154
175.725683569908 150.616869330406 2414.00003433228 156 156 156
182.381093502045 150.673851370811 2414.99996185303 166 166 166
189.041256904602 150.730654597282 2415.99988937378 166 166 166
195.787161588669 150.849670171738 2417.99998283386 169 169 169
202.543184161186 150.968492031097 2420.00007629395 178 178 178
209.482207894325 151.211887598038 2424.00002479553 185 185 185
216.709643602371 151.642218232155 2430.99999427795 187 187 187
224.25003349781 152.259469032288 2440.99998474121 192 192 192
232.506155967712 153.313085436821 2457.99994468689 192 192 192
239.783599972725 153.680384159088 2463.99998664856 189 189 189
247.693046927452 154.421672224998 2476.0000705719 190 190 190
255.975186824799 155.349805951118 2490.9999370575 191 191 191
294.097781181335 169.48989033699 2717.99993515015 11 11 9
294.616907835007 165.615275502205 2655.99989891052 24 25 20
305.13933300972 167.414903640747 2684.99994277954 30 31 25
324.77867603302 174.015015363693 2790.99988937378 34 35 29
-137.086376547813 173.08010160923 2900.00009536743 114 115 109
-129.887118935585 174.038991332054 2915.99988937378 111 114 107
-122.60003387928 174.997672438622 2931.99992179871 112 115 108
-57.7249638736248 135.439828038216 2269.00005340576 17 16 11
-51.3730049133301 135.023608803749 2262.00008392334 16 15 10
-44.759314507246 133.71179997921 2240.00000953674 16 17 9
-38.4553223848343 133.056432008743 2229.00009155273 15 16 8
-32.1386083960533 132.102385163307 2213.00005912781 14 15 7
-25.8737374097109 130.969062447548 2194.00000572205 16 17 9
-19.7849906980991 130.313098430634 2183.00008773804 19 20 12
-13.8638876378536 130.671769380569 2188.99989128113 18 19 11
-7.77663616463542 128.821566700935 2157.99999237061 17 18 10
-1.9180194940418 131.030410528183 2194.9999332428 17 18 10
4.07950673252344 131.209462881088 2197.99995422363 20 21 13
10.1530104875565 132.164373993874 2213.99998664856 15 16 8
16.3430888205767 133.357867598534 2233.99996757507 13 14 6
22.1400242298841 131.56646490097 2203.9999961853 10 11 3
28.4373890608549 132.878974080086 2226.0000705719 13 14 6
34.3896001577377 132.400497794151 2217.99993515015 19 20 12
40.0791801512241 131.205514073372 2197.99995422363 18 19 11
46.2044849991798 131.562381982803 2203.9999961853 17 18 10
51.9595593214035 130.904302000999 2193.00007820129 17 18 10
58.1564083695412 131.380200386047 2200.99997520447 16 17 9
64.5424500107765 132.15434551239 2213.99998664856 14 15 7
71.5730339288712 134.002700448036 2244.99988555908 14 15 7
77.9419243335724 134.418323636055 2252.00009346008 14 15 7
85.1701125502586 136.146828532219 2280.99989891052 14 15 7
94.9202552437782 141.39661192894 2368.99995803833 14 15 7
97.7893024682999 136.380180716515 2285.00008583069 15 15 7
109.122380614281 143.061771988869 2397.0000743866 15 15 7
116.433888673782 144.013375043869 2413.00010681152 19 19 11
123.271450400352 144.308254122734 2417.99998283386 20 19 14
129.383862018585 143.767401576042 2408.99991989136 21 20 15
135.898157954216 143.70384812355 2407.99999237061 48 47 42
142.347306013107 143.580406904221 2405.99989891052 150 149 145
149.094417691231 143.755182623863 2408.99991989136 142 141 137
155.857309699059 143.929749727249 2411.99994087219 154 153 151
162.703320384026 144.163802266121 2415.99988937378 147 146 144
169.360309839249 144.218683242798 2417.00005531311 155 154 152
175.876453518867 144.153997302055 2415.99988937378 149 147 148
182.537525892258 144.208505749702 2417.00005531311 162 160 161
189.046815037727 144.143477082253 2415.99988937378 164 162 163
195.873856544495 144.316926598549 2418.99991035461 167 167 167
202.465415000916 144.311249256134 2418.99991035461 176 176 176
209.315463900566 144.484326243401 2421.99993133545 183 183 183
216.09191596508 144.597575068474 2424.00002479553 191 191 191
223.705306649208 145.247504115105 2434.99994277954 194 194 194
231.85071349144 146.195456385612 2450.99997520447 192 192 192
239.40122127533 146.725624799728 2460.00003814697 189 191 190
247.29996919632 147.434502840042 2471.99988365173 190 192 191
255.776971578598 148.441359400749 2489.00008201599 189 191 190
267.299175262451 151.117756962776 2533.99991989136 15 17 12
291.400998830795 160.591915249825 2693.00007820129 15 17 12
299.395143985748 160.941526293755 2698.99988174438 26 28 23
309.239268302917 162.244960665703 2720.99995613098 28 30 25
318.736553192139 163.30960392952 2739.00008201599 23 25 20
-131.227195262909 167.793750762939 2946.00009918213 112 115 108
-124.234393239021 169.22128200531 2970.99995613098 112 115 108
-57.9301752150059 129.70569729805 2276.99995040894 16 15 10
-51.1928051710129 128.397077322006 2253.99994850159 16 15 10
-44.7406396269798 127.543985843658 2239.00008201599 13 14 6
-38.4391918778419 126.91855430603 2227.9999256134 12 13 5
-31.8926572799683 125.096663832664 2196.00009918213 13 14 6
-25.9216651320457 125.211417675018 2197.99995422363 15 16 8
-19.8399499058723 124.699376523495 2188.99989128113 17 18 10
-13.8706266880035 124.756820499897 2190.00005722046 16 17 9
-7.85974878817797 124.244436621666 2180.99999427795 17 18 10
-1.90059863962233 123.902760446072 2174.99995231628 18 19 11
4.06292174011469 124.700263142586 2188.99989128113 20 21 13
10.1762386038899 126.409083604813 2219.00010108948 17 18 10
