ply
format ascii 1.0
comment KinectMotionCapture
element vertex 793
property float x
property float y
property float z
property uchar red
property uchar green
property uchar blue
end_header
263.001537669264 276.73087249658 2870.6042398407 24 25 17
265.289761332486 277.56645338406 2880.96136097016 27 29 18
260.304810736892 278.183858443688 2885.82023840451 28 30 17
263.461313917166 279.035980097001 2896.72994757975 32 34 21
260.129569521925 279.69703190194 2902.77487232582 32 34 21
255.170514835036 280.31084804226 2907.60856518072 33 35 24
249.3924999638 280.901686502407 2911.84198437852 34 35 27
241.96774499995 281.447679764248 2914.88311245486 35 36 28
232.884684873661 281.950330015216 2916.74321167241 36 37 29
224.608892013511 282.477227337895 2919.21534601419 35 36 28
221.28436033412 283.136706466097 2925.25334086772 31 32 24
214.650020266763 283.708730533567 2928.92263724338 30 31 23
204.682804208212 284.196150313692 2930.24605811112 34 35 27
198.860600698165 284.791689663698 2934.52266249101 36 37 31
202.22465769417 285.616952976933 2945.23023730996 35 38 31
199.767028329303 286.292923651833 2951.82185722432 35 38 31
191.447088405108 286.824619818659 2954.33712098623 34 37 30
190.683227845018 287.539269395838 2962.07490534952 38 40 35
185.724014263548 288.151881964196 2966.9089338765 41 43 38
180.765694350077 288.764293418263 2971.74210470256 43 45 40
175.808267700725 289.376548035575 2976.57441168454 41 42 36
164.060260319753 289.835153819004 2976.83662472106 44 47 40
153.983805722723 290.335327640375 2978.26663603062 42 45 38
130.240096087777 290.53893761509 2970.64002734553 39 42 35
128.635382374596 291.233000913505 2977.79892464522 32 35 28
115.05371294448 291.669810004084 2977.0510562673 28 31 24
102.292893934255 292.129271731671 2976.90197039789 39 42 35
93.8006234080784 292.681585539304 2979.58497587478 32 37 30
103.405921706945 293.603443276965 2994.00000795375 37 42 35
85.4165986243296 293.964299380793 2990.55500835555 34 39 32
73.4346279598768 294.451456452404 2991.04533052326 38 43 36
85.7339866025022 295.412582824642 3007.03004492146 30 35 31
272.450826986753 227.189753870959 2409.43104626134 186 188 185
272.521500329022 228.208541002577 2420.54657836233 181 183 182
276.21641733691 229.413611621268 2435.12019689774 190 190 192
277.080208832353 230.460624429596 2446.86088852321 189 189 191
277.256888947544 231.465369581604 2457.87322973007 190 190 192
274.567021975842 232.316445255907 2466.0864938964 194 194 196
268.987379932299 233.016825640001 2471.523645013 171 171 173
263.408021718934 233.716934367486 2476.96055443277 169 169 171
257.828984672883 234.416751989215 2482.39718795396 172 172 174
250.785632121244 235.043552380313 2486.46454385612 165 165 167
243.735014153959 235.67101977928 2490.53935368194 167 167 169
234.468232588964 236.191538584634 2492.57925003949 164 164 166
225.182519964136 236.714195037666 2494.63796711791 158 158 160
216.617567311469 237.274403752445 2497.39198015702 143 145 144
188.028518678804 256.298761952598 2694.4280638371 17 19 14
188.160648082935 257.174232683674 2704.08650410187 14 16 11
218.220722974072 259.169820199986 2737.70710748726 17 19 14
276.852949113187 262.199239222707 2793.81479416405 32 35 28
274.124088097385 262.920326932006 2800.66908283935 40 43 34
266.651659728558 263.466624950082 2803.75750626874 30 33 24
268.703617582625 264.357376976716 2814.34108856907 29 32 23
274.774507569923 265.385368476547 2827.99908803074 24 27 16
271.318299177171 266.068831687945 2834.16395712817 21 24 13
257.465008495694 266.388674288769 2832.28619094653 20 23 12
255.605601888206 267.128143143786 2839.69129113389 22 25 14
252.154049903933 267.810652490039 2845.8520151717 23 26 17
264.030180792021 269.007964143123 2863.63900222297 23 26 17
264.67371446995 269.818094449417 2872.79926777016 23 26 17
270.206330865059 270.78462569652 2885.58361750482 23 26 15
263.608843205295 271.348157920821 2889.21791182767 22 25 14
261.888535910486 272.069604604459 2896.48754801033 24 27 16
260.184641044962 272.788893787363 2903.74120528575 24 27 16
257.679263923621 273.480304095677 2910.37795745705 23 26 17
257.645978872917 274.246485895999 2918.79990025926 23 26 19
242.844347955581 274.555325314863 2916.44822905666 22 25 18
230.468317408517 274.944708790049 2915.92706224821 22 25 18
221.361119151275 275.437209465334 2917.81296893147 21 22 16
222.166714501574 276.226083759202 2926.81544647164 24 25 19
216.364023146741 276.817187836321 2931.07333052436 27 28 22
212.22112263417 277.456649925405 2936.50968907688 29 30 24
204.749398638031 278.000220291126 2939.59781619961 26 29 22
196.431570767361 278.521522304098 2942.11251891255 27 30 23
187.26175392427 279.021192974677 2944.05920921307 26 29 22
180.591321367594 279.592328903966 2947.7648150726 25 28 21
170.549254215657 280.072850488812 2949.16358373282 28 31 24
165.543566153591 280.691675716857 2954.04284387766 29 32 25
168.989219611627 281.533925581785 2964.66688159867 29 31 26
175.86231455391 282.459693772942 2977.54305039966 28 29 23
165.812192824535 282.940965405537 2978.94970651761 36 39 32
135.319280958628 282.905542009283 2966.72453422151 34 37 30
123.47257415527 283.35518473916 2967.08608197891 31 34 27
137.237201583717 284.443398813148 2984.43079794076 32 35 28
122.81840653646 284.830419149126 2983.10465711412 28 31 24
110.933734068425 285.284612178979 2983.50323280543 39 42 35
85.2504032540749 285.415300881079 2974.97931787918 28 33 26
107.772699116392 286.689046289557 2997.77056271902 23 28 21
101.894827752258 287.28836017164 3002.10188822675 19 24 17
82.1528201157649 287.572308025594 2997.57487867029 22 27 20
79.7109356453647 288.254121918085 3004.15000004668 16 21 17
304.546043280917 212.803621445447 2352.76298202793 186 188 183
274.665381882379 219.455759736794 2412.62610726344 185 187 184
276.174718442014 220.57768605815 2425.13160023047 180 182 181
278.441822580885 221.735228256875 2438.29626409605 189 189 191
279.311077265003 222.806024406454 2450.02801552695 188 188 190
276.60312893913 223.670539373162 2458.25724842371 191 191 193
273.186649683959 224.492744907619 2465.77940700517 191 191 193
267.602935411259 225.193771340764 2471.22050641976 167 167 169
262.747981191825 225.934101699547 2477.34937438507 171 171 173
256.436374165697 226.595021986416 2482.10196257524 170 170 172
250.121381279615 227.256134943722 2486.85822233978 162 162 164
243.068518033395 227.878620723714 2490.93566019989 164 164 166
235.272110981388 228.463211000869 2494.3401396718 162 162 164
225.250260746041 228.933917718578 2495.72062111005 155 155 157
215.94521274011 229.445402942617 2497.7998517685 150 152 149
185.082483972294 249.606821432974 2702.59365153251 24 26 21
246.606340040895 253.016577139451 2761.44166846029 11 14 7
282.432500783804 255.32778564867 2799.20885561956 27 30 23
277.344957763526 255.960291217929 2804.1673769995 46 49 40
269.087658888261 256.466340868441 2806.62422781773 27 30 19
272.734419251374 257.443719524866 2818.44550075044 26 29 18
272.44217086532 258.260223674104 2827.11716035164 19 22 11
266.584490734414 258.857757020861 2831.42836098665 16 20 6
256.721941139281 259.3026171589 2832.65447464746 16 20 6
262.081760362673 260.326667343978 2845.60191325413 18 21 10
261.058340895433 261.103390179006 2853.5882690488 23 26 17
266.505320958085 262.116378644334 2866.45079057096 23 26 17
273.620139656469 263.182093179098 2880.48348726004 23 26 17
277.553364327253 264.122812996166 2892.02571506097 23 26 15
264.476552868231 264.446074348217 2890.79329756074 23 26 15
252.989713674232 264.831743678822 2890.8066088607 25 28 17
255.344215771462 265.708209790983 2901.09220954906 25 28 17
254.462891029201 266.466475570787 2908.94052896797 23 29 19
247.043079169513 266.996661202987 2911.97908482957 23 28 21
237.147105611615 267.444288522071 2913.23764214936 23 28 22
228.052443151424 267.922263499243 2915.11290965068 23 28 21
227.196015568625 268.677022041331 2922.9370241904 23 26 19
232.153022991974 269.6196913208 2934.87957961376 27 30 23
222.225782375218 270.070788598855 2936.16867272679 30 33 26
217.264961610906 270.685004287776 2941.00406026957 30 33 26
207.30460241968 271.140026070863 2942.3254605765 27 30 23
200.66321222837 271.702781538118 2946.00312772454 24 27 20
185.642322782462 272.006123202198 2943.87033388979 23 26 19
182.324664320102 272.67592348271 2949.89964023341 22 25 18
176.492385077225 273.267986048405 2954.18676383215 23 26 19
169.813966214154 273.834996786311 2957.90057207148 24 27 20
172.424024532723 274.678494123614 2967.93727442476 22 25 18
180.998577806039 275.691241988905 2981.94517087043 22 23 17
163.320009258211 275.934140193759 2978.20902155134 26 29 22
132.821922032391 275.818935754536 2966.00078006746 20 23 16
120.116849722976 276.224076725869 2965.8043654841 17 20 13
151.821986443896 277.874308341383 2995.00828512792 23 26 19
135.722908039387 278.180834471636 2992.5284310452 22 25 18
115.281556071993 278.376467279806 2987.29168651303 34 37 30
103.376583525272 278.812064390633 2987.71316895127 22 27 20
92.3038943422023 279.27426677757 2988.72115877553 16 21 14
95.8991706319878 280.125045327047 2999.19535827693 17 22 15
66.6146829298406 280.118561480832 2988.59974430501 22 27 20
279.827927100826 212.973193075306 2429.71307304233 184 186 185
279.94863364741 214.028895172038 2440.77312757409 190 190 192
277.939368785592 214.950584503676 2449.71735427615 189 189 191
275.949671734338 215.869584164476 2458.64220954324 189 189 191
273.255374519429 216.743095775953 2466.85655698485 192 192 194
266.945171416154 217.401717902582 2471.60842856794 168 168 170
259.174631313779 217.976000464962 2474.98874525222 172 172 174
253.583532781954 218.677618730548 2480.4370898727 167 167 169
247.260601714579 219.337196762199 2485.20145922996 165 165 167
241.668252965513 220.038530371335 2490.65108740674 163 163 165
233.86785822382 220.615662568561 2494.06062901441 162 162 164
226.794186964812 221.235081037436 2498.15918288606 152 152 154
205.550248966779 243.073841243674 2720.07677493935 42 43 35
250.599831504164 245.973039923305 2765.60198855769 44 45 37
269.082326143902 247.659789412109 2789.50995527265 27 28 20
271.077644693696 248.607274506078 2800.14139611682 27 28 20
262.804752304394 249.104852484519 2802.61498363444 22 25 16
281.532510272265 250.760621960615 2826.28364122926 22 25 16
271.703161977638 251.185786041517 2827.47935873451 14 17 8
258.657473347376 251.479487169169 2826.2204047935 17 20 11
261.581800265603 252.443596850787 2837.34411664748 27 30 21
264.54581748579 253.402643970365 2848.42916368934 23 26 17
255.485337775287 253.864502865592 2850.27320700677 26 29 20
268.174462306937 255.207862168744 2868.64854073254 25 28 19
281.758048162118 256.572686052008 2887.54939800364 22 25 16
280.039617151648 257.316569713974 2894.81385483261 23 26 17
260.472184267489 257.357775031425 2888.73212004757 25 28 19
244.90585916085 257.565413914734 2885.73784955644 27 30 21
248.05650987212 258.500446424457 2896.64111613155 26 29 20
244.703922560089 259.181462645223 2902.70378747016 24 27 18
241.359966903497 259.861316997635 2908.75805917095 24 27 18
237.202782743711 260.509331698041 2914.20733752409 26 29 20
237.992546838669 261.339076972049 2923.21949502183 27 30 23
242.112916255819 262.285865539949 2934.57498836437 24 27 20
244.621744727893 263.167348423405 2944.70659920454 26 29 22
233.894127548254 263.569449276687 2945.38081040872 29 32 25
223.140278765365 263.974694876088 2946.08060519059 32 35 28
209.860002826257 264.29552225516 2945.05059066699 31 34 27
199.047908100015 264.707830579285 2945.80718066402 31 34 27
195.744757104438 265.381787298983 2951.82146655877 29 32 25
196.646345353769 266.196993095322 2960.72472994659 27 30 23
195.893812401219 266.952187414126 2968.44561117503 23 26 19
180.829129546443 267.228821765274 2966.35991432987 21 24 17
172.479096120775 267.733102444712 2968.90911338067 19 22 15
170.043003307411 268.431788401513 2975.47598987228 20 23 16
158.281883356187 268.828758939752 2975.76033354722 18 23 16
131.175975736096 268.742652515799 2965.84728200813 14 19 12
124.436125264481 269.3121299741 2969.62172816268 13 18 11
120.253548817599 269.962063203785 2975.09593787448 14 20 10
128.068362460884 270.979925899422 2988.44060171638 12 18 8
123.922307980212 271.625284439369 2993.87922071299 18 21 12
105.152881770401 271.830626288639 2989.81495067332 15 20 13
112.194960298772 272.811723108039 3002.51547657019 18 23 16
85.5824591104542 272.796608651339 2993.51888188643 19 24 17
76.1997493051698 273.295949680028 2995.67736460846 23 28 21
68.5349572877749 273.847303839519 2998.95606068904 18 23 17
279.897912235288 205.162779851511 2430.79795243276 183 185 184
279.299775201305 206.194013345373 2441.15853639758 188 188 190
278.008717386041 207.175618078789 2450.79762673286 184 184 186
275.296355164775 208.06252269515 2459.02793351256 193 193 195
271.150979703036 208.85627699012 2465.86085472326 174 174 176
264.108485484668 209.467845374976 2469.92994741366 170 170 172
258.514981502584 210.170120698747 2475.3805835689 172 172 174
251.4611951095 210.782653928948 2479.46040911001 164 164 166
247.328909255496 211.573934211605 2486.28103564666 161 161 163
238.799810071223 212.09840073768 2489.00506618352 163 163 165
231.727577156797 212.712610787909 2493.10296155974 162 162 164
224.647958906232 213.327530744006 2497.20808576015 151 151 153
221.308113111029 236.453391010852 2733.74769595955 34 35 27
228.630113509032 237.712230948324 2748.96302362574 26 27 19
258.09919309611 240.01154982861 2781.70835556192 27 28 20
265.60176398266 241.247611244647 2796.74774071919 37 38 30
278.71557854112 242.73442958001 2816.09705710568 23 26 17
283.97410712378 243.842704535282 2829.13263043169 21 24 15
282.115559019082 244.61609017526 2836.53186522708 16 19 10
272.289138274931 245.024980055261 2837.72741879321 20 23 14
266.441875410268 245.616482633967 2842.02916627372 26 29 20
262.998730022642 246.315519647635 2848.17909965477 24 27 18
261.172647938616 247.084355421439 2855.54676767993 24 27 18
269.037511265723 248.274331336968 2870.23320250491 23 26 17
277.773512417634 249.491350985204 2885.4674968579 21 24 15
263.89386278634 249.725871662072 2883.62851604619 22 25 16
249.160193359048 249.930938284899 2881.22469565326 24 27 18
236.008827010838 250.210172708569 2880.07281942091 24 27 18
243.217522206608 251.345680217258 2894.00197998927 23 26 17
242.306503014251 252.13549155171 2901.8747861749 22 25 16
248.794085961062 253.224907835893 2915.10958696963 22 25 16
247.119666038726 253.973962489402 2922.32991370918 25 28 19
255.34544164207 255.118128387216 2936.66439016721 26 29 20
247.947792710211 255.630012933141 2939.68398064839 27 30 23
247.987058371484 256.436742837655 2948.02754868703 27 30 23
243.073761823183 257.046058267309 2952.81646823696 27 30 23
234.004252408099 257.494519684547 2954.67145832592 27 30 23
213.248939259339 257.498591379597 2948.35788521918 26 29 22
205.785864128557 258.018162029327 2951.4409710383 28 31 24
207.521759180252 258.884619306453 2960.92542765129 27 30 23
212.646092003773 259.871751449082 2972.694917045 26 29 22
204.360095924343 260.357934503013 2975.18320088549 25 28 21
187.629047126915 260.538832722427 2971.93256117782 24 27 20
167.464585137579 260.604442432149 2966.44007816141 22 25 18
173.485945877982 261.615385638711 2978.73253346801 23 28 21
156.639530552166 261.810414860341 2975.5943658725 18 23 16
147.396733225996 262.279688313442 2977.61801956703 13 18 11
114.259371284565 261.92512506086 2963.81492822433 11 16 9
116.890875341221 262.815260987675 2973.8234414795 17 23 13
114.418439600357 263.52682841028 2980.42450316034 18 24 14
120.543797703833 264.524616870157 2992.61563181385 24 27 18
120.69701348415 265.316246145538 3000.84861540817 22 25 16
111.387935280244 265.793506801272 3002.93690648904 22 25 16
94.2816205337444 266.020430684321 3000.05210884327 21 24 15
74.5232949767254 266.17046829978 2995.56109509788 20 23 14
54.7001747575901 266.328512147671 2991.13324009216 11 16 10
80.9281440007532 267.944055500422 3015.86215401088 14 19 13
277.818238316325 197.204190147529 2429.78830966494 183 185 184
278.650863064917 198.353077536004 2441.54455547032 187 187 189
278.798568752503 199.448660784948 2452.57224288105 183 183 185
276.810280945072 200.394741128212 2461.49169623515 194 194 196
271.944456413839 201.145375639732 2467.62983563149 165 165 167
264.903645111792 201.751393483152 2471.69773968671 172 172 174
258.583712067251 202.40587606027 2476.45988506893 173 173 175
252.259994286325 203.06061292615 2481.22541332456 161 161 163
245.200770406731 203.668378725772 2485.3116808363 159 159 161
235.931498913408 204.135962575843 2487.36187349277 163 163 165
228.115337254581 204.699190344763 2490.78912695066 161 161 163
222.502001648405 205.403095969672 2496.25921524399 150 150 152
218.807986777139 228.06257791749 2723.30041017535 34 35 27
226.078163777539 229.371632175886 2738.55977758676 32 33 25
238.13192167415 230.915076358626 2757.53646731575 25 26 18
254.215412041154 232.648395754711 2779.56839408822 22 23 15
270.404770256761 234.368354084102 2801.49716728185 32 33 25
274.018561849714 235.440317673265 2813.33719907894 22 25 16
288.005019983866 237.019284854926 2833.2235950952 15 18 9
258.279350924591 236.431265501227 2818.90096563166 21 24 15
270.750267495233 237.921943298249 2837.47120947936 26 29 20
276.904459369686 239.092175570086 2851.02512796968 22 25 16
259.847385111938 239.140071167849 2846.70098477532 23 26 17
259.621695211658 239.997583992472 2855.30015190993 21 24 15
267.482248599497 241.231725433718 2869.9843389229 23 26 17
273.789650203708 242.382453240328 2883.38933848015 22 25 16
259.900258141137 242.588878152194 2881.56384674652 23 26 17
257.337317721659 243.32192405472 2888.25160640117 24 27 18
253.973036110429 244.016282004044 2894.32391845011 23 26 17
255.512574473685 244.930091260178 2903.99602371359 23 26 17
246.452404502311 245.364977096371 2905.84374606184 22 25 16
258.687653156579 246.745520451494 2923.24704229702 22 25 16
269.361947994795 248.043648484343 2939.37875105987 24 27 18
266.108556130603 248.723759955071 2945.34271573207 24 27 18
245.526700697544 248.655813266302 2938.86787867713 24 27 20
240.594904205967 249.268006369403 2943.67474362533 23 26 19
243.95872554443 250.230844178781 2954.36221900525 24 27 20
237.385261293775 250.770544912811 2957.97584216959 27 30 23
224.138228671164 251.034197953031 2956.9212668836 28 31 24
194.147774812302 250.615245755678 2944.25383174812 25 28 21
204.228343519985 251.848378273834 2959.56747848446 25 28 21
209.344720182864 252.869419726404 2971.34019452409 26 29 22
204.415394263547 253.48080013959 2976.14472627273 25 28 21
173.353175181061 253.056558351402 2963.12544232941 24 27 20
172.590271959629 253.840847362558 2970.85198336333 22 25 18
179.469749709733 254.918879230707 2983.69930943683 21 26 19
166.88143957324 255.238360976613 2983.39960868581 18 23 16
144.049622418985 255.172674104727 2976.32418856119 12 17 10
134.780921153692 255.632168012389 2978.37534850474 10 16 6
122.929630379021 255.998002529697 2978.75349718863 20 23 14
116.187953846049 256.557878844528 2982.53151353591 22 25 16
118.882669505242 257.464855373898 2992.47442985962 26 29 20
106.985884270885 257.83626473075 2992.89726909766 23 26 17
101.095592562555 258.428417008251 2997.24198667281 21 24 15
73.5947490961348 258.251767458183 2987.73449450186 19 22 13
32.1345773342192 257.599062138691 2969.48694422647 17 20 11
53.8887580024392 259.17719664387 2991.5787030736 8 13 7
60.9721018443743 260.229647593794 3004.22770579475 4 11 4
274.23299854328 187.997786813125 2416.28803565305 185 187 186
279.321411458033 189.488127111848 2432.2698858966 185 187 186
278.720684037437 190.557751542595 2442.62736798991 186 186 188
280.30884285239 191.777904636206 2455.04007141816 183 183 185
276.879486372901 192.634888772088 2462.56987701163 180 180 182
270.564728592721 193.286522336115 2467.32730436272 162 162 164
263.519915728175 193.8877669301 2471.39988751283 174 174 176
260.108942539042 194.741858614076 2478.91186573035 176 176 178
255.249682388774 195.493906396477 2485.04327771854 157 157 159
246.733608665632 195.995559343208 2487.75740777501 158 158 160
236.000109712645 196.34992931211 2488.44451427094 165 165 167
227.447859716756 196.855805486382 2491.19428155184 152 152 154
221.094482173011 197.510951402241 2495.98953977499 143 143 145
213.997518460574 198.117414156236 2500.11313824622 191 191 189
233.743669836372 221.537139890204 2736.35681708683 7 8 0
244.189443222969 223.058656919337 2754.09934355094 31 32 24
243.69968817042 223.966827375922 2762.95358195146 20 21 13
258.218693982494 225.686165908106 2783.70697490247 21 22 14
271.254643757445 227.307917444235 2803.11366910189 32 33 25
273.285018889456 228.325064391553 2813.70034009218 19 22 13
269.789658739148 229.042728288524 2819.89937045923 14 17 8
279.046004429817 230.429389481823 2836.00879136458 21 24 15
266.018179352145 230.640994833777 2834.74423237158 25 28 19
265.757745552012 231.519710241085 2843.37510482188 20 23 14
263.114621095461 232.271813134974 2850.13967179569 21 24 15
268.526246440868 233.431447207025 2863.01562691808 20 23 14
261.090551355246 233.933708492789 2866.07408226403 22 25 16
259.30074516436 234.720290814685 2873.40310485899 22 25 16
251.04706787628 235.183146249596 2875.86274347381 21 24 15
263.890505977457 236.686567725382 2894.06118442466 22 25 16
269.494611219572 237.82169906847 2906.74928781489 23 26 17
273.518591445183 238.871452722602 2918.18561669675 23 26 17
252.233882757074 238.699475885237 2911.00685176497 22 25 16
257.924253527259 239.823645338867 2923.61125021506 22 25 16
266.952629045305 241.096358125775 2938.54698107882 22 25 16
271.106056948004 242.129614232594 2949.85686699204 22 25 16
248.884959014015 241.932804820652 2942.19471134976 27 30 23
238.995770375527 242.316347468643 2943.45600283068 25 28 21
234.061015441433 242.929296827803 2948.26569378172 24 27 20
229.127111658184 243.542050432635 2953.07456845979 24 27 20
202.52769142123 243.184714605759 2942.69865504929 23 26 19
195.874849929615 243.72923454983 2946.39072655217 24 27 20
187.540468930156 244.200891240377 2948.92886648168 25 28 21
203.526569618247 245.735221887731 2968.25309445972 25 28 21
200.265626087658 246.42147462273 2974.2236503721 25 28 21
194.484490184634 246.998303402656 2978.46223942522 23 26 19
192.080048832039 247.718886504731 2984.99444915987 20 23 16
177.831968606272 247.939130563085 2983.52343545286 22 25 16
157.600359226435 247.916835463632 2978.11062308025 23 26 17
141.553731583643 248.078762287998 2975.60005633004 18 21 12
131.426731696923 248.491077665848 2977.09358314104 15 18 9
134.09622069232 249.426045550766 2987.05741280469 18 21 12
126.523002133741 249.943506235494 2990.25018452774 18 21 12
115.505191418121 250.325521552724 2991.21553083645 20 23 14
106.182061404335 250.778653309633 2993.32167965496 19 22 13
70.9700098665538 250.222926600506 2978.77436114457 18 21 12
25.2524147086803 249.282281891971 2957.71216812301 18 21 12
47.7841858336676 250.9887679406 2980.42970716733 16 19 10
51.3418491628572 251.95413408723 2990.9246587398 13 18 12
54.9386305902431 252.914596556137 3001.38115238192 14 21 14
279.30564690315 180.525967367673 2422.27419340314 184 186 185
283.690755492699 182.000730357552 2437.53982824009 184 186 185
281.664592695436 182.979258271216 2446.49243412425 184 184 186
280.378357316826 184.009197481548 2456.11925405207 183 183 185
277.671283432337 184.928297501883 2464.33988881052 169 169 171
272.082640529183 185.630741346367 2469.78567293523 165 165 167
265.767873845815 186.279558567021 2474.54318753965 173 173 175
260.906194372476 187.034948238101 2480.67650802172 177 177 179
256.04854255521 187.789622063947 2486.8055969414 156 156 158
246.070221798227 188.175113641555 2488.15510988265 158 158 160
236.803041159526 188.61572273208 2490.20755098924 160 160 162
231.196822060855 189.319291411992 2495.67062228573 148 148 150
227.066894708025 190.126400637846 2502.48622944298 140 140 142
267.0085346019 217.14596457001 2773.40695262233 25 26 18
267.361608485934 218.109529193798 2782.83297151353 18 19 11
262.222176766768 218.750522129303 2787.84176470949 24 25 17
268.942393898233 220.071103820155 2802.22829949145 17 18 10
274.929406402017 221.339161339997 2815.93410888127 13 16 7
263.492822507275 221.613737071365 2815.91393551161 19 22 13
256.008234751151 222.114953116081 2819.02109648831 21 24 15
254.101525266058 222.927891518842 2826.46264820731 19 22 13
257.813175553961 224.047445534507 2838.19847102945 19 22 13
249.534674490573 224.503435184641 2840.68377478011 19 22 13
259.737913582242 225.96455380294 2857.25882108343 19 22 13
247.444130510919 226.201499736049 2856.67884935987 19 22 13
246.429197015051 227.046573830522 2864.64667617323 17 20 11
244.624642290464 227.84611632102 2871.98842877291 17 20 11
267.195642388404 229.923339067426 2897.44671246457 19 22 13
280.946395204195 231.517323114301 2916.1477007005 19 22 13
271.94343788306 231.919033656705 2917.94317549323 19 22 13
256.37972018513 231.987479619458 2914.96688845958 21 24 15
250.603273824 232.562331440693 2919.2011129219 21 24 15
245.645404017934 233.178939278179 2924.03321656102 21 24 15
248.924581480523 234.207465708154 2934.79503581151 21 24 15
245.639087055444 234.90321329547 2940.78890563202 25 28 21
244.0171053664 235.679260432157 2947.95283311151 24 27 20
233.287971889902 236.00781929234 2948.63941949535 24 27 20
215.050212093718 235.977359989849 2944.08204815473 25 28 21
200.084543020787 236.114426888363 2941.91865716905 24 27 20
185.073527827017 236.257101523675 2939.79980457265 24 27 20
188.434554042502 237.274955804865 2950.4819241405 25 28 21
183.444143749669 237.894965632941 2955.34583815128 26 29 22
188.547104649736 238.98333632626 2967.12158716734 27 30 23
193.697617795383 240.065780347676 2978.85132990209 27 30 23
183.686917236917 240.448115490304 2980.23346298459 26 29 22
174.500763567653 240.871536780134 2982.20798346217 34 37 28
150.017938829627 240.611675126807 2973.96691858707 25 28 19
127.998984108987 240.476239579079 2967.5115321911 17 20 11
127.220262847894 241.290357695869 2975.24970988544 14 17 8
126.461737302364 242.101922450711 2982.96821032146 19 22 13
124.010156856501 242.836680002603 2989.54479705309 20 23 14
115.562033888134 243.311694435981 2992.19572600822 21 24 15
100.216334695848 243.495352446273 2990.40316224495 20 23 14
63.2667595554239 242.774562595446 2974.77147014014 18 21 12
28.7680386081575 242.179887336888 2960.93880754672 17 20 11
87.6867512296569 245.481091101292 3006.80246049532 15 18 9
75.7067639186664 245.820649784518 3007.31262814106 2 7 1
73.2671290826321 246.553807282436 3013.87792703481 22 29 22
279.376238589059 172.688632120175 2423.36244954236 185 187 186
286.626815587764 174.430654890079 2441.41110612371 186 188 187
283.889813064625 175.36479093672 2449.65923814464 183 183 185
279.0072442915 176.126306234628 2455.81205880324 185 185 187
274.851105210295 176.943692929062 2462.65217558887 163 163 165
269.978953650791 177.703557605214 2468.79523360352 161 161 163
265.836997136934 178.51881729093 2475.62158126108 176 176 178
263.159802664922 179.444573276639 2483.81156157246 176 176 178
256.847470036917 180.090179431235 2488.56713371808 155 155 157
247.603347624758 180.514716875413 2490.59905304716 159 159 161
239.074079743912 180.996570206826 2493.32954931377 159 159 161
232.737458588864 181.644722338954 2498.10886403143 145 145 147
228.61142068902 182.456974464683 2504.92018662799 138 138 140
269.092602800189 209.136247122895 2766.85296187907 7 8 0
278.05548619392 210.65836880396 2783.2341120245 26 27 19
274.502193262197 211.395321462525 2789.48781962936 19 20 12
267.802889942704 211.937964666579 2793.22596795351 20 21 13
269.792995749888 213.009685160871 2803.84456103224 15 16 8
273.403814896169 214.172400571853 2815.67413143319 12 15 6
276.263812893156 215.282017301838 2826.84021697871 21 24 15
261.642591456796 215.345955556374 2824.34559277969 21 24 15
266.136013307603 216.544914947279 2836.71061596309 17 20 11
257.872231980232 216.988773622787 2839.18309575104 20 23 14
274.462941063587 218.878170103004 2860.68827871524 19 22 13
263.817489646156 219.178975354863 2861.29586954856 21 24 15
253.951751399825 219.529060082814 2862.53881950937 19 22 13
248.103914037316 220.111098582715 2866.84287410345 18 21 12
243.87304843702 220.784611055625 2872.36155065659 17 20 11
259.133735580118 222.546189442954 2892.37253789167 20 23 14
263.097771504683 223.663771836177 2903.85802945059 18 21 12
267.921406401257 224.820711957318 2915.90135662782 19 22 13
249.077170611149 224.67711859106 2910.54603676203 22 25 16
244.922519971563 225.340698628621 2915.99049874212 24 27 18
235.842686594663 225.73868521134 2917.86286299429 26 29 20
238.274809824306 226.753687287217 2928.05090919577 26 29 20
244.044697921581 227.938875011991 2940.56732729075 30 33 24
247.383510389785 228.98730400626 2951.26698650879 30 33 24
225.050602026473 228.691790081575 2943.73044875956 31 34 25
214.275932171818 229.007521716529 2944.46414929835 30 33 24
209.307964474314 229.625409924784 2949.30609105469 28 31 22
200.999876206282 230.073252960455 2951.82164156101 28 31 22
192.677372508589 230.522863396661 2954.35158342304 27 30 21
191.052931628186 231.310115044186 2961.5162968941 27 30 21
181.034844979255 231.67782999719 2962.90826317325 27 30 21
180.266753430711 232.504810481595 2970.63364651159 27 30 21
180.363957614332 233.370489495609 2978.9113059304 28 31 22
164.395425472769 233.453666067416 2976.33482844594 23 24 16
142.436180902139 233.257448589406 2969.82947037308 15 16 8
115.296165558544 232.827438436685 2960.00111712857 13 14 6
115.340820760909 233.699498838347 2968.33001529627 16 17 9
121.391580140672 234.848953946556 2980.57280532082 18 21 12
122.354509765671 235.753061852213 2989.40201612289 15 18 9
121.628342217893 236.574528645974 2997.08658322978 16 19 10
118.341441672664 237.275443734018 3003.08108559403 15 18 11
71.0857763332817 235.981041570621 2980.76434771947 15 18 11
33.148086822762 235.137513498408 2964.71509912898 15 18 11
102.469070784676 239.10126564922 3017.15581952314 11 16 9
87.049517141915 239.262160811695 3015.43962081795 20 27 20
56.7940189343226 238.780286567792 3004.46158780756 8 15 8
283.734020126095 165.212349147762 2428.64223100482 186 188 187
283.831050746678 166.401600324093 2439.70605758545 186 188 187
283.241137984915 167.5269653326 2450.04456212962 183 183 185
278.356638067876 168.291563660953 2456.19918261411 187 187 189
274.920649885999 169.174001609053 2463.73147368176 162 162 164
271.496798843085 170.05479324458 2471.25229355727 165 165 167
268.08492842195 170.933919739197 2478.76146260535 176 176 178
263.956939946031 171.752830625914 2485.57373799082 174 174 176
255.456226291447 172.220757327662 2488.27793783843 152 152 154
246.940046110419 172.690433106735 2490.99689982058 159 159 161
238.408808235532 173.161868800709 2493.73089204265 159 159 161
231.334366827332 173.750206296423 2497.83514228009 143 143 145
225.728316114441 174.453938026215 2503.29802226832 127 127 129
275.415975536891 202.368037489287 2772.91038577066 17 18 10
263.206527806816 202.547794019795 2772.25478253327 24 25 17
287.935869972671 205.13909632822 2801.16179502345 17 18 10
275.749383390646 205.315751850286 2800.48384935431 16 17 9
271.434148329141 206.003917685661 2806.08414026907 21 22 14
269.501274459367 206.842894378558 2813.54782516093 28 31 22
279.501056639282 208.433439736883 2830.30577796962 25 28 19
274.444423039128 209.064436920077 2835.23382877724 21 24 15
261.4054013084 209.197580512588 2833.99198484002 20 23 14
272.336357990238 210.821018138846 2851.23765329988 20 23 14
270.510694557785 211.646103326346 2858.59692980105 23 26 17
270.30941809486 212.56710688327 2867.16247012896 20 23 14
257.234941163644 212.70427052986 2865.95523956771 21 24 15
253.011015836567 213.380189916325 2871.46700642817 23 26 17
244.741681802566 213.813852403743 2873.94616928604 25 28 19
240.517566763818 214.489618799899 2879.45814714489 28 31 22
244.436663509701 215.642970076567 2890.98297734722 30 33 24
245.952157920436 216.648044265878 2900.66580753572 30 33 24
238.504220509776 217.128283473953 2903.73967454488 27 30 21
232.684812501719 217.70396476286 2908.01610012074 27 30 21
229.327462744685 218.420557250696 2914.0782424809 27 30 21
240.802938774491 219.975113685781 2930.79337578873 24 27 18
247.403762176579 221.241578568775 2943.88955943178 26 29 20
248.267720706974 222.178146414566 2952.81225242887 27 30 21
235.889795843683 222.376851455874 2952.32148673569 25 28 19
225.971702925113 222.716671237769 2953.61794281452 28 31 22
223.530565294316 223.467922596786 2960.18205974092 29 32 23
211.914730862718 223.720670066848 2960.34311101166 25 28 19
202.780427269518 224.111903391208 2962.27090096446 24 27 18
191.949380575966 224.416019620089 2963.06230128961 24 27 18
176.887103454163 224.501077930577 2961.00253037119 23 26 17
173.580545890221 225.210670196051 2967.01526996257 22 25 16
166.90295044255 225.743279385662 2970.73334507206 17 20 11
161.912235125156 226.364138488294 2975.59743645433 19 21 10
133.157530922409 225.767253319333 2964.56300069353 14 14 4
123.86115718782 226.178343214145 2966.64879390012 18 18 8
123.072276628093 227.021706333614 2974.39239968757 14 15 7
115.467587664146 227.520418326878 2977.61953087877 15 16 8
118.986191914115 228.573241030533 2988.14000481137 20 21 13
116.535471848182 229.325132832802 2994.71354258029 18 21 12
125.281513494305 230.621998782661 3008.50881816588 15 18 11
68.6401605792883 229.617973709215 2988.38440476222 15 18 11
87.8018280420347 231.407929114824 3008.76819471505 12 17 10
70.6137107505396 231.458882985607 3005.99063649668 22 29 21
48.1522416701345 231.271410609268 2999.98270226406 14 24 15
277.37409176115 156.82347323858 2423.44440869856 186 188 187
280.319151601911 158.287631631447 2437.30778195026 186 188 187
280.437530629252 159.495781463488 2448.34761603434 183 183 185
278.426453702603 160.513118167039 2457.27950550376 190 190 192
274.9902840387 161.403812516229 2464.81075649327 161 161 163
273.014817853925 162.416372446906 2473.70798997454 171 171 173
269.606672214309 163.303262896026 2481.21231275042 177 177 179
263.297921451892 163.94350267794 2485.96545904009 170 170 172
253.334947425143 164.278970478358 2487.30712594378 151 151 153
246.277103841385 164.86023835554 2491.39560134072 158 158 160
237.743885208543 165.321272511245 2494.13309782755 160 160 162
228.459345370199 165.723785220825 2496.20806966247 142 142 144
220.631611051544 166.248608980698 2499.65249103841 125 125 127
299.364136579085 195.875636147667 2784.09727043903 11 12 6
257.474091486125 193.955854592874 2759.37897961969 19 20 12
253.066904113477 194.658922103517 2765.06837807762 29 30 22
269.903659015195 196.817363027737 2787.70671641534 31 32 24
279.752878697195 198.478835050587 2804.60403492213 24 25 17
274.656804512928 199.115453003185 2809.57042006556 26 27 19
268.768911399149 199.698669633458 2813.91373864363 25 28 19
269.233385502285 200.705810404127 2823.22269493498 22 25 16
276.096888591317 202.131081311026 2837.4518094645 18 21 12
270.246643716786 202.709347095941 2841.75881235923 17 20 11
265.193579672808 203.340100670754 2846.68335455002 24 27 18
273.778527321797 204.854422163129 2862.02370618168 30 33 24
268.760201004448 205.48066381568 2866.91442015654 29 32 23
262.13049072236 206.003720303026 2870.58635647395 26 29 20
249.837748456833 206.168746146593 2870.01564313068 22 25 16
235.081295542322 206.184890586168 2867.66270753553 20 23 14
225.962177731144 206.562067589963 2869.57715745834 22 25 16
233.915318655797 208.002655219085 2884.13889102215 21 24 15
244.378873545513 209.58614980818 2900.43769061679 22 25 16
245.921975762676 210.609752005007 2910.09002957197 20 23 14
242.579154865629 211.330483492869 2916.137132817 20 23 14
244.174490147184 212.347419799844 2925.73858878271 21 24 15
254.037379435483 213.853549536463 2941.22838337271 18 21 12
249.937604281197 214.516418116154 2946.61845833786 20 23 14
242.53297917834 214.983273183568 2949.65129375524 21 24 15
230.141478112398 215.159813013019 2949.17694759862 20 23 14
228.523033344564 215.969175622045 2956.3327766928 23 26 17
226.920748286729 216.776432998632 2963.47253226651 24 27 18
217.818347054321 217.150699161797 2965.37081260046 24 27 18
209.534678917801 217.574885235726 2967.8659478858 23 26 17
192.846020180518 217.526910806631 2964.60704149926 23 26 17
185.354728436125 218.004190346262 2967.72439744042 24 27 18
176.167101607753 218.388914781245 2969.70610016501 23 26 17
166.115972197129 218.729245272924 2971.13458796441 21 22 14
156.042522088309 219.072301190032 2972.5848377304 19 19 9
145.946793529191 219.418106690964 2974.05680393958 20 20 10
137.530115187674 219.858544837447 2976.6816182755 19 19 9
117.162465736795 219.660888645388 2971.42981399738 18 18 8
125.780045171665 221.017528965221 2985.34415767398 16 17 9
113.048906185609 221.235750401218 2985.20091646957 19 20 12
108.009336234746 221.863033766387 2990.11257172188 17 18 12
104.69141808418 222.579645510626 2996.13555506783 15 18 11
103.106506197721 223.384174632371 3003.25846206041 12 17 11
90.3036822523013 223.611265265443 3003.18543205888 9 14 8
74.0022841559691 223.666475222768 3000.94362884158 11 16 10
61.9917113675395 223.946702889537 3001.49259957489 26 33 25
277.444922691178 148.976495911842 2424.53385235994 186 188 187
279.673041296698 150.40782122084 2437.69676441231 183 185 184
280.507655665227 151.703203415101 2449.42972046935 184 184 186
279.216621927004 152.799145667769 2459.05188786037 185 185 187
277.226848002626 153.82725471974 2467.96069314324 167 167 169
274.532832705615 154.788301202606 2476.16216086244 181 181 183
268.223543793809 155.426130431793 2480.91585997906 177 177 179
259.726387969888 155.872401948232 2483.61972747515 166 166 168
249.753697043282 156.192988857539 2484.97324279324 151 151 153
244.15017401123 156.897212754362 2490.43354001496 159 159 161
236.345033026392 157.411537060278 2493.85707769114 161 161 163
227.056785761333 157.801191899416 2495.93796928523 136 136 138
219.225105933579 158.318589117344 2499.38740624969 122 122 124
247.894087375998 184.993066525245 2743.29345739309 18 19 13
248.143436077147 186.047030230184 2752.80911597951 34 35 27
246.851578874164 186.983641478001 2761.03874081842 34 35 27
275.471124395028 190.069734468817 2793.09447845311 44 45 37
279.024887860902 191.330174545745 2804.9662623252 42 43 35
282.622420151454 192.585098571161 2816.79573621935 33 34 26
270.414434274778 192.716331116313 2816.14585316377 18 21 12
264.52747416723 193.297080448667 2820.48894776042 16 19 10
278.5457973784 195.263567092381 2840.28608823489 16 19 10
281.482383129884 196.44576074751 2851.36539417018 16 19 10
274.055752340738 196.908741246151 2854.42065421892 18 21 12
266.618280350404 197.373014739429 2857.48648863667 21 24 15
265.603088058808 198.274114064256 2865.44662977542 19 22 13
258.965557607094 198.793173542402 2869.12692239308 18 21 12
255.553292036444 199.52886610379 2875.24077398544 16 19 10
238.380629219719 199.35013452923 2871.06456949397 17 20 11
225.210020885943 199.44588811434 2869.95891922555 20 23 14
229.905587127893 200.717510233373 2882.11247052081 20 23 14
246.884933574812 202.778043427971 2903.20643690623 21 24 15
248.433616588435 203.82301116004 2912.85007623125 19 22 13
247.555439528513 204.70643212715 2920.67677207305 20 23 14
246.697440251604 205.587219206563 2928.48348252348 21 24 15
253.271647004535 206.933678606517 2941.59461157993 19 22 13
249.995230702533 207.651764383023 2947.57582727342 21 24 15
240.935970091076 208.007908020941 2949.43428467634 23 26 17
226.052714678438 208.007190589567 2947.20942017148 22 25 16
227.749274373799 209.033294983139 2956.70900375872 25 28 19
225.311848761723 209.801275167237 2963.26696208261 26 29 20
215.370510901866 210.112454907851 2964.59073371736 23 26 17
198.710253217414 210.023698116366 2961.30965228087 22 25 16
194.582112215152 210.692945385464 2966.72729002687 23 26 17
187.935663661954 211.211979239889 2970.41644223831 24 27 18
182.125376590464 211.781463188345 2974.68506439553 24 27 18
165.329176593254 211.709436970439 2971.53616507174 22 23 15
156.947497458668 212.135320272619 2974.12837587743 26 26 16
148.551277995852 212.562977645382 2976.73476323714 21 21 11
135.036677637836 212.700534217054 2975.96452367077 18 18 8
115.516278561073 212.503929563187 2971.28847898931 20 20 10
94.2219820694357 212.219054592633 2965.55283050067 18 19 11
95.1224755473619 213.189198942917 2974.43428116208 18 19 11
81.4586430744972 213.345229523115 2973.80950084142 16 17 11
88.4042639080675 214.644547614938 2986.55843984804 16 19 12
97.1293520383392 216.031419109135 3000.36155764648 12 17 11
81.7206584447781 216.09555744621 2998.64921321041 7 12 6
60.2036188229955 215.838298406945 2993.13067032017 12 17 11
50.7663740194317 216.240779197514 2995.35728516057 21 28 20
76.97909141792 218.541354915785 3020.00009690205 8 18 9
276.086853206968 140.992279184952 2424.22834270165 184 186 185
280.460073774339 142.658473772207 2439.47782685587 183 185 184
282.014618440376 144.046001721853 2451.89917170027 185 185 187
280.727068225077 145.157815368433 2461.51519627444 175 175 177
276.574370531187 145.996875864439 2468.34903017518 173 173 175
272.429730915035 146.834802574055 2475.17502985874 180 180 182
265.388396486891 147.403890798318 2479.24891156749 175 175 177
256.883430144124 147.840451483858 2481.96197028083 164 164 166
248.363169668714 148.278785444661 2484.68995420466 150 150 152
240.559593451189 148.785099117286 2488.11312201187 158 158 160
233.478574240789 149.358644777272 2492.225752489 158 158 160
224.18255131902 149.735930793394 2494.31619353178 129 129 131
257.081516243176 177.364380117231 2742.38294350491 19 20 14
229.999624956834 176.335816271704 2729.75118170928 30 31 25
232.55206982047 177.594196564559 2741.20068487306 21 22 14
270.453238493598 181.528876458371 2780.91847591688 31 32 24
266.880006507298 182.291458531565 2787.1881952814 37 38 30
286.182677272375 184.76673354831 2811.58174272652 34 35 27
277.940189926691 185.166784393712 2814.03955205403 31 32 24
272.852527744178 185.803042134642 2818.99763719449 26 29 20
268.559977150055 186.497488400567 2824.5744738529 20 23 14
279.402173821738 188.295665676687 2841.88245587103 16 19 10
289.524791639181 190.026021759958 2858.49810495371 16 19 10
284.518190497883 190.651831964433 2863.37723942326 20 23 14
282.72100620919 191.507003770074 2870.70345108267 23 26 17
271.29130188898 191.674245709846 2870.69264792331 20 23 14
264.66740103731 192.18661883671 2874.36039438645 22 25 16
261.268623666072 192.926471023375 2880.4602372066 22 25 16
257.068425042831 193.608758878726 2885.94716400049 21 24 15
249.625648408046 194.065622377496 2889.01936120254 21 24 15
256.006564803435 195.474784502294 2902.31282516404 24 27 18
257.548537560671 196.542779522958 2911.96006229165 24 27 18
258.304565242722 197.551266565419 2920.9793025908 23 26 17
247.614046310367 197.783187212543 2921.64182724716 24 27 18
244.291210931677 198.513051218295 2927.66739695287 26 29 20
245.094603800531 199.515449188705 2936.64050288352 23 26 17
240.973530583305 200.187373065198 2942.05072661309 27 30 21
230.238179937063 200.424657989175 2942.7569769863 28 31 22
223.623087002287 200.935168885625 2946.4162522946 26 29 20
220.326228769388 201.661568115002 2952.41687624495 23 26 17
222.037085345135 202.707931871841 2961.89926849357 22 25 16
207.077337775269 202.684682626347 2959.75369202388 22 25 16
192.909190937172 202.720132549338 2958.23061577379 21 24 15
188.7672269611 203.394268180739 2963.66091959731 21 24 15
192.198511229974 204.540780621297 2974.25425625977 23 26 17
182.183719055001 204.845293195516 2975.65229236156 23 26 17
164.543025340697 204.683888134186 2971.93828861907 23 25 14
150.232300726265 204.736928953979 2970.55419428169 35 35 23
143.517892700456 205.259414634061 2974.31032107574 21 19 7
132.543688220983 205.525985315377 2975.24942841411 17 15 3
102.787278883696 204.671444485881 2963.83087273622 17 17 7
84.8824703299371 204.542865250361 2960.37462513291 20 20 12
64.3511168294113 204.269498863544 2955.29657132979 18 18 10
74.6516964855522 205.818493819809 2970.34539745354 16 17 11
81.581406279922 207.158118003739 2983.10417913448 16 19 12
83.3929680337695 208.191425088676 2992.48849942296 11 16 10
72.2742085283512 208.475858043835 2993.56851200273 8 13 7
59.3970342046113 208.664717434 2993.57462574499 14 19 13
62.1102296717337 209.74300707492 3003.47420918517 17 24 16
115.315364336475 213.655264341836 3045.00251300019 86 96 87
279.814137405804 134.772398109614 2439.86756259773 183 185 184
283.521382461607 136.399231378272 2454.36694070585 183 183 185
280.797049855299 137.386196703124 2462.59434532583 156 156 158
277.366386270318 138.30092867948 2470.11691378877 181 181 183
271.775122302028 139.004388463479 2475.56515051449 172 172 174
265.458049049168 139.638085191144 2480.32752822076 169 169 171
257.681127159509 140.133321117055 2483.7258651725 160 160 162
248.432836742131 140.491601808528 2485.77171611149 152 152 154
239.165189142133 140.852158911873 2487.8361147243 161 161 163
231.346338007496 141.352319501281 2491.27536017302 156 156 158
222.044474161473 141.716970677309 2493.37346876378 123 123 123
214.199089229311 142.220233027089 2496.83860422686 118 118 120
268.826176394823 171.046938876787 2752.90902854649 13 14 8
233.186129155234 169.248693469965 2733.30238470296 19 20 14
248.268851548413 171.534153779916 2754.82957336385 18 19 11
277.167001632348 175.942442310528 2796.33227353355 28 29 21
269.685125974032 176.397462522827 2799.44390692288 29 30 22
274.839478549599 177.838776402739 2812.53370555633 28 29 21
253.895793308513 177.250025159191 2805.07756053364 22 25 16
264.649309168348 179.113878331793 2822.46423488204 17 20 11
271.49972448517 180.663636892701 2836.68760869996 15 18 9
278.409469770481 182.20593241487 2850.85350785796 16 19 10
272.575319992576 182.775209131292 2855.14551882221 18 21 12
280.37432752418 184.366543929156 2869.83802875813 21 24 15
278.587563982001 185.231598740048 2877.15243175833 18 21 12
267.951205676462 185.438750314128 2877.7648349698 20 23 14
261.328346896238 185.946010909788 2881.43264011246 21 24 15
260.367581084593 186.867969927269 2889.33531405659 22 25 16
252.93259111736 187.316207958736 2892.40105382296 23 26 17
250.369494188824 188.11762583271 2899.0788635459 24 27 18
255.160420605898 189.443042867913 2911.12976991247 25 28 19
250.186877965578 190.064530729893 2915.97671564219 23 26 17
244.394695418374 190.627928826085 2920.22825922547 23 26 17
239.421004977716 191.249324754096 2925.07536531091 25 28 19
237.742133291655 192.100276847168 2932.28471447859 22 25 16
237.73053569578 193.063518354429 2940.65599597893 22 25 14
229.469429359595 193.454172547557 2943.13334521836 24 27 16
221.193907391808 193.846616279988 2945.62508274193 23 26 15
219.553557593728 194.692564654926 2952.79691865274 23 26 15
213.763844272514 195.255297652989 2957.04610855932 23 26 15
197.949948482654 195.146555006965 2954.34444046827 21 24 13
187.945802863699 195.43414856804 2955.73406716331 20 23 12
187.987162806674 196.390448576349 2964.05378699523 20 23 12
188.893464106719 197.398971832536 2972.92379801788 22 25 14
188.985058134703 198.348931665139 2981.19457173599 22 25 14
166.291648801847 197.816971511903 2974.05096342803 22 24 13
146.904686396009 197.513131092243 2969.25826355914 30 28 16
139.33399129837 197.977422843891 2972.45638779325 20 18 6
129.200767301481 198.280883374794 2973.9718460945 19 17 5
107.96245615199 197.887590520675 2968.19662744934 16 13 4
84.0881899203203 197.342619787418 2960.8103032965 16 16 8
84.9650718402519 198.3545790931 2969.70902035189 21 21 13
76.4284384436338 198.779099764247 2972.4553044267 19 20 14
76.4798138689629 199.733842317733 2980.76530892773 17 19 14
59.3115499925694 199.633537114183 2977.9903919998 8 13 7
68.0136038520129 201.110674760649 2991.8030418718 14 19 13
56.8591277482229 201.381226828891 2992.92057315077 20 25 21
64.7740277678572 202.796355283948 3006.10679619366 21 28 20
276.943403254164 125.359234978575 2427.10558010881 183 185 184
