ply
format ascii 1.0
comment KinectMotionCapture
element vertex 792
property float x
property float y
property float z
property uchar red
property uchar green
property uchar blue
end_header
334.174245595932 259.95147228241 2519.99998092651 143 145 142
341.290265321732 260.143011808395 2522.0000743866 145 150 146
349.244236946106 260.95312833786 2529.99997138977 153 158 154
357.944428920746 262.278646230698 2542.99998283386 147 152 148
-132.565781474113 282.180607318878 2805.99999427795 195 200 196
-124.469444155693 281.18109703064 2796.0000038147 141 143 140
-116.427190601826 280.18119931221 2786.00001335144 141 143 140
-108.634307980537 279.68367934227 2780.99989891052 139 141 138
-100.904650986195 279.286444187164 2776.99995040894 137 139 136
-93.3980569243431 279.492259025574 2779.00004386902 142 144 141
-85.9419479966164 279.898852109909 2782.99999237061 145 147 144
-78.3792287111282 280.003398656845 2783.99991989136 147 149 146
-70.7853212952614 280.006945133209 2783.99991989136 150 152 149
-63.2365345954895 280.211359262466 2786.00001335144 159 161 158
-56.0160800814629 282.125234603882 2805.0000667572 152 154 151
-10.0878188386559 281.732469797134 2801.00011825562 36 39 32
-2.4242743384093 279.218196868896 2776.00002288818 17 20 13
5.11585269123316 277.407646179199 2757.99989700317 22 25 18
12.598991394043 276.50198340416 2749.00007247925 19 22 15
20.032973960042 275.595933198929 2740.00000953674 17 20 11
27.3575317114592 274.086058139801 2724.99990463257 16 19 10
34.5490723848343 272.173523902893 2706.00008964539 15 16 8
41.9932082295418 272.573977708817 2710.00003814697 11 14 5
49.2767617106438 271.968305110931 2703.9999961853 23 26 17
56.5483383834362 271.462827920914 2698.99988174438 26 29 20
63.9818608760834 271.761685609818 2701.99990272522 23 26 19
71.4579001069069 272.160738706589 2706.00008964539 22 25 18
79.0428966283798 272.861182689667 2713.00005912781 22 25 18
86.3152667880058 272.454887628555 2709.00011062622 7 10 3
93.5654863715172 272.048264741898 2704.99992370605 8 11 4
101.315967738628 273.049294948578 2714.99991416931 15 17 12
108.600035309792 272.742569446564 2711.99989318848 5 7 2
116.166695952415 273.139476776123 2716.00008010864 5 7 2
123.709246516228 273.435473442078 2719.00010108948 0 2 0
131.219446659088 273.630499839783 2720.99995613098 2 5 0
138.485297560692 273.322403430939 2717.99993515015 34 37 30
145.734265446663 273.013979196548 2714.99991416931 77 80 73
153.248339891434 273.208022117615 2717.00000762939 126 129 122
160.772740840912 273.401737213135 2719.00010108948 115 118 111
168.307393789291 273.595035076141 2720.99995613098 101 104 97
175.594016909599 273.385852575302 2719.00010108948 107 110 103
182.936415076256 273.27686548233 2717.99993515015 100 103 96
190.2726739645 273.167610168457 2717.00000762939 89 92 85
197.966516017914 273.560672998428 2720.99995613098 81 84 77
205.681428313255 273.953378200531 2724.99990463257 79 82 75
213.104575872421 273.943662643433 2724.99990463257 73 76 69
220.203220844269 273.531496524811 2720.99995613098 62 65 58
227.446585893631 273.320138454437 2719.00010108948 70 73 66
235.023707151413 273.510485887527 2720.99995613098 43 46 39
242.16540157795 273.19797873497 2717.99993515015 14 17 10
248.647153377533 272.181630134583 2707.99994468689 12 15 8
254.695385694504 270.763039588928 2694.00000572205 10 13 6
263.000845909119 271.756291389465 2703.9999961853 13 16 9
270.259946584702 271.643728017807 2703.00006866455 12 15 8
273.712545633316 267.812639474869 2664.99996185303 14 17 10
271.685987710953 258.957207202911 2576.99990272522 4 6 1
276.64190530777 257.035732269287 2558.00008773804 149 151 148
282.71296620369 256.219387054443 2549.99995231628 138 140 137
289.08035159111 255.704313516617 2545.00007629395 144 146 143
295.303285121918 255.088597536087 2539.00003433228 139 141 138
301.492542028427 254.472613334656 2532.99999237061 136 138 135
307.526469230652 253.756046295166 2526.00002288818 135 137 134
314.143598079681 253.541558980942 2523.9999294281 135 137 134
320.748865604401 253.326892852783 2522.0000743866 138 140 137
327.991634607315 253.614187240601 2525.00009536743 141 143 140
334.984451532364 253.700375556946 2526.00002288818 141 143 140
342.116981744766 253.886759281158 2528.00011634827 141 146 142
350.087553262711 254.675447940826 2536.00001335144 149 154 150
359.367311000824 256.367564201355 2552.99997329712 146 151 147
-132.855504751205 275.126725435257 2812.00003623962 204 206 203
-124.697923660278 274.05646443367 2801.00011825562 142 144 141
-116.767026484013 273.377180099487 2793.99991035461 138 140 137
-108.873851597309 272.697538137436 2786.99994087219 140 142 139
-101.163797080517 272.408872842789 2783.99991989136 142 144 141
-93.5705304145813 272.413432598114 2783.99991989136 132 134 131
-86.0078036785126 272.515535354614 2785.00008583069 125 127 124
-78.3548057079315 272.323668003082 2782.99999237061 136 138 135
-70.7886889576912 272.425025701523 2783.99991989136 125 127 124
-63.2395520806313 272.623866796494 2786.00001335144 133 135 132
-55.9987761080265 274.388074874878 2803.99990081787 112 114 111
-2.42963014170527 272.244811058044 2782.00006484985 22 25 18
5.12722693383694 270.483255386353 2763.99993896484 20 23 16
12.6133449375629 269.308567047119 2752.00009346008 19 22 13
20.055865868926 268.427044153214 2743.00003051758 19 22 13
27.4391602724791 267.447352409363 2733.00004005432 19 22 13
34.7167104482651 266.075879335403 2719.00010108948 17 18 10
41.9177301228046 264.704048633575 2704.99992370605 20 23 14
49.2062121629715 264.21257853508 2700.00004768372 24 27 18
56.4881786704063 263.818711042404 2696.00009918213 25 28 19
63.8665035367012 263.913720846176 2697.00002670288 17 20 11
71.3556632399559 264.399796724319 2701.99990272522 14 17 10
78.6970034241676 264.298439025879 2700.99997520447 13 16 9
86.4468142390251 265.468806028366 2713.00005912781 12 15 8
93.396969139576 264.192551374435 2700.00004768372 12 15 8
100.835621356964 264.383673667908 2701.99990272522 9 12 5
108.284793794155 264.574468135834 2703.9999961853 8 11 4
115.487821400166 264.177888631821 2700.00004768372 9 11 6
123.396568000317 265.34640789032 2711.99989318848 11 14 7
130.888029932976 265.536189079285 2713.99998664856 4 7 0
138.135135173798 265.236407518387 2710.99996566772 0 3 0
145.419016480446 265.034198760986 2709.00011062622 3 6 0
152.973473072052 265.320777893066 2711.99989318848 7 10 3
160.484582185745 265.509217977524 2713.99998664856 2 5 0
167.944088578224 265.599459409714 2714.99991416931 97 100 93
175.343856215477 265.591591596603 2714.99991416931 108 111 104
182.608351111412 265.387713909149 2713.00005912781 110 113 106
189.791232347488 265.085726976395 2710.00003814697 102 105 98
197.46632874012 265.468180179596 2713.99998664856 95 98 91
205.313488841057 266.045898199081 2720.00002861023 83 86 79
212.801530957222 266.134202480316 2720.99995613098 84 87 80
219.646796584129 265.43977856636 2713.99998664856 39 42 35
226.453095674515 264.745116233826 2707.00001716614 14 17 10
233.825102448463 264.734745025635 2707.00001716614 9 12 5
241.285368800163 264.821887016296 2707.99994468689 10 13 6
247.648358345032 263.735294342041 2697.00002670288 12 15 8
254.328668117523 263.039588928223 2690.00005722046 9 12 3
261.55361533165 262.930333614349 2688.99989128113 11 14 5
269.47209239006 263.50525021553 2694.9999332428 9 12 3
273.519337177277 260.364562273026 2663.00010681152 10 13 6
272.436082363129 252.628803253174 2584.00011062622 0 2 0
276.762276887894 250.172704458237 2559.00001525879 147 149 146
282.836318016052 249.378427863121 2551.00011825562 138 140 137
289.093047380447 248.779505491257 2545.00007629395 144 146 143
295.432478189468 248.278126120567 2539.99996185303 139 141 138
301.981776952744 247.972011566162 2536.99994087219 136 138 135
308.148503303528 247.372522950172 2530.99989891052 135 137 134
314.779430627823 247.163787484169 2529.00004386902 136 138 135
321.271300315857 246.857091784477 2526.00002288818 138 140 137
328.13549041748 246.843382716179 2526.00002288818 141 143 140
335.529148578644 247.2203373909 2529.99997138977 141 143 140
342.943400144577 247.596994042397 2533.99991989136 139 144 140
351.758897304535 248.950466513634 2548.00009727478 149 154 150
-133.050575852394 267.84884929657 2815.99998474121 206 208 205
-124.748170375824 266.523063182831 2802.00004577637 156 158 155
-116.856001317501 265.957862138748 2796.0000038147 135 137 134
-109.035141766071 265.487343072891 2790.99988937378 134 136 133
-101.386502385139 265.397042036057 2789.99996185303 140 142 139
-93.7429293990135 265.306383371353 2789.00003433228 133 135 132
-86.1044377088547 265.215367078781 2788.00010681152 123 125 122
-78.4710571169853 265.12399315834 2786.99994087219 122 124 121
-70.8682611584663 265.127420425415 2786.99994087219 128 130 127
-63.3786916732788 265.606164932251 2792.00005531311 139 141 138
-56.0812689363956 267.131000757217 2808.00008773804 117 119 116
-17.4589585512877 262.382715940475 2757.99989700317 4 9 2
-10.034741833806 265.047132968903 2786.00001335144 25 28 21
-2.42013577371836 263.620376586914 2770.99990844727 13 16 9
5.0866543315351 260.861426591873 2742.00010299683 20 23 14
12.5680966302752 260.86100935936 2742.00010299683 19 22 13
20.0714245438576 261.145621538162 2744.99988555908 19 22 13
27.5207608938217 260.764002799988 2740.9999370575 19 22 13
34.9609293043613 260.477185249329 2737.99991607666 17 18 10
42.0901477336884 258.382469415665 2716.00008010864 17 20 11
49.299631267786 257.333904504776 2704.99992370605 22 25 16
56.742250919342 257.616877555847 2707.99994468689 22 25 16
64.3667802214623 258.56539607048 2717.99993515015 19 22 13
72.2569078207016 260.274648666382 2736.00006103516 14 17 8
78.9337679743767 257.702678442001 2709.00011062622 14 17 8
87.6616984605789 261.694222688675 2750.99992752075 10 13 6
93.9201787114143 258.265525102615 2714.99991416931 12 15 8
100.952230393887 257.309794425964 2704.99992370605 11 14 7
108.209691941738 257.019698619843 2701.99990272522 11 14 7
115.108147263527 255.968272686005 2690.99998474121 16 19 12
123.038232326508 257.19940662384 2703.9999961853 14 17 10
130.701139569283 257.764369249344 2710.00003814697 15 18 11
137.886688113213 257.377833127975 2706.00008964539 18 21 14
144.94252204895 256.80074095726 2700.00004768372 19 22 15
152.529180049896 257.174462080002 2703.9999961853 10 13 6
160.196214914322 257.642984390259 2709.00011062622 7 10 3
167.333111166954 257.25519657135 2704.99992370605 8 11 4
174.964308738708 257.627964019775 2709.00011062622 11 14 7
182.010814547539 257.144451141357 2703.9999961853 13 16 9
189.029365777969 256.660640239716 2698.99988174438 11 14 7
196.238309144974 256.461948156357 2697.00002670288 6 9 2
204.643324017525 257.784277200699 2710.99996566772 9 12 5
212.185367941856 257.965207099915 2713.00005912781 7 10 3
218.766331672668 257.004886865616 2703.00006866455 8 11 4
225.877583026886 256.709843873978 2700.00004768372 12 15 8
233.576342463493 257.080078125 2703.9999961853 13 16 9
241.117864847183 257.259845733643 2706.00008964539 10 13 6
248.026549816132 256.773829460144 2700.99997520447 14 17 8
253.772526979446 255.14680147171 2684.00001525879 11 14 5
261.078715324402 255.13568520546 2684.00001525879 10 13 4
267.783969640732 254.553914070129 2677.99997329712 19 22 13
272.812187671661 252.451151609421 2655.99989891052 26 29 22
273.080468177795 246.166348457336 2589.99991416931 8 10 5
277.423143386841 243.778541684151 2565.00005722046 142 144 141
283.070206642151 242.626160383224 2552.99997329712 139 141 138
289.3325984478 242.043852806091 2546.99993133545 141 143 140
295.677721500397 241.556406021118 2542.00005531311 138 140 137
302.35168337822 241.353794932365 2539.99996185303 136 138 135
308.892041444778 241.055965423584 2536.99994087219 135 137 134
315.415024757385 240.757957100868 2533.99991989136 135 137 134
321.793556213379 240.364715456963 2529.99997138977 138 140 137
328.668773174286 240.351319313049 2529.99997138977 141 143 140
336.206167936325 240.812689065933 2535.00008583069 141 143 140
344.175606966019 241.558730602264 2542.99998283386 140 145 141
352.739691734314 242.684453725815 2555.0000667572 145 150 146
-133.62355530262 261.287361383438 2828.00006866455 228 233 236
-124.798290431499 258.983224630356 2802.99997329712 202 208 206
-117.070235311985 258.803814649582 2801.00011825562 143 148 144
-109.196327626705 258.254438638687 2795.00007629395 135 140 136
-101.536430418491 258.166700601578 2793.99991035461 123 128 124
-93.7807708978653 257.801473140717 2789.99996185303 144 149 143
-86.0774368047714 257.528245449066 2786.99994087219 153 158 152
-78.5027742385864 257.624328136444 2788.00010681152 156 161 155
-70.9986165165901 257.997304201126 2792.00005531311 152 157 151
-63.517764210701 258.554726839066 2798.00009727478 115 117 112
-56.1437346041203 259.758710861206 2811.00010871887 120 122 117
-25.1391008496284 256.439238786697 2775.00009536743 230 235 228
-17.7319701761007 258.842885494232 2801.00011825562 3 8 1
-9.99197363853455 256.34840130806 2773.9999294281 25 28 21
-2.41151195950806 255.147337913513 2760.99991798401 27 30 23
5.09430607780814 253.761112689972 2746.00005149841 21 24 15
12.577835470438 253.575891256332 2743.99995803833 20 23 14
20.013839006424 252.928286790848 2736.99998855591 19 22 13
27.6324599981308 254.313379526138 2752.00009346008 18 21 12
34.9752902984619 253.110647201538 2739.00008201599 15 18 9
42.2315374016762 251.815140247345 2724.99990463257 17 20 11
49.502357840538 250.981450080872 2716.00008010864 22 25 18
57.080090045929 251.718312501907 2723.99997711182 20 23 14
64.9617686867714 253.471314907074 2743.00003051758 15 18 11
72.1017122268677 252.267003059387 2730.00001907349 7 10 3
79.665794968605 252.633213996887 2733.99996757507 6 9 2
86.6140648722649 251.151084899902 2717.99993515015 6 9 2
93.4055000543594 249.483808875084 2700.00004768372 6 9 2
101.479314267635 251.235097646713 2719.00010108948 9 12 5
109.295904636383 252.154380083084 2729.00009155273 5 8 1
115.369997918606 249.192714691162 2697.00002670288 16 19 12
122.634209692478 249.002635478973 2694.9999332428 15 18 11
130.369365215302 249.736174941063 2703.00006866455 15 18 11
137.58710026741 249.453082680702 2700.00004768372 13 16 9
144.573196768761 248.800158500671 2693.00007820129 15 18 11
151.802629232407 248.608857393265 2690.99998474121 21 24 17
159.197971224785 248.694404959679 2691.99991226196 19 22 15
166.226997971535 248.225390911102 2687.00003623962 12 15 8
173.357293009758 247.940823435783 2684.00001525879 7 10 3
181.211069226265 248.672112822533 2691.99991226196 5 8 1
188.057139515877 248.017460107803 2684.99994277954 8 11 4
194.864362478256 247.362554073334 2677.99997329712 11 14 7
202.765062451363 248.092904686928 2686.00010871887 7 10 3
210.23927628994 248.268723487854 2687.99996376038 6 9 2
218.371152877808 249.183103442192 2697.99995422363 11 14 7
225.552722811699 248.988837003708 2696.00009918213 14 17 10
233.586460351944 249.717876315117 2703.9999961853 18 21 14
240.237161517143 248.968958854675 2696.00009918213 22 25 18
247.486218810081 248.866230249405 2694.9999332428 12 15 6
254.256188869476 248.301550745964 2688.99989128113 14 17 8
260.506212711334 247.27500975132 2677.99997329712 22 25 16
267.795383930206 247.263878583908 2677.99997329712 38 41 32
271.693825721741 244.205683469772 2644.99998092651 45 48 41
272.670269012451 238.747149705887 2585.99996566772 16 18 13
277.542978525162 236.889287829399 2565.99998474121 143 145 142
283.303827047348 235.862195491791 2555.0000667572 139 141 138
289.57188129425 235.29651761055 2549.00002479553 139 141 138
296.038955450058 234.915256500244 2545.00007629395 137 139 136
302.602261304855 234.626084566116 2542.00005531311 136 138 135
309.270054101944 234.42904651165 2539.99996185303 135 137 134
316.17483496666 234.416350722313 2539.99996185303 135 137 134
322.824239730835 234.218925237656 2538.00010681152 137 139 136
329.461604356766 234.021231532097 2536.00001335144 140 142 139
336.61761879921 234.192490577698 2538.00010681152 140 142 139
344.866216182709 235.101655125618 2548.00009727478 141 146 142
354.134440422058 236.656352877617 2565.00005722046 143 147 146
-124.848268926144 251.436978578568 2803.99990081787 158 164 162
-117.075346410275 251.173198223114 2801.00011825562 153 158 154
-109.240174293518 250.729709863663 2796.0000038147 146 151 147
-101.577244699001 250.644624233246 2795.00007629395 128 133 129
-93.852125108242 250.379830598831 2792.00005531311 134 136 131
-86.1121192574501 250.025004148483 2788.00010681152 143 148 142
-78.5625427961349 250.207960605621 2789.99996185303 149 154 148
-71.0017532110214 250.390559434891 2792.00005531311 146 148 143
-63.520573079586 250.931560993195 2798.00009727478 126 128 123
-56.0663193464279 251.741319894791 2806.99992179871 146 149 142
-17.8023930639029 252.197772264481 2812.00003623962 0 5 0
-10.0248353555799 249.597474932671 2782.99999237061 24 29 22
-2.40725162439048 247.176244854927 2756.00004196167 15 20 13
5.11122960597277 247.086495161057 2755.00011444092 17 22 15
12.6058952882886 246.637642383575 2750 17 22 15
20.0000982731581 245.291650295258 2734.99989509583 14 19 12
27.5131873786449 245.739072561264 2740.00000953674 13 18 11
35.0023731589317 245.827361941338 2740.9999370575 11 16 9
42.3573926091194 245.108187198639 2733.00004005432 10 12 7
49.9602146446705 245.823681354523 2740.9999370575 14 16 11
57.5436316430569 246.269762516022 2746.00005149841 14 16 11
65.0356858968735 246.267095208168 2746.00005149841 13 15 10
72.1312984824181 244.918867945671 2730.99994659424 9 11 6
79.2030617594719 243.749737739563 2717.99993515015 9 11 6
86.0442444682121 242.131948471069 2700.00004768372 7 9 4
93.3404192328453 241.948679089546 2697.99995422363 8 10 5
100.886575877666 242.392867803574 2703.00006866455 9 11 6
109.901458024979 246.064946055412 2743.99995803833 9 11 6
115.246705710888 241.576448082924 2694.00000572205 7 9 4
122.73059040308 241.840347647667 2697.00002670288 8 10 5
130.278587341309 242.193564772606 2700.99997520447 15 17 12
137.542128562927 242.008462548256 2698.99988174438 13 15 10
144.364729523659 241.105780005455 2688.99989128113 22 24 19
151.245072484016 240.382149815559 2680.99999427795 23 25 20
158.554345369339 240.375533699989 2680.99999427795 19 21 16
166.357904672623 241.085842251778 2688.99989128113 11 13 8
173.752337694168 241.168275475502 2690.00005722046 13 15 10
179.737865924835 239.367723464966 2670.00007629395 16 18 13
187.714993953705 240.256428718567 2680.0000667572 14 16 11
195.600390434265 240.965515375137 2687.99996376038 9 11 6
203.302159905434 241.405338048935 2693.00007820129 9 12 5
209.46604013443 240.052044391632 2677.99997329712 11 14 7
217.004418373108 240.312039852142 2680.99999427795 9 12 5
225.562289357185 241.647288203239 2696.00009918213 8 11 4
233.077973127365 241.816997528076 2697.99995422363 15 18 11
239.712581038475 241.090148687363 2690.00005722046 19 22 15
246.761903166771 240.811228752136 2687.00003623962 9 12 5
253.510326147079 240.263193845749 2680.99999427795 12 15 8
262.268096208572 241.596832871437 2696.00009918213 13 16 9
268.606513738632 240.68982899189 2686.00010871887 17 20 13
271.602332592011 236.915320158005 2644.00005340576 29 32 25
272.576004266739 231.617674231529 2585.00003814697 23 23 21
277.662515640259 229.993775486946 2566.99991226196 143 143 141
283.648043870926 229.176104068756 2558.00008773804 140 140 138
289.924442768097 228.627040982246 2552.00004577637 139 139 137
296.283572912216 228.1673848629 2546.99993133545 141 141 139
302.852541208267 227.886721491814 2543.99991035461 135 135 133
309.525966644287 227.695435285568 2542.00005531311 136 136 134
316.311955451965 227.593496441841 2540.99988937378 136 136 134
323.218643665314 227.580934762955 2540.99988937378 135 135 133
330.254167318344 227.657720446587 2542.00005531311 136 136 134
337.426692247391 227.823823690414 2543.99991035461 137 139 136
345.8271920681 228.795677423477 2555.0000667572 132 136 135
354.976683855057 230.214923620224 2571.00009918213 141 147 147
-125.209808349609 244.492962956429 2812.00003623962 144 146 145
-117.289334535599 243.976354598999 2805.99999427795 148 150 147
-109.322987496853 243.285536766052 2798.00009727478 143 145 142
-101.472541689873 242.768257856369 2792.00005531311 145 147 144
-93.7216654419899 242.424577474594 2788.00010681152 137 137 135
-86.1466899514198 242.515310645103 2789.00003433228 132 134 131
-78.6222293972969 242.779642343521 2792.00005531311 146 148 145
-71.1065232753754 243.130654096603 2796.0000038147 114 114 112
-63.5232999920845 243.307411670685 2798.00009727478 153 153 151
-56.0687221586704 244.092538952827 2806.99992179871 159 160 155
-48.961479216814 246.87747657299 2838.99998664856 106 107 102
-17.7904963493347 244.361281394958 2809.99994277954 10 15 8
-9.98564250767231 241.057351231575 2772.0000743866 19 24 17
-2.4195839650929 240.8836632967 2769.99998092651 13 18 11
5.09475124999881 238.796532154083 2746.00005149841 16 21 14
12.5926854088902 238.883122801781 2746.99997901917 15 20 13
19.9717078357935 237.491056323051 2730.99994659424 13 18 11
27.323579415679 236.62044107914 2720.99995613098 12 17 10
34.6846170723438 236.184328794479 2716.00008010864 11 16 9
42.2662198543549 237.139239907265 2726.99999809265 12 14 9
50.0717274844646 238.876461982727 2746.99997901917 12 14 9
57.7766224741936 239.743769168854 2756.99996948242 13 15 10
64.9911016225815 238.610714673996 2743.99995803833 14 16 11
71.8702599406242 236.607819795609 2720.99995613098 12 14 9
79.0024623274803 235.735073685646 2710.99996566772 11 13 8
86.3347575068474 235.557705163956 2709.00011062622 9 11 6
93.7595814466476 235.640853643417 2710.00003814697 10 12 7
100.517615675926 234.158560633659 2693.00007820129 9 11 6
108.023650944233 234.501972794533 2697.00002670288 7 9 4
115.294374525547 234.323382377625 2694.9999332428 5 7 2
130.477055907249 235.182538628578 2704.99992370605 14 16 11
137.64987885952 234.829172492027 2700.99997520447 13 15 10
144.746676087379 234.388589859009 2696.00009918213 14 16 11
151.364281773567 233.252227306366 2683.00008773804 19 21 16
159.03414785862 233.767360448837 2688.99989128113 17 19 14
166.674256324768 234.195306897163 2694.00000572205 11 13 8
197.573333978653 235.990703105927 2714.99991416931 13 15 10
204.292044043541 235.200226306915 2706.00008964539 14 17 10
210.178717970848 233.540326356888 2687.00003623962 10 13 6
216.851443052292 232.836291193962 2678.99990081787 9 12 5
225.487872958183 234.217867255211 2694.9999332428 10 13 6
233.17389190197 234.556213021278 2698.99988174438 12 15 8
238.920331001282 232.982441782951 2680.99999427795 12 15 8
245.486214756966 232.277482748032 2673.00009727478 12 15 8
252.575010061264 232.093706727028 2671.0000038147 15 18 11
260.527580976486 232.691690325737 2677.99997329712 14 17 10
268.617331981659 233.376249670982 2686.00010871887 17 20 13
270.894169807434 229.108214378357 2637.00008392334 25 28 21
272.586941719055 224.579721689224 2585.00003814697 18 18 16
277.998089790344 223.26572239399 2569.9999332428 137 137 135
283.992022275925 222.472861409187 2561.00010871887 142 142 140
290.276765823364 221.940442919731 2555.0000667572 137 137 135
296.64421081543 221.494689583778 2549.99995231628 139 139 137
303.578704595566 221.483036875725 2549.99995231628 136 136 134
310.146898031235 221.210643649101 2546.99993133545 136 136 134
316.946655511856 221.111759543419 2546.0000038147 135 135 133
323.740005493164 221.012696623802 2545.00007629395 134 134 132
330.916464328766 221.173897385597 2546.99993133545 134 134 132
338.235467672348 221.421733498573 2549.99995231628 136 138 135
346.65247797966 222.363963723183 2561.00010871887 146 150 149
356.094688177109 223.913639783859 2578.9999961853 168 172 171
-125.749319791794 237.841263413429 2823.99988174438 86 86 84
-117.503210902214 236.75137758255 2811.00010871887 156 155 153
-109.444737434387 235.91373860836 2801.00011825562 148 147 145
-101.549446582794 235.32846570015 2793.99991035461 163 162 160
-93.8600450754166 235.164016485214 2792.00005531311 167 165 166
-86.2738266587257 235.251933336258 2792.99998283386 168 166 167
-78.7099897861481 235.423788428307 2795.00007629395 130 128 129
-71.1094886064529 235.511094331741 2796.0000038147 129 129 129
-63.525952398777 235.682338476181 2798.00009727478 93 93 93
-56.0910440981388 236.527115106583 2808.00008773804 94 94 94
-17.5759736448526 233.83916914463 2776.00002288818 14 19 12
-9.95003711432219 232.660442590714 2762.00008392334 15 20 13
-2.37950286827981 229.459702968597 2723.99997711182 14 19 12
5.08939847350121 231.060162186623 2743.00003051758 13 18 11
12.4923577532172 229.543522000313 2724.99990463257 12 17 10
19.7897125035524 227.942377328873 2706.00008964539 12 17 10
27.0535834133625 226.930573582649 2694.00000572205 14 19 12
34.456193447113 227.266266942024 2697.99995422363 16 21 14
41.4619967341423 225.327283143997 2674.99995231628 18 21 14
49.3082217872143 227.852433919907 2704.99992370605 13 16 9
57.5065910816193 231.135353446007 2743.99995803833 14 17 10
65.4675289988518 232.817456126213 2763.99993896484 16 19 12
72.0581561326981 229.782313108444 2727.9999256134 14 17 10
79.5011818408966 229.779183864594 2727.9999256134 10 13 6
86.9120061397552 229.691550135612 2726.99999809265 10 13 6
93.1752994656563 226.824134588242 2693.00007820129 10 13 6
100.111186504364 225.893661379814 2681.99992179871 9 12 5
107.307128608227 225.636720657349 2678.99990081787 9 12 5
114.486292004585 225.379571318626 2676.00011825562 8 11 4
123.286992311478 228.15403342247 2709.00011062622 8 11 4
129.951804876328 226.885572075844 2694.00000572205 15 18 11
137.400716543198 227.048575878143 2696.00009918213 14 17 10
144.484147429466 226.621776819229 2690.99998474121 12 15 8
152.329608798027 227.373704314232 2700.00004768372 12 15 8
160.755857825279 228.883177042007 2717.99993515015 11 14 7
170.20770907402 231.655418872833 2750.99992752075 4 7 0
173.249900341034 225.838243961334 2681.99992179871 5 8 1
182.108983397484 227.767795324326 2704.99992370605 10 13 6
209.248483181 225.210711359978 2674.99995231628 10 13 6
217.102989554405 225.791573524475 2681.99992179871 11 14 7
225.329548120499 226.70890390873 2693.00007820129 14 17 10
231.541693210602 225.60553252697 2680.0000667572 19 22 15
238.484248518944 225.259602069855 2676.00011825562 21 24 17
245.404094457626 224.913403391838 2671.99993133545 17 20 13
252.963244915009 225.156217813492 2674.99995231628 18 21 14
259.759545326233 224.725425243378 2670.00007629395 12 15 8
266.627609729767 224.378541111946 2665.99988937378 18 21 14
270.699262619019 221.75920009613 2634.99999046326 20 23 16
273.019373416901 217.877551913261 2588.99998664856 6 6 4
278.441548347473 216.604664921761 2573.99988174438 132 132 130
284.446537494659 215.836599469185 2565.00005722046 142 142 140
290.401548147202 215.068399906158 2555.99999427795 140 140 138
297.004580497742 214.804857969284 2552.99997329712 141 141 139
304.066509008408 214.8776948452 2553.99990081787 136 136 134
310.889303684235 214.782029390335 2552.99997329712 136 136 134
317.456632852554 214.517921209335 2549.99995231628 134 134 132
323.752164840698 214.085415005684 2545.00007629395 133 133 131
330.928862094879 214.241534471512 2546.99993133545 134 134 132
338.645994663239 214.733883738518 2552.99997329712 136 136 134
347.612887620926 215.982973575592 2568.00007820129 149 151 150
360.250204801559 219.418302178383 2608.99996757507 173 177 176
-117.800541222095 229.661166667938 2818.00007820129 112 111 109
-109.722673892975 228.850692510605 2808.00008773804 132 131 129
-101.698935031891 228.039890527725 2798.00009727478 154 153 151
-93.9646884799004 227.799296379089 2795.00007629395 150 148 149
-86.3699913024902 227.884382009506 2796.0000038147 138 136 137
-78.7976607680321 228.050664067268 2798.00009727478 110 110 110
-71.1378008127213 227.972149848938 2796.99993133545 113 113 113
-63.5739341378212 228.219360113144 2799.99995231628 106 106 106
-56.0933127999306 228.873789310455 2808.00008773804 132 132 132
-9.78111661970615 221.301257610321 2714.99991416931 21 26 19
-2.36125476658344 220.323383808136 2703.00006866455 13 18 11
5.05620613694191 222.11654484272 2724.99990463257 12 17 10
19.629618152976 218.773618340492 2684.00001525879 10 15 8
27.0245540887117 219.343245029449 2690.99998474121 12 17 10
34.2915616929531 218.852967023849 2684.99994277954 15 20 13
41.494682431221 218.199402093887 2677.00004577637 19 22 15
48.945639282465 218.849658966064 2684.99994277954 15 18 11
56.1885647475719 218.521520495415 2680.99999427795 16 19 12
64.641147851944 222.43145108223 2729.00009155273 17 20 13
71.6120153665543 220.961630344391 2710.99996566772 13 16 9
79.533539712429 222.425684332848 2729.00009155273 10 13 6
87.2023776173592 222.992911934853 2736.00006103516 10 13 6
93.5596525669098 220.381215214729 2703.9999961853 10 13 6
99.4433164596558 217.117354273796 2664.00003433228 10 13 6
106.550380587578 216.787278652191 2660.00008583069 11 14 7
114.961512386799 218.983337283134 2687.00003623962 11 14 7
122.745789587498 219.79358792305 2697.00002670288 10 13 6
129.860550165176 219.381153583527 2691.99991226196 15 18 11
136.437848210335 218.153491616249 2677.00004577637 16 19 12
144.650995731354 219.533309340477 2694.00000572205 15 18 11
153.238415718079 221.32021188736 2716.00008010864 14 17 10
162.654981017113 224.084556102753 2750 14 17 10
171.761304140091 226.196601986885 2776.00002288818 13 16 9
182.048857212067 220.316201448441 2703.9999961853 10 13 6
188.508406281471 219.249814748764 2690.99998474121 10 13 6
192.058056592941 215.005815029144 2638.99993896484 9 12 5
197.588607668877 213.205918669701 2617.00010299683 8 11 4
203.624323010445 212.057635188103 2602.9999256134 13 16 9
218.244805932045 219.625800848007 2696.00009918213 14 17 10
225.254625082016 219.29144859314 2691.99991226196 14 17 10
231.464266777039 218.223750591278 2678.99990081787 18 21 14
238.3151948452 217.80751645565 2674.00002479553 21 24 17
245.78095972538 217.961266636848 2676.00011825562 18 21 14
252.783834934235 217.707470059395 2673.00009727478 18 21 14
259.672164916992 217.37203001976 2668.99991035461 10 13 6
267.137855291367 217.524990439415 2671.0000038147 11 14 7
269.27125453949 213.443100452423 2621.00005149841 6 9 2
273.346066474915 211.071372032166 2592.00000762939 37 37 35
278.668403625488 209.758251905441 2575.99997520447 138 138 136
284.78991985321 209.096416831017 2568.00007820129 142 142 140
290.980458259583 208.515852689743 2561.00010871887 144 144 142
297.713667154312 208.342224359512 2559.00001525879 139 139 137
304.434955120087 208.168387413025 2556.99992179871 137 137 135
311.509698629379 208.23860168457 2558.00008773804 137 137 135
318.339735269547 208.145767450333 2556.99992179871 134 134 132
325.03616809845 207.971394062042 2555.0000667572 133 133 131
331.850379705429 207.878172397614 2553.99990081787 133 133 131
339.321494102478 208.191782236099 2558.00008773804 138 138 136
348.70833158493 209.644496440887 2575.99997520447 141 143 140
-118.181362748146 222.689464688301 2826.99990272522 72 74 71
-110.078640282154 221.906155347824 2816.99991226196 147 149 146
-101.993702352047 221.043720841408 2805.99999427795 149 149 147
-94.237320125103 220.811158418655 2802.99997329712 140 140 138
-86.5587294101715 220.735877752304 2802.00004577637 131 133 132
-78.8852423429489 220.660299062729 2801.00011825562 131 133 132
-71.1914598941803 220.505610108376 2799.00002479553 115 117 116
-63.5991394519806 220.665797591209 2801.00011825562 156 157 159
-56.1354793608189 221.377149224281 2809.99994277954 83 85 84
-9.91120282560587 216.736555099487 2750.99992752075 19 22 15
-2.39105033688247 215.633794665337 2736.99998855591 24 27 20
5.15475077554584 218.863934278488 2778.00011634827 20 23 16
12.6629928126931 217.603027820587 2762.00008392334 16 19 12
20.0033970177174 215.47520160675 2734.99989509583 12 15 8
26.9954912364483 211.771443486214 2687.99996376038 13 16 9
34.4717167317867 212.636843323708 2698.99988174438 15 18 11
41.7443364858627 212.162703275681 2693.00007820129 16 19 12
49.1116382181644 212.23971247673 2694.00000572205 18 21 14
56.5051585435867 212.395235896111 2696.00009918213 19 22 15
63.2698014378548 210.42338013649 2671.0000038147 18 21 14
70.9015876054764 211.444929242134 2684.00001525879 15 18 11
78.8954719901085 213.253974914551 2707.00001716614 12 15 8
86.9508013129234 214.905098080635 2727.9999256134 12 15 8
93.8055291771889 213.562428951263 2710.99996566772 12 15 8
100.305788218975 211.668059229851 2687.00003623962 12 15 8
106.514483690262 209.458410739899 2658.99991989136 12 15 8
113.939128816128 209.769278764725 2663.00010681152 13 16 9
122.022353112698 211.1826390028 2680.99999427795 14 17 10
136.035397648811 210.22754907608 2668.99991035461 15 18 11
143.528997898102 210.537299513817 2673.00009727478 16 19 12
150.366768240929 209.901586174965 2664.99996185303 14 17 10
160.827621817589 214.148789644241 2719.00010108948 12 15 8
183.941036462784 215.153053402901 2732.00011253357 6 9 2
185.57333946228 208.609715104103 2648.9999294281 8 11 4
191.701501607895 207.421407103539 2634.0000629425 11 14 7
198.275670409203 206.7841142416 2625.99992752075 11 14 7
206.761211156845 208.115175366402 2642.99988746643 14 17 10
217.443510890007 211.493134498596 2686.00010871887 14 17 10
226.267263293266 212.902158498764 2703.9999961853 14 17 10
231.386542320251 210.846588015556 2677.99997329712 14 17 10
239.126235246658 211.231559514999 2683.00008773804 15 18 11
244.871601462364 209.884271025658 2665.99988937378 15 18 11
252.03663110733 209.79642868042 2664.99996185303 16 19 12
259.779095649719 210.180699825287 2670.00007629395 11 14 7
266.747683286667 209.934964776039 2667.00005531311 15 18 11
269.89758014679 206.776663661003 2627.00009346008 10 13 6
273.250609636307 203.933268785477 2591.00008010864 82 82 80
279.003143310547 202.978864312172 2578.9999961853 137 137 135
285.243898630142 202.417820692062 2572.00002670288 139 139 137
291.786402463913 202.092722058296 2568.00007820129 142 142 140
298.422485589981 201.846122741699 2565.00005722046 133 133 131
304.922193288803 201.520696282387 2561.00010871887 137 137 135
311.764359474182 201.431110501289 2559.99994277954 137 137 135
318.849086761475 201.498731970787 2561.00010871887 134 134 132
325.938165187836 201.566115021706 2562.00003623962 133 133 131
332.90159702301 201.554670929909 2562.00003623962 134 134 132
340.394616127014 201.857700943947 2565.99998474121 139 139 137
349.532723426819 203.104466199875 2582.00001716614 139 140 135
-118.854731321335 216.200232505798 2842.99993515015 81 86 80
-110.395438969135 214.835643768311 2825.00004768372 155 160 154
-102.252013981342 213.927000761032 2812.99996376038 146 148 143
-94.3417474627495 213.398307561874 2805.99999427795 146 148 143
-86.592897772789 213.173538446426 2802.99997329712 144 149 145
-78.8600668311119 212.948456406593 2799.99995231628 110 112 109
-71.1941719055176 212.875232100487 2799.00002479553 165 167 164
-63.6242628097534 213.105916976929 2802.00004577637 114 116 115
-56.1376139521599 213.716596364975 2809.99994277954 105 107 104
-25.9789675474167 218.058034777641 2867.00010299683 24 27 20
-17.8186744451523 214.027777314186 2813.99989128113 15 18 11
-9.96562466025352 210.377484560013 2766.00003242493 19 22 15
-2.42259260267019 210.910141468048 2773.00000190735 19 22 15
5.16237039119005 211.594626307487 2782.00006484985 22 25 18
12.6038724556565 209.08434689045 2749.00007247925 21 24 17
19.8725089430809 206.649884581566 2717.00000762939 18 21 14
27.3781698197126 207.333520054817 2726.0000705719 16 19 12
34.421943128109 204.97453212738 2694.9999332428 13 16 9
41.7149215936661 204.668909311295 2690.99998474121 13 16 9
49.222894012928 205.351710319519 2700.00004768372 16 19 12
56.6540285944939 205.57789504528 2703.00006866455 18 21 14
63.8170540332794 204.89114522934 2694.00000572205 17 20 13
71.2212920188904 205.040723085403 2696.00009918213 16 19 12
78.8401737809181 205.722391605377 2704.99992370605 14 17 10
86.9222283363342 207.392454147339 2726.99999809265 12 15 8
94.0167009830475 206.628561019897 2717.00000762939 11 14 7
100.72023421526 205.17997443676 2697.99995422363 12 15 8
106.959171593189 203.046783804893 2670.00007629395 14 17 10
113.258831202984 201.293602585793 2647.0000743866 16 19 12
120.433896780014 201.213210821152 2645.99990844727 15 16 10
129.00210916996 203.337833285332 2674.00002479553 13 14 8
136.805057525635 204.09332215786 2684.00001525879 13 14 8
142.567813396454 201.883018016815 2654.99997138977 7 8 2
148.171827197075 199.672564864159 2625.99992752075 6 7 1
155.805706977844 200.275257229805 2634.0000629425 8 9 3
166.452780365944 204.527243971825 2690.00005722046 8 9 3
174.949586391449 205.889523029327 2707.99994468689 10 11 5
185.159847140312 200.934588909149 2642.99988746643 12 13 7
194.8381960392 203.512504696846 2677.00004577637 11 12 6
200.623705983162 201.984912157059 2657.00006484985 9 12 5
210.445776581764 204.486101865768 2690.00005722046 11 14 7
218.180075287819 204.858437180519 2694.9999332428 11 14 7
225.271314382553 204.62241768837 2691.99991226196 11 14 7
233.382299542427 205.298289656639 2700.99997520447 10 13 6
238.77839744091 203.617691993713 2678.99990081787 11 14 7
243.410840630531 201.4050334692 2650.00009536743 9 12 5
251.099944114685 201.7762362957 2654.99997138977 10 13 6
259.691119194031 202.831164002419 2668.99991035461 14 17 10
268.057495355606 203.657776117325 2680.0000667572 12 15 8
269.085228443146 199.012950062752 2618.99995803833 8 11 4
273.365795612335 196.951851248741 2592.00000762939 146 146 144
279.445767402649 196.258351206779 2582.99994468689 138 138 136
285.808444023132 195.792660117149 2576.99990272522 141 141 139
292.478382587433 195.554733276367 2573.99988174438 139 139 137
298.898309469223 195.164710283279 2569.00000572205 140 140 138
305.289953947067 194.774493575096 2563.99989128113 140 140 138
312.14052438736 194.687992334366 2562.99996376038 137 137 135
319.358110427856 194.829180836678 2565.00005722046 135 135 133
326.839953660965 195.122063159943 2569.00000572205 135 135 133
334.212392568588 195.338770747185 2572.00002670288 135 135 133
342.130750417709 195.859059691429 2578.9999961853 142 142 140
351.16907954216 196.986645460129 2594.00010108948 149 148 144
-119.611620903015 209.769502282143 2861.00006103516 83 90 82
-110.751196742058 207.793995738029 2834.00011062622 156 161 154
-102.546572685242 206.844627857208 2821.00009918213 144 149 142
-94.54695135355 206.18824660778 2812.00003623962 136 139 132
-86.6887643933296 205.751582980156 2805.99999427795 142 145 138
-78.8348093628883 205.241292715073 2799.00002479553 180 181 175
-71.1967870593071 205.24400472641 2799.00002479553 159 160 152
-63.603900372982 205.393075942993 2801.00011825562 147 147 139
-56.1596676707268 206.128567457199 2811.00010871887 109 109 101
-17.5977014005184 203.78865301609 2779.00004386902 19 22 15
-10.0704804062843 204.962432384491 2795.00007629395 22 25 18
-2.40433518774807 201.809421181679 2752.00009346008 21 24 17
5.05307503044605 199.682742357254 2723.00004959106 17 20 13
12.7143785357475 203.348979353905 2773.00000190735 16 19 12
20.2755369246006 203.275084495544 2772.0000743866 15 18 11
27.3992698639631 200.047627091408 2727.9999256134 17 20 13
34.538172185421 198.286563158035 2703.9999961853 18 21 14
41.3288995623589 195.49860060215 2665.99988937378 13 16 9
49.0423887968063 197.256878018379 2690.00005722046 14 17 10
57.0753253996372 199.67482984066 2723.00004959106 15 18 11
65.0275573134422 201.285868883133 2744.99988555908 15 18 11
72.3070576786995 200.696766376495 2736.99998855591 17 20 13
77.6771828532219 195.414513349533 2664.99996185303 18 21 14
85.7141315937042 197.171375155449 2688.99989128113 16 19 12
94.3315848708153 199.88115131855 2726.0000705719 13 16 9
99.8279377818108 196.064844727516 2674.00002479553 13 16 9
107.323624193668 196.427702903748 2678.99990081787 13 16 9
115.145690739155 197.303578257561 2690.99998474121 13 16 9
119.846574962139 193.046852946281 2632.99989700317 13 14 8
128.13837826252 194.728717207909 2655.99989891052 13 14 8
137.064889073372 197.143390774727 2688.99989128113 13 14 8
142.089679837227 193.985909223557 2645.99990844727 8 9 3
148.459330201149 192.881077528 2631.00004196167 8 9 3
157.231017947197 194.854989647865 2657.99999237061 10 11 5
168.562710285187 199.687510728836 2723.99997711182 11 12 6
174.955874681473 198.50854575634 2707.99994468689 12 13 7
186.147332191467 194.757416844368 2657.00006484985 13 14 8
195.936903357506 197.316125035286 2691.99991226196 13 14 8
206.143096089363 200.094372034073 2730.00001907349 8 11 4
210.374996066093 197.082042694092 2688.99989128113 11 14 7
217.621073126793 197.001293301582 2687.99996376038 12 15 8
224.693492054939 196.773737668991 2684.99994277954 12 15 8
231.575936079025 196.39940559864 2680.0000667572 14 17 10
239.499852061272 196.904256939888 2687.00003623962 15 18 11
244.429752230644 194.990679621696 2661.00001335144 14 17 10
250.635832548141 194.176152348518 2650.00009536743 12 15 8
259.992033243179 195.779412984848 2671.99993133545 17 20 13
267.166554927826 195.697143673897 2671.0000038147 15 18 11
269.197255373001 191.951468586922 2619.99988555908 4 7 0
273.902505636215 190.257266163826 2596.99988365173 145 145 143
279.996275901794 189.588591456413 2588.00005912781 138 138 136
286.150932312012 188.993036746979 2579.99992370605 141 141 139
292.715579271317 188.690379261971 2575.99997520447 139 139 137
299.141138792038 188.31430375576 2571.00009918213 140 140 138
306.014657020569 188.231006264687 2569.9999332428 139 139 137
312.881737947464 188.147559762001 2569.00000572205 137 137 135
319.991290569305 188.210383057594 2569.9999332428 135 135 133
327.10525393486 188.273042440414 2571.00009918213 135 135 133
334.74326133728 188.628405332565 2575.99997520447 135 135 133
343.468695878983 189.56932425499 2588.99998664856 142 143 138
355.242043733597 192.120715975761 2624.00007247925 148 147 143
-120.410203933716 203.310415148735 2880.00011444092 96 101 94
-110.950499773026 200.420066714287 2838.99998664856 164 167 158
-102.804660797119 199.647232890129 2828.00006866455 153 156 147
-94.7520509362221 198.944702744484 2818.00007820129 145 146 138
-86.877204477787 198.524251580238 2812.00003623962 147 147 137
-78.9784342050552 197.962358593941 2803.99990081787 149 146 137
-71.2756291031837 197.823777794838 2802.00004577637 134 132 120
-63.6742860078812 197.967335581779 2803.99990081787 158 154 143
-56.2415830790997 198.746085166931 2815.00005722046 125 118 108
-17.64265447855 196.704998612404 2786.00001335144 23 26 19
-9.90869756788015 194.16369497776 2750 20 23 16
-2.37820949405432 192.186966538429 2721.99988365173 14 17 10
5.02912979573011 191.339656710625 2710.00003814697 14 17 10
12.5726917758584 193.598747253418 2742.00010299683 13 16 9
20.1299656182528 194.304198026657 2752.00009346008 13 16 9
27.2395387291908 191.479176282883 2711.99989318848 14 17 10
34.0156927704811 188.018515706062 2663.00010681152 16 19 12
41.5784232318401 189.358651638031 2681.99992179871 21 24 15
49.335852265358 191.051542758942 2706.00008964539 16 19 10
57.0773594081402 192.249938845634 2723.00004959106 14 17 8
64.8166611790657 193.165630102158 2736.00006103516 14 17 8
70.9094032645226 189.491987228394 2684.00001525879 16 19 10
77.8839811682701 188.64218890667 2671.99993133545 17 20 11
84.7289934754372 187.650978565216 2657.99999237061 16 19 10
92.085562646389 187.859684228897 2661.00001335144 15 18 9
99.9807938933373 189.056485891342 2677.99997329712 16 19 10
107.848234474659 190.041244029999 2691.99991226196 16 19 10
116.176724433899 191.661015152931 2714.99991416931 15 18 9
124.129556119442 192.503958940506 2726.99999809265 13 14 6
128.335878252983 187.769994139671 2660.00008583069 13 14 6
137.426525354385 190.306648612022 2696.00009918213 14 15 7
143.920511007309 189.172372221947 2680.0000667572 10 11 3
147.166639566422 184.085205197334 2608.00004005432 10 11 3
155.580163002014 185.632854700089 2630.00011444092 12 13 5
167.64035820961 191.20329618454 2709.00011062622 12 13 5
182.008102536201 190.767869353294 2703.00006866455 11 12 4
185.593262314796 186.95056438446 2648.9999294281 11 12 4
191.722020506859 185.885578393936 2634.0000629425 10 11 3
203.129664063454 189.830854535103 2690.00005722046 12 15 8
210.46045422554 189.823865890503 2690.00005722046 15 18 11
217.061787843704 189.181566238403 2680.99999427795 15 18 11
223.864272236824 188.75078856945 2674.99995231628 13 16 9
230.114817619324 187.896504998207 2663.00010681152 14 17 10
239.597097039223 189.652562141418 2687.99996376038 14 17 10
245.999604463577 188.938975334167 2677.99997329712 17 20 13
250.833421945572 187.096431851387 2651.99995040894 14 17 10
258.151948451996 187.158569693565 2653.00011634827 20 23 16
265.675038099289 187.36158311367 2655.99989891052 20 23 16
269.000738859177 184.672251343727 2618.00003051758 34 37 30
274.438977241516 183.534771203995 2601.99999809265 145 145 143
280.438303947449 182.820409536362 2592.00000762939 138 138 136
286.604046821594 182.2469830513 2584.00011062622 140 140 138
292.952448129654 181.814447045326 2578.00006866455 137 137 135
299.26723241806 181.381791830063 2572.00002670288 138 138 136
306.143701076508 181.301593780518 2571.00009918213 135 135 133
313.135474920273 181.291729211807 2571.00009918213 134 134 132
320.499658584595 181.493192911148 2573.99988174438 136 136 134
327.624678611755 181.553468108177 2575.00004768372 135 135 133
335.403710603714 181.966081261635 2581.00008964539 134 134 132
344.275593757629 182.942464947701 2595.00002861023 142 143 138
-111.3450974226 193.357422947884 2848.99997711182 118 118 108
-102.953597903252 192.207247018814 2832.00001716614 113 110 101
-94.8561653494835 191.464006900787 2821.00009918213 120 113 103
-86.9419649243355 190.991908311844 2813.99989128113 118 110 99
-79.0374726057053 190.451726317406 2805.99999427795 113 101 87
-71.303516626358 190.250650048256 2802.99997329712 166 158 145
-63.6764690279961 190.320804715157 2803.99990081787 127 115 103
-56.2035515904427 190.93368947506 2812.99996376038 89 77 65
-25.419881567359 190.396189689636 2805.0000667572 12 13 7
-17.1872973442078 184.220045804977 2713.99998664856 18 19 13
-9.98831167817116 188.15740942955 2772.0000743866 18 19 13
-2.38702911883593 185.442507266998 2732.00011253357 15 16 10
5.06641948595643 185.306698083878 2730.00001907349 15 16 10
12.5043448060751 185.10277569294 2726.99999809265 16 17 11
19.9477858841419 185.102224349976 2726.99999809265 15 16 10
27.3107886314392 184.558421373367 2719.00010108948 14 15 9
34.4128534197807 182.86044895649 2694.00000572205 12 13 7
41.8589115142822 183.266416192055 2700.00004768372 17 20 11
49.7933626174927 185.369029641151 2730.99994659424 15 18 9
57.6452910900116 186.65686249733 2750 14 17 8
64.2266049981117 184.007689356804 2710.99996566772 14 17 8
71.9158053398132 184.752002358437 2721.99988365173 15 18 9
78.8485631346703 183.595612645149 2704.99992370605 16 19 10
85.3375792503357 181.692451238632 2677.00004577637 15 18 9
92.0541062951088 180.535674095154 2660.00008583069 16 19 10
99.4988605380058 180.871814489365 2664.99996185303 17 20 11
107.010558247566 181.275546550751 2671.0000038147 17 20 11
114.854119718075 182.15411901474 2684.00001525879 15 18 9
122.586086392403 182.760968804359 2693.00007820129 16 17 9
131.862357258797 185.471296310425 2733.00004005432 16 17 9
138.654604554176 184.584587812424 2720.00002861023 16 17 9
143.871665000916 181.797593832016 2678.99990081787 10 11 3
149.541705846786 179.82479929924 2650.00009536743 10 11 3
158.484131097794 181.787565350533 2678.99990081787 15 16 8
164.613634347916 180.492997169495 2660.00008583069 15 16 8
171.99569940567 180.623158812523 2661.99994087219 14 15 7
179.522678256035 180.888786911964 2665.99988937378 13 14 6
185.459315776825 179.593667387962 2647.0000743866 13 14 6
191.364422440529 178.366273641586 2628.99994850159 13 14 6
201.55057311058 181.073650717735 2668.99991035461 12 15 8
217.554733157158 182.281166315079 2687.00003623962 15 18 11
229.9495190382 180.502995848656 2661.00001335144 14 17 10
235.771968960762 179.410219192505 2644.99998092651 15 18 11
