ply
format ascii 1.0
comment KinectMotionCapture
element vertex 757
property float x
property float y
property float z
property uchar red
property uchar green
property uchar blue
end_header
-106.033275301113 595.00047037435 2692.14666997033 217 217 219
-112.767320222365 594.395542049516 2688.49728412028 221 221 223
-119.497623514353 593.790637632835 2684.8503163012 220 220 222
-125.539448833267 593.318956186668 2680.46807902907 218 218 220
-132.264906212685 592.713876776703 2676.82462322906 211 211 213
-136.945113236623 592.507458494584 2670.96072246915 211 211 213
-141.63479622879 592.300023219722 2665.08965274936 206 206 208
-143.629346371073 592.621812971161 2656.2345819847 206 206 208
-144.977260303684 593.073495787462 2646.61389291311 207 207 209
-139.639019710424 594.844542414975 2629.49557306169 205 205 205
216.643315885402 624.347846739253 2737.23631721747 209 210 212
206.473008878875 623.174493887866 2736.03317898285 235 236 238
190.225587662438 620.910747375702 2740.30026437121 239 240 242
179.354686908667 619.605590151959 2739.82391426889 235 236 238
160.172634915841 616.80450819156 2746.90134246317 239 240 242
141.064355073492 614.009163622819 2754.03227872472 237 238 240
120.522810059787 610.94775066096 2762.59323052273 235 236 238
109.079170437828 609.520538939414 2762.9361081911 228 229 231
96.9161586628431 607.960031457129 2763.9921535705 226 227 229
87.7749479230561 606.943343261571 2762.3007860898 221 222 224
74.926897154703 605.25213179755 2764.09460667122 219 220 222
66.5723072368536 604.373600175117 2761.73914057274 206 206 208
59.7106529532008 603.765642327772 2757.99693815042 237 237 239
57.2809677798278 603.965562036727 2750.06084804889 209 209 211
51.8845350151418 603.625704195177 2744.91210069602 202 202 204
45.7491254129234 603.15104165215 2740.46200707989 210 210 212
38.1496342014711 602.407873984678 2737.4195771642 158 158 160
30.5581372457433 601.665224095067 2734.38265060072 226 226 228
23.7012552430977 601.056767056855 2730.64419965526 194 194 196
16.8479895543299 600.448413390574 2726.90807629949 194 194 196
13.6115072393483 600.507387373479 2719.62173892044 197 197 199
9.63593102406479 600.431487427703 2713.03397006617 179 179 181
7.08277966918835 600.620478969887 2705.00832134145 207 205 208
0.209959566460416 600.009894354409 2701.25830575051 205 203 206
-5.23146433998578 599.664977390586 2696.07662325635 181 179 182
-9.25507755176946 599.584528730402 2689.45400831802 188 186 189
-11.164640638565 599.900040228266 2680.66080916003 196 194 197
-14.5159000702404 599.94871985336 2673.29092077965 166 164 167
-20.0011612065718 599.59948527381 2668.07773234946 145 143 146
-33.2230802660534 597.798745417684 2670.83500967419 135 133 136
-53.4084083639579 594.683782685418 2680.88895610555 182 180 183
-76.3002299422326 591.049099884834 2693.91871616278 214 212 215
-87.9474738606276 589.524550328958 2695.34883480244 197 195 198
-98.1721709042764 588.264872273657 2695.34116192121 205 205 207
-106.987610888962 587.269018967549 2693.886058146 220 220 222
-115.096679425996 586.405089987449 2691.70864970142 223 223 225
-120.443845864337 586.064622993997 2686.59561347444 221 221 223
-127.16661120479 585.462450140895 2682.95412391321 219 219 221
-134.568775909942 584.729910691244 2680.0544995501 211 211 213
-138.559280738506 584.648599780709 2673.45617569489 211 211 213
-141.206479863769 584.825969569023 2665.36229086787 206 206 208
-143.200319066885 585.131028902395 2656.50765073532 206 206 208
-144.547375163763 585.563334601112 2646.88748537824 206 206 208
-141.222586315948 586.899204174154 2632.0127714944 202 202 202
221.700683229816 617.278981689208 2733.45589681069 207 208 210
206.928715498842 615.314115251176 2736.32371606949 236 237 239
192.966527397418 613.486652780092 2738.54422121228 233 234 236
174.485808205624 610.860789559947 2744.89591140947 237 238 240
160.62263206412 609.040900083216 2747.18823079374 236 237 239
138.488203301727 605.758289984557 2757.06371449681 233 234 236
120.213354100037 603.148238244218 2763.56472433158 232 233 235
105.765010133005 601.208035601026 2766.66727029031 225 226 228
97.3579642013029 600.333558846776 2764.27379824663 220 221 223
86.7219685858376 599.062188281326 2763.96790702827 214 215 217
75.3665407565314 597.660254946662 2764.37485934769 213 214 216
66.2688684904253 596.657280173517 2762.71512329691 194 194 196
60.1495460960839 596.183801386108 2758.27669763704 197 197 199
56.982231368528 596.237804059684 2751.04047613756 226 226 228
50.8521342794346 595.763273170391 2746.59423434242 214 214 216
46.1887964813403 595.551699049463 2740.74224185197 201 201 203
37.1257323156744 594.550810992633 2739.1076045214 164 164 166
31.7263665040395 594.207160784565 2733.95671173112 172 172 174
23.4126609829408 593.338752049157 2731.63093487878 227 227 229
17.2863123624523 592.863778029935 2727.18740818399 175 175 177
14.0503609552329 592.911443697403 2719.90139839246 204 204 206
10.0751173045737 592.826937711775 2713.3138270301 188 188 190
6.80412750787029 592.871555775582 2706.00240172556 197 195 198
0.649550473907912 592.393697501905 2701.5383970421 211 209 212
-4.79189105918487 592.045612687922 2696.35668572422 196 194 197
-9.5271193892037 591.82673139516 2690.45283571771 172 170 173
-12.1430638784794 591.996028630354 2682.38156715425 192 190 193
-14.7822706723248 592.163242614473 2674.2937191747 182 180 183
-18.854734590561 592.069815186173 2667.63562557673 134 132 135
-31.377562034882 590.42489451429 2669.66514748131 138 136 139
-55.0746915384468 586.718719328317 2683.34609162056 151 149 152
-77.2653044148659 583.278482723063 2695.65012110941 210 208 211
-89.6058529397201 581.647114286655 2697.81214401451 196 194 197
-97.7424945061263 580.789405333523 2695.61477879817 209 209 211
-108.634679597512 579.419144932972 2696.35770609405 219 219 221
-116.73785108544 578.563549991314 2694.18461475977 221 221 223
-122.078235314805 578.220605011382 2689.0761880723 223 223 225
-127.424085474679 577.876898997514 2683.9640896374 220 220 222
-132.775266583787 577.532522142045 2678.84812328568 210 210 210
-137.450673120433 577.314892094408 2672.98735123463 209 209 209
-139.420852473569 577.605378846497 2664.14978881926 209 209 209
-141.418550058781 577.893347954197 2655.29255957485 209 209 209
-144.791963814527 577.925117646726 2647.90652540001 202 202 202
-141.462970582589 579.222703445248 2633.03466544908 198 198 198
219.856866670332 608.994066020932 2735.78271447115 211 212 214
207.384131314774 607.452876642704 2736.61403799015 235 236 238
191.132540845145 605.259021229293 2740.8784550101 233 234 236
174.937099612844 603.069505426947 2745.18359779145 236 237 239
158.039462658342 600.753522033498 2750.21439443113 234 235 237
138.934567865609 598.050546782647 2757.3482524562 231 232 234
122.918561428427 595.874760658314 2761.78354089339 230 231 233
106.958661034617 593.703221030131 2766.25952330812 223 224 226
97.0502207243213 592.576294191571 2765.24645298701 219 220 222
87.1625488437804 591.450821210554 2764.24873998495 212 213 215
77.2960132971208 590.3269605342 2763.266062852 210 211 213
68.936080971171 589.463648996711 2760.90680102061 203 203 205
62.0695023908948 588.859892500193 2757.16105015124 173 173 175
58.8982924837276 588.902168552078 2749.92194555529 239 239 241
50.5550864616824 588.039853568851 2747.5748140263 226 226 228
44.4261280796345 587.564847361284 2743.12939529661 205 205 207
36.832430899767 586.83230552357 2740.09121942 179 179 181
32.1651016626077 586.614224566691 2734.23630049178 161 161 163
23.8508674133784 585.753599438198 2731.91017977864 234 234 236
15.5488031137261 584.893721236083 2729.592885105 207 207 209
13.0430552623615 585.0585928852 2721.60147801961 203 203 205
11.9557429688664 585.477110084479 2712.16953664734 201 201 203
9.39936208123049 585.637681148006 2704.1416972871 180 178 181
2.52172528934524 585.03144560192 2700.38791752727 213 211 214
-2.92428076941809 584.679864818532 2695.20317405656 215 213 216
-6.23952046699094 584.70911825691 2687.85929875267 168 166 169
-9.57354658571075 584.736680912594 2680.50209068403 165 163 166
-13.6337253296988 584.635824842475 2673.85286524351 199 197 200
-17.7081435958091 584.533606108907 2667.19331036736 159 157 160
-28.8286202396424 583.165593008877 2667.77105010493 112 110 113
-53.9383319078039 579.274145308843 2682.89711810366 149 147 150
-76.1349094987327 575.896066885422 2695.19713848712 207 205 208
-89.8722809093471 574.03685065194 2698.81549383703 205 203 206
-97.313026790582 573.312905842912 2695.88823916658 218 218 220
-108.2065181625 571.961388792763 2696.63031445059 226 226 228
-117.690076165674 570.86281816226 2695.92539401114 219 219 221
-123.713948435201 570.391814443714 2691.55617472046 217 217 219
-128.367774701837 570.170595925535 2685.7113229684 216 216 218
-132.34789584418 570.07332783894 2679.12015116567 211 211 211
-137.023176411955 569.849942718021 2673.25944128157 208 208 208
-139.671636054969 569.999141155576 2665.1647944619 206 206 206
-143.019636366308 570.021867629271 2657.7974317066 208 208 208
-144.362593140334 570.415512221066 2648.17974773299 201 201 201
-143.048439058763 571.30248276552 2635.55061240057 196 196 196
227.436152251617 601.731259573308 2740.00527616331 205 209 210
214.943352172003 600.210012245948 2740.82215534605 215 216 218
204.779284892032 599.076815261757 2739.62403829677 234 235 237
184.720899690774 596.277009962632 2747.30123694213 232 233 235
167.022018882558 593.867628361286 2752.98575836171 235 236 238
150.146506712209 591.591214926829 2758.03249968221 233 234 236
138.624584182238 590.214268681593 2758.31888300447 230 231 233
127.886264938621 588.967109396582 2757.93893783928 228 229 231
111.911082267178 586.829550712534 2762.404013925 222 223 225
98.9904322364254 585.205484354305 2764.14525137793 219 220 222
86.1081685970073 583.584358848802 2765.91462531817 210 211 213
77.7354736276776 582.72792945038 2763.54614643362 207 208 210
70.1178698899927 581.99915644922 2760.49065927295 203 203 205
62.5081641169798 581.270893425272 2757.44060562154 178 178 180
56.3833545028096 580.796073954633 2752.99819536809 235 235 237
48.0483888405137 579.942133484605 2750.6570798703 233 233 235
42.6622112900863 579.59351754744 2745.51572237962 219 219 221
37.2706496933297 579.244316082941 2740.37045891305 197 197 199
33.3332563038096 579.146177994236 2733.81025696346 161 161 163
25.7439158080679 578.418698499547 2730.77497050489 222 222 224
18.1621709890685 577.691695338222 2727.74548720423 226 226 228
13.4810576498112 577.466224614753 2721.88053845561 192 192 194
13.8365469393387 578.115448113033 2711.02561005628 205 205 207
10.5578760414016 578.136730913828 2703.70820388281 173 171 174
5.11070938246094 577.782098790031 2698.52260361263 200 198 201
-0.341794827805941 577.42691477742 2693.33313124216 214 212 215
-2.95106362777298 577.568732968571 2685.26656284156 178 176 179
-7.71339259599468 577.335797074564 2679.34299581474 159 157 160
-11.7776681637776 577.225976134732 2672.69075509039 193 191 194
-16.5616746900992 576.99097503931 2666.7511686014 169 167 170
-27.6854344342528 575.641504914949 2667.32632779629 114 112 115
-52.1006851857961 571.946704979885 2681.72178476451 166 164 167
-75.0042638159456 568.507298287983 2694.74401099591 203 201 204
-89.4425727781234 566.55427676853 2699.08909771991 202 200 203
-98.2727622945818 565.589340886522 2697.62345829719 221 221 223
-109.163058340322 564.256931867123 2698.36794672728 227 227 229
-117.95332012352 563.294613625113 2696.93155950639 222 222 224
-123.97517619795 562.823444649871 2692.56380096152 219 219 221
-127.940872991172 562.718980962293 2685.98304923016 215 215 217
-131.920713015463 562.613162411915 2679.39203790612 211 211 211
-136.595865963843 562.383992479516 2673.53139123482 207 207 207
-140.601772804494 562.275554403879 2666.9214702509 204 204 204
-145.298701463137 562.044093060139 2661.04532077309 206 206 206
-146.632076605867 562.418988001735 2651.43478223484 201 201 201
-140.600500080414 564.125410811441 2633.58341795859 196 196 196
211.733328313278 591.196403039569 2754.50613892562 205 209 210
208.492685548346 591.211397122631 2747.21656278074 232 233 235
204.468393843118 591.099169531044 2740.59329502149 233 234 236
183.6463520459 588.222433855973 2748.95184414189 231 232 234
164.428250623669 585.602950262981 2756.004059167 233 234 236
146.800801411167 583.239642262487 2761.74030176959 229 230 232
139.07016219282 582.50762676449 2758.60285635281 230 231 233
127.576827487666 581.151487162687 2758.91006898913 224 225 227
112.353641999943 579.173804987071 2762.68605705858 217 218 220
98.6817174288195 577.449256629444 2765.11750170929 217 218 220
89.5378440831651 576.47444225092 2763.42441614791 211 212 214
81.155811404916 575.625052961821 2761.04920381843 207 208 210
73.5290683014487 574.900617794399 2757.98711330844 203 203 205
64.4283548041606 573.928911510126 2756.32533098534 200 200 202
56.8216987361354 573.205824411046 2753.27751434723 171 171 173
47.7495133509525 572.236051245586 2751.63671693006 231 231 233
43.1001087607346 572.007832084864 2745.79474060894 236 236 238
39.1729128171612 571.901976737434 2739.24189191611 214 214 216
35.9613345346981 571.91786164424 2731.97338974704 182 182 184
28.365017920811 571.194954974287 2728.93306931381 173 173 175
20.7762762119499 570.472463211143 2725.89853666949 217 217 219
16.8119864759699 570.363124902325 2719.31878025303 186 186 188
14.996760879237 570.619594332833 2710.59337481812 199 199 201
11.7162679125302 570.62935868732 2703.27488392192 175 173 176
6.26696192273979 570.271446575475 2698.08771619137 173 171 174
2.24126820461912 570.15659616497 2691.46341879795 202 200 203
-1.08631535329384 570.162187193509 2684.11076978852 209 207 210
-5.8527082161195 569.923086698358 2678.18393105583 179 177 180
-10.6289128631711 569.683012107815 2672.24997461737 160 158 161
-16.1207332835613 569.320819439544 2667.03196558691 155 153 156
-27.949404423296 567.868977457033 2668.33093204016 113 111 114
-52.3664820397234 564.24490520389 2682.72512844767 185 183 186
-73.8737128483906 561.112050171981 2694.2910765006 199 197 200
-89.0131007033152 559.070727860875 2699.36252554176 205 203 206
-99.2334554570922 557.875715796536 2699.35832802512 219 219 221
-112.198006461491 556.202020254627 2702.30282044998 225 225 227
-119.597469421604 555.491038576856 2699.40555831089 223 223 225
-124.924724559841 555.139837164555 2694.30660736131 218 218 220
-129.571648204012 554.907527791814 2688.46670329022 213 213 215
-133.544587100385 554.79369507228 2681.88065414774 209 209 209
-138.213037263984 554.559213246312 2676.02483956239 206 206 206
-142.212020554477 554.442792689878 2669.41989717489 202 202 202
-145.548158632253 554.443926846548 2662.06102423651 201 201 201
-144.854094703996 555.155778007309 2650.21652193357 199 199 199
-138.15183792415 556.930952248801 2631.61665969711 197 197 197
215.264365495951 583.860024163445 2752.08826193624 205 209 210
208.178455206621 583.246863486563 2748.18346519618 233 234 236
204.156858497853 583.126161494634 2741.56210817287 232 233 235
185.623170647093 580.669563005525 2747.876257618 230 231 233
166.397950293095 578.09556518118 2754.92354237193 232 233 235
148.005024826173 575.649772576837 2761.33978820707 228 229 231
137.246056573287 574.433082664365 2760.94502846776 229 230 232
124.249584337963 572.851635173546 2762.63181113646 223 224 226
110.539666782842 571.151132652603 2765.03583565917 214 215 217
98.3725480537561 569.697641738758 2766.08915140289 216 217 219
89.97779922713 568.855168227246 2763.70475589585 212 213 215
80.8498670654481 567.892010814341 2762.02328548376 207 208 210
73.2248704367113 567.172705739418 2758.96248701551 206 206 208
64.1257441544649 566.211613076831 2757.30190905854 201 201 203
57.2597040198999 565.614710995352 2753.55658323892 163 163 165
48.9236377073872 564.776244624239 2751.21474823567 202 202 204
45.7411307266429 564.783312537256 2743.96727581382 230 230 232
41.0754941800171 564.547804025521 2738.11349567909 222 222 224
37.1299132971647 564.431717182426 2731.5475620039 202 202 204
28.075083919807 563.473287034013 2729.91910930479 174 174 176
20.4882942347178 562.756051144386 2726.88572386918 197 197 199
16.5265807819055 562.638198946217 2720.30779193084 205 205 207
13.2718179544091 562.638786019767 2713.00790687694 195 195 197
10.7174836839383 562.75725413286 2704.98133789341 188 186 189
5.27277753429223 562.396537878784 2699.79719600459 170 168 171
2.68110049116776 562.51165221985 2691.74353946071 193 191 194
0.0665273970770208 562.624871495159 2683.67298100496 210 208 211
-3.28145865387519 562.617279137894 2676.30547501646 199 197 200
-8.06431309491362 562.370761560551 2670.36695984246 158 156 159
-12.1509819394983 562.241800809156 2663.69838880693 154 152 155
-28.2137277371746 560.100981419351 2669.33500862684 115 113 116
-54.73732037512 556.193271214832 2685.90640949949 186 184 187
-75.5399854265897 553.238724301527 2696.74868436554 196 194 197
-88.5839144809721 551.586229766847 2699.63574133524 207 205 208
-100.889805069673 550.054513734211 2701.82339327696 218 218 220
-113.156896281184 548.525612292847 2704.03918597169 224 224 226
-119.861910153237 547.937334092123 2700.41063520789 216 216 218
-125.187133880043 547.583171054882 2695.31343634762 210 210 212
-130.517526200997 547.228369842143 2690.21219295364 209 209 211
-134.485754590898 547.106345488687 2683.62951706559 207 207 207
-137.786627099295 547.099463175405 2676.29616828605 206 206 206
-140.426717241052 547.20722024619 2668.20737878777 201 201 201
-143.089574817343 547.312943311045 2660.10177991065 199 199 199
-143.075667597192 547.880625444501 2648.99852387939 198 198 198
-135.02974168647 549.834921909538 2628.9035501022 198 198 198
211.868229554543 575.415019179194 2755.75903252306 215 219 220
205.560750862022 574.925491091748 2751.18412705432 230 231 233
196.95598249955 574.074875612184 2748.64744266303 230 231 233
181.494546109043 572.143730140736 2752.25095328611 230 231 233
165.323800803493 570.096553205761 2756.57471964623 230 231 233
147.691721032365 567.814061923224 2762.30801481066 228 229 231
134.664051743806 566.254462599773 2763.97229273497 223 224 226
120.166235707835 564.458864907561 2767.03970778773 224 225 227
110.981134615517 563.501989778358 2765.31712069581 205 206 208
97.3125428655397 561.831540593901 2767.75125540267 206 207 209
89.6697229683672 561.116098476639 2764.67726155639 219 220 222
79.051902358326 559.925928410696 2764.38495708387 211 212 214
72.1767668613973 559.330828615577 2760.6330469709 213 213 215
64.5636305689612 558.617413224918 2757.58087614596 206 206 208
57.6973687035802 558.022763445747 2753.8354009973 180 180 182
49.3608234589873 557.192054843678 2751.49325810058 154 154 156
45.4442587686072 557.069794783728 2744.94803313697 192 192 194
40.0485486211295 556.710817717554 2739.79971278209 238 238 240
36.1078712746892 556.586454904014 2733.23699738865 222 222 224
27.7847434968712 555.756235828237 2730.90458357949 180 180 182
21.6513317780183 555.278688201469 2726.45592365813 166 166 168
16.9641679521764 555.035013279906 2720.58649657481 216 216 218
13.7099393334883 555.024232561625 2713.28694120017 209 209 211
11.1562429744332 555.128593068456 2705.26076319443 199 197 200
6.42856207224884 554.881247477051 2699.36194582513 183 181 184
1.69108685650832 554.633048693203 2693.45602402731 164 162 165
-0.918629438358076 554.732482625683 2685.38921102052 204 202 205
-3.55119033761819 554.829965916337 2677.30553311506 201 199 202
-6.20699276973125 554.925427382471 2669.20529116251 180 178 181
-11.7097807789306 554.556073116598 2663.97929521796 132 130 133
-28.4786405997863 552.337508023509 2670.33868074513 130 128 131
-54.3031910845597 548.624068499714 2686.18277958301 182 180 183
-73.7104736439709 545.956777048992 2695.56768426662 209 207 210
-86.0633662227173 544.445867782841 2697.72136885306 204 202 205
-96.9874686133059 543.16750656883 2698.44162410509 229 229 231
-108.574446622619 541.776587145435 2699.91610765135 231 231 233
-117.364740778854 540.846129247877 2698.47956386446 183 183 185
-124.761651277792 540.145361436972 2695.5842037942 186 186 188
-132.150490351145 539.445028039824 2692.69440259596 200 200 202
-136.795890467611 539.200953070595 2686.85554336755 202 202 202
-139.405611422187 539.297329332634 2678.7884170181 204 204 204
-140.679417007197 539.618859596746 2669.22079142091 199 199 199
-142.662210308713 539.824235058457 2660.3736537797 196 196 196
-142.647114182753 540.367010719884 2649.27113345545 196 196 196
-137.289618739847 541.811175580931 2632.16511613486 194 194 194
213.089803877824 567.70422964901 2755.37048452138 217 221 222
203.709171390403 566.742974750315 2753.50583588689 230 231 233
190.517156260021 565.19491500796 2755.0510344534 229 230 232
177.363715599344 563.6498009964 2756.62421139692 230 231 233
161.965352416594 561.755867100481 2760.27333914129 229 230 232
145.859746018086 559.7488575315 2764.64452954089 227 228 230
130.566898945041 557.86303389698 2768.3704837221 225 226 228
116.835031207666 556.214701831597 2770.75886034289 227 228 230
109.917616527091 555.618925166591 2766.97629771894 210 211 213
98.5023786040404 554.324793510859 2767.34043846175 201 202 204
87.1167629360143 553.032922586979 2767.72635893747 212 213 215
77.2526859623159 551.975427357781 2766.7458002306 216 217 219
69.6401821954122 551.267171304943 2763.69411406998 211 211 213
64.259883174695 550.906654266122 2758.5566632925 213 213 215
56.6563476798692 550.198885768079 2755.51148089326 192 192 194
49.7976686105028 549.607030929206 2751.77151683217 173 173 175
42.9422296982724 549.015269706127 2748.03419658135 176 176 178
36.8227867841391 548.538734220696 2743.59566807133 234 234 236
33.6240677259516 548.521506919319 2736.33602563149 230 230 232
27.4937571270604 548.043852054961 2731.88961323499 196 196 198
22.8143564902656 547.795021246591 2726.02608221452 174 174 176
17.4014900416992 547.430939853777 2720.86500455941 204 204 206
14.1477956318194 547.408791343666 2713.56577886402 221 221 223
10.8754481315447 547.385071981392 2706.25302318865 199 197 200
6.86726107124969 547.245830477247 2699.64129319941 182 180 183
2.12994414975975 546.991729879295 2693.73545625863 181 179 182
-0.479063665923984 547.077091794196 2685.66908556596 201 199 202
-2.40041854348538 547.273852735472 2676.86644231519 199 197 200
-5.76610798050847 547.241914453376 2669.48597944741 192 190 193
-10.5626573838862 546.982388053752 2663.53717613367 138 136 139
-28.7441430111313 544.578557269507 2671.34194839503 139 137 140
-53.8693235737013 541.053918548385 2686.4589550989 193 191 194
-74.6788829237581 538.213132910379 2697.29680836406 203 201 204
-85.6342031708959 536.95133085079 2697.99451700104 213 211 214
-97.2547672296256 535.579556819191 2699.4447502785 226 226 228
-105.376236068768 534.770005793012 2697.25862802535 210 210 212
-115.557464967758 533.625858437309 2697.28275683858 187 187 189
-122.959307050496 532.929858953132 2694.38384591049 176 176 178
-131.725721927928 532.011372504418 2692.96467336016 194 194 196
-137.739048552295 531.539012579576 2688.60309196327 198 198 198
-140.343916008693 531.62166297518 2680.53970897103 201 201 201
-141.612382922978 531.924119375498 2670.9758568773 198 198 198
-143.590056668624 532.113061822446 2662.13234727493 196 196 196
-144.91988767214 532.410158712386 2652.52398389637 196 196 196
-140.224072142993 533.697910295034 2636.17254505046 194 194 194
225.863045046065 561.715620170749 2744.83768769878 221 225 226
209.535379867436 559.726557268946 2749.0479938531 230 231 233
190.200963821364 557.282289155099 2756.01677742605 229 230 232
173.994218467645 555.302544157128 2760.31478813903 228 229 231
157.082334735514 553.212661730423 2765.3361077545 226 227 229
143.267215121061 551.584838872652 2767.66453167312 224 225 227
129.495237647054 549.960351291476 2770.02395266685 221 222 224
116.521044196082 548.453167520102 2771.72696738514 222 223 225
110.358048016757 547.973641428807 2767.25685103571 226 227 229
100.442289892959 546.925501782604 2766.2391694251 209 210 212
90.5476216080388 545.878940802543 2765.23648980801 194 195 197
80.6738612378828 544.833934595589 2764.24926913679 209 210 212
70.8210960660765 543.790469515931 2763.276981662 214 214 216
64.6969830358919 543.313555699017 2758.83506576887 215 215 217
55.6143305180115 542.385113712602 2757.18688985439 222 222 224
49.4969694151712 541.908537773749 2752.7498702889 201 201 203
43.3785108683655 541.43169369825 2748.3120538047 167 167 169
37.9919600604302 541.067055694124 2743.17005009974 199 199 201
35.521793820283 541.150342454261 2735.20431811714 231 231 233
28.6587772626876 540.559958416832 2731.46121716817 214 214 216
25.4297231155833 540.528663821268 2724.17980739839 194 194 196
18.5623899658531 539.937631372659 2720.43357397534 178 178 180
14.5853354028294 539.792517941958 2713.8443828553 205 205 207
11.31347561636 539.757397149332 2706.53192298358 203 201 204
8.74044594166978 539.8318326433 2698.49128379164 200 198 201
3.2836167918564 539.460466151326 2693.29859421274 183 181 184
-1.46570824666314 539.199309251204 2687.38431106712 186 184 187
-4.80321827689156 539.15841161969 2680.02393619481 206 204 207
-6.74264368486233 539.336662145614 2671.20839394902 161 159 162
-10.8283372578126 539.181851586304 2664.54039897435 135 133 136
-27.6021313651609 537.044347452996 2670.89661812167 127 125 128
-54.8394468077928 533.263076947517 2688.18630317281 201 199 202
-75.6481406040668 530.479546618536 2699.02536838283 200 198 201
-87.9951996791091 529.017671294617 2701.18323569016 208 206 209
-96.8272053728787 528.105591404446 2699.71684188479 221 221 223
-105.642421999758 527.194592410384 2698.26232983024 188 188 190
-114.440869128776 526.2846830855 2696.81997986196 170 170 172
-122.533999466901 525.484746411305 2694.65444949156 190 190 192
-131.301192862173 524.576801421161 2693.2347659716 199 199 201
-137.314668189604 524.104070986821 2688.87307489998 187 187 187
-139.918952482205 524.172728828626 2680.81004378058 191 191 191
-142.54605400539 524.239378502372 2672.73016731499 194 194 194
-144.518539277922 524.411953261436 2663.89033604195 194 194 194
-145.843074804671 524.689883172668 2654.28571438298 196 196 196
-140.467392475259 526.041633968773 2637.19241302909 194 194 194
249.654692726127 556.811684214655 2734.88705425702 208 212 213
231.708564107981 554.626624987459 2740.39347669971 223 227 228
212.291231566515 552.222000913363 2747.3023531405 231 232 234
188.35229759445 549.150104008016 2758.34085306929 229 230 232
172.150114172549 547.205798196917 2762.64235033047 228 229 231
155.242592378575 545.154086970866 2767.66702535266 226 227 229
140.673220626198 543.441870470165 2770.68328495872 223 224 226
128.422718493243 542.067805024104 2771.67655659914 220 221 223
118.470875516656 541.030244204629 2770.6327698925 219 220 222
112.303429862279 540.549849833803 2766.15942362564 231 232 234
103.133106782916 539.625497161151 2764.44741968632 222 223 225
92.4826325171209 538.480805428066 2764.13167423861 190 191 193
81.8575408468249 537.337990736846 2763.83433868365 192 193 195
72.0018297990324 536.307520263445 2762.85998150073 224 224 226
65.8754305414337 535.829973157999 2758.41640506483 211 211 213
56.7900276374935 534.91178304083 2756.76599278752 228 228 230
49.1957658563322 534.214683290339 2753.72758714053 221 221 223
43.8144979333774 533.847317194984 2748.58969377034 194 194 196
37.6949617488847 533.369848124478 2744.15109291786 168 168 170
33.7664584605131 533.220453113894 2737.5970759659 217 217 219
26.9097712647253 532.63279234652 2733.85857710028 228 228 230
22.9616361552858 532.481597836136 2727.29031950745 209 209 211
16.8268883200899 532.002418501756 2722.84068274192 179 179 181
13.5786435707201 531.957889337519 2715.54529425931 184 184 186
11.0315473299472 532.020356060373 2707.52339414288 215 213 216
8.46120790579841 532.080830696906 2699.48492893349 211 209 212
3.72209082017605 531.814725118267 2693.57772620771 186 184 187
-1.74006943484706 531.439640837482 2688.38115316555 178 176 179
-4.36407416775286 531.495369292336 2680.3034663112 197 195 198
-6.3026873939338 531.656807986251 2671.48842767808 164 162 165
-9.68146440075968 531.600917225448 2664.0980615506 138 136 139
-27.1643295993087 529.396341438018 2671.17525130666 125 123 126
-54.4064131546991 525.696623304767 2688.46189292994 203 201 204
-76.6181773198182 522.755983562526 2700.75311995483 203 201 204
-89.6600666885643 521.211820442536 2703.64220425615 213 211 214
-97.7907203598574 520.41744706927 2701.44950059996 207 207 209
-105.909128562238 519.623766996476 2699.26567745722 177 177 179
-114.706139514886 518.724578545091 2697.82442290718 172 172 174
-121.420135808549 518.144873189682 2694.18969849444 212 212 214
-127.443930098754 517.671157444739 2689.82052199569 196 196 198
-133.468651673061 517.197157476089 2685.45067184926 182 182 182
-137.447658404328 517.039728031597 2678.86000317776 186 186 186
-142.120719298757 516.775478727936 2673.00069539709 191 191 191
-142.737001564255 517.141842556067 2662.6749129481 192 192 192
-145.416073381562 517.189853925032 2654.55726770052 194 194 194
-140.037961637981 518.494783148221 2637.46549032031 193 193 193
248.566118717312 548.655183999861 2736.52697718053 211 215 216
229.081286152006 546.291273640197 2743.38712763651 227 231 232
210.438263598141 544.042717741859 2749.62307179878 228 229 231
191.098518261425 541.690112987155 2756.58845634819 227 228 230
174.123760608596 539.670962331541 2761.56485006415 227 228 230
156.448083707348 537.547472244487 2767.26734611095 225 226 228
141.874950078546 535.864603435709 2770.28073282733 222 223 225
129.620815252876 534.511642345241 2771.27177242602 219 220 222
119.666118187622 533.487073209442 2770.22568805801 217 218 220
112.743520439909 532.897638067688 2766.43969471617 221 222 224
101.320560863771 531.658980314408 2766.79851885411 231 232 234
91.4243339242473 530.638759576071 2765.79484275356 214 215 217
80.0563730443762 529.404258611476 2766.19355767511 194 195 197
72.4384154432576 528.710616178672 2763.13799193454 202 202 204
65.5702473459465 528.125042392904 2759.39118088937 226 226 228
56.486195433151 527.217457119027 2757.74209616701 216 216 218
49.6312822102811 526.632688278742 2754.0048979404 222 222 224
45.7207277975904 526.476203961688 2747.46385660274 227 227 229
41.0629393428685 526.211698300586 2741.61561884104 174 174 176
34.9334202488456 525.732852936831 2737.1697741932 163 163 165
28.8028967008631 525.253806713472 2732.72320037785 237 237 239
22.6713686989215 524.774559630511 2728.275897395 220 220 222
17.262936359665 524.40125892604 2723.11828189975 183 183 185
11.8490477557893 524.027366843747 2717.95670804639 171 171 173
10.029072746629 524.1820662645 2709.22734417588 221 219 222
7.46396297740048 524.228824790733 2701.19230610313 216 214 217
4.160251622221 524.168092425066 2693.85662662184 203 201 204
-0.588731104510742 523.8951041087 2687.94253169688 175 173 176
-3.21421963020407 523.936612819406 2679.86369718367 182 180 183
-5.86302355756274 523.976123593303 2671.7682451953 185 183 186
-9.94800055469081 523.80404537822 2665.10068221765 144 142 145
-28.8400557430688 521.4336795173 2673.62555357547 130 128 131
-55.3781383436529 517.920359264603 2690.18844802783 202 200 203
-74.789258400501 515.459540636552 2699.57191113022 199 197 200
-85.7438440185905 514.254211187605 2700.27043836039 223 221 224
-93.1904399862629 513.570661803502 2697.3388529712 184 184 186
-104.096340336875 512.368749068214 2698.07298497411 161 161 163
-113.589698748105 511.376176565019 2697.36149691111 192 192 194
-119.617145496217 510.902045442622 2692.98967056371 219 219 221
-124.958786942286 510.530869635537 2687.88048397535 184 184 186
-129.621102338072 510.262098957782 2682.02894293431 179 179 179
-135.65790032704 509.786538162667 2677.65033043128 184 184 184
-140.335449418343 509.516110601401 2671.78803224384 188 188 188
-142.988718068688 509.552321877622 2663.68903249286 189 189 189
-144.989305539083 509.688805045855 2654.82864652584 193 193 193
-140.282163132477 510.844798154309 2638.48475139248 192 192 190
228.930067928013 537.935585488523 2754.35139620486 212 216 217
214.893643528141 536.37128480871 2756.51941883698 229 233 234
200.131835743623 534.703481147282 2759.39610793931 226 227 229
186.183484366063 533.146046517326 2761.62801136277 226 227 229
170.749946671639 531.378827915308 2765.25257666794 225 226 228
156.130050986759 529.722027830124 2768.23219661513 224 225 227
144.595587140085 528.493584854269 2768.51053514463 221 222 224
132.333715768711 527.161419752642 2769.495777215 215 216 218
120.105987002838 525.831886159246 2770.50578331783 216 217 219
109.418350637515 524.716311118276 2770.16324575288 214 215 217
95.7527268405278 523.180600635064 2772.60021447029 228 229 231
86.621795180688 522.280200082477 2770.91688753385 230 231 233
76.0145384566076 521.170688610253 2770.63264959939 210 211 213
71.3862883131826 520.90298525749 2764.80610307001 171 171 173
64.5222340582077 520.319970195945 2761.06228719738 200 200 202
56.9216352865265 519.632483655225 2758.01933642354 227 227 229
50.8040637103804 519.154471750077 2753.58215700801 232 232 234
43.9500900261578 518.571944736201 2749.8456512283 229 229 231
38.5658109051574 518.197837560321 2744.70554083148 211 211 213
32.4450333850277 517.719207475064 2740.26603422754 149 149 151
27.7809458070237 517.447948286039 2734.41319588899 229 229 231
22.3802431445472 517.072182029155 2729.26117131289 235 235 237
16.9742689947761 516.695888748911 2724.10502817665 207 207 209
11.5626986475412 516.319003113101 2718.94511971406 184 184 186
9.02560037464095 516.353911829014 2710.93062222819 194 192 195
5.74788028059414 516.283998041867 2703.61344338404 220 218 221
2.45122932882147 516.212381771052 2696.28282701074 214 212 215
-0.150681215271398 516.24175618707 2688.221317694 182 180 183
-2.06438039949286 516.37159694181 2679.42388525477 183 181 184
-4.7145257110095 516.396844342006 2671.32709414457 179 177 180
-10.2149945771259 516.01184584156 2666.1027001552 154 152 155
-28.4032703579711 513.792222727632 2673.90348313747 140 138 141
-52.1365806823479 510.764509639903 2687.56163557186 195 193 196
-71.559469220948 508.354435547256 2696.93653000474 208 206 209
-81.1282767119459 507.369875661884 2696.17068235617 224 224 226
-90.6759791319309 506.386711867605 2695.42014129546 161 161 163
-101.589568723781 505.203000097387 2696.14849691774 162 162 164
-112.473221841589 504.021459604213 2696.89856512689 214 214 216
-117.124692971894 503.748130745717 2691.05486223725 185 185 187
-121.786066848481 503.473815845313 2685.20427011801 173 173 175
-127.826588688384 502.997818953158 2680.82295590705 178 178 178
-134.550421465216 502.421413761829 2677.18082305669 182 182 182
-140.59048853858 501.945065376037 2672.79983673531 183 183 183
-143.24095520461 501.967389167898 2664.70279785971 184 184 184
-145.238731251187 502.087292567214 2655.84466045104 190 190 190
-141.874334792115 503.000476653505 2640.99622350752 190 190 190
211.604305283568 527.670506264976 2770.14749027457 220 221 225
209.177886657293 527.701779899171 2762.21291393713 229 230 234
198.274543029326 526.585562984222 2761.71400232284 227 228 232
185.863799047452 525.263333623238 2762.59166826426 225 226 230
165.845825451741 522.905650309345 2770.30040157992 222 223 227
153.52527537112 521.590414005204 2771.2434864264 221 222 226
140.479287621867 520.174303627286 2772.89491723039 220 221 225
129.744344385619 519.071086776107 2772.51814850179 219 220 224
118.27944147974 517.86665481297 2772.84674038527 211 212 216
108.35045548621 516.870376582058 2771.81973229789 203 204 208
94.6877274612401 515.361785405511 2774.25893758687 214 215 219
85.5605503903871 514.472159120117 2772.5783870059 232 233 237
74.2102187020395 513.276411265183 2772.99007799676 230 231 235
68.8444356999547 512.901039329757 2767.86336942501 191 191 193
61.9890201415272 512.320964492044 2764.12583082068 181 181 183
55.8768174766482 511.842939449969 2759.69254337696 221 221 223
50.5013720784864 511.466515905534 2754.55882500149 227 227 229
43.6493913576577 510.886420608897 2750.82377628061 227 227 229
37.5340732630165 510.407889271053 2746.38822783088 233 233 235
30.6864886397902 509.82788126018 2742.65636637709 194 194 196
25.3001846347476 509.450174776737 2737.51476986741 183 183 185
22.0887278136503 509.374556934346 2730.24589226882 239 239 241
18.1340239829249 509.196632621319 2723.67273747802 209 209 211
11.9979649294106 508.715808660391 2719.22214185199 198 198 200
8.02136561261957 508.535916401408 2712.63310458804 167 167 167
4.03047615239505 508.354702185947 2706.03370139818 213 213 213
1.45671373642919 508.372287245782 2697.99253754481 221 221 221
-1.85348512514238 508.288062400382 2690.65174166063 186 186 186
-2.33711488647237 508.600918087493 2680.42185081357 180 180 180
-4.27529411035854 508.711748698681 2671.60657598103 156 156 156
-8.36181902192346 508.522249250768 2664.9378026452 176 176 176
-27.9667533546684 506.149937654541 2674.18121394836 131 131 131
-53.8117593418521 502.8930611335 2690.01279673762 204 204 204
-73.2310550861031 500.535016241221 2699.39055920195 210 210 210
-82.0960806504187 499.662813905658 2697.90043057542 218 218 218
-90.2484229138549 498.890192705829 2695.69211457498 158 160 159
-99.7757666767374 497.921781598879 2694.95611218753 163 165 164
-109.282195922763 496.954806312249 2694.23557292941 202 204 203
-115.320965402525 496.479040996531 2689.85553021469 175 177 176
-121.360661341126 496.002976588008 2685.47481437522 170 172 171
-126.716323868042 495.624232098497 2680.35513079223 173 175 174
-132.760065821552 495.147436646891 2675.97147820733 180 182 181
-138.80475583088 494.670295545023 2671.58713660575 180 182 181
-142.815562014998 494.484137135112 2664.97327031437 180 182 181
-145.488539312459 494.490398773234 2656.86012612069 189 191 190
-142.120092571732 495.365117727918 2642.01472495634 187 189 188
211.278881081429 519.769111171263 2771.10659783087 221 222 224
205.771726293097 519.379971471689 2765.8773360978 226 227 229
194.878435271782 518.280430912922 2765.38579630165 226 227 229
180.178074466037 516.676617095508 2768.30735375141 225 226 228
161.703397240619 514.5710145342 2774.66605912178 221 222 224
150.156990126494 513.379038098281 2774.93562995502 218 219 221
140.160045291241 512.390786417432 2773.85939770902 216 217 219
129.42652963292 511.303581648404 2773.48345048946 210 211 213
118.718206015942 510.218293650467 2773.12606970413 208 209 211
108.035165402363 509.134934370139 2772.78702687688 198 199 201
95.8751466622667 507.85335931898 2773.8466548189 183 184 186
85.9962341934444 506.874076715572 2772.85573770738 193 194 196
75.3913568763758 505.796631327257 2772.57338707688 217 218 220
69.2790744256762 505.318301102565 2768.14004024891 242 242 244
61.6811879944708 504.641105702109 2765.09881335819 225 225 227
54.8309557605231 504.063582035302 2761.3653396556 197 197 199
47.9842369473076 503.486272892564 2757.63411951626 215 215 217
41.14075213697 502.909076380588 2753.90524434512 227 227 229
34.300552328248 502.332036861125 2750.17904581398 229 229 231
27.4638202705164 501.755163358112 2746.45506749342 226 226 228
22.817772611524 501.473431776629 2740.61525363243 169 169 171
19.6156639315941 501.387100425409 2733.35309843483 156 156 158
16.3948780885064 501.299196271865 2726.07739579651 236 236 238
11.7104990230477 501.014060699898 2720.20977743906 215 215 217
7.01599560486788 500.728010749152 2714.33510956776 182 182 182
2.3118178595225 500.441032288052 2708.45312939013 173 173 173
-1.68633777661675 500.250447090474 2701.84841132841 204 204 204
-3.55763333648218 500.349967756101 2693.08156460419 224 224 224
-3.32211610278232 500.737965653884 2682.1383427421 192 192 192
-3.83638151281329 501.025865478903 2671.88582257611 155 155 155
-9.33681093814842 500.634492521329 2666.66142489032 132 132 132
-26.8257659077551 498.603248024831 2673.73507799854 164 164 164
-53.3800457046003 495.325992732316 2690.28742647323 195 195 195
-70.7010090716256 493.307615209011 2697.48263097601 191 191 191
-81.6682391879826 492.157669934608 2698.17256694831 152 152 152
-91.2131840478629 491.201409724511 2697.42386669671 163 165 164
-99.3494557014332 490.437677887835 2695.2272456507 211 213 212
-106.781773852905 489.770141862528 2692.30638614302 176 178 177
-112.827309569812 489.293425135389 2687.92143361951 166 168 167
-120.935525040827 488.531323916379 2685.74515935838 173 175 174
-127.661293650429 487.959735573622 2682.10164757982 171 173 172
-131.652314686598 487.766950270802 2675.50209039791 178 180 179
-136.338072797802 487.478342391146 2669.63345475284 179 181 180
-138.998511020796 487.471729397107 2661.52933518929 179 181 180
-141.005652640139 487.557257826159 2652.66393988402 185 187 186
-136.300417598975 488.580315787474 2636.31798871802 184 186 185
218.684936311781 512.862946295006 2765.32450561694 222 223 225
209.303105580152 511.974690883056 2763.45935810644 225 226 228
192.249387327336 510.100703239016 2768.37895240061 226 227 229
177.556060348884 508.527002556669 2771.30576135085 225 226 228
159.852065332012 506.56353775474 2776.98883402795 222 223 225
148.311129587986 505.39061475925 2777.26246768356 220 221 223
136.039976973064 504.121982118536 2778.24130338684 218 219 221
126.834159780566 503.247324006671 2776.5041151972 216 217 219
117.645050358792 502.37390450051 2774.77875062388 213 214 216
106.96546476424 501.306716970097 2774.44229432675 207 208 210
96.3112086680922 500.241491795814 2774.12420986329 197 198 200
85.682473449765 499.178174379336 2773.82434121496 178 179 181
76.572545360071 498.310716787939 2772.15670155437 179 180 182
68.2241761240423 497.541337815613 2769.80600336357 224 224 226
59.1450760258891 496.676108788166 2768.16072286007 244 244 246
51.5633398343942 496.00506098627 2765.13123476158 210 210 212
46.2034682365995 495.623387017493 2760.00877957191 194 194 196
40.8381113498533 495.241208935321 2754.88234542579 208 208 210
34.7336829416798 494.762529202715 2750.45469039054 227 227 229
27.165210702504 494.09212278622 2747.43482086289 226 226 228
21.0631048332552 493.613422101815 2743.00884937955 221 221 223
16.4139078340715 493.325351877881 2737.16701486519 171 171 173
15.3793266741284 493.512660639469 2727.77212830065 219 219 221
10.6995145196231 493.221920656702 2721.90779220696 226 226 228
6.73025756535184 493.025192952885 2715.32399230345 199 199 199
1.31015645906407 492.637758500947 2710.15784627974 176 176 176
-0.535027270202271 492.722531824222 2701.40985388058 182 182 182
-2.40772121617949 492.804986897418 2692.64190699583 217 217 217
-2.88464003692424 493.073608256073 2682.41665699722 225 225 225
-4.81678463000423 493.151082868349 2673.60558784264 151 151 151
-11.0199541563181 492.663000024324 2669.10630563499 146 146 146
-28.5048832094144 490.675545297515 2676.18309901982 162 162 162
-53.6513992680729 487.664622506423 2691.28694676269 192 192 192
-71.6735341837902 485.59630257303 2699.20893518415 161 161 161
-81.9390371883748 484.558612706905 2699.17280560494 171 171 171
-92.8751828920669 483.429710776878 2699.88508744303 184 186 185
-99.6173041792261 482.859979043027 2696.22973066362 210 212 211
-105.664225387995 482.382955908198 2691.84377221547 173 175 174
-111.022593076788 481.998147734893 2686.72239136617 178 180 179
-118.44845240896 481.335794963565 2683.80624024865 178 180 179
-125.181117506863 480.766037680952 2680.15773833323 172 174 173
-129.178476609584 480.564150750623 2673.55354045007 177 179 178
-134.551557988584 480.177373934723 2668.42148336118 179 181 180
-136.537148257964 480.24797973903 2659.57163550339 179 181 180
-137.873836149323 480.407648063978 2649.95760531771 183 185 184
-132.501083185279 481.4771408692 2632.86075071199 183 185 184
237.063572146138 506.980856060878 2760.09075518302 202 203 205
227.640476635359 506.099787589046 2758.19573035675 225 226 228
207.436929161408 503.873931377558 2765.77089941501 224 225 227
188.080565930575 501.750158372087 2772.72539637626 222 223 225
173.3987494881 500.206948424091 2775.66070400126 221 222 224
161.822641212098 499.049950555179 2775.90892100174 221 222 224
150.276197182391 497.895236333413 2776.17865381454 222 223 225
137.239020603903 496.552244685029 2777.83713686206 224 225 227
125.75647889178 495.402468288385 2778.15321883968 225 226 228
114.303649571478 494.25497943921 2778.4908515511 231 232 234
104.38769392207 493.299277345241 2777.4734949644 228 229 231
93.7412749131039 492.250563981308 2777.16117540826 233 234 236
86.1172570779769 491.581497710015 2774.10104648081 236 237 239
77.0066550141117 490.724440686852 2772.43297092289 224 225 227
70.1473011927107 490.150842664896 2768.69261019403 197 197 199
61.0633306548176 489.29572363061 2767.04355573691 186 186 188
51.9959304305879 488.44179761699 2765.40651949667 231 231 233
45.1596120049857 487.869762422339 2761.68316001087 243 243 245
39.0628120467693 487.391312344455 2757.26103616504 204 204 206
34.4326286802268 487.099096415991 2751.43266956292 215 215 217
27.597621360071 486.526873294003 2747.70996509653 216 216 218
22.2247584266384 486.140517445383 2742.57806849577 228 228 230
17.5738151202061 485.846350883098 2736.73464268984 228 228 230
14.3629373503806 485.73633764086 2729.46601063839 164 164 166
10.4105501237561 485.532358527777 2722.89440323065 195 195 197
6.44391677291711 485.327135704033 2716.3124622038 218 218 218
1.74442224150662 485.028628102737 2710.43411306755 213 213 213
-0.0998521896553584 485.096582525553 2701.68669464694 184 184 184
-2.68573071814604 485.07053353868 2693.63623207297 208 208 208
-4.58304463663284 485.13397749058 2684.85063582668 203 203 203
-6.50770641674558 485.195135858504 2676.04490847791 164 164 164
-12.7043515391609 484.707133485343 2671.55035635748 157 157 157
-28.069626086435 483.036354454179 2676.45993218946 131 131 131
-51.814440820287 480.28031005133 2690.11082641034 181 181 181
-69.1429718991028 478.348272004408 2697.30127672083 160 160 160
-78.7176301257311 477.416410139723 2696.53145467501 144 144 144
-89.6637964502149 476.305545601351 2697.23656371418 217 219 218
-98.4975500325103 475.46712723801 2695.76898146025 186 188 187
-105.930839424104 474.809683915958 2692.84746900141 175 177 176
-110.597044052911 474.511652288493 2686.99296035988 180 182 181
-117.335723199494 473.943946913012 2683.34010912554 169 171 170
-123.385625584939 473.465741304535 2678.95198356934 176 178 177
-128.753370393851 473.076484299336 2673.82378251134 178 180 179
-133.445412805226 472.775627661596 2667.95052920059 178 180 179
-134.075120365884 473.007018001249 2657.61433080129 177 179 178
-134.74105083299 473.23535439388 2647.25185817523 181 183 182
-131.397382235499 473.991779283931 2632.38760114627 184 186 185
240.616500581676 499.492290808621 2757.68797677603 202 203 205
227.316365842936 498.152944237083 2759.15555982739 227 228 230
207.112195798022 495.975773607648 2766.73052417275 224 225 227
184.678853317699 493.525006933779 2776.39323791648 225 226 228
171.540085974956 492.198250392839 2777.97815788495 223 224 226
159.969449069054 491.060305964357 2778.23043770781 223 224 226
146.903298384158 489.739193207286 2779.86802762815 225 226 228
133.115391268408 488.328522754079 2782.21698391054 230 231 233
122.40302894353 487.290732499823 2781.85691596511 232 233 235
113.228030413663 486.439291788825 2780.1418920054 237 238 240
104.069598896413 485.589103574887 2778.43888417084 235 236 238
92.6729015935397 484.464563140205 2778.81732441786 235 236 238
83.5539181449869 483.617356978839 2777.14322291187 243 244 246
75.1990111153162 482.86295189236 2774.78786118062 242 243 245
67.6009273423035 482.200731625053 2771.74686156164 230 230 232
59.2678006237017 481.447847433834 2769.40759102335 216 216 218
50.2063231876653 480.604841463816 2767.77490365085 203 203 205
43.3764279391387 480.035581947164 2764.05621452255 215 215 217
37.2861100161255 479.557104356131 2759.63878950301 229 229 231
33.3968422121673 479.349949165854 2753.11292262433 215 215 217
26.5659495596093 478.780269898992 2749.39321385343 205 205 207
20.468134138679 478.300945951752 2744.97034945068 225 225 227
