ply
format ascii 1.0
comment KinectMotionCapture
element vertex 795
property float x
property float y
property float z
property uchar red
property uchar green
property uchar blue
end_header
254.654714970619 158.459288359808 2434.42702487741 191 191 193
252.598964692396 159.482087313778 2443.40246832712 186 186 188
249.11440375111 160.378758547929 2450.98122703143 186 186 188
245.641839442852 161.273755251595 2458.54832039667 182 182 184
239.268680775709 161.922085188887 2463.36422896643 166 166 168
234.352043626924 162.692716048435 2469.54953274965 172 172 174
228.707652797854 163.401892960646 2475.04968024443 164 164 166
224.531533896382 164.231918953736 2481.90776920412 164 164 166
217.41995929864 164.819674710249 2486.0489792285 154 154 156
207.349188883669 165.168090672228 2487.49577580659 122 122 124
197.995232325525 165.579008020469 2489.63843726852 116 118 117
183.429684370244 165.575420065325 2487.09884666608 171 173 172
245.732861394826 193.139638651371 2749.90350205158 11 12 6
253.066904113477 194.658922103517 2765.06837807762 15 16 8
264.397236411368 196.439869385163 2783.31142794832 15 16 8
254.518258137892 196.760915212521 2784.57181738864 9 10 2
266.751365339015 198.58102202688 2803.32918214886 17 18 10
277.486198677487 200.283864665492 2820.75820580377 23 26 17
268.439033004875 200.652862862449 2822.60241501341 24 27 18
274.504105006468 202.02564709673 2836.21489376332 21 24 13
281.422816822179 203.443935953091 2850.39021715514 19 22 11
279.597924587367 204.280200002641 2857.74673777273 23 26 15
272.174072912745 204.750444499458 2860.79816450391 27 30 19
272.780748196039 205.739378449958 2869.96860388131 30 33 22
269.385201719714 206.467228585475 2876.06701227297 28 31 20
266.806223357753 207.245181404541 2882.76406061894 21 24 13
265.049701803326 208.072487172712 2890.05401217028 20 23 12
266.557130512584 209.100763488519 2899.74108461343 20 23 14
264.027388630718 209.872332360454 2906.39018395141 20 23 14
263.957572199113 210.793106731952 2914.82555424038 20 23 14
262.276414117983 211.610712717048 2922.04210237237 20 23 14
258.972389652957 212.326604895927 2928.05139543463 20 23 16
252.390516419803 212.843055817096 2931.67680515508 19 22 15
245.801965677113 213.360320764328 2935.30906327051 18 21 12
260.668847880288 215.154473491003 2954.2890429996 20 23 12
262.39117911394 216.15542375794 2963.76709067926 22 25 16
226.824085199456 214.965424967321 2946.83192315664 23 26 17
218.547409653906 215.388891678324 2949.3202210173 20 23 16
225.254198381719 216.680195005644 2962.30750841423 20 23 16
221.159184919095 217.342207014122 2967.69331939201 21 24 17
211.208966877564 217.670155095063 2969.02343082506 21 24 17
189.489894678601 217.337346650382 2962.29976612196 20 23 16
180.308817673676 217.72128789837 2964.27474268774 19 22 13
177.852829402204 218.482726021144 2970.85210092063 19 22 13
166.960770624872 218.775907014564 2971.70570336993 20 22 9
162.816762295217 219.443703231754 2977.13897422944 21 21 9
158.677683100616 220.110909241861 2982.56777545931 39 39 27
156.244612584965 220.869347650817 2989.12281937827 22 22 10
147.003164317485 221.260560584957 2991.15667074819 17 17 5
125.780045171665 221.017528965221 2985.34415767398 15 17 6
119.900693615316 221.597540251901 2989.67980594964 18 20 9
95.1336324006595 221.188297409913 2981.74307057207 16 18 7
94.3674987801359 222.04273167262 2989.46245200249 16 19 10
92.7595825276724 222.850162564521 2996.60811163222 15 21 11
97.2171215353677 223.965347556036 3007.6039016692 13 18 11
104.316322203312 225.20719586534 3020.20882763873 13 18 11
68.9362273643042 224.296950253013 3005.88111419166 15 22 14
48.211142996661 224.143609930184 3000.97769820362 15 22 14
23.057947786151 223.782300932356 2993.41731499081 0 4 0
253.165487542421 147.98659376593 2411.94765248688 181 183 180
251.772725053784 149.095485852747 2421.66892405105 191 191 193
252.564592561975 150.396094803701 2433.44355585996 196 196 198
251.947203492366 151.56270791296 2443.80324833272 184 184 186
248.46051590925 152.467880766501 2451.38286228817 190 190 192
244.985819442578 153.371401898321 2458.95081301148 172 172 174
238.610444342782 154.017407548401 2463.76892821827 164 164 166
234.421939232179 154.854871493596 2470.63855538265 170 170 172
228.045447692851 155.500776346506 2475.45813197017 164 164 166
223.133293870013 156.273414526637 2481.63868706335 161 161 163
215.281693678497 156.793440960591 2485.10751664652 156 156 158
204.467252054201 157.063804967933 2485.88741645604 125 125 127
195.845476101566 157.52488018602 2488.71284560153 113 115 114
175.339620080893 156.991706552963 2480.8137153441 192 194 191
216.6631640928 182.698467938264 2717.96493974757 123 126 119
241.881761400461 185.590062483439 2747.75864090568 8 9 3
260.190872869733 187.950568348271 2771.73886093186 29 30 22
274.684555914989 190.013107804255 2792.46701265998 18 19 11
270.350811192114 190.709872514366 2798.08441303217 23 24 16
277.088728776961 192.192045552886 2812.42948787165 20 21 13
287.055759314584 193.890337079651 2829.20437655064 25 28 19
265.321823219175 193.352733619615 2821.10883121255 24 27 18
274.564024116517 194.986466193714 2837.1957810646 19 22 11
267.911649294044 195.507759929021 2840.89082198162 17 20 9
242.847031611028 194.766311601581 2830.46450792407 19 22 11
269.826923340499 197.591771056253 2859.93590173982 22 25 14
271.231807185398 198.655259331187 2869.71993627898 24 27 16
259.771556224664 198.847372842706 2869.73545253579 23 26 15
264.44114266793 200.122469147955 2881.914288672 17 20 9
261.868783414585 200.90805692091 2888.60363570242 16 19 8
271.486944132785 202.494187394941 2904.32428746424 17 20 11
268.968752474349 203.272865399733 2910.96086653288 18 21 12
267.278796309015 204.10289516672 2918.184315063 18 21 12
259.881359469818 204.561546647006 2921.2112249149 19 22 13
259.849933248582 205.494081047146 2929.60673503037 19 22 15
241.767917862857 205.273604634028 2924.9227916338 19 22 15
235.977630131226 205.841112809563 2929.17184616927 19 22 15
232.660692597625 206.564286522155 2935.19288589202 22 25 14
234.316690456677 207.595555977419 2944.73198458846 25 28 19
225.223438188193 207.955896350571 2946.62357593366 25 28 19
224.424220829066 208.829059273245 2954.37304191782 22 25 18
223.645536602529 209.699642743699 2962.10283728169 23 26 19
220.381431372641 210.415918525334 2968.07209541503 21 24 17
197.036202936154 209.923041206068 2960.15306736912 21 24 17
195.421082414617 210.743039691696 2967.30368561767 20 23 16
172.798332587811 210.314631003894 2960.0742686723 20 23 14
168.639070172997 210.987676312786 2965.5222490924 20 23 14
162.794688141055 211.561324088597 2969.8237747955 21 23 12
162.874810924332 212.479221018219 2978.11067851224 23 23 11
157.038249732437 213.051855072758 2982.40492567512 44 44 32
152.049311250143 213.673463162731 2987.26714193387 19 19 7
127.45219721423 213.181600878833 2979.17385761296 19 19 7
113.021055589794 213.278680045543 2977.90283029817 15 17 6
99.404756352945 213.428821501515 2977.23171918146 18 20 9
94.3342721229112 214.060473853393 2982.17342703566 15 16 8
77.2203478943991 214.027794197355 2979.33421716572 16 19 10
78.1601697399674 214.992980581995 2988.17734696184 16 21 14
62.7089595980199 215.062412465625 2986.50643970297 13 18 11
53.2746907933102 215.464540197562 2988.73015151442 12 17 10
77.6753703040209 217.681655516079 3012.3508604405 19 26 18
51.7502011196047 217.200418020597 3004.15753701552 27 34 26
38.8118813213398 217.420619230896 3004.22007465254 13 20 12
252.520560385033 140.000654181645 2412.35148375316 181 183 180
253.998959687147 141.397759351004 2424.84702656068 192 192 194
255.51660864694 142.789805910812 2437.3043415382 197 197 199
254.184562788513 143.907105335756 2446.96407799011 183 183 185
249.255077555407 144.685459174021 2453.16099865811 190 190 192
245.056043766733 145.530110453512 2460.04001867059 168 168 170
240.136887176113 146.306911584764 2466.22691233333 164 164 166
236.68214338859 147.215900269227 2473.7742416494 167 167 169
230.311263820314 147.858501311353 2478.5883959265 164 164 166
223.937007809732 148.501426516532 2483.40619299156 160 160 162
213.14370780556 148.750505879769 2484.16824472087 156 156 158
201.585676402515 148.937382534819 2484.28197024945 125 125 127
192.955911549453 149.388797189957 2487.11642247616 116 118 117
236.465650271396 177.893346514128 2744.35544967262 34 35 27
258.683519114649 180.635081454602 2771.48275478407 34 35 27
269.239595318135 182.469468812969 2789.06950682241 33 34 26
277.508872213415 184.11665487434 2804.70402469569 71 72 64
276.359154723633 185.049063071764 2812.7927860652 37 38 30
274.437264861798 185.920258211625 2820.24046396042 25 28 17
276.503658158144 187.081178466725 2830.77011874899 23 26 15
268.253860150594 187.481900319704 2833.23508849717 20 23 12
245.620635210379 186.842445477852 2824.63035670595 19 22 11
238.106532481797 187.308691432546 2827.77199505064 16 19 8
250.635314740067 189.211114192267 2846.22392168945 15 18 7
260.033956975033 190.874068975987 2862.15120395078 17 20 11
261.443338236722 191.958970910143 2871.9276075591 18 21 12
259.652597114355 192.813131432501 2879.24757052632 18 21 12
270.836909615579 194.568010036935 2896.22222599308 18 21 12
274.793040200927 195.807327695996 2907.69757525158 21 24 17
269.027323358097 196.369851318136 2911.92296724606 24 27 20
264.074341194823 196.988371279022 2916.74993477262 23 26 19
260.757602826659 197.717645270497 2922.76987510259 23 26 19
258.269075247556 198.500979333417 2929.37630913859 23 26 19
242.648225918613 198.403111874124 2926.48133571024 24 26 21
234.389338529321 198.80396237584 2928.95531233463 24 27 20
226.115594989914 199.206573460485 2931.44344328032 22 25 14
227.756039697638 200.261911280726 2940.99476703411 25 28 19
227.769744136608 201.205193804432 2949.34387316887 25 28 19
234.457465663028 202.575530845464 2962.33841343027 21 24 17
234.53498848509 203.510753305742 2970.62533824106 21 24 17
214.593528470463 203.164200848535 2964.97232835546 20 23 16
206.302225386015 203.56873982411 2967.47794908952 20 23 16
192.962310528242 203.658254518154 2966.54134480761 19 22 15
176.220868354935 203.542265003332 2963.34490575329 19 22 13
164.483293322446 203.746710333433 2963.63398627556 20 23 14
158.62940465254 204.319391171938 2967.9454329656 21 23 12
155.312779308608 205.047913804581 2973.96537211135 24 24 12
147.761402700419 205.517362390085 2977.14355062207 31 29 17
138.497954770056 205.885417189847 2979.20267074459 16 14 2
113.870365480937 205.335825969898 2971.14818111216 17 17 7
94.2816737377945 205.102380468744 2966.54539711911 17 17 9
82.3358937216927 205.332625412265 2967.03775293834 18 18 10
73.7932173472302 205.768107799473 2969.78807980063 15 16 10
56.6333294871417 205.703978108798 2966.99949863969 16 19 12
56.664534918204 206.644486779416 2975.33163600487 18 21 14
90.4213138959933 209.518741642043 3005.15149093483 13 18 12
43.807809589393 207.775166633266 2983.68037452994 13 18 12
43.8821697300353 208.710257080351 2991.97045944163 16 23 15
59.6392912154515 210.523217103722 3010.06363869306 16 23 15
43.2308716234675 210.522718903201 3007.93634304442 16 23 15
250.442935928004 131.867140446386 2411.36565953478 181 183 180
258.380113332178 133.927736461045 2430.10267393694 188 188 190
256.307669632908 134.993673113817 2439.08798062549 195 195 197
255.69950947436 136.197238747411 2449.43304708618 180 180 182
250.049678193462 136.908074500657 2454.93835185407 189 189 191
247.304621840151 137.897283827941 2463.1860037986 162 162 164
240.93513691171 138.537440458033 2467.99947230275 165 165 167
236.752200748593 139.385347457115 2474.86202594115 162 162 164
230.381248807179 140.02540722128 2479.67662768562 161 161 163
224.006930783493 140.665819326864 2484.49485776563 158 158 160
213.949524265248 140.964513077046 2485.93573271791 155 155 157
200.917792358434 140.993350576394 2484.70206627279 122 122 124
192.286272220346 141.434388570838 2487.54013303139 139 141 138
230.063248762551 168.997572308946 2730.77259158261 18 21 12
238.876889778596 170.783722856899 2747.26291826408 24 25 17
241.484314221401 172.062570491213 2758.65480082887 26 27 19
255.143279390493 174.205056958887 2778.7827764543 23 24 16
281.51268336205 177.32454234597 2808.81693673392 36 37 29
286.69620243615 178.762208809718 2821.87831168968 32 33 25
278.460316069432 179.150931045723 2824.33124051102 26 29 18
274.97562094366 179.907848779626 2830.5135408091 23 26 15
271.49972448517 180.663636892701 2836.68760869996 18 21 10
249.673070114766 180.024708288511 2828.69910979162 18 21 10
250.970601705439 181.145851740964 2838.58088745413 16 19 8
250.695946235732 182.142720252547 2847.20841925534 15 18 7
268.93894956484 184.513287085965 2869.83588931747 19 22 15
256.667183978134 184.604109814926 2869.25531300997 20 23 16
265.367975327199 186.242875861067 2884.46223728427 20 23 16
261.177609018739 186.927110217838 2889.93945059417 20 23 16
273.228449107656 188.78844769852 2907.45480609901 23 26 19
267.458819958668 189.349216342505 2911.68434245635 22 24 19
260.054719511729 189.793471805885 2914.71999709425 22 24 19
264.904535042214 191.111433743924 2926.71318971878 20 22 17
257.508024849688 191.554629139685 2929.74146379938 20 22 17
242.70710731182 191.480023989079 2927.44609498232 21 23 18
236.095097636127 191.985406572302 2931.10306653122 22 25 18
227.000168971784 192.320019369241 2933.00012508682 23 26 15
229.469429359595 193.454172547557 2943.13334521836 25 28 19
229.486807810133 194.413694823828 2951.47640277698 23 26 19
232.853213646434 195.596020487997 2962.12887150326 20 23 16
228.760918202663 196.267338621243 2967.51060800696 20 23 16
227.178604589331 197.105941128524 2974.62589884442 19 22 15
208.871864775519 196.827663458112 2970.17365312757 19 22 15
203.927748717853 197.444925654548 2974.99200237723 19 22 15
195.620894232641 197.841031875624 2977.51431223957 19 22 13
184.77091986176 198.0738674325 2978.3350432803 20 23 12
155.309434474754 197.104919703543 2966.64053304978 21 23 12
145.211158770862 197.404062900048 2968.12192527959 25 23 11
137.636594679504 197.868835028726 2971.32382048215 22 19 10
128.3500084048 198.226826271517 2973.40740471198 18 15 6
114.782533069375 198.318042970338 2972.69651979278 18 15 6
96.9051296588468 198.146123841053 2969.21946409449 18 18 10
71.2630138367172 197.501389744623 2960.76956706467 17 17 9
58.4037851078754 197.664340307989 2960.76168987919 15 16 10
50.672208329761 198.148559938806 2964.11662666844 15 17 12
47.2409482316332 198.897121399996 2970.24743808961 16 18 13
61.1005034676975 200.691785528505 2987.39347632567 12 17 13
64.653434819359 201.850294472458 2997.86424255869 15 20 16
34.3945517831044 200.980603557547 2986.9468898678 13 20 12
25.7724181395251 201.415711244681 2989.77651219542 11 21 12
94.9879909122746 207.355815343992 3049.11468793441 76 83 75
256.245294729194 124.526258904765 2418.02476078225 173 175 174
260.60594999053 126.269847641747 2433.27494580759 188 188 190
257.819126094366 127.275653521551 2441.56195841839 197 197 199
255.770134636897 128.352159621177 2450.52241452451 192 192 194
250.844495733803 129.135728135584 2456.71508284508 184 184 186
245.922868004341 129.918641851457 2462.90352694789 160 160 162
239.549415135821 130.556740930596 2467.72123978033 169 169 171
233.902338792749 131.267015618159 2473.2238917795 160 160 162
228.987527533668 132.048730938879 2479.40574414873 161 161 163
221.875189315326 132.615728406341 2483.55044268372 160 160 162
213.28381511386 133.04132685412 2486.35092589204 147 147 149
201.726005675813 133.185246221277 2486.47078007449 125 125 127
193.83614703626 133.686051201511 2489.9804417846 156 158 155
200.358481189402 158.039934090321 2698.12374995794 159 162 155
228.565876631718 161.527988950102 2730.52968676664 29 32 23
248.331967606044 164.27718127204 2755.839475553 19 22 15
243.116489703351 164.930554685457 2760.92195390414 31 34 27
281.948112615885 169.210161035522 2801.08171947171 30 33 26
283.939605019032 170.430168119128 2811.67701894701 31 34 27
288.3382609961 171.838413432003 2824.10521367607 23 26 19
292.784156722894 173.24063537959 2836.48705104407 19 22 15
301.249463103173 174.955770949308 2851.91686583324 15 18 11
281.912163274101 174.438549585463 2845.68914074213 14 17 8
276.075352322 175.005974271791 2849.98440586293 15 18 11
267.034768748405 175.321483528534 2851.82998459295 17 20 13
278.028097376036 177.209501529419 2868.9746119248 17 20 11
266.587024384362 177.335763342424 2868.98115486911 21 22 14
263.175302389723 178.088965754515 2875.09154089217 19 22 13
259.772442838099 178.841030505833 2881.19363236607 20 23 14
269.336130325013 180.58136351347 2896.94592362669 21 24 15
257.863366342248 180.711294446609 2896.98305605729 21 24 15
258.566743384609 181.765242539921 2906.04786009651 22 25 18
252.772815761783 182.326737752871 2910.30141781098 20 23 16
260.057703568313 183.862427385445 2924.0954334054 17 22 15
255.928024965302 184.541944791774 2929.51308008987 18 23 16
247.695494823617 184.918892423187 2931.96441641155 20 25 18
234.507568847474 184.936793732543 2930.88746935035 20 25 18
229.535681952884 185.558338221184 2935.7327625307 20 23 16
233.665265050526 186.835900782517 2947.03021830054 21 24 17
232.033548864901 187.692112252521 2954.19196402559 20 23 14
221.275044933356 187.895364675107 2954.92623594221 19 22 13
218.82175880461 188.691128448722 2961.49583759122 18 21 12
217.216064127063 189.543948927618 2968.63224476109 19 22 13
215.626717429935 190.394693741616 2975.7527249271 19 22 13
203.986504252284 190.544947302671 2975.95347105003 18 21 12
197.361384117686 191.046660730966 2979.62400377793 18 21 12
178.08716446286 190.683444546152 2974.7281244028 19 22 11
156.21375553624 190.155866322801 2968.18650524001 21 23 12
134.263859191589 189.637827358381 2961.71942931571 21 21 11
119.875224156102 189.642244546549 2960.41988772969 17 14 5
117.352766185074 190.446337861504 2967.05694693806 17 17 7
106.317633370035 190.683761791195 2968.0605270495 16 13 6
86.7122526495963 190.361740887886 2963.48740686337 17 17 9
76.461953717132 190.664097960339 2965.119285397 17 17 9
51.598373019075 190.020872308929 2957.31297785032 15 16 10
33.528734162247 189.832970772486 2954.02917698477 15 18 11
52.4749404118992 192.030142574211 2974.5667367018 15 17 12
55.112470282868 193.167549106666 2984.53271974675 11 16 10
43.9292075402751 193.423383511991 2985.68101184774 17 19 14
31.8518832412646 193.627894198422 2986.30779659644 16 23 15
31.0528396303393 194.542534529011 2994.0509597033 13 23 14
259.182066456046 116.923270201759 2421.90019656682 167 169 168
259.240592592296 118.247735146486 2432.98261197567 185 185 187
255.729340747472 119.189174680421 2440.5812584066 184 184 186
254.396591613075 120.355639570314 2450.2344265877 187 187 189
250.91510884099 121.293134590933 2457.80409488668 187 187 189
245.267348992404 122.003849258185 2463.30736058812 161 161 163
238.163734688186 122.564808298438 2467.44428862432 169 169 171
231.78273288636 123.201183330066 2472.2697524726 160 160 162
226.861958917373 123.986525075404 2478.45698991694 160 160 162
221.211603909977 124.697161492978 2483.96284421471 159 159 161
214.825842946732 125.333834277287 2488.79298997292 148 148 150
205.485281195984 125.676509305434 2490.9324363782 127 127 129
223.0070748088 152.563537160351 2717.53618155253 161 164 157
217.700435819425 153.228874627847 2722.70741592839 17 20 11
271.874120889388 159.058444287513 2775.74341648235 29 32 25
268.286188772694 159.84031957615 2782.02488176485 30 33 26
274.144919424439 161.430617680203 2795.81011207048 26 29 22
269.809081712439 162.140060887121 2801.42805477751 25 28 21
277.333779898472 163.853477399687 2816.3745764825 22 25 18
296.014741796748 166.49323440863 2839.94460818056 17 20 13
302.104256369293 168.054350079222 2853.50497979215 14 17 10
297.89790912079 168.747260860507 2858.996442198 14 17 10
272.943563844319 167.723464436914 2848.50269477792 16 19 12
252.693514761225 167.106215602765 2841.77921788767 17 20 13
262.849344775333 168.987664423255 2858.33955532752 17 20 13
273.07966776576 170.859683660623 2874.82697598695 21 22 14
261.624056779497 170.966512585795 2874.85082754713 20 23 14
267.911873715238 172.502371103995 2888.21801497671 22 25 16
252.389291704509 172.288573599641 2885.24259505875 23 26 17
253.86467248843 173.431251928712 2894.94492083991 23 26 17
242.352157636692 173.544950570761 2895.02392559655 21 24 17
243.86040485395 174.683411852651 2904.69423780128 20 23 16
242.947536149626 175.627099624868 2912.54613770933 16 21 14
242.055200645205 176.568200565276 2920.37836802095 17 22 15
243.647422769991 177.695970576023 2929.96653422434 18 23 16
234.567250926458 178.002747273157 2931.85305320212 17 22 15
227.119223615218 178.436972645561 2934.9338103087 19 21 16
229.587988466261 179.620795819438 2945.06018131192 19 22 15
225.458899369287 180.303194721591 2950.47681672436 19 22 13
221.334384125105 180.984941601594 2955.88866875996 18 21 12
212.215909469121 181.296265170622 2957.81221312905 17 20 9
212.264807752725 182.285131258066 2966.11963402502 18 22 8
211.500833690887 183.209814323751 2973.82682608133 19 23 9
217.46853285928 184.619149142976 2986.11368601583 16 20 6
174.717189488296 182.503642365787 2965.11342385674 16 19 8
166.347534586079 182.886997003603 2967.69998013996 19 22 11
152.050151139077 182.850905187588 2966.31581159075 19 22 13
127.550989198332 182.100750252656 2958.16343493236 17 18 12
123.330218617324 182.794248349928 2963.66913311556 13 14 8
108.907669407945 182.77369808746 2962.40662114187 12 13 7
90.1814304873385 182.462285873695 2958.37617935243 14 15 9
77.3748878300253 182.57123518183 2958.32396548102 16 17 9
73.097868332956 183.271684297768 2963.88449231186 16 17 9
82.5580424026602 184.907277030141 2978.33780733321 16 17 9
54.2357138665235 183.971816014242 2968.3413046658 16 17 9
83.5733514168924 186.935410991057 2995.45100565767 15 16 8
50.8533740559507 185.720798678919 2982.77780729158 17 18 10
26.6704057965401 185.096703892924 2975.70972331618 21 23 12
36.2529435629191 186.716944448086 2990.04379842295 16 23 15
32.8540152748937 187.473341673831 2996.14134575615 10 20 12
30.3354763039376 188.285439818673 3002.77333022916 0 3 0
256.388388027963 108.709711883027 2420.22034576368 165 167 166
255.720466876311 109.978188007531 2430.61516203175 186 186 188
255.800409903873 111.321609314333 2441.67350840889 180 180 182
253.023062805778 112.347948801421 2449.94773771893 186 186 188
250.261580728607 113.372199797297 2458.20652150675 186 186 188
242.433601044658 113.850012108039 2461.65813480571 162 162 164
238.234339078937 114.716768607286 2468.53411425954 169 169 171
231.123211040115 115.273308709964 2472.67915666233 159 159 161
226.932427614851 116.138812076885 2479.54690201256 158 158 160
219.08037064336 116.619291157128 2483.0220302666 157 157 159
211.95278032717 117.177633860621 2487.18315353056 146 146 148
202.60463132476 117.507954874116 2489.33229794886 127 127 129
249.548191937042 147.599655101302 2740.09275255924 17 20 13
227.913788825447 146.768073498467 2731.94148149599 22 25 18
276.632737326706 152.306045191774 2780.51817324256 24 27 20
287.962827046413 154.430181083302 2798.71074087033 21 24 17
273.420962625691 154.228183047057 2796.1766192493 22 25 18
273.025184125264 155.290621450217 2804.91473680921 22 25 18
273.443891152718 156.419637821773 2814.25112732268 20 23 16
271.513662138223 157.336748464627 2821.70029982848 17 20 13
277.54249581498 158.943736782526 2835.31414850937 16 19 12
276.460827039944 159.923153552565 2843.32872649469 17 20 13
257.839763046237 159.388354770675 2837.80961372556 18 21 14
258.355963927694 160.504859359721 2847.05104063678 17 20 13
265.316503532305 162.163581812116 2861.14895459341 16 19 12
274.748468514558 164.01876997047 2877.01507270726 23 24 16
268.132317025153 164.510312100323 2880.67820275137 24 27 18
263.125064731161 165.137671242501 2885.55775489286 24 27 18
270.266129957182 166.773596735111 2899.48011146146 23 26 17
249.866294324994 166.12386534207 2892.91017573673 22 25 16
244.853962644658 166.751710028435 2897.79470002073 21 24 17
234.13307925706 166.913754935616 2898.49770463386 20 23 16
234.014496795879 167.940651314196 2906.9658155248 17 22 15
233.100459165173 168.898421518966 2914.81679481665 18 23 16
238.778545852827 170.379939047609 2927.38057565285 18 23 16
228.039955753338 170.54403188959 2928.10086060878 17 22 15
224.703234130607 171.299125145386 2934.13682852995 19 21 16
213.929568354942 171.46753295268 2934.89130640084 19 22 15
237.956830863646 174.361584027823 2960.19934459656 19 22 13
235.523731545055 175.172066057216 2966.7467250929 18 21 12
223.939238399606 175.273250449576 2966.89939280187 17 20 9
205.644233501772 174.865438914291 2962.45463918863 18 22 8
200.67971619821 175.486835685836 2967.29263608866 19 23 9
164.676660070779 173.754621257842 2950.87086256461 17 21 7
160.483069739867 174.448057761374 2956.3495794612 17 20 9
153.765990099138 174.951494239262 2960.11117467212 19 22 11
143.663296293747 175.204233108473 2961.60381268134 19 22 13
121.685252248546 174.582806327686 2955.17996851389 15 16 10
114.056601345988 175.031664475712 2958.43792479891 13 14 8
86.8555987386355 174.052299107136 2948.75166511184 14 15 9
74.0463388777828 174.137885493706 2948.70560249332 15 16 10
62.9120492305053 174.351029616418 2949.81157319184 15 16 8
71.4470470062745 175.980267125737 2963.76763193116 15 16 8
95.4932211581303 178.702986863278 2987.66530396482 16 17 9
90.4254755698251 179.337028645179 2992.60393915059 15 16 8
56.908784734977 177.967759712512 2979.32750006294 15 16 8
33.6338433866623 177.339853931485 2972.77520452284 18 19 11
11.1447915549681 176.782202830225 2966.84937262388 21 23 12
-2.7414721318979 176.833882012682 2966.46089287787 20 25 18
-4.4875510659752 177.726588882987 2973.73114634049 22 29 22
19.9357051013234 180.402058913924 2997.26135384452 1 8 1
252.87874378336 100.392477166985 2417.84987360879 163 165 164
252.918997027032 101.762718763192 2428.943330659 185 185 187
254.431126875441 103.291336327551 2441.38594106088 181 181 183
252.371963680131 104.410109775054 2450.35058859948 185 185 187
248.160136481352 105.284124366833 2457.23763493058 173 173 175
242.504434130933 105.996105672362 2462.74860044517 164 164 166
238.305068197104 106.86844046144 2469.62385867207 167 167 169
233.383757417851 107.659673051856 2475.81075851261 157 157 159
226.271187192403 108.211085789435 2479.95832869235 156 156 158
218.417193950261 108.683851861338 2483.43651967104 155 155 157
210.551891818234 109.157969887468 2486.92574072632 145 145 147
201.199722186462 109.475413822823 2489.08044307355 126 126 128
297.454792419431 145.972010813322 2789.11794565023 31 34 27
269.196649139721 145.572051775929 2784.64653422867 19 22 15
289.213140809713 148.550567960777 2809.67411529784 24 27 20
274.664511960784 148.317292048861 2807.15133371038 24 27 20
267.973781980855 148.813671288245 2810.88814421738 21 24 17
269.198950045247 150.032324212785 2820.82736807382 20 23 16
267.279099394738 150.959308461675 2828.2647753961 19 22 15
265.375849141026 151.884197985524 2835.6863457204 19 22 15
261.892409189885 152.66413591908 2841.86399723606 19 22 15
267.218679352955 154.225836443972 2854.76528607015 17 20 13
283.022631567565 156.703137169139 2875.54792892704 15 18 11
280.437217119341 157.541850542365 2882.24238801845 23 25 14
273.834652578199 158.026726440077 2885.89301128828 24 27 16
274.496146989577 159.144224780475 2894.99035054243 22 25 16
270.326735545209 159.838405583825 2900.44494744006 20 23 14
258.04468303526 159.834837165294 2899.88853716979 19 22 13
243.287493185996 159.627098143279 2897.56908539759 20 23 14
243.165930566153 160.671098937174 2906.03762760502 19 22 13
234.075408894616 160.953234110929 2907.93806612141 19 24 17
239.717349587535 162.474929273291 2920.531802228 21 26 19
230.624556843529 162.75723848097 2922.43413238879 21 26 19
230.570639992076 163.792604569914 2930.83677755384 21 26 19
212.383846322866 163.32869373479 2926.29286004294 19 21 16
216.471995299961 164.702112830425 2937.61763079508 20 23 16
233.041386797574 167.082875526275 2957.65411156526 20 23 14
236.41448351802 168.37437878619 2968.2837997437 19 22 13
211.502875096502 167.381602118841 2959.15993860618 17 20 9
200.694366006964 167.535834670247 2959.95111149945 17 21 7
179.816153129464 166.894702040359 2953.85494055759 19 23 9
162.221009109802 166.527887974098 2950.12640249819 19 22 11
154.658369997108 166.961012642749 2953.32113350142 19 22 11
154.669889300982 167.987882532616 2961.66005533141 20 23 12
142.035121917864 168.027964921341 2961.44744457403 18 21 12
127.673348134621 167.941585593252 2960.1346490529 12 15 8
125.149508145526 168.771764542934 2966.76888733823 13 16 9
97.1235658831153 167.654697892725 2956.50490995307 14 17 10
77.5184061795384 167.196707553932 2951.95166651711 14 17 10
74.9355929177997 168.034256386045 2958.64371471055 13 16 7
72.3653648010192 168.870211289562 2965.32350125095 13 16 7
88.6885793877061 171.110087031949 2984.20835304532 14 17 8
81.8851910992078 171.619338157047 2988.05513245903 12 15 6
46.6255952053785 170.037131043256 2973.70673955256 15 18 9
26.7842552344337 169.608638563541 2969.38366684279 18 21 12
-0.91559545713471 168.62198262899 2960.19351037815 19 22 11
-20.9038308832543 168.211864918958 2956.01359124396 26 31 24
-30.5191931515623 168.55908670393 2958.4252466168 23 30 23
-0.0522649200247471 171.7695509979 2985.79430525073 8 15 8
252.234207427509 92.3855084516396 2418.25608705777 165 167 166
252.990575961268 93.8619633932321 2430.03997991244 181 181 183
255.222505292169 95.5017237953104 2443.16830124245 182 182 184
252.443058056588 96.5502550891912 2451.4416739227 185 185 187
246.783112802574 97.2629702999241 2456.95674423242 163 163 165
241.123449830527 97.9755835846 2462.47154929659 165 165 167
237.647976578462 98.9369110103759 2470.03172763427 166 166 168
231.994788122099 99.6485680285111 2475.54024474444 154 154 156
223.414316867398 100.030303242833 2478.3360462902 154 154 156
215.55254114493 100.496104370671 2481.82299480259 155 155 157
207.679613049759 100.963276281072 2485.32115302687 145 145 147
198.319720874062 101.268348383252 2487.48535252592 126 126 128
274.880054896144 136.651845576396 2771.81909928673 27 30 23
278.324404552986 138.137189105564 2783.76662989859 20 23 14
270.044710625233 138.479522985649 2786.26991645437 21 24 15
279.838322205593 140.562178512879 2803.15986604813 23 26 17
285.764964789648 142.258710820485 2816.86229527416 20 23 14
289.375709194017 143.722935892564 2828.6473768987 19 22 13
285.899609815313 144.50795389827 2834.81732612696 21 24 15
274.489690270588 144.545710580602 2834.80567641559 19 22 13
256.68019418704 143.992293811959 2829.90032576253 16 19 10
257.96421523064 145.225513403255 2839.77929263563 18 21 14
297.682894629753 150.000892234287 2878.98492304275 17 20 13
298.321956323565 151.140661841411 2888.10090879157 15 18 9
279.694497417763 150.51545183634 2882.60150900399 23 25 14
273.090022456802 150.995600449195 2886.25472803959 23 26 15
273.749153290759 152.132725770216 2895.3511756599 19 22 13
266.338704368984 152.539676641161 2898.39864802963 17 20 11
249.176977435985 152.078953911528 2894.25360005552 17 20 11
243.348865459276 152.635789953978 2898.54145412012 19 22 13
249.751958033235 154.271955954642 2911.77968357675 18 21 12
252.940023146227 155.614386485052 2922.58558384832 18 23 16
240.59766697647 155.594383133132 2922.09148507967 20 25 18
235.614133263628 156.219408199477 2926.94782929485 20 25 18
233.101603130198 157.057159498033 2933.57005537845 19 24 17
228.125701717731 157.681170793921 2938.41897044135 18 21 14
216.532898409724 157.741288015552 2938.58595997448 18 21 14
219.005788405369 158.99897663846 2948.69731736703 18 21 12
214.865791319772 159.692318357996 2954.12316722979 17 20 11
201.566995168148 159.617846336068 2953.16996862983 16 19 8
192.40519076295 159.895580203129 2955.14150462371 16 20 6
215.864921623702 162.876592786154 2979.5833479449 18 22 8
193.320185417773 162.04523894997 2972.33635527969 19 22 11
171.535718342557 161.292723052547 2965.73966123365 19 22 11
158.102144696872 161.235035484379 2964.91781794273 20 23 12
144.630688704326 161.182075675788 2964.13289362146 17 20 11
117.575815202232 160.045153446772 2954.32447456586 11 14 7
108.24050078131 160.344488277453 2956.46511595731 14 17 10
97.1858395014125 160.511033306796 2957.49890183555 14 17 10
83.5478880831388 160.478871243435 2956.87623603561 13 16 9
74.9982439377352 160.853872983675 2959.64275885265 13 16 7
70.7153104675129 161.56482699068 2965.20760572795 14 17 8
66.4373060986891 162.275194480395 2970.76798246168 13 16 7
76.7862601156861 164.112800828084 2985.72577765038 13 16 7
61.3435488411382 163.958463816936 2984.07916599348 16 19 10
26.8473933421487 162.360888211693 2970.39218410525 18 21 12
12.137291069295 162.288892584572 2969.42315801882 18 21 10
-11.2932580554634 161.568315933998 2963.03908001508 10 15 8
-20.887076969919 161.899979393686 2965.43197987476 27 34 27
-5.21937398320249 164.115838758483 2983.55440467053 13 20 13
263.728131204197 84.4399385211729 2419.35309066957 185 187 184
251.589942724743 84.3729198980941 2418.66319920284 166 168 167
253.062220556012 85.9609933548291 2431.13659569193 177 177 179
254.573752888411 87.5440591891418 2443.57175200551 182 182 184
253.958308598862 88.8629463121129 2453.9070072502 183 183 185
246.854245121989 89.4030297486117 2458.0478045686 157 157 159
241.920460740456 90.2016690630632 2464.24599617002 166 166 168
235.535108721283 90.8284277572455 2469.07720113891 166 166 168
230.605837516099 91.6263838620054 2475.27101206759 154 154 156
220.55794099303 91.8276231736128 2476.71684717753 155 155 157
214.156040787105 92.4562911231956 2481.56420255338 156 156 158
204.80750506827 92.7466488353767 2483.7192997033 146 146 148
196.915328917423 93.208207376578 2487.23706334292 126 126 128
187.532681966494 93.5027859737304 2489.4257474476 57 58 60
259.332316588966 127.885643042565 2760.21366076335 17 20 13
265.084990444771 129.642425553174 2774.07993855457 20 23 14
304.625258914053 134.769450386127 2814.82766984462 21 24 15
282.260751799505 133.683050134206 2806.02215561655 22 25 16
304.748562194461 137.056237991782 2832.78841415331 18 21 12
302.083227512929 137.922333930868 2839.55818808655 21 24 15
301.807168608881 139.019519491668 2848.17228670274 19 22 13
264.227590824669 136.479620151781 2827.76708501153 17 20 11
261.520037820651 137.350905701379 2834.57801534094 14 17 8
266.805819330448 138.988896894572 2847.50823427881 15 18 9
274.543163979389 140.850154882249 2862.22208183917 17 20 11
286.353346659789 143.08516230314 2879.92118545427 17 20 11
273.324537368146 142.950726291704 2878.70874856268 22 24 13
259.451874507501 142.745192154351 2876.92786969379 22 25 14
257.654376200021 143.679020049403 2884.24276784283 16 19 8
255.873310974582 144.610754180043 2891.54165715594 15 18 7
249.238670931416 145.089676507101 2895.22534965058 20 23 14
253.174164798685 146.542847887695 2906.68958398856 23 26 17
255.522248855248 147.841248970171 2916.91919608183 23 26 17
257.088557074501 149.060713281324 2926.51954279893 21 27 17
246.39507147934 149.163928847818 2927.20403595002 21 26 19
238.139522241741 149.492132766688 2929.68543487365 19 24 17
246.336074660001 151.295363953121 2943.95185866663 17 22 15
244.692213738429 152.20964282245 2951.11708195774 19 22 15
219.07566209651 150.999757709798 2941.30808123274 19 22 13
206.629716814501 150.968822174463 2940.91880159781 19 22 13
207.446985627367 152.105136018072 2949.85833580336 18 21 10
193.297756581945 151.933883421308 2948.34668660564 17 20 9
195.80630189304 153.211889963201 2958.4199726053 14 18 4
207.55643521345 155.276936685769 2974.78691692183 17 21 7
191.703385264176 154.965493434532 2972.1540885508 19 22 11
169.915516295847 154.159921674171 2965.56861426828 19 22 13
151.421958589653 153.648854193246 2961.33628771256 20 23 14
132.867598969304 153.14543135069 2957.16354632421 15 18 9
111.712253906108 152.437396472926 2951.35245986253 11 14 7
88.7872317220251 151.597441974548 2944.48403012741 13 16 9
81.9406064657437 152.102506088864 2948.37436332766 13 16 9
88.7251367374464 153.728655851232 2961.2349620654 11 14 7
87.8760433699903 154.719935149867 2969.01683595634 13 16 7
74.2032174944516 154.665654003074 2968.43173235689 15 18 9
61.3511103819562 154.685424070643 2968.43828315784 13 16 7
70.8279558995471 156.50463005001 2982.84790522727 15 18 9
68.3028078818597 157.35222029797 2989.48120686404 17 20 11
48.5105517258781 156.82699707596 2985.12368996189 17 20 11
34.7148493622349 156.788134456183 2984.65866352201 16 19 8
-0.817828325133885 156.114077887439 2978.94935220976 27 34 27
19.2522994391489 158.727719449631 2999.72653435915 27 34 27
250.945803618888 76.3547097869953 2419.07101749207 170 172 171
252.415834959166 77.970243707519 2431.54258613537 179 179 181
254.645182801801 79.6701165661594 2444.66458632656 181 181 183
254.029516506865 81.0081044062519 2454.99723894823 178 178 180
247.649432557946 81.6317333424153 2459.82367522234 148 148 150
243.443616070056 82.5216026741865 2466.70274734703 167 167 169
237.061984109544 83.1452850065483 2471.53037508561 164 164 166
230.676921651551 83.7693978263712 2476.36168357504 153 153 155
222.092837028224 84.1302914645053 2479.16449146712 155 155 157
213.493510476307 84.4930549921993 2481.98215845074 159 159 161
204.143087760277 84.7702978367139 2484.14106778848 136 136 138
194.035953693629 84.9627664413429 2485.64702296155 124 124 126
185.385161506471 85.3318669224967 2488.51485948281 57 58 62
209.319226022903 114.170603699701 2711.29681961014 108 110 105
243.785780476454 119.010922677682 2748.62306733094 16 19 12
307.404527471724 126.841427799143 2808.9885075626 22 25 16
270.956666767542 124.228849405923 2788.88748317312 21 24 15
294.906522150545 127.873039386525 2816.99567406376 19 22 13
297.71591365177 129.318483646297 2828.16237744543 20 23 14
293.452511262758 130.034285603408 2833.70745098544 18 21 12
278.894599894159 129.705916976912 2831.20794173893 16 19 10
265.085064298597 129.463334585531 2829.36985227839 15 18 9
264.767551849969 130.58224822031 2838.02156563531 13 16 7
259.685940911315 131.220886881363 2842.97328990221 14 17 8
265.005305030471 132.890213712063 2855.865529419 19 22 13
268.772278971713 134.39495981587 2867.48982165513 22 25 16
268.563122163717 135.500139789414 2876.03596608825 22 24 13
258.708357388953 135.659556593759 2877.29653770741 21 24 13
250.446398740518 135.97836889498 2879.78535150575 16 19 8
247.028422605198 136.767447896931 2885.89698328064 17 20 9
250.112307075332 138.178044710049 2896.79626152383 16 19 8
257.304043394241 139.971559870506 2910.64500926406 21 24 15
258.84591492886 141.216214438419 2920.26589886129 19 25 15
243.252553650841 140.837783472356 2917.3850965558 20 26 16
237.442890010224 141.387806511291 2921.65597595088 20 26 16
232.451481738476 142.014797276545 2926.51984919001 16 22 12
237.340627766995 143.558030021157 2938.44069112174 14 20 10
228.248253109129 143.801206636982 2940.34872773879 19 20 12
216.655814181382 143.819048871829 2940.52160366153 20 21 13
207.52052198431 144.067531025659 2942.47113603125 21 23 12
210.832745941788 145.449220395027 2953.1479422956 20 22 11
216.683661138371 147.051359859939 2965.52227399806 18 20 7
201.712425885519 146.774371222823 2963.42560753867 16 18 7
199.248783256857 147.623045692085 2969.99767316748 20 22 11
180.860206720868 147.056149746097 2965.66935018061 18 20 9
164.932855438271 146.719440229622 2963.11403847491 17 18 10
136.31595752492 145.279926422588 2952.0676370183 19 20 12
126.173104517558 145.475066248072 2953.60866682224 17 18 12
98.2303507856814 144.130610275775 2943.295690039 13 16 9
80.3658339538278 143.677574759985 2939.84704881475 13 16 9
65.8460581152909 143.52356382195 2938.70114759264 11 14 7
63.2175994884938 144.39282431791 2945.43383533828 11 14 7
85.3761879136119 147.362294881811 2968.33561960242 12 15 6
72.5541471783044 147.354537947846 2968.31604468318 13 16 7
56.2656791053269 147.063061782128 2966.11264181913 14 17 8
64.0102276306891 148.786711254912 2979.42242714241 13 16 7
39.9190552834376 147.857296316349 2972.30865249645 14 17 8
41.6621631341467 149.076294376076 2981.7335034777 13 16 7
43.4373258960115 150.291301021389 2991.12745122961 16 19 8
31.3589021365561 150.369869571415 2991.77360410955 22 27 20
15.7717437171305 150.170072531954 2990.27748741715 27 34 27
51.5680712843531 154.123229121537 3020.74639787911 135 140 134
246.730520949913 66.4045657145939 2404.88940062813 181 183 180
247.436925862936 67.9607098930551 2416.71079222039 171 173 172
248.89692485933 69.6046747511821 2429.18812104931 179 179 181
251.11637186831 71.3357388931649 2442.31568069862 177 177 179
251.212724416646 72.7858504441799 2453.34162556556 167 167 169
246.272685593167 73.5910000493621 2459.54506570216 149 149 151
242.788774352492 74.578233678607 2467.10979416172 167 167 169
236.405345202435 75.1996252050079 2471.9398829582 163 163 165
230.018334369187 75.8214258756414 2476.7734679477 151 151 153
221.432187060854 76.1718694733646 2479.57953078589 155 155 157
214.298518550378 76.7048974850594 2483.75076912901 157 157 159
204.950162966149 76.9685232955672 2485.909638366 134 134 136
194.845266454955 77.1447051742372 2487.4161166264 124 124 126
180.279572360583 76.7861194892278 2484.92880180968 58 59 61
213.278770943942 107.161235808514 2715.4857989145 108 110 105
282.428312871253 117.091388476319 2789.88683284411 23 26 17
255.332354938315 115.386181738503 2777.36938480246 24 27 18
253.292003670705 116.37335390501 2784.9175552709 21 24 15
262.304653794616 118.527002997861 2801.15594684193 20 23 14
256.372901462217 119.090445624648 2805.54574086152 18 21 12
257.568179583183 120.401087562977 2815.50138777958 14 17 8
263.560167908439 122.204072822035 2829.12285617688 13 16 7
273.588073425373 124.412534054012 2845.76189224189 16 19 10
274.912054281324 125.706870023936 2855.59180761454 21 24 15
257.868516194659 125.111165068254 2851.34934668293 22 25 16
263.221462923174 126.811827536462 2864.20360677865 19 22 13
260.586844638194 127.690874024708 2870.94062694854 25 27 14
253.936031562877 128.162004010407 2874.64153120784 26 30 16
247.278100021974 128.633967033127 2878.34904324419 23 26 15
244.661910522876 129.510671713854 2885.0684473174 23 26 15
244.493160551099 130.627397890898 2893.57309848298 18 21 10
250.857217452042 132.383372955842 2906.83204537061 19 22 11
246.674933136152 133.091786565698 2912.29765945936 19 22 11
236.774972101997 133.240944619266 2913.60429002912 17 23 13
226.852668522075 133.392895349652 2914.93269432069 19 25 15
230.049504357744 134.816689937716 2925.7178595628 19 25 15
230.816184091219 135.998262065794 2934.70094031736 18 24 14
225.009241022441 136.545671833601 2938.96950438471 22 23 15
215.063447438439 136.700504612881 2940.32080863201 21 23 12
207.582610348321 137.093161653165 2943.44029011537 18 20 9
213.387749448397 138.736689093588 2955.85396103365 17 19 8
208.415427727133 139.361673578235 2960.6991775734 16 18 5
202.609250657094 139.908911225921 2964.96700643196 18 20 9
185.920832582027 139.450730495664 2961.76815153446 18 20 9
164.14652519094 138.536518330064 2955.1852674097 16 17 9
139.773524253715 137.401269715634 2946.96452768747 16 17 11
126.267036233176 137.273346839261 2946.22547019654 17 18 12
87.3848758082549 134.858383212578 2928.51253403912 10 11 6
100.833715782557 137.184041926847 2945.98827567571 11 14 7
90.6116267101091 137.373461053415 2947.60883358041 9 14 7
73.5641077637195 136.96037733446 2944.76024368004 11 14 7
82.8855981803231 138.89200181066 2959.30752025658 11 14 7
76.0426358548325 139.386867065354 2963.19538565741 13 16 7
84.6046756732704 141.231394287949 2977.092771523 13 16 7
58.9040700314287 140.080385799599 2968.77578288282 13 16 7
48.5927382095763 140.280972467827 2970.48330959915 13 16 7
51.1892241358489 141.597448625412 2980.46358347554 15 18 9
56.4129994007527 143.131308504122 2992.0535189343 15 18 9
8.86657991888651 140.162334792283 2970.2733430069 17 20 9
3.65361342712189 140.817402070875 2975.35307713733 23 28 21
38.4487268113021 144.841137288165 3005.38852943365 16 23 16
238.232604200754 57.2890449842502 2397.67096438476 181 183 180
247.509210350553 60.0157771652073 2417.81327024309 176 178 177
248.96892390921 61.6869607935283 2430.28685959356 180 180 182
251.188082051816 63.4479474900779 2443.41028355095 175 175 177
248.396210957379 64.5417797459679 2451.68896000231 152 152 154
244.896301382119 65.5393153396108 2459.26805241877 156 156 158
241.408392526061 66.5353104102775 2466.83545563228 169 169 171
237.20449215616 67.435965493961 2473.71069305206 161 161 163
229.359726190018 67.8678786153349 2477.18575925752 146 146 148
222.235480285836 68.394509230523 2481.34858634571 153 153 155
215.103627086592 68.9220216080225 2485.51849942427 148 148 150
207.228717198565 69.3576537675808 2489.02294931756 130 130 132
197.867385565803 69.6095772652687 2491.19677140127 124 124 126
176.753127637679 95.6339906888078 2686.86055673967 110 112 107
218.94065474717 101.633234362428 2730.51892045744 21 24 17
279.362798889415 109.601391489486 2788.36997671545 25 28 19
274.222909305542 110.248350085415 2793.37834285583 24 27 18
246.279632476089 108.388978675907 2780.30783331553 20 23 14
252.909413746042 110.335451290257 2794.6920036817 17 20 11
239.052114259706 110.040240269983 2792.90912295915 15 18 9
260.008926396824 113.520490313485 2818.34570517649 13 16 7
271.565265913122 115.959160638049 2836.26677751782 14 17 8
290.368867381317 119.154201648319 2859.63261773512 19 22 13
256.620754328619 116.727585479084 2842.49119399549 22 25 16
265.931575781316 118.892692659619 2858.43180352889 21 24 15
255.265318997829 118.937262490888 2859.09758803953 18 21 10
259.042349873713 120.501087981085 2870.70316168338 23 25 12
255.61057877191 121.303624407721 2876.82616522044 24 28 14
249.764432728572 121.853884782817 2881.13323710254 21 24 13
248.773412887451 122.905419742075 2889.04714031957 21 24 13
243.744473786402 123.538175661942 2893.94743013967 18 21 10
246.038373649546 124.917752609415 2904.21851233861 18 21 10
239.397831840769 125.382562489082 2907.9101511873 17 20 9
231.932879825406 125.765694752361 2911.01526631449 16 22 12
224.457213672296 126.15015743241 2914.13082410382 18 24 14
228.469240488424 127.684241994009 2925.5071011594 20 26 16
225.115656419794 128.476860752691 2931.55426748568 20 26 16
218.469824837429 128.942223378748 2935.25073962008 22 23 15
206.854450889435 128.920727886455 2935.45220445585 20 22 11
206.81607702481 130.037614122704 2943.82736656304 17 19 8
210.956824744071 131.555447413087 2955.07822378975 16 18 7
190.985677083905 130.731648969771 2949.52556876536 16 18 5
184.303791526936 131.201494117822 2953.25718051473 19 21 10
180.96247433043 131.992492731327 2959.2924051124 17 19 8
152.466848216223 130.387576463875 2948.14968753593 16 17 9
106.209048844865 127.124953582438 2925.13295616652 17 18 12
111.163386844929 128.725752958966 2936.98089102573 17 18 12
100.962698969988 128.896856599399 2938.58290424579 8 10 5
93.2792745603046 129.307311489042 2941.90092741791 9 12 5
77.1007903422354 128.9330115966 2939.60055027071 8 13 6
88.9353359374359 131.150976064797 2955.86107077451 9 14 7
80.3928257439051 131.484154091473 2958.62669099849 10 15 8
70.9813686415828 131.741267217956 2960.84918354761 11 17 7
88.9494903593269 134.485051847392 2980.86063505062 12 18 8
64.9752109418138 133.423333581142 2973.6500005295 11 17 7
37.4766653649608 132.063604995139 2964.31508508507 13 19 9
59.8732924456016 135.176962387972 2986.95922703494 16 22 12
60.7966206103487 136.358069298507 2995.7868223405 15 21 11
10.6633090734767 133.026852247598 2972.37760423519 16 22 10
-6.6944990569171 132.615528659004 2969.83687593495 14 19 12
35.0340172319403 137.37445284014 3004.21498411234 10 15 9
243.304672371676 49.9745298427656 2403.63444876362 181 183 180
249.013863111404 52.2667113096079 2420.29859283543 179 181 180
251.91345542399 54.1600705706258 2434.14368031387 179 179 181
252.699832512878 55.7550116930504 2445.87992418192 177 177 179
247.023841907138 56.4703799046516 2451.41053565072 152 152 154
242.072173119052 57.282700747148 2457.62480245035 160 160 162
