ply
format ascii 1.0
comment KinectMotionCapture
element vertex 790
property float x
property float y
property float z
property uchar red
property uchar green
property uchar blue
end_header
128.439013252192 243.864935964345 3000.58225526244 17 20 13
124.30712727528 244.52134880123 3006.00517090511 16 19 12
90.8610986788378 243.939453633464 2992.54218967155 17 20 13
52.96703546027 243.192449214871 2976.43535337438 18 21 14
26.1876741457265 242.93055016501 2967.64126575969 19 22 15
51.3995627938728 244.821522383508 2991.92154514589 11 16 9
74.1371285875001 246.589250154164 3014.42567554228 11 18 10
75.1996826013475 247.461442305347 3023.16067498807 25 32 24
97.2640543744867 249.169338603043 3044.92556858828 12 19 11
100.740634620128 158.300292872619 2248.62382983891 11 10 6
91.7403536915491 158.842984361244 2251.8130571717 18 17 13
154.56929124253 165.093615237264 2324.53224480632 16 12 9
217.773273149285 171.296906844203 2396.88600457478 223 219 220
219.952411197708 172.644287821623 2410.10996197996 193 195 194
225.79635451771 174.267693617174 2426.7391394997 192 196 197
229.524256761862 175.714802477574 2441.24456790347 187 191 194
231.846724445181 177.043642726488 2454.32893717398 184 185 189
230.561731840992 178.088950513225 2463.95258938155 180 178 183
227.836390057514 179.020407677408 2472.18953805328 179 172 179
226.594877194754 180.059863892411 2481.77054125261 174 167 174
223.905406907287 180.986474556001 2489.97258530919 162 157 161
218.279959694879 181.692437760759 2495.45439649715 154 152 155
211.914887165423 182.343822827745 2500.26148602382 149 147 148
205.546528811868 182.995491149506 2505.07213439946 143 141 142
201.406220354815 183.809041070697 2511.89743605669 133 131 132
199.511343266626 184.78227967625 2520.72011720641 134 134 134
193.897957071918 185.485911576721 2526.19029619125 117 117 117
188.285125081111 186.189311446711 2531.65995913743 125 125 125
183.424370851618 186.94539359317 2537.79192064913 112 112 112
183.089716035297 188.016666695929 2547.88528288212 129 129 129
179.760572915391 188.87463744013 2555.31509146582 110 110 110
175.686452102001 189.678781918283 2562.07605793483 85 87 86
171.620783188533 190.481683993675 2568.82881516887 91 93 92
168.324825756834 191.335074819297 2576.22668462556 112 113 115
161.224584387968 191.929567320404 2580.35530705623 106 107 109
156.413000041914 192.678418867315 2586.43951082627 128 129 131
157.743827384159 193.834070080084 2597.70037224308 126 127 129
159.879538120111 195.035820291344 2609.57206845744 136 137 139
161.2838155964 196.182020298956 2620.76138968934 133 134 136
166.589119039203 197.574670439307 2635.12539367733 136 137 139
170.399773447523 198.860330058848 2648.15560076835 133 135 134
177.365691070083 200.338828747568 2663.69205842693 147 149 148
182.836792175122 201.710356325079 2677.89454479094 116 118 117
189.924969220876 203.173294848818 2693.31189682055 80 82 79
198.641640110321 204.726262175221 2709.93264280753 93 94 88
240.388098762819 208.318037381949 2752.96756965159 13 14 6
287.518610846823 213.14475564463 2808.8950381432 30 31 23
287.185422980909 214.066304982464 2817.59148777811 20 23 14
280.536500980588 214.602480587354 2821.28090045787 10 13 4
281.825023761764 215.614819737519 2831.18770522975 15 18 9
287.923936060312 216.906884781136 2844.77851032566 22 25 16
289.288137396219 217.909618811361 2854.61192264848 20 23 14
294.685654939179 219.142332078393 2867.49108595415 19 22 13
300.1345122151 220.368543671917 2880.32022909055 20 23 14
308.047290766045 221.727247971621 2894.93414540845 23 26 17
306.349581991474 222.524922949018 2902.17007441791 20 23 14
288.506990974443 222.403500844265 2897.23373890037 18 21 12
273.843131900327 222.472040284677 2894.78077445268 20 23 14
268.065065995634 223.045194530458 2899.01685804661 22 25 16
272.050466520934 224.160113060702 2910.48152795897 28 31 22
272.816402968786 225.090000291951 2919.50288356696 29 32 23
278.516606487684 226.284140696151 2932.08683843429 26 29 20
272.792518533542 226.850224803871 2936.2703660887 25 28 19
255.562360955523 226.798449779579 2932.13282846443 23 26 17
239.922049666527 226.841516727474 2929.23635100628 20 23 14
237.440575814125 227.589494276987 2935.84100626463 25 28 19
242.418680473486 228.726701337193 2947.73352137972 25 28 19
256.567800053956 230.333067704005 2966.0370954279 23 26 17
250.023549106934 230.854396732331 2969.62476252195 22 25 16
232.639658681598 230.821278103736 2965.63678863852 21 24 15
214.363366464353 230.752747119498 2961.12330753956 22 25 16
213.606260995189 231.578565471431 2968.83829114334 20 23 14
211.191202168704 232.317816538677 2975.37828506942 25 26 18
201.21937636525 232.679742099377 2976.72483147281 25 26 18
191.225229863598 233.044393085506 2978.09313984279 22 23 15
187.968088364522 233.741880901477 2984.0585975836 19 20 12
178.791537414491 234.151079914328 2986.02534662336 19 19 11
169.596744356291 234.562543483549 2988.01021348775 23 23 15
159.532617445979 234.935707025794 2989.44675528594 22 22 14
151.151508091959 235.392241256677 2992.03387009723 17 18 10
134.20998790155 235.449897586974 2989.01010884953 18 19 11
130.063060963758 236.111473679033 2994.44753510383 19 20 12
121.628342217893 236.574528645974 2997.08658322978 15 16 8
114.899979687265 237.118087508085 3000.85379028829 14 17 8
86.6072991773548 236.684885645215 2990.75361300909 18 21 12
72.9027804877624 236.925179830349 2990.15644273709 18 21 12
27.978852341124 235.779742628337 2969.75330419964 16 19 10
48.853437792086 237.573334411625 2991.27009813298 9 15 5
68.9743365492417 239.314273805981 3012.12551109319 23 29 19
56.9459026688532 239.63879962477 3012.68600874932 19 27 16
60.617308470325 240.644982987247 3023.06164175672 14 22 11
106.533455567798 150.266978165301 2255.39474363541 15 14 10
111.878145913422 151.997328217837 2272.50388042455 14 13 9
211.361631422495 162.755585011988 2391.76206584215 218 216 217
220.023797322375 164.668644235432 2411.21787114181 195 197 196
227.315853554121 166.453631866671 2429.21932588582 195 199 200
230.320864640468 167.876824907948 2443.0288834835 184 188 191
231.188636769178 169.118301576754 2454.73688060763 180 181 185
231.36177250064 170.296869275605 2465.72705054342 184 179 185
227.905954615972 171.181027440169 2473.27911639383 179 172 179
226.664175058581 172.236917981132 2482.85795543867 174 167 174
221.766496176246 173.001865671078 2489.02561119503 160 158 161
217.61084992154 173.823421250201 2495.86462243733 151 151 153
210.50407744861 174.415480777384 2500.00042778536 145 143 144
203.389762381911 175.008312557582 2504.14327105985 144 142 143
198.499511454091 175.771651361137 2510.30345069829 133 131 132
194.359514311631 176.59064613704 2517.12763846837 125 125 125
190.227820057113 177.40843940882 2523.94375892978 121 121 121
183.855347744078 178.057462452925 2528.75854565689 122 122 122
179.734476797845 178.873596430588 2535.56416365612 110 110 110
176.375491068109 179.743874122972 2543.02212527296 114 114 114
170.762288936979 180.447114264139 2548.4921793818 126 126 126
166.66444792339 181.259871497953 2555.27508955674 92 94 93
164.094068740769 182.180719570152 2563.35972609422 104 106 105
160.016978589032 182.99058809729 2570.12245730617 105 106 110
151.368739102142 183.474414950477 2572.97080245065 109 110 114
149.59283689069 184.445040040242 2581.67606390748 124 125 127
155.50879000913 185.94953149072 2596.83406296143 129 130 132
159.176624881032 187.286269922687 2609.9985425372 130 131 133
157.49418112384 188.244764943147 2618.61245334434 130 131 133
158.924254810041 189.412273444843 2629.77300917234 134 136 135
160.39010748927 190.575182982724 2640.8987156562 130 132 131
169.660846006583 192.257857011847 2658.36700302178 128 130 127
177.448886711213 193.826669419841 2674.4909791381 93 95 92
185.303703865241 195.386988180024 2690.54956276847 82 84 79
196.356520979013 197.14563074094 2709.07114810542 58 57 52
256.928918114859 202.136088769145 2767.21344138802 20 21 13
269.842744431279 203.961022135612 2786.71137580129 18 19 11
261.55462645841 204.398152635679 2789.20901665937 17 18 10
272.224823616029 206.054662163052 2806.70873516898 14 15 7
290.105931660668 208.155691049935 2829.73507234717 19 22 13
280.295622178467 208.483701157262 2830.9265811871 24 27 18
288.779397075584 209.964567635929 2846.37234349339 24 27 18
287.750131446777 210.839805157921 2854.3499441852 17 23 13
285.941091211917 211.662905293782 2861.69300699519 23 29 19
287.357072635374 212.680979980444 2871.47239574131 23 29 19
296.042422504918 214.136309422185 2886.72176548306 25 28 19
296.73373461095 215.095246523477 2895.81259276553 25 28 19
286.140536539293 215.370867117178 2896.37201753553 25 28 19
277.95100327189 215.794618576347 2898.77373974013 26 29 20
271.370526752404 216.31624484057 2902.39699758982 26 29 20
270.480358052636 217.173440082666 2910.23947745796 26 29 20
275.320936090084 218.361110297047 2922.26110010948 27 30 21
276.120497112315 219.306093020406 2931.24683491091 24 27 18
279.406973371869 220.388790947189 2941.99339982455 23 26 17
260.549105254786 220.201250463051 2936.6577745838 22 25 16
249.86207895902 220.487918258319 2937.30873939581 19 22 13
241.625272943604 220.916936314798 2939.75662573723 19 25 13
248.267720706974 222.178146414566 2952.81225242887 19 25 13
251.647864074712 223.248837094264 2963.4675791853 18 21 10
251.74246755667 224.131922814416 2971.74524843574 20 23 12
234.362893749327 224.058280847477 2967.75931526054 22 25 14
201.892550349283 223.178623569327 2953.37147331356 21 23 12
196.083266607063 223.752460958702 2957.63811787132 23 25 14
200.340035102502 224.8629059795 2968.83431440251 23 25 14
196.230174320306 225.523382574498 2974.23475807955 22 24 13
179.481078864199 225.520118545966 2971.02925807055 23 25 14
171.972265639464 226.007073874252 2974.16258302336 21 21 11
171.227090964113 226.845118821223 2981.86357424511 20 20 12
164.56118555215 227.376211773762 2985.57060291749 17 17 9
161.29094136781 228.081099147689 2991.54764032504 22 22 14
148.650822571091 228.311833317036 2991.31250319255 18 18 10
129.140142782422 228.204622032268 2986.61325697144 17 18 10
125.837924256867 228.913416675497 2992.62180572178 16 17 9
113.960232231855 229.198285256751 2993.03847580953 17 18 10
102.912528177835 229.528894691699 2994.04076657013 16 17 9
102.186272666049 230.364379375307 3001.72368703058 18 21 12
73.8254182382629 229.867350828002 2991.70064101572 18 21 12
79.1404285182522 230.994710084768 3003.26005937019 17 20 11
67.1414803292918 231.294562716934 3003.79492398506 18 24 12
40.322144890411 230.9038421002 2995.0592331961 7 13 1
35.2055835758183 231.540042742055 3000.04602404114 19 27 14
110.182626329365 142.087576414768 2260.06519740372 18 17 12
126.283153864152 144.801065938549 2287.60331241279 21 20 15
169.085803106191 149.811001863386 2340.716110921 24 23 19
204.950681035763 154.164960872869 2386.64506530005 209 207 208
220.095278507937 156.692472688074 2412.32576393921 191 193 192
228.110976642673 158.588126129979 2431.00918453539 194 198 199
228.212923066716 159.797744826595 2442.06545718191 185 186 190
229.074319874919 161.064502935647 2453.77571066573 182 183 187
229.241288147632 162.265651864261 2464.76866748333 184 179 185
226.511449212271 163.219595922843 2473.0064204982 179 172 179
223.063608699617 164.110886110963 2480.5495105903 175 169 173
217.41995929864 164.819674710249 2486.0489792285 159 157 160
213.990488821829 165.708361590435 2493.57421237123 151 151 151
207.613525643739 166.356203827952 2498.39363311642 143 141 142
201.975056677781 167.063904455995 2503.88811830775 144 142 143
196.337046184813 167.771392493064 2509.38217964947 128 126 127
189.208205791834 168.360580395975 2513.54032319315 122 122 122
183.567285499028 169.068147786518 2519.03726228071 119 119 119
176.427587587834 169.658371048173 2523.20569663292 113 113 113
173.790108902911 170.599249006705 2531.35366571764 114 114 114
168.908412627451 171.363766622312 2537.50551407391 120 120 120
163.275586473683 172.069738671961 2542.99465135244 120 120 120
156.128464007555 172.660315599575 2547.17040612578 90 92 91
152.771095366904 173.538379708173 2554.62561112034 105 107 106
147.90336331797 174.300545518583 2560.76360254703 105 106 110
143.803589734407 175.118870024436 2567.54794679414 111 112 116
142.773125575106 176.162407804319 2576.91911009955 127 128 132
151.739876693396 177.935541793258 2594.67622934556 131 132 134
151.551960110575 179.025744968421 2604.62074264506 131 133 132
149.849832182389 180.000549681212 2613.25178955958 130 132 131
149.714022256827 181.083977593394 2623.14556155905 134 136 135
154.255993901024 182.496104685964 2636.84777730443 130 132 129
163.510802172057 184.232548567491 2654.32427432135 116 118 115
169.72502357784 185.739914993635 2669.1860014786 87 89 86
175.99821966985 187.239756565973 2683.98994022873 85 87 82
189.375342431669 189.221812965877 2704.42150102493 40 39 34
238.157769605968 193.629671735818 2753.10218770732 19 19 11
260.46397884981 196.17022251278 2780.17184226858 14 14 6
258.46106358809 197.029334604224 2787.70176545294 12 13 5
278.609325065549 199.382655022964 2812.69090081657 16 17 9
280.656037624215 200.496655213378 2823.24703363366 21 24 15
294.654696933624 202.400408653372 2843.07297259338 24 27 18
299.987639619856 203.712474836225 2856.00453136007 19 25 15
287.809156753871 203.863693526341 2855.32239743525 19 25 15
276.396984746217 204.07128599005 2855.28822064053 26 32 22
274.580660323799 204.906403590782 2862.6364027384 29 35 25
275.997437653363 205.946352904097 2872.41210591971 29 32 23
273.415485272306 206.724723167848 2879.11170797047 25 28 19
276.502303316569 207.860269678036 2890.04872544584 19 22 13
280.438955956962 209.041793147391 2901.55229638962 19 22 13
279.547556501182 209.913146937831 2909.39356794741 21 24 15
272.979771753395 210.428192041026 2913.0055332149 18 21 12
272.115393160757 211.296006742463 2920.82049573196 19 22 13
270.453622700005 212.111190723264 2928.01814964148 17 20 11
268.808410152551 212.924281649192 2935.20000849291 18 21 12
254.855330333096 212.991755614768 2933.45829653253 19 22 13
252.390217083538 213.754896918769 2940.04446427411 16 19 10
249.112172147942 214.467344429789 2946.0284684 21 27 15
240.050712175185 214.836751511881 2947.88681162796 21 27 15
233.459059430387 215.354215867081 2951.52212060493 19 25 13
236.83597612393 216.452741195748 2962.17653754757 20 26 14
234.41990856578 217.209463635737 2968.71495089785 23 26 15
200.279849149274 216.14535209926 2953.17826741955 21 23 12
190.281204674922 216.479338761594 2954.55557451657 23 25 14
194.524198459891 217.621690229366 2965.76073377995 22 24 13
193.764523946506 218.47569351636 2973.47376491953 22 22 12
168.580803700109 217.966729175821 2964.54860759604 24 24 14
172.874693844692 219.102581562321 2975.70384874132 21 21 11
171.28459291333 219.907978607623 2982.83178025348 36 36 28
167.164901271796 220.572769993023 2988.24168623704 22 22 14
152.841828101586 220.685553329715 2986.8606864382 21 21 13
147.855700732666 221.306261572536 2991.72024421683 18 18 10
142.870509145019 221.926807618637 2996.57889672342 19 19 11
141.312209132559 222.728123646079 3003.67619046766 18 18 10
114.876599706645 222.222894729358 2994.57637835204 16 17 9
84.9040210924956 221.550568176886 2983.34555077107 16 17 9
78.1010489768006 222.093624295547 2987.18658271376 18 19 11
95.4886674615927 223.876825113898 3006.49920921657 18 19 11
67.9392584198335 223.358315610111 2997.09047013172 17 18 10
62.8596813077569 223.990480349366 3002.04113162157 21 27 17
34.2914112341548 223.446964987898 2992.23092314 19 25 15
18.6985009356859 223.565808749948 2990.69342317721 19 27 16
90.4441168568773 227.996243090255 3043.49095356282 14 22 11
78.8224367553578 130.716219701597 2230.53827102808 17 14 7
170.596354292098 141.728674714645 2343.24449432166 43 38 34
210.785602070071 146.629151221881 2393.30064205811 219 215 214
226.667391835636 149.298143617835 2419.6456342439 192 192 192
231.803205619484 150.98538486454 2435.55165069159 194 195 197
231.914437177834 152.21559818622 2446.5953213439 180 180 182
230.601023341058 153.31379423096 2456.23937939413 188 188 190
228.581147341933 154.34510843949 2465.17760276148 186 180 184
223.653188813247 155.119925035799 2471.37386803423 179 173 177
219.463254094121 155.957265286331 2478.24459526103 175 169 173
213.809739165158 156.667467127553 2483.75365163783 156 156 154
211.846173679246 157.691197712634 2492.63741653136 148 150 147
205.463469323878 158.337303472562 2497.46313284308 132 132 132
199.077123390953 158.983682329323 2502.29208708956 141 139 140
189.712563151855 159.382375314241 2504.44742276098 123 121 122
181.820280438542 159.906830171672 2507.95599617063 113 113 113
175.411988794311 160.555562852262 2512.80639493872 109 109 109
169.750053590277 161.265867959519 2518.32379751046 100 100 100
165.59183429079 162.098024934132 2525.16413478463 93 93 93
156.920992000228 162.5642906448 2528.03752037649 104 104 104
152.012253147046 163.335009350876 2534.21496805174 75 75 75
146.350684185392 164.044737568023 2539.73209220349 96 98 97
145.24588400614 165.114533782055 2549.1731912905 101 103 102
138.836056607106 165.762577240839 2554.02555479448 107 108 112
136.239129880814 166.708684638584 2562.13248227599 118 119 123
136.719215391163 167.889884512538 2572.81711966746 127 128 132
142.601297746816 169.480481604095 2587.99636435541 121 122 124
143.928006112838 170.710576874362 2599.2503131773 122 124 123
143.748333046171 171.818890949729 2609.18396376026 124 126 125
145.915672203956 173.098605822463 2621.01272934127 124 126 123
147.347825535698 174.31514271963 2632.16397367507 116 118 115
152.700085467502 175.81634648284 2646.46530499729 101 103 98
157.328872914619 177.252910359893 2660.07769962091 89 91 86
167.474455435847 179.084471320477 2678.0724956943 83 86 79
182.395055767282 181.248822395461 2699.77857385115 23 22 17
253.128814694664 187.438662237518 2766.07405121026 13 13 5
264.458603583435 189.276855672894 2784.30917973773 10 10 2
285.333455632652 191.78131345919 2809.97137120343 13 14 6
281.041335540313 192.472793867717 2815.54821871963 16 17 9
293.395428048069 194.337592078212 2834.17917575504 21 24 15
297.097449773053 195.579238650406 2845.90651465596 21 24 15
299.250548999671 196.704476080379 2856.35534307998 16 22 12
291.0617958152 197.107888148011 2858.75929680389 15 21 11
275.656288347988 197.018615905356 2855.64921535424 19 25 15
272.233436706743 197.755847695743 2861.77301373182 21 27 17
270.427575951874 198.600798664228 2869.10935188567 21 24 15
271.86241346848 199.660473947382 2878.86420554454 19 22 13
274.137136178441 200.770032362906 2889.19457740317 17 20 11
286.166826479319 202.519695555881 2906.74744037114 18 21 12
286.100831724994 203.456816373091 2915.17659968055 20 23 14
276.293159989604 203.752000422832 2916.37000303388 22 25 16
275.436370566813 204.632841371803 2924.1755041194 22 25 16
267.240694423374 205.036322738153 2926.58632220158 19 22 13
264.767806139016 205.809142110736 2933.17878025334 20 23 14
247.519145900881 205.639491687966 2929.0770379765 22 25 16
251.624533993358 206.829616749908 2940.41144296836 19 22 13
245.868047601262 207.392841616204 2944.62756534524 22 28 16
242.590654010535 208.110984255553 2950.60974309658 22 28 16
226.052714678438 208.007190589567 2947.20942017148 20 26 14
222.761798854855 208.726951172284 2953.20512441061 20 26 14
221.979035970974 209.598002891386 2960.93856289258 23 26 15
204.513778350881 209.454972497594 2957.04797058926 21 23 12
194.524928580899 209.772031302863 2958.41805332994 23 25 14
190.386905397057 210.44247107595 2963.84499013476 21 23 12
182.048996057206 210.86301340651 2966.39452628052 22 22 12
166.110363919144 210.838849235175 2963.80422256555 23 23 13
170.398196014805 212.005657374158 2974.96090419626 21 21 11
169.649063566414 212.872257384802 2982.66194296119 34 34 26
160.433030467682 213.247403757815 2984.67293132356 20 20 12
134.186079131323 212.651891101485 2975.39946067541 17 17 9
120.631726109198 212.794363303769 2974.66796956409 20 20 12
130.96553691329 214.290127291196 2989.69132633863 18 18 10
122.528417563649 214.722763838086 2992.33759197081 15 15 7
91.7591378097975 213.91742605933 2980.50065008241 15 16 8
86.6837643089702 214.549672668169 2985.44712522386 16 17 9
79.8847055465677 215.087385260489 2989.28506091974 17 18 10
82.5847772717028 216.142510852769 2999.20110006599 17 18 10
59.3373770605075 215.791574070333 2992.58051987257 17 18 10
60.3148235980888 216.75206319563 3001.38731988819 17 20 11
51.7502011196047 217.200418020597 3004.15753701552 17 23 13
53.6339854797316 218.20259714605 3013.47507772912 19 27 16
46.6211613918839 117.628525941423 2187.93046027972 20 17 10
218.78112612769 139.339242873786 2402.02542976442 212 206 206
229.627800284061 141.615080760982 2423.5094333395 195 193 194
232.598325233184 143.140629221725 2437.33844593693 194 194 196
232.711207174515 144.392438209998 2448.37728590445 182 182 184
231.39949326343 145.506798543649 2458.0172668285 187 185 188
228.651340214611 146.485149954955 2466.26959863268 185 179 183
225.187179954446 147.395207797763 2473.82612062415 178 172 176
219.533183813019 148.105787260904 2479.33559903968 168 167 165
213.879571470309 148.816193031363 2484.84472200911 154 154 152
209.702170239047 149.657321104107 2491.70278130071 146 148 145
202.573583349974 150.236458015128 2495.86182080148 129 129 129
196.179540383365 150.881354332181 2500.6989752769 137 135 136
187.55085915156 151.332412950839 2503.53274191571 121 119 120
179.652717455268 151.849704603422 2507.04819210063 110 110 110
170.995775435802 152.304053212589 2509.90953586019 104 104 104
163.073326912563 152.824151138312 2513.44870831765 95 95 95
156.64263237547 153.472980751289 2518.32133916296 102 102 102
149.455398631517 154.058620831024 2522.53799253408 85 85 85
145.282421776111 154.898024802271 2529.3915753345 77 77 77
139.603216266837 155.610256488405 2534.92584282713 103 105 104
136.202645802106 156.510543504511 2542.42066333562 92 94 93
129.769349686875 157.159135217092 2547.29625059005 115 116 120
132.491387842615 158.555209212356 2559.97390335636 124 125 129
134.491870365699 159.883681734687 2571.96115368291 123 124 128
137.299239075997 161.26886748214 2584.55601906739 117 118 120
135.535568629007 162.279249151189 2593.24292035425 121 123 122
136.876338133813 163.532169163235 2604.4795327706 123 125 124
140.571805198904 164.963629327593 2617.60257333938 118 120 117
142.764915391365 166.267412660788 2629.40219059405 110 112 109
147.328241501518 167.747824037388 2643.07310865169 101 103 98
150.385341812636 169.101031580268 2655.42437538753 94 96 91
165.197387868631 171.349778640581 2677.22577585484 52 53 47
208.288562716716 175.739500462288 2721.64159995434 38 38 30
253.975802720867 180.277584833197 2767.70863085215 45 45 37
282.611757152658 183.478301156565 2799.73113291723 80 80 72
283.028597034478 184.530336918772 2809.08075523436 57 57 49
302.444958535279 186.991294154014 2833.36352226011 28 29 21
294.247922431323 187.385570921586 2835.77705123887 24 27 18
295.568442127938 188.482034747738 2845.63964901034 22 25 16
288.957991129247 188.993178390731 2849.29455912981 19 25 15
280.744035688515 189.389315378718 2851.72461432034 18 24 14
274.11558328 189.902505548053 2855.39675978819 14 22 11
278.710399565291 191.220028249282 2867.64357319378 16 24 13
287.373007932263 192.817332080438 2882.894541831 19 22 13
287.236302687773 193.780151080713 2891.3901195222 20 23 14
287.123537859815 194.739876595757 2899.86204339965 22 25 16
283.795530022501 195.470836642601 2905.89292528083 22 25 16
279.66420925639 196.144433978534 2911.31273979936 21 24 15
275.537796837952 196.817392130239 2916.72811256924 22 25 16
275.494591824428 197.768156876727 2925.13228692035 22 25 16
275.475682778954 198.715860434692 2933.51312530034 17 20 11
260.727958940196 198.666621043602 2931.16118530554 18 21 12
250.863780042117 198.952837600537 2932.41202649827 20 23 14
244.271155538562 199.460722385116 2936.04937846041 15 21 11
245.100590433623 200.459807859918 2944.99711385948 20 28 15
239.33921417739 201.021364129259 2949.21833856162 21 27 15
225.281800305634 201.043178730914 2947.58731813355 19 25 13
214.507505292407 201.285225789083 2948.33153699753 19 25 13
211.205633495966 202.012159529166 2954.33672264815 20 23 12
207.912602749334 202.737973047637 2960.33363241587 21 23 12
204.6280147819 203.462661546515 2966.32198681445 22 24 13
191.284230863094 203.552663997179 2965.38915247713 20 20 10
174.538941021959 203.437144799818 2962.19646470113 20 20 10
163.640499957254 203.694400174177 2963.06171464695 22 22 12
178.059932037427 205.517041508136 2981.06489904127 20 20 10
171.400710268078 206.032680650267 2984.76723698217 22 19 12
156.248128069726 206.033249114086 2982.80996574415 18 18 10
125.738890251967 205.115211415301 2970.73145536804 15 15 7
107.050091469729 204.926980957535 2966.645290916 20 20 12
99.4085804467111 205.407578656209 2969.91132639902 18 18 10
88.3307636818387 205.686990179331 2970.95142439765 13 13 5
82.3766680307174 206.271933440579 2975.36022787866 16 16 8
87.6033593307311 207.509105372411 2986.99145586242 16 17 9
90.2907468852496 208.590648510785 2996.91618607582 17 18 10
67.0893090942299 208.177897049816 2990.25910070221 17 18 10
61.1292587251944 208.763563217757 2994.67404830282 17 18 10
49.9582039278619 209.05450037216 2995.80502956273 17 20 11
57.8993712245834 210.425326714063 3008.97171664415 21 27 17
33.6404284792686 209.987047132539 3001.95195089229 16 23 15
68.2616749953331 112.447228809856 2222.47042131415 9 4 0
212.407214059615 129.408413449184 2385.73344331254 192 186 186
223.174899821517 131.756716034645 2407.28517328023 208 202 204
230.421569154671 133.742951292023 2425.30195357423 195 193 194
231.945227689319 135.161152147617 2437.74943536158 180 180 182
234.234286111214 136.64392601522 2450.84422920095 194 192 195
233.654280989069 137.843573703945 2461.16191636483 182 180 183
233.101923588837 139.039632762573 2471.45267933009 183 178 182
227.453319051498 139.749834743586 2476.95685959476 175 171 172
220.337305463739 140.322574964029 2481.10469689152 167 165 166
213.949524265248 140.964513077046 2485.93573271791 151 153 150
209.034202653619 141.743117494584 2492.11888950689 142 147 143
202.643373137971 142.385189278901 2496.95293260072 130 130 130
196.249246630427 143.027604694697 2501.79053670965 130 128 129
186.13312856685 143.333191361927 2503.28869432423 118 116 117
178.231040957578 143.843100750101 2506.80915395452 112 112 112
165.832323275459 143.95268630481 2506.35220765901 98 98 98
155.647511485645 144.266564352565 2507.9173536968 88 88 88
146.942733180435 144.716076775061 2510.82657653954 112 112 112
138.976733448897 145.23356588435 2514.40971941456 85 85 85
133.265636573668 145.950201281267 2519.9750046385 89 89 89
130.584511230039 146.929478828718 2528.16064005806 85 87 86
129.438295129095 148.037548204993 2537.63720901089 108 110 109
126.793555657643 149.012039715318 2545.78742009569 124 125 127
128.744297403261 150.37424758393 2557.81907768012 125 126 130
132.265077920975 151.860848130412 2571.10743484839 115 116 120
135.066073500917 153.276894967213 2583.70372974801 113 114 116
134.83453791012 154.430401203566 2593.68220120244 120 122 121
135.401916016805 155.644292359151 2604.27532399818 119 121 120
139.866021765672 157.172851323342 2618.03765314891 113 115 112
136.632675330889 158.059759896352 2625.36839505168 106 108 103
136.519042703189 159.198085633363 2635.232030792 105 107 102
136.433681801339 160.332804747789 2645.06846318986 97 99 94
176.193088674715 164.665717376314 2687.13286555991 33 34 28
235.746061600223 170.533565080738 2744.74053718255 36 36 28
276.792047978589 174.865754864231 2786.9447010809 33 33 23
284.246132202205 176.500889683115 2801.97325133657 58 58 48
283.089778904728 177.448163343433 2810.06674289428 39 39 29
279.582059326369 178.208138468598 2816.27145493305 35 37 26
284.799443852303 179.641476685217 2829.29984070755 22 25 14
279.741731841197 180.274305173008 2834.22869172717 18 21 10
270.703490310791 180.602810981559 2836.070361731 15 21 9
264.839344411338 181.175898670135 2840.39159602736 14 22 9
265.373865792245 182.232095847026 2849.62408166297 14 22 9
280.37432752418 184.366543929156 2869.83802875813 17 25 12
289.844584567201 186.069659605093 2885.68859853606 19 22 11
284.07129957644 186.631101183721 2889.92132789688 20 23 12
280.719024570974 187.370995262039 2895.97498698882 20 23 12
273.325849147888 187.814079843464 2898.99996597238 20 23 12
274.851997159572 188.9062182859 2908.65901107707 20 23 12
272.341302152403 189.701081662777 2915.28575366926 20 23 12
268.211842811674 190.377512419737 2920.70363882847 20 23 12
270.628082356097 191.518563479825 2930.88848993737 15 18 7
267.343220991166 192.249664153462 2936.87650594907 16 19 8
247.636333723264 191.82608661551 2931.00228397364 19 22 11
246.800251956932 192.732054497108 2938.78350830051 15 21 9
246.809997703214 193.692634821371 2947.13398886826 18 26 13
236.915649538581 193.966725739472 2948.41658075279 19 27 14
227.82835351118 194.300287868007 2950.30621527541 17 23 11
221.216090617339 194.805495982509 2953.96346406008 17 23 11
212.930748129319 195.19907455211 2956.46478577698 19 22 11
210.476563132034 195.986297967101 2963.03654227701 20 22 11
203.0126041863 196.437480372689 2966.13061349006 22 24 13
188.826062474106 196.445947421888 2964.62945383684 19 19 9
173.757145122603 196.404353940285 2962.59533368622 19 19 9
157.799714449244 196.313374447352 2960.03357247004 21 21 11
162.912331538992 197.597874373451 2971.77074493205 22 19 10
115.575936887077 195.495436990836 2948.23669039303 20 17 8
148.669106194204 198.574612417329 2978.68523236607 22 19 10
123.246673276818 197.902537613097 2970.021227909 16 13 4
113.077608059381 198.210435417207 2971.57162124504 19 19 9
94.3417502145722 197.985421958334 2967.5376236493 18 18 8
87.5342760673394 198.514554040497 2971.38518414237 15 15 5
82.4366987169363 199.150683349566 2976.35313417329 16 16 6
93.6849125732002 200.790693663709 2991.86440281527 17 19 8
85.1771482569754 201.211582299665 2994.5825562797 17 19 8
65.4212280451358 200.953591474652 2990.1494604163 17 19 8
51.6627690859974 201.068508767578 2989.62472212125 18 20 9
41.4309664157284 202.34518842479 2999.59636073087 23 28 21
11.0327564825989 201.492862859254 2988.81479511716 14 21 13
217.507954350499 121.870339222504 2391.70149778759 196 194 195
222.526705845496 123.694764685638 2407.70348305134 197 195 198
226.881942189075 125.438815430207 2422.95898085759 185 185 187
229.84388888565 127.030672209178 2436.78671144613 178 178 180
232.852799643583 128.616466666726 2450.56836419396 189 189 191
232.268623365131 129.835753466864 2460.88729072562 184 184 186
231.712283280951 131.051459065679 2471.17944264685 177 175 178
226.791610036547 131.833906011688 2477.36700792027 168 166 169
221.141330915067 132.544370698363 2482.87281224396 171 171 173
215.491435457677 133.254676451534 2488.37825907384 145 145 145
208.366259145481 133.823063860513 2492.53550059305 146 148 147
201.233852937312 134.392298077125 2496.70013419005 126 126 126
193.35227565787 134.891933751576 2500.20174521002 129 129 127
186.203058856762 135.463027517624 2504.38245929172 98 98 96
176.80983594662 135.825264570064 2506.5716455901 101 101 99
163.659636460566 135.841557317009 2505.45747331137 91 91 89
148.97184736484 135.723771986152 2503.05581044871 95 95 93
138.746706391453 136.026620936465 2504.66263405774 99 99 97
130.75903367921 136.538960855606 2508.26772172905 78 78 76
125.026420767981 137.258566679353 2513.85393366701 90 90 88
122.323658977042 138.251687468567 2522.05900837351 91 91 89
121.155810167147 139.379010005156 2531.55421331743 103 103 101
121.534481319457 140.639093158027 2542.32823559343 127 129 128
125.760801282069 142.233489216439 2556.31695885126 110 112 111
128.508162319472 143.686467465393 2568.96105519789 102 104 103
131.299082854493 145.133880636507 2581.56271883554 112 114 113
128.750681314388 146.107071817106 2589.61779496054 114 116 115
127.76024269526 147.211503927585 2598.93987431541 114 116 115
131.431619606253 148.71164071362 2612.07668638864 105 107 104
131.276100750491 149.874618134722 2621.97827226447 95 97 94
130.371843432886 150.968010520597 2631.21674182141 98 100 97
127.934184243361 151.926819011096 2639.16363706853 94 96 93
181.723547567987 157.598661402697 2692.60458681828 30 32 27
231.113802542855 162.841809421763 2741.97548328284 23 24 16
276.854098531394 167.725593874463 2787.93839664073 33 34 26
292.959826981882 170.11677612965 2809.85134666628 33 34 26
287.093530276379 170.688211103539 2814.17496101535 27 30 21
278.062634326124 171.00290619641 2816.01137796725 23 26 17
273.767177731599 171.70399898988 2821.59011797315 19 22 13
251.207053462158 170.937435220614 2812.93158277918 14 17 8
252.450383135194 172.087593040175 2822.86323327836 13 16 7
255.32188901216 173.360274673813 2833.9937904074 16 19 10
269.435235197404 175.510639747845 2853.66939451223 20 23 14
278.028097376036 177.209501529419 2868.9746119248 22 25 16
293.924314700887 179.463015675938 2889.69870972188 21 24 17
275.26511273711 179.023822041736 2884.20333812175 22 25 18
263.004109971467 179.089353973641 2883.61581214259 23 26 19
262.857088891944 180.086658155935 2892.11653671563 22 25 18
270.852319247922 181.696811798394 2906.61141306921 20 23 14
269.145493547597 182.562816344712 2913.84629624028 18 21 12
261.745331898438 182.998938797018 2916.87924164925 16 19 10
270.686899863573 184.65369325143 2931.84470810469 15 18 7
254.288797963873 184.420694464361 2928.32462100252 17 20 9
250.159845613138 185.100022786411 2933.74123661233 20 23 12
242.742059700818 185.53818448384 2936.79171961761 19 22 11
253.47181691049 187.295320050472 2952.8001744707 19 25 15
246.075059393521 187.730711142591 2955.82984762079 23 26 17
234.521365932144 187.8703523628 2955.94624688581 17 20 11
227.093444485469 188.309546854676 2959.00630413797 17 20 11
221.321204246216 188.867909988749 2963.23878887985 18 21 12
210.53551167157 189.074472034155 2963.99957036019 20 22 11
197.212512802632 189.108951790566 2963.05430239105 21 23 12
177.978856425364 188.740693966828 2958.11855039171 19 19 9
164.566679373685 188.78624651478 2957.26020112258 19 19 9
162.916425546531 189.644531293627 2964.44038640755 21 21 11
145.231861621237 189.40868766965 2960.78094842014 20 20 10
134.263859191589 189.637827358381 2961.71942931571 18 18 8
141.090870407615 191.067043062142 2974.56695061561 21 21 13
125.925086883976 191.983473032633 2980.98921830634 10 12 1
102.946522028658 191.430821706103 2974.13183179393 16 16 8
83.3129952887002 191.112312200259 2969.58614203825 13 15 4
79.0640242814917 191.805974701818 2975.11981936266 16 18 7
67.0778553475198 191.999148599256 2975.65776105882 18 19 11
75.7535321915261 193.523307388053 2989.48965399276 17 18 10
56.8407272628204 193.277678986104 2985.63441434667 17 19 8
51.7235026791116 193.916756891725 2990.62143856942 19 20 12
51.8149463961306 194.883195347105 2998.88992601529 21 26 19
19.7442474700185 193.836150712228 2986.96378961152 11 16 9
36.3769737728994 195.833312534725 3005.57750254963 13 20 12
219.735354942705 114.065739528296 2394.89423829403 196 196 198
221.158296706725 115.551227724266 2407.43178828396 199 199 201
224.064948794493 117.182760852659 2421.30856308933 178 178 180
226.294462159129 118.732961019668 2434.45252047319 184 184 186
230.745479021027 120.5027656102 2449.60910040167 182 182 184
229.427220299465 121.66710890918 2459.24819295883 185 185 187
228.862641030922 122.902920528065 2469.54521700896 172 172 174
222.470272147379 123.540625365513 2474.3817719927 165 165 167
218.276070158083 124.400876576097 2481.25368829396 169 169 171
212.618286085751 125.112361092108 2486.76679441446 142 142 144
206.2230158411 125.750083546072 2491.60589004696 144 144 146
199.084747406429 126.314838048338 2495.77700702135 120 120 120
190.455643594814 126.734239453456 2498.61587221049 123 123 121
181.811237606847 127.155413443579 2501.46933285768 89 89 87
171.660801076988 127.433234419266 2503.00601081567 96 96 94
158.496935795375 127.42438058102 2501.90878768626 87 87 85
143.795917751558 127.276060323204 2499.52511225548 91 91 89
131.302789806576 127.349044227587 2499.16698861257 88 88 86
120.282035914473 127.569516923668 2500.15913346789 78 78 76
114.522049959997 128.292861027485 2505.77197472628 85 85 83
112.549275992168 129.371679479845 2514.65674181575 100 100 98
113.6334468361 130.731394269414 2526.13203843211 111 111 109
116.275968587353 132.227856630703 2538.87415264888 104 106 105
117.435513062677 133.577921954331 2550.27602832189 97 99 98
119.396087078176 134.993576524553 2562.29002291783 107 109 108
122.163473034139 136.474084006831 2574.91050325764 116 118 117
125.743225263482 138.01866706962 2588.13139301191 109 111 110
125.515845114749 139.210126605753 2598.10012856981 106 108 107
126.862316163564 140.536355838125 2609.32024419793 104 106 103
125.920108900127 141.651198482256 2618.59322827328 97 99 96
122.671642279229 142.556893021555 2625.93620818677 96 98 95
126.444315866181 144.076898997505 2638.96949450573 94 96 93
241.351877900198 156.408304819435 2751.18096477534 29 32 25
277.701130418067 160.65282412959 2789.55988089501 31 34 25
289.088803534319 162.712451340867 2807.70446387154 27 30 21
294.251349766465 164.223900282635 2820.77576015137 23 26 17
279.705026928077 164.054410662524 2818.24126107529 19 22 13
255.604623750549 163.089818785479 2808.30769543896 17 20 11
249.680609185257 163.666010799658 2812.68825922954 14 17 8
242.957182077918 164.17626229687 2816.45515031177 16 19 10
272.145256142459 167.657450977215 2847.88793572783 17 20 11
280.697940976336 169.407786217928 2863.22544208288 18 21 12
298.140491842199 171.870368030237 2885.21726418246 20 23 14
306.044420074682 173.535882449685 2899.79462259572 19 21 16
289.832478752287 173.242535829719 2896.09825682968 21 23 18
266.296183725504 172.372803845564 2887.00775036958 21 23 18
266.966581210474 173.450354506641 2896.10181514761 20 22 17
274.970875319253 175.10304497296 2910.5810662947 18 21 14
272.459960167175 175.915059175589 2917.20549260948 17 20 11
264.251948888536 176.278758434366 2919.63443944139 16 19 10
266.658166535382 177.470674772355 2929.82206241886 16 19 8
261.724262727178 178.088086917625 2934.63024859148 19 22 11
254.326765707445 178.516089565958 2937.66174808752 20 23 12
247.741907929253 179.008223540363 2941.29371553942 19 22 11
251.054664423903 180.25238206933 2951.99031998463 20 23 14
250.270663234224 181.179759408074 2959.71700106257 22 25 16
242.872933985666 181.60761442606 2962.74875298496 17 20 11
232.139746830614 181.789291735047 2963.46107376064 17 20 11
227.212159377721 182.405627501441 2968.26314678739 17 20 11
215.60498533259 182.530684492831 2968.43447076332 21 22 14
195.597919133171 182.048034012522 2962.86706185943 20 21 13
162.099194182378 180.599477999594 2948.16759166144 17 19 8
169.671975781725 182.139665730858 2961.67505964671 19 21 10
155.391131103829 182.101533166828 2960.27476947697 22 24 13
132.621197012027 181.466810849906 2953.22233958879 16 18 7
130.090796994358 182.280549985921 2959.86552187675 13 16 9
123.330218617324 182.794248349928 2963.66913311556 13 16 9
128.470126187564 184.141094974375 2975.36999091223 13 16 9
107.230952965284 183.64648612098 2969.61094062053 12 15 8
75.6659826422856 182.453299538287 2957.20420795389 13 16 9
56.8272901845295 182.15587052671 2953.28302963604 14 17 10
67.1091774475441 183.854548197997 2968.32829454257 14 17 10
78.3216663155537 185.602648329372 2983.85906299822 14 17 10
67.1928220625535 185.833378938717 2984.95702706468 15 18 11
58.6298910036356 186.240633023312 2987.73163925886 16 19 12
42.2584280511087 186.13203715842 2985.5836219085 18 21 14
31.0452733583304 186.373278500684 2986.76375400626 22 29 22
14.5866511147528 186.275574624991 2984.70067728912 23 33 25
221.962689857491 106.277069696921 2398.08468959235 194 194 196
224.111321440773 107.867533028031 2411.30301290267 198 198 200
224.136827374778 109.217728542206 2422.41441489355 175 175 177
226.36599324367 110.797877082704 2435.5542909893 187 187 189
230.090586448712 112.528025943176 2450.02117212941 181 181 183
229.498116093322 113.786540658646 2460.34253693333 188 188 190
226.743391419625 114.809667045621 2468.59477673631 169 169 171
221.076994459832 115.522583794806 2474.11622389794 163 163 165
214.677129385546 116.158602162325 2478.96047196942 167 167 169
209.74529771294 116.948020988508 2485.15808728615 140 140 142
201.866910754396 117.431673664217 2488.65923039254 142 142 144
193.237215219426 117.840570427919 2491.49989791114 118 118 118
183.850919383239 118.175516178358 2493.6862391652 121 121 119
176.676297965507 118.739404602121 2497.8932453532 84 84 82
167.257807629819 119.078232074291 2500.11098250441 88 88 86
155.577533643852 119.194135685285 2500.35624866783 81 81 79
139.369898487145 118.864903468637 2496.66124853312 83 83 81
124.610930101064 118.691520553325 2494.3384850567 73 73 71
116.586198323883 119.192824535292 2497.98200403402 81 81 79
113.082406387845 120.139928137757 2505.57240551839 85 85 83
112.620148158341 121.380798275818 2515.76741345924 106 106 104
112.185667989731 122.618039534874 2525.93503587973 104 104 102
111.779132826546 123.851691542038 2536.07543898658 89 91 90
110.637524526294 125.008647506135 2545.54020690888 95 97 96
110.285008753799 126.235342088704 2555.62799626654 116 118 117
113.028483118667 127.748936404188 2568.2669931083 117 119 118
118.12253191682 129.47406773884 2582.79163550603 103 105 104
116.333692670245 130.543062107284 2591.49520469355 102 104 103
116.110750079228 131.753186056189 2601.45677509898 99 101 98
113.59135867119 132.744809541012 2609.47998160549 93 95 92
118.855945726959 134.448228056554 2623.83848613757 92 94 91
257.067806713685 150.539539122558 2764.78242955275 24 27 18
271.487192637234 152.95142429049 2785.5323884354 22 25 16
296.229328564796 156.263190707773 2814.32021225042 21 24 15
299.043697616451 157.598262796591 2825.4982858096 21 24 15
288.461242813099 157.743652660346 2826.06629040037 16 19 10
263.590356541944 156.642344611845 2815.50078529658 17 20 11
279.131114092239 159.082136325696 2836.55032816135 17 20 11
290.792671747251 161.164306806395 2854.41960785676 19 22 13
297.74785039321 162.823839476966 2868.52306341668 17 20 11
292.760515433874 163.448901484633 2873.3831768659 17 20 11
304.616950599824 165.506489816395 2891.062573543 21 24 15
300.476283765615 166.194107538977 2896.48993448029 25 28 21
289.086642794073 166.271441011466 2896.45229841367 24 27 20
274.435491366467 166.082573386144 2894.02509757903 21 24 17
269.456385765128 166.706347334964 2898.87722952864 19 22 15
274.219096000634 168.134037264973 2910.94070124944 16 19 12
272.519760094304 169.021634752121 2918.16495551713 12 15 6
267.574371605954 169.641047556556 2922.98425045035 16 19 10
269.170576134756 170.790541102775 2932.56558918062 19 22 13
264.242450284149 171.407703966397 2937.36807459964 21 24 15
260.136632781231 172.090495463196 2942.76120510785 21 24 15
251.918683577825 172.44492161977 2945.20139100642 19 22 13
252.764799447432 173.519492426122 2954.12140525214 19 22 13
255.293581202839 174.72064343575 2964.18595537754 21 24 15
244.59070628699 174.880149043653 2964.87145261934 17 20 11
228.04327108479 174.590866530697 2961.50763656222 17 20 11
224.772260565305 175.337583719032 2967.47959036559 17 20 11
218.169613893035 175.826807864976 2971.12965252366 20 21 13
204.864445670253 175.806078407839 2970.17483835695 20 21 13
191.521501629093 175.790037481809 2969.25684317347 18 20 9
182.344980873167 176.095545082247 2971.2392256175 20 22 11
154.608894513729 175.01462762514 2960.68207420087 22 24 13
131.837350313991 174.323912977526 2953.63918097371 16 18 7
119.145266215582 174.394893347219 2953.47891985382 12 15 8
127.633962473852 176.030004754037 2967.48008852499 15 18 11
116.623608951163 176.227675866598 2968.46527572382 14 17 10
90.2429798580733 175.314216217661 2959.37154149088 12 15 8
64.6206954138515 174.474362370494 2950.93045238159 13 16 9
53.4641696314901 174.690272855834 2952.05809502377 15 18 11
62.8795321212583 176.377908524119 2966.54821668324 14 17 10
77.5226127444659 178.42285866604 2984.29645762346 14 17 10
76.7375099717498 179.363919279161 2992.02221020766 15 18 11
60.4195079168308 179.214149709555 2989.82719085126 16 19 12
44.052228985036 179.070536989981 2987.68019418229 17 20 13
38.9184551313209 179.71280685954 2992.68318030392 2 9 2
17.2584502796904 179.21997173529 2987.34142204281 19 26 19
0.75656338394392 179.093181066339 2985.32560678019 4 11 4
223.471767569149 98.4229256038021 2400.58114866074 188 188 190
224.903843031799 99.9616242388426 2413.10176427325 186 186 188
223.486706858513 101.171440412332 2422.83232273065 178 178 180
226.437622583377 102.862496971638 2436.65600771097 189 189 191
229.435852269903 104.547561074172 2450.43393275241 183 183 185
230.297247255141 105.985920402392 2462.11916330321 190 190 192
227.544303634799 107.019808888776 2470.3680438603 167 167 169
220.415941242368 107.573170234566 2474.53067004987 162 162 164
213.280306234868 108.127405886719 2478.7007266736 166 166 168
206.137085544281 108.682481878358 2482.87785394898 138 138 140
198.986467642965 109.238405638259 2487.06220146418 141 141 143
190.349170545982 109.637681185132 2489.91217729987 114 114 114
181.696716857629 110.038782693488 2492.77693397854 117 117 115
172.2854187823 110.363430091153 2494.98928707571 78 78 76
163.600770459819 110.768428080419 2497.88543760382 82 82 80
149.668542054324 110.630820374733 2496.15366870457 75 75 73
131.946597534324 110.110803036673 2491.15644163341 75 75 73
116.417000454031 109.830352159224 2488.19783912266 73 73 71
109.124158201785 110.403531102458 2492.52086721224 82 82 80
107.111388023494 111.515129174416 2501.44050631649 91 91 89
107.3903305945 112.853750684359 2512.30161477112 98 98 96
108.460453127211 114.264609841043 2523.78364029506 93 93 91
108.805231767346 115.594841233885 2534.58095045745 96 98 97
103.076971546659 116.314480648989 2540.16283514457 103 105 104
99.644378103295 117.260652405122 2547.68233535769 115 117 116
103.127375103285 118.883148092254 2560.98812687516 110 112 111
109.73368705625 120.799912193676 2576.816902843 95 97 94
107.923061557814 121.885486921953 2585.53931768875 94 96 93
101.495788548265 122.520921130592 2590.41086858354 91 93 90
98.1645345796602 123.454053780291 2597.83200221638 86 88 85
101.059501475226 124.97838459581 2610.31897788567 91 93 90
239.688136100695 140.524645511948 2742.42748550036 28 30 25
246.17525332973 142.284280643521 2756.98060002449 21 24 17
277.826554646325 146.376433682861 2791.54537705549 19 22 13
289.213140809713 148.550567960777 2809.67411529784 22 25 16
288.856092353976 149.624756721027 2818.37203665318 22 25 16
274.296579584764 149.392801302478 2815.85986779112 20 23 14
271.575894959308 150.248770336239 2822.68610178909 21 24 15
284.7526672122 152.541207897297 2841.85383008459 19 22 13
301.204497030763 155.108905928428 2863.39666953874 18 21 12
308.184535210256 156.806302736406 2877.4698429114 15 18 9
307.222747004611 157.784477367981 2885.36522346467 19 22 13
298.261175856635 158.050794859949 2887.13995005138 23 26 17
282.849153483031 157.75390386536 2884.06702396095 23 26 17
270.611062195979 157.744959285993 2883.4677541407 21 24 15
262.378259691867 158.091240607731 2885.92389338947 16 19 10
266.27765476657 159.48862664857 2897.43221941096 14 17 8
259.668222028176 159.974270586079 2901.08988722824 12 15 6
266.070582862012 161.572215820462 2914.33415448421 13 16 7
265.187602826916 162.5401679569 2922.15278823945 20 23 16
261.872382103357 163.29860604409 2928.16691108528 23 26 19
260.204746981163 164.193381736311 2935.35862507012 24 27 20
251.160633120011 164.46962961266 2937.21385008474 21 24 17
252.801856600112 165.635415673865 2946.74773846227 19 22 15
255.300458443259 166.865182474714 2956.83802828525 20 23 14
260.316630082187 168.293733738168 2968.65001962289 21 24 15
238.016598291998 167.488017768107 2961.15590474805 18 21 12
221.454173642599 167.163332520243 2957.81254378433 19 22 13
221.499811481829 168.18606339088 2966.11819714959 18 21 12
