ply
format ascii 1.0
comment KinectMotionCapture
element vertex 796
property float x
property float y
property float z
property uchar red
property uchar green
property uchar blue
end_header
-50.4567706461223 301.141925947138 2513.56475877449 101 91 81
-45.5719759169386 301.041360212563 2496.10824625359 151 142 133
236.828982265121 317.696054778655 2776.25362185363 43 48 42
211.103355442697 316.417078562962 2788.47635923746 47 52 46
105.671403844595 311.987031470441 2870.12022157417 39 42 35
133.70623081506 312.84836159692 2836.10189438173 41 44 37
153.071066680459 313.360456262103 2809.38331749326 46 49 42
142.325581546081 312.685058475583 2809.00107370564 33 36 29
131.605374050903 312.011686055813 2808.63716447701 43 46 39
117.090859827968 311.191378973157 2811.69741469689 38 41 34
106.432184378555 310.522953995434 2811.37813642116 40 43 36
95.7987863620264 309.856558101734 2811.07719257368 40 43 36
95.0359926575897 309.572587464206 2801.87694341281 37 40 33
95.7517086889763 309.344217498484 2791.27841140535 33 36 29
79.8619620420165 308.476583008349 2795.81185430491 23 26 19
81.2954146587144 308.274266001877 2784.49872019957 20 23 16
68.4613450589393 307.52578330177 2786.3074511355 18 21 14
63.129409716713 307.064158367154 2781.20454808926 17 20 13
30.2584040622782 305.558713200135 2801.83258711021 19 22 15
36.8677572296914 305.551061588631 2785.62671443343 21 24 17
54.4974793640893 305.954938310864 2758.88480505619 21 24 17
43.2207919464664 305.268355371013 2759.35275584824 22 25 18
17.2670284739995 304.034369634788 2773.88041324983 20 23 16
12.6921939458775 303.601891384251 2768.09145974557 19 22 15
11.0311962370986 303.277137761242 2759.47491338866 20 23 16
2.05506737490913 302.680569291026 2757.90563975031 26 29 22
1.81410748552402 302.40666452654 2747.84839893787 28 31 24
12.4016573277181 302.528824795212 2727.11625472309 34 37 30
0.500694107102628 301.823573562361 2728.36659673346 37 40 33
-17.1253203213717 300.911090395716 2735.34626478462 37 40 33
-22.4808537489596 300.447332604105 2730.22653865638 35 38 31
-6.3765084071814 300.759802339416 2703.61371920082 26 29 22
-31.0685174327152 299.5955508745 2717.8213659168 20 23 16
-43.5580134225686 298.874525909594 2719.87973021795 21 24 17
-39.704471456776 298.739772050634 2705.38087175587 25 28 21
-24.6066866810053 299.002772193259 2679.27316112092 25 28 21
-18.8006862580707 298.929976572404 2662.48459092802 25 28 21
-15.8798974569945 298.751726742404 2648.54437610443 26 29 22
-12.3175627786076 298.59336504258 2633.83429568668 26 31 24
-6.72432132118028 298.50331201242 2616.89111008999 19 24 17
7.83613324516619 298.72281975549 2590.39365702144 13 18 11
16.7153352051845 298.738642052769 2569.65788745236 18 23 16
-13.3783464984754 296.214025352666 2544.12414330848 126 121 117
-19.1358799744386 295.717335986625 2538.71253748412 8 3 0
-31.6787167407171 294.991565172678 2540.73250435645 68 59 52
-38.7765275444039 294.450354013869 2536.81944511806 79 67 55
-42.5031882215001 294.021897931762 2529.17529805401 91 78 62
-44.2344447351526 293.658881035909 2519.27258914984 95 81 68
-41.9827661596759 293.426130830418 2504.84704598905 110 96 83
227.92996441436 309.800425078364 2794.46504042426 22 27 21
206.087942597636 308.729761358059 2803.32836900078 44 49 43
154.797073652871 306.597312121682 2837.77314730552 35 40 34
155.766421481356 306.087404154886 2817.47617036742 43 46 39
144.248297982836 305.400091680256 2817.76880081967 40 43 36
146.592180423411 305.208671736504 2805.88067528976 26 29 22
119.768385851058 303.978147951591 2819.77764611512 22 25 18
112.164148420346 303.433679826187 2816.73248753914 21 24 17
92.4271810901294 301.910067750697 2804.8873890536 36 39 32
85.6002448070519 301.393709225939 2801.17081841944 24 27 20
69.7393256434808 300.563475968982 2805.72534842154 20 23 16
69.7032177472607 300.283733721318 2795.81687409972 17 20 13
72.6256986973306 300.104343895065 2783.11291680594 17 20 13
52.3528443139996 299.125635455638 2791.87919748505 20 23 16
36.6282294680071 298.306365954757 2796.53259292942 23 26 19
42.4805138781079 298.224986434043 2781.01256813663 23 26 19
40.122383580862 297.861604862782 2773.12579093685 19 22 15
30.3642542195837 297.247003970284 2772.22427926239 17 20 13
16.2140251827494 296.485542263587 2775.54890565134 19 22 15
0.644420635510734 295.678725773952 2780.31473444633 24 27 20
4.87044758974964 295.535242927471 2766.08585408756 28 31 24
3.93150455342672 295.217122475082 2756.75773754124 35 38 31
-13.7532858096494 294.343361121148 2763.69528827371 38 41 34
-16.1543618811499 293.976407957105 2755.77706619782 39 42 35
-2.68854469174107 294.128727826401 2732.19115117881 38 41 34
-13.1053784656614 293.495457985345 2732.0473671625 32 35 28
-25.6504717321215 292.794223373254 2734.06582253039 28 31 24
-29.5689220886026 292.3739502947 2727.51772111249 24 27 20
-21.372909916435 292.343106145878 2708.75652956985 27 30 23
-42.4275791788937 291.370282549785 2719.42615902461 29 32 25
-47.0825704402689 290.925110422101 2713.57903389679 32 35 28
-28.4218257899083 291.219720207214 2683.87887139831 31 34 27
-27.532376729527 290.945144966975 2672.17101150318 26 29 22
-12.6396602082677 291.108615346487 2645.91413837628 25 28 21
-16.0860065552253 290.691683532464 2638.47296104802 26 29 22
-32.1156308282209 289.882073464385 2644.1406286827 31 36 29
-25.1227145056601 289.788547181701 2625.74200641517 15 20 13
-7.11721275605059 290.030098231896 2595.56628112438 17 22 15
-15.9707370173254 287.824365812688 2536.02659671741 135 130 124
-27.8457062725992 287.142216597975 2537.29589932427 59 50 41
-36.9824985515073 286.542593857012 2535.60984739891 91 75 60
-39.3654644964692 286.14196170405 2526.46954652032 107 90 72
-41.7759441655035 285.739074494677 2517.30928893367 133 116 100
-42.2060429133979 285.39216477489 2505.87953091258 141 123 109
-33.3381111763364 285.311142349312 2483.90006415154 153 137 124
231.479143914151 302.422768127565 2801.94128257081 186 191 187
239.3080365178 302.381848139341 2785.38398044052 43 48 42
174.55455128364 299.956082774426 2831.06503026809 30 35 29
130.341531674543 298.217138269156 2859.52647269023 26 31 25
159.987171338318 298.891330570914 2824.20483684724 24 29 23
183.245901790029 299.348794890213 2794.13297843071 43 46 39
175.503845480189 298.79808805277 2790.98817488476 35 38 31
91.6759915791321 295.803954643182 2854.95223707767 17 20 13
92.5975809109572 295.541669034262 2844.50277522983 18 21 14
85.8362926822931 295.032777644392 2840.83383209382 19 22 15
91.3319578783525 294.3168910041 2806.52534517241 35 38 31
87.5309296969844 293.897503050946 2800.06237007849 21 24 17
73.9234361072625 293.172173248605 2802.54558336162 15 18 11
77.6328751188116 292.985446317784 2789.17703496805 10 13 6
75.2933906392306 292.609297337455 2781.30341537294 19 22 15
61.7309628094911 291.887590359347 2783.81931613755 21 24 17
53.4224345243262 291.328469094358 2781.49885897605 22 25 18
35.4767707099581 290.477086248928 2788.24741032791 20 23 16
37.5817229837128 290.235521695278 2776.18582522872 18 21 14
39.6372733405923 289.989946544032 2764.08811283421 20 23 16
26.9301994123818 289.299897956686 2765.98920162298 21 24 17
9.12748306980227 288.460033839858 2772.84143699243 31 34 27
-31.2743624715013 286.954088334696 2801.59649328124 36 39 32
5.07889156623476 287.721123017383 2756.31649752903 37 40 33
-14.7908441745437 286.826459676342 2765.37513874306 40 43 36
-13.5636518711373 286.551318905793 2753.91211326808 33 36 29
-0.82291205684637 286.607784544485 2731.03541977158 30 33 26
-20.6078128013418 285.719947109394 2740.15559425945 24 27 20
-30.9759127519045 285.106554446251 2740.04723911355 23 26 19
-23.4231626656864 285.005707433804 2722.0544152078 23 26 19
-18.8098672956727 284.817017333973 2706.87100837549 27 30 23
-24.9348572685375 284.321920763947 2702.42836466867 28 31 24
-36.7345069449014 283.667639537374 2703.75211472551 31 34 27
-47.0859930783711 283.0555274339 2703.65580977647 32 35 28
-29.2206120409766 283.226600404899 2674.61348211192 26 29 22
-32.5836099538974 282.804938729078 2667.23270188456 23 26 19
-54.8755603334432 281.864104875061 2679.47592962242 25 28 21
-37.969716196498 281.995008524722 2650.97284634488 34 37 30
-68.5358458967875 280.834620116056 2672.03845028478 20 23 16
-28.8796930263768 281.568897252105 2619.27145399563 17 20 13
-17.8692076854896 281.522737157415 2596.3746844385 6 9 2
-18.2485109776764 279.768868318756 2539.27502807436 193 190 183
-24.6895662212454 279.247983971509 2534.60313128746 35 26 17
-32.4837146865107 278.692597807949 2531.42054132463 78 62 47
-38.2484473344087 278.188907525955 2526.00397568291 96 77 60
-43.3467570339165 277.701621372933 2519.83526624256 130 111 96
-43.0994344850779 277.346881786121 2507.66150908734 141 122 108
-37.5596328647168 277.120392100385 2489.44415058156 149 133 120
224.885885633555 294.12704340773 2798.35470608414 44 49 43
197.590620263015 293.005253008177 2811.91044842224 40 45 39
119.094314745637 290.396893752938 2869.86024137684 39 44 38
119.316157651467 290.092971688427 2860.13863862083 25 28 21
199.137929673975 292.084340410943 2780.91415325625 26 29 22
189.809922546052 291.49066396241 2779.08951572525 26 29 22
159.741372356188 290.305463481861 2795.57525899928 34 37 30
109.946545069802 288.248663339602 2819.98871991301 53 56 49
73.3950765181279 286.901107380345 2842.88995356856 45 48 41
72.7377776250857 286.566286444786 2833.76592228105 28 31 24
82.6577990597413 286.523853568032 2815.01911203956 19 22 15
81.150438214133 286.16049048678 2806.51374475902 20 23 16
78.1088199241768 285.753479303673 2799.36630816358 17 20 13
70.5412170150463 285.221732250815 2796.34806564587 29 32 25
74.9653135054209 285.016329566869 2782.26245648468 27 30 23
58.4164149510276 284.240817363874 2787.55356934629 27 30 23
34.4819168036428 283.27016821542 2799.8409647624 27 30 23
38.120755941955 283.041460212184 2786.42102437163 30 33 26
33.558939887643 282.591918447666 2780.64171628382 38 41 34
38.581340715091 282.394655176991 2765.75454082653 40 43 36
25.1415499854803 281.709706277708 2768.35953002914 38 41 34
10.2773706246411 280.989996806766 2772.40214118129 37 40 33
5.70464598172871 280.539545097088 2766.61462613873 35 38 31
-3.25323663593213 279.975748309956 2765.05845111045 30 33 26
0.164205867057454 279.729094441705 2751.47792467456 31 34 27
-0.100773478401095 279.385711941712 2741.4032142044 26 29 22
-5.46019476806392 278.911838403731 2736.28061844372 24 27 20
-11.5454616755981 278.419469759017 2731.86678465216 24 27 20
-42.0497497571795 277.319632387572 2751.74219449795 25 28 21
-36.6066961009728 277.1161093987 2735.92489091749 27 30 23
-16.9600571589865 277.256917384995 2705.70331408838 25 28 21
-28.7820011805504 276.622323928748 2707.01129669806 29 32 25
-32.0572700354875 276.19629847249 2699.69409103365 31 34 27
-33.9372686246147 275.802683256846 2690.91873194436 27 30 23
-30.205025684592 275.541183154295 2676.33100475812 20 23 16
-18.1030100805466 275.473954695358 2652.99036543854 20 23 16
-47.4478482091465 274.427635599304 2672.47151975055 18 19 13
-26.3692538275102 274.563524762318 2639.58286317667 24 25 19
-17.2976250180163 274.412054271212 2618.98544608939 24 25 19
-31.9170005072407 273.712032885446 2623.20562051648 18 21 14
-16.7414840112554 273.692211137872 2595.91749560953 19 22 13
7.25912028066222 273.863254156697 2558.97147233957 0 2 0
-17.4620620933439 271.419646108766 2527.4516014747 133 133 123
-25.2786863899135 270.867520176996 2524.25273481582 52 39 23
-31.7392882899699 270.344608921454 2519.5666579738 75 58 40
-37.5290982593746 269.835719741045 2514.13188691309 119 100 85
-38.6370070198814 269.42391417733 2503.44547786763 131 112 98
-36.4445008287362 269.07791385379 2488.97646574846 141 123 111
244.106859513932 287.194500033598 2792.49122709472 38 43 39
215.932242245363 286.117919031891 2806.64477409935 45 50 44
173.841126636649 284.689103109103 2832.94059651283 47 52 46
140.505531648719 283.495878411307 2851.99838964013 40 45 39
126.710288700718 282.809033804383 2854.34569434177 56 59 52
156.263577413456 283.22232083679 2818.95578978688 53 56 49
155.540160753501 282.862355002894 2809.78370095525 49 52 45
187.079915224137 283.307379575219 2772.12858421382 51 54 47
122.56216779777 281.353662782114 2819.21795305744 52 55 48
76.7258492576577 279.879815900416 2850.20937857791 47 50 43
67.8305619973809 278.987109767507 2838.81603228173 10 13 6
70.9476657937298 278.722943088936 2826.25273183121 8 11 4
74.0107548004096 278.454411201764 2813.6505472733 16 19 12
65.7170714181046 277.911794100845 2811.34064061851 13 16 9
70.2081750063579 277.672816246074 2797.30343626771 21 24 17
68.6435484038568 277.287761924803 2788.75644594748 32 35 28
47.6305651418603 276.446828445317 2798.22192589384 36 39 32
42.3441933091997 275.975593235981 2793.15229860715 40 43 36
37.0523329187775 275.503912808821 2788.07869029268 41 44 37
42.1199860715884 275.268571123922 2773.2241263371 45 48 41
29.4047555213175 274.626148997731 2775.11954345389 41 44 37
22.6156428432418 274.119293986567 2771.43044009536 38 41 34
12.1610670874883 273.530816985931 2771.25952299553 38 41 34
6.85257255957117 273.057786441008 2766.17384940119 37 40 33
1.53854132836662 272.584306777935 2761.08415985761 34 37 30
-3.05373341806514 272.126226431291 2755.28243388724 36 39 32
-3.30630371342844 271.761328144939 2745.2163155436 35 38 31
-0.704496891070328 271.455425389477 2732.27954839521 34 37 30
-29.8599933611725 270.471606808866 2750.66324046445 33 36 29
-34.4523401647101 270.013517707615 2744.861462214 32 35 28
-38.338501057499 269.569576891026 2738.33664823566 31 34 27
-32.2441457249061 269.331286483055 2721.75627440685 37 40 33
-34.7663255667581 268.911711918703 2713.74999508559 40 43 36
-25.2503116237253 268.735303444499 2693.47489042647 37 40 33
-25.7343654161175 268.351648912696 2683.24086975165 29 32 25
-30.4856118449479 267.880694260834 2677.32413108221 19 22 15
-55.6302726855136 267.006465496135 2692.44014648876 20 21 15
-44.9223016634606 266.840487530664 2670.55880205101 22 21 16
-23.8442382156165 266.868653066676 2637.66892047347 26 25 20
1.23809961459154 266.96283047052 2600.27134848504 37 38 32
-13.4404378250341 266.290531178274 2604.44877556957 26 29 22
-22.5322113151147 265.726310815978 2602.79553804501 28 31 22
-19.8835998446039 265.381123383293 2588.65717049407 0 3 0
10.5499437354206 264.315672671871 2509.43333348144 210 210 200
-6.16053253129878 263.607945129431 2515.84298966004 121 121 111
-17.3945944527791 262.999358018522 2516.34194117114 41 28 12
-27.9243285506656 262.404757958056 2516.11621469362 65 48 30
-33.0531315197675 261.903204763652 2509.92562224303 114 95 80
-33.5033992285592 261.479215896479 2498.48085289068 132 113 99
-29.3218042546073 261.129020598935 2481.74834806644 144 126 114
246.882175783247 279.805121494918 2800.64116205046 55 60 56
226.498096449014 278.977734045489 2808.09254323045 23 28 24
196.022921685801 277.928317285362 2824.28390896774 43 48 42
171.923026469106 277.028944374199 2835.21672891756 26 31 25
139.366521162752 275.948366624628 2853.60483473142 36 41 35
124.022988612461 275.254508458193 2857.29978899157 59 62 55
132.708268868555 275.087295702597 2840.12791869681 48 51 44
119.713855363999 274.446328410326 2841.82066302397 43 46 39
130.598956085086 274.319899076618 2822.53829174223 46 49 42
98.4412817517137 273.271658065256 2841.21538795482 34 37 30
79.4314790792581 272.50984742282 2848.42801266868 22 25 18
87.1822366475956 272.312722420121 2831.81357205163 23 26 19
72.1197991034121 271.274703834914 2825.82967285255 25 28 21
63.0883306883452 270.72577443186 2824.22022921556 74 77 70
51.0584378518506 270.117181386454 2825.37759698866 62 65 58
42.0687111180866 269.571642393325 2823.79842996035 44 47 40
62.3183847703954 269.608319954222 2795.24851505022 45 48 41
57.011301470947 269.132082351817 2790.16384824114 44 47 40
55.4233513336477 268.728093256905 2781.59985428443 34 37 30
60.4922519297304 268.451105937835 2766.74598368375 30 33 26
44.7598304991921 267.771619718692 2771.39442799827 30 33 26
22.4386835844599 266.970662764108 2782.38216241956 30 33 26
9.04652221650171 266.343353476685 2785.0219711189 27 30 23
7.43977045170974 265.937855709469 2776.44433981945 28 31 24
10.9272979677648 265.62439019087 2762.91428109103 26 29 22
-3.15157808192579 264.987281765007 2766.29155713401 20 23 16
-15.001028877998 264.393348454683 2767.57951097046 20 23 16
-13.764814008892 264.03493787492 2756.12260436791 21 24 17
-14.7424542578007 263.634611110592 2746.76601899518 20 23 16
-20.7967771908506 263.14368835344 2742.37462447481 20 23 16
-31.1631651152309 262.578307382675 2742.26775360191 20 23 16
-25.746058411724 262.283740663391 2726.43117936726 20 23 16
-28.2553663237524 261.850958101989 2718.43416428152 24 27 20
-25.804932660235 261.499310691569 2705.38743179413 23 26 19
-17.7311576115859 261.236723984737 2686.53645413024 21 24 17
-18.2360918226354 260.828891477653 2676.28717432811 21 24 17
-42.0506025274496 260.044503325103 2689.89782575688 18 21 14
-53.8041027195997 259.458405161327 2691.25537592036 17 18 12
-44.4986078229928 259.203996603863 2670.827266426 17 16 11
-17.8255089503296 259.21125155321 2632.11206305098 26 25 20
-3.89660113119361 259.010694255288 2606.38969718446 57 56 51
-13.699911192165 258.445172165016 2605.45597612742 25 26 20
-37.3220832788796 257.676415527649 2619.20613710187 18 21 12
-50.4879193618994 257.067564800724 2622.01010732653 5 8 0
1.07324121049279 255.653574507516 2508.69536644342 163 164 156
-6.80126604254694 255.106905967697 2505.45427235985 30 18 4
-18.7139109976131 254.508002208432 2506.69668470253 47 31 16
-23.1989323586099 254.006875760559 2499.73745433398 95 77 65
-26.3583059377832 253.521516978861 2491.26892646411 119 101 89
-20.1933301349828 253.150157503323 2472.26870516479 119 102 92
241.806476202306 271.904338281525 2805.56779991432 30 35 29
215.943123157415 271.02158088879 2817.6924090697 23 25 20
187.841030898717 270.103131957883 2831.89962644888 31 33 28
157.520315248736 269.150600378015 2848.20345363622 33 36 29
126.556449284137 268.19454567454 2865.2763606959 39 42 35
103.490133845613 267.392840019004 2875.72390275929 39 44 38
102.180732720125 266.994369442998 2867.36186287816 40 45 39
104.701234565056 266.66341535969 2855.60077127877 41 46 40
121.787521605857 266.590037349525 2830.93286455081 33 38 32
131.83779846729 266.383582476414 2812.27994292125 24 29 23
121.144113094664 265.807446527215 2811.93575266715 21 26 20
102.84935404587 265.101039205139 2818.43197176313 30 35 29
99.8329030882843 264.661351876103 2811.30231951588 34 39 33
86.9402895231044 264.052754103017 2813.06931922664 25 30 24
65.0136909100993 263.294915683478 2823.1079574296 32 37 31
40.9165744687918 262.506927354774 2835.27868706408 36 41 35
31.2054606259431 261.961897314677 2834.41161033238 36 41 35
41.750362944462 261.74695122167 2814.88217361358 36 41 35
41.7359786616838 261.356290970104 2804.98859090417 36 41 35
52.8611049887888 261.139772135135 2784.64443187933 30 35 29
61.655289586013 260.880069836083 2766.31570908159 28 33 27
33.3275673900246 260.040740541888 2782.82983651901 28 33 27
16.9460548208553 259.392354928639 2788.24293497474 29 31 26
10.19623253472 258.893065619566 2784.58264685862 28 29 23
7.12003397536831 258.448611904644 2777.40995263411 28 29 23
8.4162214250818 258.067043657406 2765.99640413697 28 29 23
3.10055173945578 257.586831463446 2760.90519826419 25 26 20
-13.8599840369793 256.940167212799 2767.13389026527 24 25 19
-14.0748004667923 256.533311729411 2757.094927983 24 27 20
-16.495256783186 256.09345919145 2749.16258198131 23 26 19
6.29041457044188 255.996099406592 2716.27490937713 22 25 18
-8.47009290374778 255.382025217957 2720.39291507889 22 25 18
14.7916685498655 255.274660507103 2686.61528304234 22 25 18
-2.12470182044266 254.63162913332 2692.87571541307 25 28 21
-5.44784187891789 254.167226412826 2685.52390698021 22 25 18
-13.0486676046435 253.647644547857 2682.48164215282 20 23 16
-54.6066186309353 252.707989448699 2714.10688564022 21 24 17
-84.6585746785593 251.923543855297 2734.3117981522 18 21 14
-50.5714490242164 251.916204225216 2688.62015184392 15 18 11
-27.9527424157873 251.7567290309 2654.37609167675 19 20 14
-5.51593323261268 251.582491888733 2619.99980093494 21 22 16
6.29018990754515 251.275451505002 2596.44344815895 23 24 18
-18.1261835448219 250.559144534922 2610.85317791145 24 25 19
-39.6601780376091 249.882131262697 2622.41216372126 23 24 18
-44.539391500849 249.388886322081 2616.4022516359 10 11 5
-4.58899779958677 247.522196004965 2515.6654201285 195 194 189
-1.61720540277788 247.082275055887 2500.52581685493 16 3 0
-12.19753219987 246.515759292166 2500.26385137957 41 24 14
-17.3741692939238 245.998503735231 2494.03820893839 92 75 65
-19.8804589851724 245.503340684485 2484.80802922662 99 85 74
-11.0611947029564 245.100098788434 2462.79135580679 98 86 74
234.367597308417 264.004361019734 2812.48643263139 23 28 22
188.1191552927 262.871522158616 2841.94549721588 31 33 28
185.133295656049 262.422734992965 2834.83826965458 33 35 30
155.596960040004 261.566825468822 2850.47616344858 35 38 31
117.631493697961 260.592273360296 2873.58958037394 39 42 35
110.107580892914 260.083614899734 2870.60283221633 39 44 38
139.732379033697 260.122541246561 2835.26287016124 35 40 34
122.088020846695 259.460770423321 2840.99576818564 32 37 31
119.126950620777 259.013999787963 2833.90622673432 32 37 31
134.559384280905 258.826334244371 2810.50919524226 34 39 33
129.213240879453 258.340216293118 2805.39616288574 43 48 42
66.6523040764284 257.065980904237 2851.43713948248 40 45 39
93.4049912023007 257.025970858582 2817.72012739502 46 51 45
99.4908449699796 256.696598231326 2802.36816588018 37 42 36
84.3316550914315 256.082364850199 2806.19745186939 41 46 40
49.6201273201953 255.217854031502 2827.96457684641 42 47 41
66.9489662097447 255.029874594026 2802.2368840219 40 45 39
50.4081714622036 254.406357441623 2807.53464139094 34 39 33
36.169937568745 253.815522036633 2810.79662991408 34 39 33
42.8450729291967 253.482583687683 2794.63650203443 29 34 28
33.8408155187149 252.956704226643 2793.04719546489 27 32 26
15.9634828648505 252.32759632682 2799.84640739969 29 31 26
5.5417004474414 251.789496001413 2799.69922358144 27 30 23
16.5007778168973 251.495826306586 2779.23430133922 26 29 22
6.79972215179259 250.964850037015 2778.37488165736 26 29 22
2.24371574200788 250.491577915948 2772.5993704289 28 29 23
9.3544851523566 250.142649264551 2755.52021982269 27 28 22
-2.53262373212415 249.588511813054 2756.78107608106 25 26 20
-15.1110601997355 249.029701224896 2758.77608165662 26 29 22
-1.61607644252459 248.736243686703 2735.20905215461 26 29 22
18.2477167436561 248.496979419655 2705.14296993052 26 29 22
-10.9256322485454 247.773822371622 2723.51504062754 25 28 21
-7.71288762009736 247.36563412806 2709.78530613047 25 28 21
4.01390996258444 247.031517544743 2687.40634804789 25 28 21
5.65890161148896 246.59893847546 2675.01036014952 27 30 23
6.54433958170797 246.156137634556 2663.2987404337 27 30 23
-32.2496676211643 245.372041348074 2691.98797272642 23 26 19
-29.2145103454162 244.949513223288 2678.12942873314 21 24 17
-45.2279427241391 244.369147712743 2683.80970090938 23 26 19
-13.503521388027 244.167149280389 2640.1094037206 21 24 17
-9.27686432966612 243.738549102632 2624.64449933307 18 21 14
-59.3639157225589 242.448930382589 2655.02548430379 22 23 17
-13.6157244428741 242.305488973309 2595.55437223375 23 24 18
-0.0688282712473232 239.495575674348 2511.49072234116 188 187 182
6.95283134407187 239.036934840697 2491.87605069359 191 181 172
-3.65488785620061 238.484276674099 2491.59429807204 188 174 165
-12.219841180781 237.943193197129 2489.08804429204 61 47 38
-13.4003808478078 237.435906757044 2478.34879439998 103 90 81
0.74639895155082 236.990069342754 2450.31275845398 105 95 85
225.35100856663 256.139486404407 2820.73160086994 22 27 21
226.214398805579 255.720801230529 2810.23945154003 30 35 29
165.987147607772 254.567214852584 2851.79730012331 35 37 32
163.038368383273 254.109860827233 2844.71661507426 36 39 32
125.046937868963 253.244987876414 2867.8117655636 39 42 35
108.189673691245 252.633462439399 2872.88016822932 32 37 31
140.923595204172 252.58142923496 2834.8531743368 29 34 28
144.883228728452 252.197452953773 2821.66499817807 27 32 26
131.085622358757 251.617671734185 2824.01113188205 30 35 29
111.959431874701 250.984470466019 2831.14003601928 29 34 28
63.8315152386242 250.05515131286 2864.17839567978 32 37 31
96.0531295935443 249.961445618737 2825.77980831587 35 40 34
85.4524358130999 249.424582770986 2825.50293410047 43 48 42
74.1181647707947 248.882365862345 2825.9298725365 35 40 34
91.5551466623712 248.617514633559 2800.27989103425 46 51 45
87.7384111989015 248.143915594139 2793.80525480649 40 45 39
77.1396936193001 247.607264272946 2793.5301087297 38 43 37
78.562425107326 247.179862064061 2782.20806254845 30 35 29
42.5622017145724 246.422816211836 2805.51189663397 30 35 29
23.134473491647 245.819502588227 2813.65769212218 26 31 25
7.50075486128754 245.253365947271 2818.37826234094 24 29 23
8.96522480693784 244.829412230726 2807.08649072566 27 29 24
8.16841949382896 244.384384676858 2797.86047556177 24 27 20
4.39313502382932 243.91427721018 2791.41620020631 23 26 19
0.603714822338119 243.443023568199 2784.96137727479 24 27 20
1.19295436028599 243.002219589435 2774.27008373793 26 27 21
1.01153608944315 242.55302756022 2764.2551180509 25 26 20
-5.02837305444093 242.061634660054 2759.87417001254 24 25 19
-11.0693662979278 241.570168871683 2755.49243571804 24 27 20
1.69524816509803 241.196910223441 2732.63087282568 25 28 21
-15.9433124013166 240.630723881352 2739.60319997539 25 28 21
-24.1664777358999 240.124683133551 2737.34489310178 24 27 20
-27.3604717547151 239.647730111732 2730.08664181943 23 26 19
-11.2810834195014 239.272737259474 2703.45224836367 23 26 19
6.79759079300535 238.897509988296 2674.56147987822 25 28 21
-3.67941176435993 238.371097941136 2674.37461948252 25 28 21
-24.7497696135131 237.79736079253 2685.03519187453 22 25 18
-23.1458885475853 237.33075876608 2672.60893522721 21 24 17
0.216426552406279 236.951117454663 2637.66748643395 22 25 18
-18.6848138643168 236.391028382142 2646.19516310956 22 25 18
-23.5260269100075 235.888852458789 2640.21275310067 17 20 13
-26.2867019710911 235.393089967972 2632.03349207539 16 19 12
-60.3300178046333 234.795727387535 2656.75673904031 20 21 15
-36.7243099050205 234.38174671164 2620.75652031691 22 23 17
-2.26574541861613 233.9819876617 2572.86178252775 23 24 18
12.6029710884192 231.447674134209 2498.40388420798 181 180 175
4.01741523965748 230.912695786966 2495.88272614219 16 6 0
-3.20624359269783 230.379944540632 2491.87847983321 23 9 0
-8.40887179516425 229.848776632486 2485.63421989109 82 69 60
-5.57700632792746 229.319731637318 2470.39243469219 91 81 71
236.798280548465 248.522350273823 2811.69969961339 28 33 27
178.754504317951 247.563762439029 2851.13597913957 38 40 35
214.157885100817 247.420148739374 2811.33826500303 33 35 30
171.262550593059 246.610284918687 2838.28926371733 29 32 25
123.123079476656 245.773099441011 2870.08467733449 29 32 25
135.148185298689 244.98149093088 2840.50884324479 21 26 20
138.355338532038 244.557096992952 2828.01030444727 21 26 20
106.873327364048 243.87732573186 2845.94403305054 25 30 24
84.7449433376415 243.274062831241 2855.83717565648 27 32 26
68.0648792048748 242.714788822833 2861.03429908021 36 41 35
100.283077971468 242.48308199799 2822.63253668049 33 38 32
94.9965689543015 241.995148597485 2817.56272536619 41 46 40
92.7395556426549 241.525512727356 2809.74841735122 34 39 33
94.9982928483437 241.081033748469 2797.79728642955 44 49 43
84.3844962201397 240.559017238123 2797.51128335683 37 42 36
78.3085927539506 240.063937327816 2793.10422359064 34 39 33
60.2330292939257 239.505318773238 2799.76009082602 28 33 27
46.7129794332801 238.975079206588 2802.30768210501 28 33 27
19.0713028658585 238.379800291532 2818.08504371658 24 29 23
15.3416666291326 237.904563692137 2811.67383375953 23 28 22
14.562468084216 237.441183546031 2802.46048915815 25 27 22
16.7068078057389 236.987504306922 2790.42638245771 23 26 19
-1.08947604145948 236.451738288894 2797.28482119716 23 26 19
-9.26785123763496 235.956900437387 2795.05904039563 23 26 19
3.80270037510044 235.536512203224 2772.41872467445 25 28 21
1.42560283666926 235.057316200987 2764.5173166168 25 26 20
-7.52593891295561 234.556686710483 2762.96635265091 24 25 19
-18.6379401364283 234.051445640902 2763.55431203498 23 26 19
-13.0798793495701 233.590394695147 2747.81907514804 23 26 19
-22.0191287535825 233.090829077106 2746.27673307751 23 26 19
-27.3466039029375 232.599909287999 2741.17720941308 22 25 18
-23.3601299605251 232.125162861664 2726.77299404838 22 25 18
-22.2951224116033 231.640946007364 2715.1913383721 23 26 19
-13.4380917076691 231.163160020421 2695.67173831522 23 26 19
-11.7775484966325 230.670399888164 2683.28671924718 23 26 19
-29.9921460402977 230.158000852302 2691.07706844837 23 26 19
-6.48765693877018 229.673981687081 2656.23815592857 22 25 18
18.237540565786 229.175213422047 2619.81401301583 21 24 17
7.69566420985779 228.659624427974 2619.58017903997 21 24 17
-11.2114180594274 228.148060340269 2628.10357214358 16 19 12
-30.0402632647339 227.642915631428 2636.68400795698 15 18 11
2.62546782840145 227.10571264125 2591.19431516404 16 19 12
-16.2096681728674 226.600107693217 2599.76989383697 21 22 16
-30.1336325700774 226.094771266126 2603.25984161694 22 23 17
18.486472718112 223.319093885939 2492.74690525038 149 148 143
3.11170213191581 222.810052771298 2497.65518715564 8 0 0
1.29164514626234 222.262884600268 2487.68717213171 23 10 2
-2.57844834598231 221.720120444175 2479.93846856602 87 77 68
4.26074631125051 221.135916077696 2460.19088817229 101 91 81
216.610570029634 241.125717088521 2839.02192218891 11 16 10
217.541267340127 240.66195247238 2828.5783368553 34 39 33
159.542463628686 239.887296077489 2868.04814956932 36 38 33
124.538981719211 239.249921506004 2888.36974462159 32 34 29
152.941890967243 238.928925424906 2854.61255388911 24 27 20
161.685583335497 238.502992590109 2837.4814228358 23 26 19
131.524211351498 237.900911911608 2853.90253675008 21 23 18
156.467424289699 237.537499579844 2822.57756447618 19 21 16
145.720841363178 237.02042731989 2822.19532682561 20 22 17
109.595113533782 236.411445758315 2844.17389341222 22 24 19
71.3365685170957 235.808339488047 2868.31176942733 30 32 27
65.4099958942185 235.324785741199 2864.01302115862 36 38 33
86.9591799257292 234.924332960594 2835.16789827474 35 37 32
99.9776987504073 234.487461416117 2813.72481601304 42 44 39
90.8786077726225 233.984939001087 2812.06658639775 33 35 30
83.3091589820722 233.487321358713 2809.0471786334 34 36 31
65.9396684347553 232.969628894489 2814.97976938404 33 35 30
35.8464842002673 232.433197834427 2832.68597768762 24 29 23
38.8955916672282 231.96250739404 2820.07233916324 24 29 23
35.9078388082836 231.478993857214 2812.96356326878 24 29 23
38.8666299779552 231.0009934139 2800.28470998347 24 26 21
38.0544393162432 230.515124261693 2791.04733478129 23 25 20
32.0214109515704 230.023054698197 2786.67137133919 24 27 20
11.9450980100693 229.524496421443 2795.58256115911 25 28 21
5.95154485065441 229.035699469582 2791.23523071216 24 27 20
-5.92040258641924 228.547006554177 2792.50770379382 25 28 21
-1.64396257664889 228.056708873452 2778.31331777234 26 29 20
4.02987187070591 227.560549303366 2762.66212432754 25 28 19
-2.74449185494263 227.068097989287 2758.98378575695 24 27 18
3.5495557445766 226.562635719272 2742.54681983592 24 27 20
-9.0469767077388 226.074903925728 2744.52877279707 22 25 18
-12.2264078415997 225.576060212365 2737.28096758014 20 23 16
-21.8977872925641 225.087234487149 2736.44327432005 21 24 17
-17.2074114037963 224.57097477915 2721.3137911191 22 25 18
-12.5844588208777 224.049263389828 2706.13569818804 24 27 20
-4.46539495059239 223.513017503081 2687.31587074274 25 28 21
-6.38179078068113 222.997499101472 2678.51350905305 24 27 20
-11.1583507852866 222.488477608855 2672.57793273924 20 23 16
1.70506909215318 221.919751701228 2648.55167481397 17 20 13
-1.03513576288927 221.397085224334 2640.3868223269 18 21 14
5.32196229469228 220.837250230717 2622.76025099073 21 24 17
35.3775389522877 220.172403928576 2580.31819599929 20 23 16
14.3089573009711 219.713396418944 2590.98034264624 21 24 17
5.8412816016653 219.203291967041 2588.54476440767 21 24 17
20.2466775929033 218.580811115952 2561.93064123069 20 23 16
7.58721718584709 218.08854071096 2563.86724786256 19 22 15
3.98744177087629 215.282322325691 2509.36811316423 189 190 184
4.91395280819118 214.699699001234 2496.45052333365 71 64 56
7.81606181666294 214.098463875604 2481.25958799664 61 52 45
9.98249710243826 213.497223507485 2466.77038368065 58 51 41
250.200905896388 233.538473292297 2811.45877047574 16 21 15
220.327193990048 232.981493500881 2826.85360713497 35 40 34
157.599912275219 232.37752238927 2870.30731851747 30 32 27
162.727964242726 231.415147040599 2846.84701102436 18 21 14
162.103102784716 230.924595448883 2837.74570551928 16 19 12
170.765358189596 230.439326458981 2820.55523852395 16 19 12
163.855683467196 229.937619877855 2816.77876324438 16 18 13
126.946940000672 228.931510177649 2829.5418481945 17 19 14
88.633872380965 228.438530798161 2853.64075742552 15 17 12
71.1752445565841 227.954060049305 2859.50889893628 24 26 21
83.5537222621743 227.458517007604 2838.83687113173 28 30 25
89.7362112794049 226.959085703533 2823.55410119085 35 37 32
77.6311618326284 226.47252007872 2824.65760442618 27 29 24
67.0740058926733 225.986850511149 2824.41255102455 29 31 26
54.2781467358409 225.506666078697 2826.25034050964 29 31 26
55.8164958616349 225.004613580766 2815.01172990299 27 29 24
31.8028296969661 224.549798700023 2827.2443475361 22 27 21
44.5458379756083 224.02138620727 2805.60137260397 22 27 21
57.9237536792769 223.482068391205 2783.18326927001 22 24 19
58.5448221098162 222.96794959247 2772.51467782263 21 23 18
47.2625768098744 222.485976689441 2772.97934150033 22 25 18
27.1394092290373 222.035196512828 2781.85680739777 25 28 21
8.57280605980471 221.586021457834 2789.39230045074 23 26 19
13.5936793079656 221.054759015396 2774.502620324 24 27 20
-0.500255087009016 220.594329017422 2777.86958068517 25 28 19
-7.97329346112186 220.109767947751 2774.92012902331 23 26 17
13.68951699809 219.49411962501 2743.68591861851 22 25 16
9.77382051678743 218.986324646481 2737.13937022781 23 26 19
4.39611104175652 218.48470001929 2732.00337640653 21 24 17
-28.4074549937656 218.128321199831 2753.92116072324 19 22 15
-20.7634239604031 217.560467596575 2735.99214284366 20 23 16
-5.31531171329291 216.93959745323 2710.13391509178 21 24 17
-7.15999629365616 216.412832446945 2701.38318697411 23 26 19
3.79757734895358 215.801911482602 2679.68053107879 26 29 22
-6.66878510130542 215.324287144529 2679.50163104316 24 27 20
-5.06770054232386 214.765259950439 2667.0731734736 17 20 13
-11.2838689185257 214.258253185886 2662.56437226887 12 15 8
-8.34985241024078 213.682650912144 2648.63173382407 16 19 12
-1.9654686233288 213.075062711048 2631.02440613896 22 25 18
-7.5537854050971 212.5567163362 2625.73565388749 22 25 18
-11.7529358502129 212.026343026244 2618.98350930553 23 26 19
-4.84452443949457 211.398970709459 2600.52092358857 23 26 19
2.67176353644327 210.758543498546 2581.26389781167 21 24 17
20.0652471567806 207.039730253204 2492.57360324126 17 18 12
19.5878619281475 206.437304043669 2481.10827199974 54 49 43
25.8217489096837 205.755481049421 2462.15672780262 60 53 45
251.418614262379 225.763057202991 2811.06679813583 13 18 12
230.202838052432 225.274194790302 2819.15201582657 26 31 25
260.126179403299 224.703958547745 2784.02538858709 22 27 21
202.900816843203 224.287495417729 2822.82266298808 16 18 13
174.079254384539 223.832563803617 2837.74570550085 13 16 9
189.781965235723 223.280031780688 2814.54246111492 14 17 10
193.710036840133 222.748463052645 2801.33065746207 16 19 12
182.089531705088 222.257193440584 2801.55006227682 14 17 10
174.360240375327 221.756200716303 2798.41476414913 14 17 10
135.063332678937 221.362928073394 2823.03600837585 13 16 9
127.439426335731 220.870573525999 2819.97714982801 12 15 8
114.463382245349 220.399668070185 2821.68407193226 11 14 7
112.215052922161 219.887808925163 2813.87613973366 12 15 8
99.2849400412958 219.420709447704 2815.61667210697 15 18 11
73.4878944955697 219.016428384773 2829.0268091897 19 22 15
59.914967610764 218.562401668871 2831.53674929555 23 26 19
72.0469050528587 217.980336083785 2810.68526646179 22 25 18
72.0310887225919 217.454368058003 2800.79025474707 21 24 17
53.9703940745557 217.026934180947 2807.45756517783 16 18 13
55.4311884977121 216.490575303875 2796.16255974357 16 19 12
56.1009315587553 215.955139261184 2785.52914559857 19 22 15
61.1926212943201 215.387797650934 2770.69032462972 18 21 14
52.1273293924485 214.909001243478 2769.05701133979 22 25 18
34.206431851183 214.493117374028 2775.82542770271 22 25 18
18.5660539278714 214.067005384266 2780.54187971035 19 22 13
16.945935624241 213.541251826386 2771.95424407937 18 21 12
15.2984657453081 213.013279595473 2763.34647499271 16 22 12
15.8151002558866 212.465544604356 2752.60200689538 17 23 13
3.90907350943914 212.016991521714 2753.84968399753 18 24 14
10.9168228793903 211.409866596002 2736.69454415045 23 26 19
-30.6600836458191 211.224171961183 2767.07482872135 24 27 20
-34.4915537766035 210.714563541081 2760.58932862419 21 24 17
-23.2271398797106 210.062117212659 2739.10889744333 19 22 15
-4.1788853641116 209.324777635344 2709.68412761204 18 21 14
10.4231291389558 208.617446540062 2684.44714423632 23 26 19
-17.8792740915763 208.336881806104 2702.21778729101 23 26 19
-19.7494561634339 207.791139984964 2693.4484793763 24 27 20
-13.8536544841621 207.159057465924 2676.72217513218 19 22 15
-22.8661974885287 206.685214736924 2675.1268312581 15 18 11
-6.5148004458202 205.924456574697 2647.4523376358 18 21 14
-8.55477266774374 205.365049473571 2638.55987600047 21 26 19
-9.92273354764639 204.795079702852 2628.9194795972 16 21 14
-2.952912355348 204.119962080316 2610.50116930208 18 23 16
-0.935028990090014 203.499074715751 2597.13950811896 22 25 18
-5.20863970779573 202.954013908085 2590.33331130126 21 24 17
-24.0042168046362 202.598740285374 2598.93832852603 20 23 16
22.9956081972658 199.49600352129 2502.07048276264 24 25 19
29.3517097005722 198.771324587064 2483.20702292973 0 1 0
39.688208272914 197.978752228016 2459.81817973224 74 71 64
233.675551173766 218.071698271671 2826.57341860861 4 9 3
232.203133440334 217.54057030841 2818.09253257361 17 22 16
193.319933564079 215.587861216979 2812.12780650593 12 15 8
210.447849102988 214.937844885077 2787.48715637786 12 15 8
201.878895982181 214.441379664984 2784.97822906048 14 17 10
163.968029863272 214.142047716049 2808.13435249902 14 17 10
151.655197030735 213.68111597036 2809.08735896434 12 15 8
132.46376920151 213.272671443094 2816.17010959502 11 14 7
142.449888054588 212.65364082604 2797.4682942015 10 13 6
114.167425178512 211.774504463957 2802.89911083833 11 14 7
89.0840136057038 211.43098375053 2815.59184755168 14 17 10
72.4372850077275 211.025777872388 2820.81421147846 19 22 15
76.2336577449774 210.447320379397 2807.50669900538 19 22 15
82.2298312908694 209.843777159659 2792.08833765579 19 22 15
73.1444683734481 209.373616619953 2790.4402237237 15 16 10
64.0755206047108 208.904830698218 2788.80401644591 14 17 10
64.7223034947504 208.342262148202 2778.15411502848 16 19 12
44.4991700214961 207.986397736386 2786.95929980717 16 19 12
44.3845009544415 207.42994666001 2776.99247323126 20 23 16
32.4014266375996 206.996331047392 2778.18437256658 19 22 13
27.8253325585531 206.485125187807 2772.39440169314 15 21 11
33.5309955861205 205.858054844197 2756.76532389949 15 21 11
46.4941972362074 205.141157970154 2734.04568602471 14 20 10
22.0756984616211 204.852483804075 2747.22100450103 15 21 11
5.05143766354799 204.485144005075 2753.40462123036 15 21 11
-16.2657449939292 204.176812077079 2763.88731490406 23 26 19
-30.2507149401698 203.784788090772 2767.33390688649 25 28 21
-28.3064738911938 203.19205125122 2755.15374555683 24 27 20
-22.8135929407294 202.547887968313 2739.37062539241 21 24 17
15.6120140839988 201.453449017705 2690.64275834489 19 22 15
-12.7577029922052 201.251976921605 2708.36471029909 22 25 18
-8.19064158773042 200.600593100626 2693.14544384356 22 25 18
-22.1732007812281 200.209045304899 2696.59349136708 23 26 19
-24.0611511307702 199.644919215525 2687.81120972875 19 22 15
-0.544334280813796 198.698290463501 2652.97889064811 15 18 11
-1.15841510147741 198.101784736236 2642.64982694933 20 23 16
0.297218562854251 197.469602563407 2630.11555837777 23 28 21
3.80287275134528 196.800100816293 2615.36150556114 17 22 15
17.5793298785893 195.331230673975 2578.40628206317 20 25 18
2.157523441499 194.959153385801 2583.28145490214 21 24 17
257.8042133491 210.163978848653 2806.97099742364 0 2 0
208.200018115379 210.015039896241 2838.94312400293 5 10 4
279.847652923749 208.836771586079 2768.59859474912 9 14 8
284.454384157947 208.21711601137 2754.64328313878 12 14 9
270.245077352776 207.764458086691 2756.69161031551 10 13 6
255.164274984192 206.741644973244 2749.4591439758 8 11 4
195.292962687305 206.178364385337 2781.39712829203 12 13 7
175.957404899495 205.80410457018 2788.37556919216 13 14 8
149.781273026038 205.510156389129 2801.51175184063 13 14 8
145.167448257596 204.989423764523 2795.69408645327 12 13 7
148.945804408476 204.373185377872 2782.37361648158 12 13 7
123.72359712148 204.086244829899 2794.96602380936 11 12 6
97.850520704541 203.817220919441 2808.32202407214 12 13 7
87.9929295285424 203.365316958931 2807.34952897463 19 20 14
79.6665690058083 202.896484821657 2805.01630769876 21 22 16
78.1276866480494 202.343067873291 2796.48742161808 21 22 16
74.3095382753771 201.816503499953 2790.01149286243 19 20 14
72.7224577420582 201.259171603469 2781.44735258868 17 18 12
51.7050317147985 200.960977145404 2790.91236095983 16 19 12
41.9353398277451 200.516455386771 2790.00362332505 15 18 11
11.4144471822875 200.365230382588 2808.63676444758 18 21 12
20.9794780323169 199.653836721367 2789.62922553715 19 22 13
19.3890178216485 199.096402796794 2781.06263474638 16 22 12
33.9465077404628 198.295782747317 2757.02823312861 16 22 12
27.121158230214 197.80790867714 2753.31295705931 16 22 10
17.3755246642329 197.365597290011 2752.42167101087 17 23 11
3.27902939671487 196.994004255359 2755.78722491761 17 23 13
-12.9494837803021 196.661374656277 2761.31283526435 20 23 16
-23.3235376940344 196.23890763763 2761.20113103951 21 24 17
-15.6211317848336 195.517659841458 2743.31365338138 21 24 17
-13.0425908015088 194.8750436823 2730.35831480999 22 25 18
-11.9532401385247 194.252845270643 2718.79360707281 24 27 20
-5.90092648592799 193.538972902728 2702.18005293955 24 27 20
-4.91737685488003 192.908225831488 2690.53860447576 24 27 20
-7.53425533007834 192.3385387875 2682.46321022193 22 25 18
3.2932166846571 191.517761570915 2660.66517791676 17 20 13
6.24106309487615 190.834575801723 2646.7420201314 13 16 9
18.2875788539341 189.971440785981 2623.35711636615 18 21 14
-0.678022685162816 189.699958671479 2631.83930366474 23 28 21
-8.36568299232465 189.213499415787 2628.73425836867 18 23 16
17.4477077020248 188.054708623239 2590.62525904276 18 23 16
29.145528248963 187.163347810487 2566.9874357075 19 24 17
-8.50095491459912 187.283736469581 2595.27807743105 18 23 16
4.50422780572035 186.357254783126 2570.11744320619 20 25 18
206.86059102609 202.964857054941 2850.28768387817 28 33 27
266.15282729692 201.685359354605 2790.74800825271 4 9 3
243.342627097418 201.368058668702 2800.14833621909 10 15 9
269.215691981647 200.45560896008 2768.25961585313 13 15 10
283.966311034218 199.666899457275 2745.60002014745 11 14 7
230.629342501503 198.547009812981 2761.27497529204 9 10 4
239.766556468599 197.815943677003 2743.19253425437 10 11 5
220.303430783251 197.477210285605 2750.07867841147 10 11 5
201.682068300206 197.133555795511 2756.33997312251 11 12 6
134.851374232454 196.905641052935 2795.58560701264 11 12 6
110.428810615178 196.678283926718 2807.52325275144 10 11 5
92.1876220285878 196.365902822178 2814.06000756218 11 12 6
86.1339641814962 195.869096436023 2809.66906537507 17 18 12
85.3657165455344 195.287794547594 2800.46335650144 19 20 14
78.5413524809231 194.801862726151 2796.74909911761 20 21 15
61.9599541418419 194.477723998759 2802.01893848736 20 21 15
63.4056049133318 193.856086237015 2790.71252314246 19 20 14
59.581295236065 193.320285196321 2784.23208114007 18 21 14
22.9974840534046 193.35378329596 2808.35190087247 16 19 12
41.5017025332043 192.429287075209 2781.00216745865 18 21 12
25.8282551161635 192.105813231873 2785.69516656699 17 20 11
34.5519450947154 191.341284380957 2767.31278366974 18 21 12
21.1242916710388 190.980073498428 2769.92821126133 17 23 13
12.8720163970719 190.525371141792 2767.64906201049 17 23 11
8.28676166520026 190.001459468174 2761.85238602686 18 24 12
10.251016712211 189.348740644224 2749.68642945092 18 24 12
7.805856184389 188.778461857889 2741.73551420449 20 23 16
-4.80376094082202 188.410591541866 2743.70858892903 19 22 15
-7.26430891586616 187.839155816423 2735.7465131336 20 23 16
-10.4679810508561 187.280833687536 2728.48083382773 23 26 19
-12.2547696024162 186.690774177558 2719.77175517776 27 30 23
-14.7846096830018 186.113826680075 2711.75912566103 25 28 21
-8.06390780386113 185.333643823755 2694.39502238942 25 28 21
-3.55704528286394 184.59394809354 2679.13137468431 22 25 18
20.7333225738804 183.404909463796 2643.62355475386 16 19 12
20.0963812973383 182.761519883956 2633.2776815468 11 14 7
8.85492706369773 182.358446108374 2633.77231517862 17 20 13
-9.3801045841464 182.121853161908 2641.54924827382 20 25 18
-28.941470459374 181.924557143515 2650.83526016433 17 22 15
-26.0863614916986 181.197862958585 2636.84465464906 18 23 16
-26.0725696978827 180.534215710094 2625.73507801672 16 21 14
17.5913633790472 178.788836145664 2568.45003845026 17 22 15
244.510689505024 194.178468418586 2809.60451825248 6 11 5
239.052595673078 193.653002321619 2804.41013133364 14 19 13
236.724913338607 193.07727933097 2796.54405648369 15 17 12
219.528303394664 192.125162831251 2791.48385301295 13 16 9
281.442607407016 189.833761547563 2717.7831906722 10 11 5
239.426979015772 189.916859685447 2744.14139352339 11 12 6
231.524500159927 189.421152762361 2740.88057483566 11 12 6
256.676801377991 188.33652817216 2708.4681909295 10 11 5
148.259808471755 189.035491280841 2784.26870820122 9 10 4
106.271662782274 189.197805009767 2811.8822717212 9 10 4
85.7619746355258 188.972913215109 2820.48068478084 10 11 5
98.6668400309032 188.111830687511 2798.95335848753 14 15 9
91.0664899354883 187.641097027507 2795.91139140346 18 19 13
75.1888199973973 187.335737763201 2800.45643700188 18 19 13
56.3634825096395 187.09564590332 2807.8054270733 15 16 10
60.074626141092 186.401572562536 2794.43554458549 17 18 12
61.4877368328273 185.74930124604 2783.10538507733 21 22 14
56.9007601037193 185.218947098938 2777.30742814876 19 20 12
29.2969336991047 185.179998694169 2793.11534055185 18 21 12
48.437279527981 184.139838113919 2764.99083246 16 22 12
38.6539938426407 183.720659212222 2764.0723687573 17 23 13
24.4784282964514 183.401754704383 2767.38086980937 19 25 15
5.94994223458789 183.186398174455 2774.94517910386 21 27 15
3.5805589645892 182.607949547357 2767.04915502694 21 29 16
5.56194180325553 181.92590247656 2754.89546619934 21 29 16
11.1272182372586 181.154128884079 2739.16418069456 22 25 16
11.5492869646974 180.49779956812 2728.35060979124 22 25 18
0.373073330834472 180.118247808291 2728.89265686979 22 25 18
-17.9747755277442 179.918047664736 2736.58799069801 24 27 18
-24.7618527542093 179.438128261355 2732.90049931595 31 34 27
-25.8197911749736 178.814172955979 2723.48457136215 25 28 21
-21.9150928882486 178.060075007179 2709.01966010893 24 27 20
-6.69214202869872 177.006357138886 2682.99601560297 21 24 17
2.72451269294738 176.090499247964 2662.64484338975 16 19 12
20.5257921876632 174.941421640717 2633.54936032598 11 14 7
-1.28715564927995 174.841272010308 2644.90904883153 17 20 13
