ply
format ascii 1.0
comment KinectMotionCapture
element vertex 798
property float x
property float y
property float z
property uchar red
property uchar green
property uchar blue
end_header
110.79148553271 261.272458277285 2898.27749819258 30 32 27
106.434854802061 260.815246327011 2892.64659999674 29 31 26
95.8431320521096 260.263228736314 2892.37644678806 28 30 25
94.5883058927208 259.852151420372 2884.05390560892 27 30 23
113.424312168704 259.735122074556 2858.18381885736 27 30 23
77.3368169744053 258.810228213606 2880.18850093901 24 27 20
55.2683206842857 258.09785658344 2890.12479926285 23 26 19
63.2113008562913 257.816412473202 2873.64898334351 24 27 20
84.8440177328382 257.720725200824 2844.86595889905 24 27 20
55.9732341123853 256.918945648113 2860.98659971722 23 26 19
47.7692830248637 256.4065435461 2858.74218943984 24 27 20
32.7517351183784 255.803823951224 2862.67421303699 25 28 21
36.6910208430316 255.454474969129 2849.47146171817 25 28 21
48.1120518552349 255.198277213068 2829.34160933291 25 28 21
56.4237188296026 254.895343623543 2811.89791686712 25 28 21
41.4128616039071 254.293194053342 2815.83479356885 21 23 18
33.1803581561356 253.778516231608 2813.56967354922 21 23 18
26.4504410675377 253.282979884494 2809.92353966806 23 25 20
35.326936933155 252.974496921163 2791.65423898171 24 26 21
15.9634828648505 252.32759632682 2799.84640739969 22 25 18
27.6998985622798 252.045590002134 2778.70972227169 22 25 18
53.3210330403451 251.913700602225 2744.17195813427 25 28 21
42.7757140156571 251.365597191303 2743.93546380242 22 25 16
27.863693469151 250.771564647034 2747.94403043651 20 23 14
28.3292969268807 250.345984661868 2737.1631875791 19 22 13
20.7505373926584 249.833045433073 2734.13665817409 17 20 11
33.4902828563601 249.529692470065 2711.25742129947 17 23 13
26.5883856151952 249.020302226373 2707.48654516275 21 24 15
18.2477167436561 248.496979419655 2705.14296993052 15 18 9
4.88762656289543 247.926179114549 2707.80631394702 24 25 19
6.61881909816753 247.50055798407 2695.4725556771 13 12 7
14.7295613995624 247.130021772168 2676.64782957812 163 162 160
2.8102661639684 246.573388043343 2677.88563509656 144 142 143
-16.8843585762906 245.951256995497 2687.07289291875 142 142 144
-25.1721458798091 245.432332072189 2684.76767493987 162 163 165
-32.7421519029647 244.920264403909 2681.74749555646 180 183 188
-36.7878152655425 244.437195110511 2675.10685664037 170 174 177
-41.5489752654539 243.947494717522 2669.18283646081 176 178 177
-44.9219460456796 243.467637459748 2661.79453191701 176 178 177
-48.3138102665059 242.98627491691 2654.39281796737 177 179 178
-49.6408338878311 242.518275362513 2644.78261435574 173 177 176
-47.5382447468888 242.071572843451 2631.48294600068 158 162 161
271.219262322524 261.774292231455 2897.2405395662 14 19 13
269.972788380835 261.346918693795 2888.92397054434 12 17 11
234.721674070453 260.433507081124 2907.82961677322 20 23 16
228.672315265368 259.941150751627 2903.44181359383 22 25 18
186.112034906218 257.726546061477 2900.98564448149 26 29 20
161.00865801325 256.987123080252 2912.42686595594 31 34 25
117.755379689101 256.019934993901 2939.11788115744 31 34 25
114.280569833421 255.574106687755 2932.89125476406 34 37 30
121.841487814513 255.265942856351 2917.37366957448 36 39 32
112.011308747331 254.737432195793 2916.4203635946 32 35 28
129.673173402501 254.545163084922 2892.16910315587 30 32 27
112.764009585324 253.929410794379 2897.1998612555 28 30 25
127.135266365961 253.686615122289 2875.5033540103 27 29 24
96.2495891016384 252.911159816463 2892.63385649898 26 28 23
95.7718020968921 252.491958656828 2883.6395298078 25 28 21
86.7492547458602 251.974864951459 2882.0367144946 25 28 21
79.2865565642513 251.476093579246 2879.09468668098 23 26 19
63.3668655771209 250.886571549813 2883.60783098375 23 26 19
72.0579865219211 250.561751130475 2866.43910193797 23 26 19
71.4828980274684 250.134656263073 2857.3741993372 24 27 20
46.4619839991469 249.456284244207 2870.11054576644 24 27 20
29.9178057079712 248.870295042509 2875.40633489598 24 27 20
30.8808961860572 248.459760356253 2864.98620720393 24 27 20
39.3668713127626 248.118279763926 2847.66867918952 24 27 20
49.2764464515618 247.784035261668 2828.91311259883 23 26 19
54.5810524987043 247.40093927959 2814.22957244853 23 26 19
48.5721328409801 246.911914981847 2809.87110134748 20 22 17
28.3585349892648 246.29894177384 2818.682190872 20 22 17
38.0416355323456 245.946314830721 2799.76235490298 21 23 18
48.3745452442053 245.592254955157 2780.07824110371 21 23 18
23.7845667607703 244.949066102514 2793.12716011573 19 22 15
5.95216429010481 244.366977659418 2799.959181062 19 22 15
34.5920403464501 244.144877791008 2762.66886919019 23 26 19
49.8056416025463 243.807858454096 2737.87711380571 22 25 16
37.80058074262 243.265523147493 2739.05281841707 19 22 13
33.8592143948615 242.781939636176 2732.48778402822 18 21 12
54.6468201444026 242.46406628922 2701.85595844676 17 20 11
29.5611560909221 241.83496310543 2715.78065238649 3 9 0
14.7154902834448 241.278797335524 2719.83751278965 12 15 6
27.3249050987054 240.892919953709 2696.86308396711 30 33 24
24.7208827516276 240.409644577397 2688.79744708705 3 2 0
40.728748879574 240.028802462474 2662.11088155219 37 36 31
17.2997999739688 239.426011751341 2674.76691815515 162 158 155
-6.02422314921536 238.83176311621 2687.49876648729 154 150 149
-17.8816403163184 238.301634015127 2688.78126851227 181 177 176
-25.4576219958764 237.794068150022 2685.75707452755 169 167 168
-30.9087041952338 237.296501001947 2680.56791180448 181 179 180
-34.9582901985912 236.804378264922 2673.9243834249 191 189 190
-41.1259658754357 236.30285889 2669.45076340753 185 184 182
-45.8965265991735 235.806428996593 2663.51959987939 179 178 176
-49.9801555127752 235.311621216956 2656.85137946739 179 179 177
-51.2994462219503 234.82454199064 2647.2466849665 175 177 176
287.910011028001 254.344747796149 2884.59988794764 21 26 20
263.092155850222 253.63667195481 2895.01321235701 8 13 7
257.793368279642 253.147769992464 2889.93449515135 14 17 10
218.597876944929 252.296604115583 2912.15657120806 18 21 14
231.890399717292 252.008386167742 2892.14820432157 15 18 11
210.566779726213 251.356424967156 2900.15412314933 14 17 8
189.325394940949 250.711169699628 2908.21998447667 13 16 7
167.368182689795 250.064716466407 2917.00195775873 16 19 10
176.54149506822 249.726516086377 2900.18300627854 27 30 21
134.033451207498 248.891085725571 2926.1795941193 30 33 24
128.932199608646 248.418187223507 2921.24386153883 33 36 29
127.772704480672 247.980797479554 2912.99029458119 33 36 29
110.841140462233 247.401017642416 2918.00529098147 30 33 26
123.016652508549 247.078858701438 2898.42204389286 28 31 24
114.736368706852 246.575485067233 2896.12234413293 26 29 22
67.4356336054642 245.749488967928 2927.29050095707 24 27 20
76.4155954423114 245.395498925705 2910.33101108821 23 25 20
70.5621234823663 244.918453383984 2906.08528801545 23 26 19
59.2891691485113 244.399784982664 2906.55650104281 23 26 19
65.7990852862502 244.0159494874 2891.5116755248 24 27 20
61.462097993326 243.548220573516 2885.8952584827 24 27 20
66.3253460240831 243.144484800047 2872.12670057187 24 27 20
68.8301027428566 242.720010825176 2860.35401577484 24 27 20
52.9712535383196 242.170528352051 2864.91146839249 25 28 21
33.3639941070634 241.601312342504 2872.92699611052 25 28 21
38.8717705829942 241.193008877277 2858.39090533607 24 27 20
49.6081797765253 240.810789750903 2838.99915429002 22 25 18
47.4235301872796 240.347089985492 2831.2376288263 20 23 16
54.2413390512446 239.931271612594 2815.18050821048 20 23 16
54.9836892899673 239.477550288867 2804.60043693628 21 23 18
39.2359039746193 238.937207120947 2809.23844842981 21 23 18
45.9094741707853 238.509699229786 2793.0770013928 21 24 17
66.6300407979126 238.141178177999 2763.63135780941 20 23 16
44.2067939813033 237.571178608042 2774.54595320058 15 18 11
-16.5441381277967 236.849324929406 2821.90213322664 15 18 11
33.535737213346 236.587630955442 2764.3352212967 19 22 15
35.5370816622322 236.122331008224 2752.19710093326 21 24 15
43.3470557943525 235.673274287133 2734.38927495402 19 22 13
45.2316718273553 235.198510568459 2722.16648773493 19 22 13
54.3455196049307 234.741461573207 2702.83345936946 18 21 12
32.8865646670522 234.193053470516 2713.21216325837 20 26 16
-4.39791290858826 233.61217365928 2739.29131075971 22 25 16
4.66850822453546 233.151342320726 2719.92388264923 20 21 15
54.6290773766849 232.765892151712 2659.79948853182 28 27 22
36.8578404843709 232.232386723645 2666.67609579373 17 14 9
-12.0132489552287 231.164996621331 2694.23457327847 177 169 167
-17.459579141035 230.6644976342 2689.04854606407 196 188 186
-22.9115876457342 230.163578870198 2683.8586948659 186 178 175
-27.6631328490591 229.662625448769 2677.94129318175 196 188 185
-32.4247616869329 229.160895370771 2672.01687219882 195 190 186
-37.8975303687707 228.658374058242 2666.81166891095 188 183 180
-43.3759053575271 228.155442536602 2661.60269389078 178 174 171
-48.8597467203573 227.652101783595 2656.38975410655 178 174 171
-52.9593369257828 227.14730636921 2649.70991242414 168 167 165
297.283268078588 246.748407043976 2877.76999870308 18 23 17
291.101817578418 246.244123198843 2873.28637901972 10 15 9
279.254628155617 245.697295372472 2873.34117414328 11 14 7
252.909702895274 245.046891936714 2885.11785824101 14 17 10
236.332292099594 244.473864309844 2889.15429096553 16 19 12
231.851639482131 243.988380629391 2883.43363793232 15 18 9
244.973397685194 243.619875898168 2863.30077901984 14 17 8
222.063573350263 243.009861763157 2872.62769915007 14 17 8
187.302862612572 242.332356461167 2891.89004430649 20 23 14
173.341925963521 241.792870391865 2894.11798050821 24 27 18
150.714559293986 241.205866277004 2903.64948230129 29 32 23
136.073991552743 240.670892639359 2906.61979890579 29 32 23
119.906000615894 240.131208084493 2910.95319771266 28 31 22
103.79409715403 239.59610458049 2915.32727873104 25 28 21
70.5122082809457 238.97928202484 2934.42692415762 23 26 19
54.5606728219328 238.457255999277 2938.91732560369 22 25 18
66.6952146353017 238.068139647372 2919.30403916638 21 24 17
37.5778271202392 237.491279795444 2935.24705082118 22 25 18
51.9475397961338 237.104647153198 2913.54869565889 22 25 16
59.2538365640234 236.681378788157 2897.84594709082 23 26 17
65.714742350556 236.249101105432 2882.76534755405 24 27 18
67.4984790078841 235.794996125371 2871.70486646947 24 27 18
71.5336109511546 235.344700416172 2858.57108480491 24 27 18
77.8003989272156 234.896607410213 2843.34968501692 24 27 18
65.7305193145152 234.391551190196 2844.47858995702 24 27 18
54.4536930239263 233.891235325458 2844.94708907953 23 26 17
55.313031684924 233.421724312378 2834.45145075438 20 23 14
47.078202259021 232.929784749555 2832.18475975733 18 21 12
40.3600595763591 232.441686331577 2828.54719906889 18 21 14
56.8969396595533 231.992144576104 2803.47911016891 20 23 16
56.847819759267 231.508551564313 2793.56017062334 22 25 18
51.5429972317194 231.015886838867 2788.47676501242 26 29 22
62.5886560219806 230.538118207883 2768.07367499247 24 27 20
61.6718033466648 230.043747017831 2758.76067947555 17 20 13
33.377858332456 229.534293447606 2775.30096359846 14 17 10
23.6361049767497 229.039497804106 2774.41222455416 17 20 13
38.1591484725963 228.545732779967 2750.35411179343 17 20 13
33.5137568590214 228.047067699098 2744.51396917984 19 22 15
38.3518730720716 227.542672053336 2729.49164618671 21 24 17
46.0349808456502 227.030581063134 2711.59123831868 19 22 15
26.7767037676361 226.538969127969 2719.86043834919 14 20 10
-11.2179235013348 226.077660421784 2746.66042546291 24 27 18
-5.73340259238653 225.566168921378 2730.8716224577 23 23 15
22.6948196277794 225.007958025613 2692.1911391053 34 31 24
28.6824709547648 224.477640634598 2675.53193409141 26 21 15
-1.86200056010066 224.024690422316 2695.38149071985 46 35 31
-8.74113864780157 223.523926713891 2691.62715687429 143 130 124
-12.7754065703667 223.015476496587 2684.99465019647 134 119 112
-17.5322713762429 222.508075829045 2679.07365403936 111 94 86
-21.5929500083993 221.997538325562 2672.42199110201 88 70 60
-27.0756440147364 221.490952335553 2667.20986662322 81 62 55
-32.5636401832234 220.983956324809 2661.99360194008 75 60 53
-36.6584118311468 220.470765192498 2655.31721080686 99 85 82
-40.7675086299828 219.9564471691 2648.63042935811 115 104 100
-50.4507058106385 219.467063612749 2647.78416634804 111 103 100
300.962714126436 239.066261011385 2875.45766061143 16 21 15
293.149289835936 238.553635733907 2872.26131378385 15 20 14
307.198773781288 238.131865991493 2851.56567663362 10 13 6
235.139516465304 236.891256769948 2890.7215827865 15 18 11
287.667497933011 236.599240503548 2838.63460600911 14 17 8
289.432079173211 236.115582541689 2827.56008906217 15 18 9
228.869976767625 235.437377476861 2867.64227365271 14 17 8
206.030619807302 234.890030244878 2877.02059450685 15 18 9
180.900315615013 234.343862807556 2888.44327468479 19 22 13
174.88028213578 233.852054369152 2884.07673283512 25 28 19
159.382579434233 233.33938830515 2887.6611381132 26 29 20
131.336096597848 232.806112254686 2901.91032444894 25 28 19
120.688970663481 232.312992709103 2901.60030661972 24 27 20
99.8861731256859 231.806423064791 2909.98481167269 22 25 18
85.4135839293249 231.314705430921 2913.07711860939 21 24 17
61.6430451266585 230.816827622211 2924.2507297044 17 20 13
68.1489516069069 229.401976802754 2890.67104785815 23 26 17
60.728525665982 228.921342711549 2887.75946148581 23 26 17
73.2781557659989 228.439754538266 2867.21157638871 24 27 18
87.2525807173914 227.949010800954 2845.22614137584 23 26 17
85.0805829472057 227.457678456221 2837.47335304428 23 26 17
83.6465289094881 226.963883274697 2829.02076124595 23 26 17
62.4511697865642 226.488098956272 2838.35588259111 22 25 16
48.9105824691594 226.009845572627 2840.88884914967 20 23 14
24.8484858250251 225.551036337155 2853.08633826246 19 22 13
17.4436087907366 225.071791726801 2850.18632513939 13 16 9
66.3124652156672 224.480945413227 2795.44496241877 16 19 12
63.2461535752746 223.979473704856 2788.27914662543 20 23 16
63.1444043571259 223.469075043109 2778.32191918828 27 30 23
58.5448221098162 222.96794959247 2772.51467782263 26 29 22
53.1937739751465 222.4682533239 2767.39802114348 19 22 15
24.7868632242376 221.529375061545 2773.97335688468 15 18 11
34.9031606715462 220.974882023547 2754.13120099863 15 18 11
38.3278399983311 220.43881607279 2740.55445476149 18 21 14
30.7380767156964 219.944728037994 2737.52033846645 20 23 16
34.807361696326 219.398598438445 2723.17549854377 17 20 13
30.8277783710933 218.885586839198 2716.58261079329 12 18 8
-2.84183309597386 218.521231759283 2739.10787099923 20 23 14
-11.0893365078739 218.036319675337 2736.83202795482 14 14 6
23.838355956153 217.311652331178 2691.74609305918 23 20 13
16.9172379398721 216.809612419792 2687.96132060328 28 21 15
-2.87026652509526 216.386595999219 2697.08225648571 20 7 1
-5.46844443391814 215.86110050724 2689.02034803344 134 119 112
-9.51101489910622 215.343217754488 2682.38177488764 166 148 138
-12.1512712078584 214.814391013013 2674.28964050884 166 146 137
-16.9329907293996 214.298995830407 2668.3502916671 117 93 81
-21.7246786443541 213.782834170637 2662.40371264188 105 83 72
-27.9297303555501 213.276817595648 2657.90297516036 89 69 60
-32.0373997969623 212.753865625595 2651.21747917785 84 67 60
-38.9485021657037 212.253047832087 2647.43997346886 85 70 65
-52.807314920539 211.812483052586 2650.97747914596 82 73 68
272.084098135619 231.323450728186 2898.94827461737 14 19 13
274.902305403902 230.83245761784 2887.40247988051 22 27 21
303.578521514257 230.357150894273 2855.07767014056 11 14 7
318.339920771638 229.858935022657 2833.66269174914 11 14 7
258.907315816102 229.327621942746 2872.09434392435 11 14 7
272.034674432205 228.826935060131 2851.96516981916 11 14 5
238.608119828968 228.323409665998 2869.72518673687 15 16 8
223.698437453439 227.825545877493 2872.50060436849 15 16 8
188.128098519684 227.343473359231 2892.41235377906 14 15 7
178.929796450136 226.853521621587 2890.68226759904 14 15 7
191.133906817307 226.342853983821 2871.11879720982 16 17 9
167.691774052342 225.868711211674 2881.29556044352 22 23 15
145.920706457325 225.400027648292 2890.21337439777 25 26 18
122.665462900684 224.941145317485 2900.52540042712 21 22 14
112.821653978769 224.463988446829 2899.56276846876 19 20 12
93.6255969539475 224.009117623545 2906.64192813842 17 18 10
99.4284277532556 223.499685089406 2892.31892182406 18 19 11
112.154755385767 222.966125623885 2871.89886529434 18 21 12
100.764712775665 222.493709011969 2872.28543280589 19 22 13
70.8682933490108 222.082088185099 2888.89987567708 21 24 15
61.9006939130915 221.611020101048 2887.33712640903 21 24 15
72.9159917040376 221.06874228232 2868.14673693019 18 21 12
82.3022055734457 220.524436076044 2850.24574721149 18 21 12
77.09197971232 220.032723914718 2845.2312160448 20 23 14
67.3084374708752 219.560565914523 2844.31200353251 21 24 15
61.341438211838 219.072583356865 2839.9839266997 23 26 17
37.9634218053453 218.669388339259 2851.44256524354 25 28 19
19.2140331841095 218.25116938661 2858.84571002028 22 25 16
20.8572456422162 217.729685488452 2847.68301865724 18 21 14
47.2173253897314 217.064994648623 2813.67823297119 20 23 16
54.6830825324278 216.494984662317 2796.85530072743 20 23 16
55.3550402876808 215.959728034556 2786.2234929703 22 25 18
67.8863290210012 215.344883475775 2764.42660022599 23 26 19
73.6326285855604 214.765513469484 2748.82722233685 20 23 16
37.1638027096486 214.472603759823 2773.02874405211 15 18 11
13.4059174096448 214.104157232599 2785.44722016539 14 17 10
39.7297372521375 213.371133784514 2750.18076615303 14 17 10
38.7466995085104 212.831917671946 2740.81956451926 18 21 14
37.0012074011847 212.295967207474 2732.14069661601 22 25 18
49.0667178108324 211.643288592279 2710.00595958772 19 22 15
14.5476488619245 211.378825970494 2733.15067806393 18 24 14
-6.04583555003924 211.006996033216 2742.92263778115 21 24 15
4.48255835287803 210.359912023779 2722.14371378962 20 20 12
24.9819408462897 209.610023012858 2691.30076077429 20 17 10
7.29844714334282 209.213930756594 2698.24167097151 22 15 9
6.13232448229795 208.660091827247 2688.74767310643 26 13 7
-0.769037553484342 208.161971177434 2684.97724203423 114 97 89
-7.66731769184226 207.66418149984 2681.20934124872 152 128 116
-11.7281113601704 207.13611106935 2674.55750611146 154 128 115
-15.8031826528313 206.606928799922 2667.89531518794 147 118 102
-19.8926515210101 206.076617506196 2661.22268143594 143 114 98
-25.4002183016948 205.561582881977 2655.99248335822 139 113 100
-30.2134866591002 205.037776997934 2650.03022149021 131 109 98
-37.1290959168131 204.538868095123 2646.24945831013 130 110 101
-53.0796867453036 204.153774817683 2651.9762747596 122 109 101
279.829567902322 223.698142195823 2893.40829416289 14 19 13
275.322331003761 223.192350240283 2887.66826675156 24 29 23
308.863495369979 222.586572561648 2851.45869223508 14 17 10
310.694861064058 222.052438280231 2840.4323330915 12 15 8
294.763570183052 221.568938551303 2843.7025687783 10 13 6
233.103446064798 221.24059330514 2884.22587721155 10 13 4
230.216498346355 220.730509657948 2877.18974805486 13 14 8
198.554512211657 220.327161261391 2893.75937247102 14 15 9
194.912908860108 219.823696280438 2887.41154197181 13 14 6
204.762195147562 219.261850178654 2869.84615448838 13 14 6
170.951007089209 218.887723922707 2888.56332894436 16 17 9
124.652150061475 218.585683360808 2917.9900547679 17 18 10
128.209102432326 218.05591292771 2905.74455907751 20 21 13
118.356861555417 217.591168915745 2904.77558301158 19 21 10
109.309061226388 217.123887069116 2903.15471358259 18 20 9
105.746607469553 216.626863959943 2896.86429294308 16 18 7
98.5790483485776 215.629357908166 2884.25280955597 17 20 11
91.1008395126358 215.15377726594 2881.2993607266 18 21 12
80.5403988965621 214.699497513459 2881.05237966578 19 22 13
80.7891791696531 214.172512290867 2871.34917452329 19 22 13
71.78489785746 213.708838117686 2869.75987123192 18 21 12
79.6467990139864 213.121113386083 2853.22372803222 17 20 11
68.3361243484466 212.673859882865 2853.66795851669 19 22 13
60.101137349934 212.204800638089 2851.40126918521 20 23 14
43.5258065043063 211.805416114022 2856.67542035268 21 24 15
27.0110826588792 211.410998286295 2861.99323750829 24 27 18
18.860775801143 210.948940968862 2859.78797008417 24 27 18
25.0240546288367 210.359077032123 2844.49081620782 21 24 15
34.8683885854339 209.728585551555 2825.68645434249 21 24 15
43.8711568770098 209.097621466731 2807.50676332503 20 23 14
46.8156661004002 208.517945057428 2794.81704174325 24 27 18
57.8894549604385 207.851390820837 2774.4333875749 25 28 19
70.3444497091383 207.161134562191 2752.5805112408 21 24 17
-3.09515723007414 207.373631567831 2811.74022784469 15 18 11
30.0373154232414 206.461003939529 2770.29238873431 15 18 11
19.5639195831099 206.014253735172 2770.10854642784 15 18 11
22.3083053595472 205.418392076333 2757.27337463002 19 21 16
45.4582803850077 204.577894059285 2724.64602939053 23 25 20
43.6620209869734 204.020800156774 2715.93025209913 20 23 16
7.70210528462689 203.881742406316 2740.5014729504 19 25 13
-10.7001626482286 203.538508546067 2748.15692721337 21 24 15
15.7288087901484 202.62463709144 2711.73045269988 20 23 14
26.1251954593473 201.903108639086 2690.85545677168 20 17 10
45.7463171777905 201.047630213141 2660.61033557556 21 16 10
8.70058930252693 200.956697556511 2686.86503950881 23 10 4
-7.47746084974743 200.59056969748 2692.42706190382 110 93 85
-12.2211240550116 200.066199608616 2686.51554991526 149 125 113
-16.2659571901767 199.53070329628 2679.87524729556 155 127 113
-19.6186948872983 198.983523134614 2672.50156361874 160 129 111
-21.5815862243109 198.413370797351 2663.66492513513 155 124 106
-24.9761914081197 197.862888518066 2656.26087409784 153 124 110
-29.7891055881225 197.333136944824 2650.2988388645 150 123 112
-37.4024951229266 196.847787989161 2647.24763966021 144 122 111
-42.2263212793601 196.317279379742 2641.27769026775 137 123 114
308.748130597753 215.907485577941 2871.10328940965 0 3 0
310.661197293371 215.352121902947 2860.13604953461 19 24 18
305.24080530187 214.836610486173 2854.96904390693 17 20 13
294.969277906966 214.350737042523 2853.69601107135 14 17 10
275.052533734035 213.928916698075 2860.25289665431 11 14 7
254.406114457224 213.518479468845 2867.51621394637 11 14 5
265.081966185122 212.897814016671 2849.31439235267 12 15 6
272.46912208671 212.292469982709 2833.66933804708 11 12 6
254.284860922875 211.870135479225 2839.01206167364 12 13 7
247.28937777406 211.367814036996 2835.17337892012 13 14 6
150.340363064912 211.041491738064 2897.04995334226 16 17 9
133.34164594932 210.645085454672 2902.01690337548 19 21 10
127.404421595669 210.15826411028 2897.71041688879 20 22 11
115.197574013703 209.727303747307 2898.74011165803 20 22 11
113.96445402554 209.19874368616 2890.43271067238 17 19 6
107.249409041709 208.719405132421 2886.79773441939 18 20 7
86.5517381618122 208.375910013298 2895.25897955777 16 19 10
67.4858335284645 208.023766848478 2902.43330428647 16 19 10
77.8536210145857 207.377801230153 2884.00803219916 16 19 10
79.6533684086334 206.812981112813 2872.95859684531 17 20 11
84.4810731664705 206.211488237077 2859.16356565572 17 20 11
81.5858609566109 205.689199940003 2852.12167805089 18 21 12
80.9636015434623 205.13956714035 2843.0219595657 20 23 14
60.5068331340455 204.815908930963 2851.65794052391 20 23 14
50.0051115864673 204.382404888332 2851.45363140203 20 23 14
30.4416158836265 204.060816742237 2859.50243314172 21 24 15
23.7922726605366 203.587014444775 2855.91481906244 22 25 16
27.6862578955619 202.980349516425 2842.67792509594 26 29 20
51.0391339700544 202.116949256712 2811.43258778183 28 31 22
45.0294888417089 201.624440253355 2807.07357312092 29 32 23
50.2124545270033 200.981078601409 2792.30082945648 25 28 19
50.8641418161986 200.393662710101 2781.65406300896 24 27 18
43.3146805213469 199.917485132063 2778.64895872792 19 22 15
31.3346649146835 199.505530889252 2779.84347958366 13 16 9
48.149990382786 198.676241697462 2753.73998708367 14 17 10
44.9754777222449 198.131476308573 2746.49551477068 13 15 10
32.9855375350707 197.718837551689 2747.682837619 15 17 12
26.8766284379653 197.218503631169 2743.25182475399 21 23 18
44.0835402204875 196.350295892603 2716.19696777087 20 23 16
37.1754970551414 195.855789925929 2712.42171171436 14 22 7
13.6128968878908 195.634270631192 2724.98279288038 16 22 10
25.5351842169036 194.831608580844 2702.74317621171 17 20 9
18.9049622012281 193.719783153309 2688.05027317399 19 16 9
5.54576110201044 193.337733310079 2690.71521776297 22 11 5
-9.19673918401998 192.98476919282 2694.84759983371 95 81 72
-13.9334522747787 192.454987759223 2688.94109872195 141 119 106
-22.2239694459265 191.990040528537 2686.63417521142 145 119 104
-24.1429036074916 191.406452097287 2677.82933416592 153 122 104
-26.0894031460175 190.820667902969 2669.00449926842 149 116 97
-23.8502796951094 190.150746415393 2655.80267690036 150 119 101
-28.6651710772632 189.614885579537 2649.83947188339 149 121 107
-32.0941537130883 189.05022678808 2642.41013361363 142 116 103
-34.8464857726771 188.469932424003 2634.23649243758 148 130 118
334.641338270015 207.38097780131 2841.66067753382 12 17 11
317.817150451357 206.962795024617 2845.51900064759 18 21 14
284.892058242115 206.704021545575 2862.40874144395 14 17 10
273.863548659468 206.243158617817 2861.82241385509 12 15 8
270.895170173421 205.703345268274 2854.72739768736 13 16 7
285.536707363856 204.979826207396 2833.22438752055 13 16 7
268.898982629618 204.576831167783 2837.21795863242 10 11 5
270.645922740492 203.979698286303 2826.13007848152 12 13 7
284.269014613396 203.246570531042 2805.1237635286 12 13 5
264.495754428642 202.882369259536 2811.78495556865 13 14 6
179.199159200774 203.286151439834 2873.46647031241 16 17 9
151.873723721146 203.042551029389 2887.0047899 16 18 7
139.598682394054 202.627335010751 2887.98512931628 21 23 12
129.708840396523 202.185767845969 2886.98930726789 20 22 11
120.621619323618 201.736016115349 2885.33994969387 18 20 7
112.330331863548 201.277540962457 2883.03250056681 19 21 8
92.3937817029246 200.973978953204 2890.8106639976 17 20 9
82.6097565574777 200.541111089151 2889.89159490719 17 20 11
68.2101143952964 200.173689082371 2893.0374122876 16 19 10
70.039957388782 199.583339470734 2882.00966456414 17 20 11
73.3614319232272 198.967363062417 2869.59302931453 19 22 13
78.9280019634795 198.31350799148 2855.09802100526 19 22 13
78.3156939735257 197.744906165258 2846.00542043726 21 24 15
63.1974316611315 197.392620192985 2849.86540803087 22 25 16
53.4478700472683 196.962701086853 2848.97133722604 21 24 15
36.1451685774816 196.653334573488 2854.95369449337 20 23 14
40.0531931039803 196.011557424449 2841.72680005854 21 24 15
46.1620245810854 195.328309168323 2826.3897031258 30 33 24
50.6979079612035 194.664077757039 2812.38251213165 33 36 27
58.1653510795634 193.944314589222 2795.56004355824 33 36 27
44.6530975733857 193.575966373402 2798.11410659256 25 28 19
46.8121123801057 192.938916132759 2786.0897093643 22 25 16
51.8898238873406 192.245256433365 2771.2401154534 17 20 13
65.0381948384031 191.399556974598 2748.65405834612 13 16 9
61.1058918572303 190.85505954775 2742.09528564413 14 17 10
40.2449506758917 190.62422263423 2751.67407439888 12 14 9
18.5209659332686 189.804792639934 2751.97839775937 19 21 16
21.9118854976972 189.121086882164 2738.3764305253 17 22 15
42.6826921837677 188.086834909502 2707.72879834525 15 23 8
48.8014213048653 187.330968980174 2691.16347197384 16 22 10
8.25171939500979 186.892112373644 2709.93586705369 13 14 6
10.7143446295588 186.206564171452 2696.89598674596 14 14 6
-1.90428440952228 185.83821312354 2698.86282058383 17 8 1
-10.9173522861483 185.395611229264 2697.26725445964 81 68 59
-14.9357475807845 184.844721867094 2690.64603922591 138 116 103
-23.2222881596762 184.387856012728 2688.34203936573 143 117 102
-26.5493966186752 183.819810480141 2680.98682918337 147 116 98
-29.8952120904268 183.250294278756 2673.618050439 146 113 94
-28.3432478166621 182.564548703021 2661.1530481958 151 120 102
-31.0418765169747 181.97428133027 2653.01828721572 147 118 102
-30.27393482506 181.298406224998 2641.22031137317 141 115 100
-30.942555269895 180.65278344779 2630.85116747233 147 128 114
335.070637366975 199.545030922558 2841.93219499514 5 10 4
296.626443921508 198.845726168409 2853.58375351494 16 19 12
288.7898141514 198.35551516073 2850.37040359563 13 16 9
303.462325126174 197.562760467742 2828.88949629398 13 16 7
298.785675563632 197.02473855032 2823.02649477597 12 15 6
285.307868145045 196.608956895251 2824.37025162538 11 12 6
289.467569612417 195.336501929087 2801.44143220391 9 10 2
277.605326512553 194.899701304869 2801.48587190517 10 11 3
171.200552598123 195.302633272806 2871.3327814816 14 15 7
158.085501501296 194.916604856241 2872.93965883628 18 19 11
137.17007793251 194.658209189471 2881.24377592594 17 19 8
123.372317487058 194.292944326422 2883.59088450476 15 17 6
113.51492070168 193.867164160959 2882.61866264733 18 20 9
106.010625470172 193.404129868421 2879.64636678284 19 22 11
88.4373441841371 193.11296134425 2885.43266714332 18 21 10
94.8897323778231 192.413282314538 2870.34453858118 17 20 9
72.753892470709 192.208377134314 2880.23429402048 17 20 9
68.3853083878363 191.695633079395 2874.59474378048 21 24 13
76.2685816760831 190.959847048168 2858.07334373549 22 25 14
77.9585254303656 190.330069508861 2846.94398035771 22 25 14
66.6503475169766 189.938908609525 2847.39030491119 26 29 18
59.1706015171072 189.478045200376 2844.43611078159 26 29 18
56.2438751698529 188.930165197984 2837.37124827899 24 27 16
64.6289318704594 188.158868978938 2819.97838524291 25 28 17
60.8788207235622 187.620251697995 2813.55171707386 26 29 18
60.8690874488906 187.004723868118 2803.66066145788 28 31 20
48.0944313153935 186.646940467297 2805.51414697542 26 29 20
46.5565548919318 186.059622825536 2796.98552392727 27 30 21
49.4571220490565 185.37591245761 2784.26342085138 28 31 22
59.7256417034435 184.529027786624 2764.53013307055 17 20 13
75.8157827679842 183.545688951723 2739.13548973462 14 17 10
35.7029585819175 183.785608986633 2766.87387029582 16 19 12
37.7183677533721 183.106201831034 2754.74515573173 12 14 9
30.1507065473379 182.638586818172 2751.72690131775 12 14 9
35.0201863021784 181.88636719994 2736.72635362515 18 20 15
33.9909375233423 181.26439254858 2727.33123343744 18 21 14
36.5635067156607 180.554137669074 2714.37092870683 14 20 8
39.806577064641 179.82218998017 2700.66153806634 14 20 10
30.7114629447582 179.383075469836 2699.00651253374 12 18 8
5.78976692905009 179.334449394622 2713.05330511132 13 14 6
6.10925666113715 178.669899651769 2702.16533086704 15 15 7
-1.48507376044882 178.200590039992 2699.1280292631 17 10 2
-1.93635360774347 177.549707329771 2688.91641355711 64 54 45
-8.11468044133434 177.043167296229 2684.43504685828 135 116 102
-17.1306917691654 176.610994110991 2682.83769426398 141 118 104
-21.1815660879811 176.048848072329 2676.1928772752 140 111 95
-24.5421775747428 175.466647480247 2668.81330833485 150 119 101
-27.2188859426561 174.863866768675 2660.69408001198 151 118 99
-32.0195694788734 174.317212741329 2654.74082541908 143 114 96
-31.2456547467199 173.613883817349 2642.94704050186 145 118 101
-32.6045009161589 172.965954899265 2633.31285666828 140 121 107
341.187134619942 191.619424562594 2837.68018426918 1 8 1
306.516190537109 191.555947736003 2855.77567673551 21 26 19
276.84694493529 191.425832880066 2870.08556643125 15 20 13
291.631452425705 190.57051831945 2848.68553091584 10 13 6
305.497400469455 189.719298275002 2827.85496390027 16 19 10
300.816894861755 189.174852279414 2821.98884003659 12 15 6
270.546302942936 189.074850863816 2837.0982845905 11 14 7
274.68581141049 188.379499139318 2824.03892643887 9 12 5
275.587187095156 187.736491313591 2813.57317733075 8 11 4
270.898838718237 187.191320350508 2807.70136440419 9 12 5
236.156979038241 187.201499911915 2826.98085835405 12 15 8
196.052966785351 187.32826870993 2851.01964937572 12 15 8
175.006254940916 187.110564633892 2859.22879890346 16 19 12
146.201464159483 187.051409178617 2874.16600424725 16 19 10
132.378102286048 186.710865415499 2876.4946790218 14 17 8
119.377499339819 186.358301930248 2878.18439731275 15 18 9
106.415172464424 186.008924271748 2879.90217335816 21 23 12
102.794677824452 185.471935416833 2873.56947520943 20 22 11
105.344559652003 184.805162993839 2861.82827527736 17 20 9
97.8236271089594 184.345720116653 2858.84423133893 17 20 9
78.0116216245528 184.149981028814 2866.71322600777 17 20 9
62.1100213698496 183.877573530056 2871.24109091617 17 20 9
76.0718779383183 182.954532213647 2849.24435514183 19 22 11
64.769315006346 182.582451324812 2849.69484675919 18 24 12
60.3354905349689 182.058380477532 2844.00794499683 21 27 15
59.6805863440109 181.446796991855 2834.88395334607 26 32 20
65.0375289840799 180.692433332455 2820.23676704195 24 30 18
60.5347074697811 180.162762596844 2814.49952500914 23 29 17
47.0085601768417 179.846946243368 2817.04378222517 21 24 13
39.5164976190849 179.390155811986 2814.08068019035 19 22 13
35.0192058255874 178.861060001037 2808.34744968228 24 27 18
48.3801338673668 177.888903629561 2785.91483921706 25 28 19
68.3062630453302 176.739801460349 2757.1246682816 19 22 13
71.7949102985913 175.991394127898 2743.59321820855 15 18 9
51.6119824411483 175.845316610895 2752.42890598517 14 17 8
32.2474771124979 175.68692781894 2760.62249225366 12 15 8
34.2326633631229 174.974349012736 2748.47170042832 13 16 9
19.3484497807854 174.706570031026 2752.50178298575 16 19 12
39.512725328481 173.49775194378 2722.6486158569 18 21 14
24.6260529880509 173.229926025183 2726.67721024739 15 16 10
15.5888575868723 172.805966212628 2725.06424799156 15 16 10
5.12309237447939 172.423887012081 2724.88626486137 14 14 6
23.4941305504019 171.22721323015 2696.20357094086 14 11 4
5.81005030302162 171.048201151598 2703.14515549339 15 12 3
16.8306658686723 170.043732586845 2681.48591216026 14 5 0
6.33395188829189 169.659422506085 2681.28548230782 54 41 32
-2.71431601849681 169.234983903798 2679.66449093121 121 101 90
-11.7462397922039 168.811984268619 2678.05564953115 140 116 104
-17.2260697916222 168.28289488303 2672.84519277094 141 112 98
-19.1872809849336 167.645002214108 2664.00942914122 152 123 107
-23.2841126347125 167.070555304049 2657.33152887313 153 122 104
-25.9941742454084 166.450920791622 2649.18803670496 134 105 87
-28.7274648698566 165.829474572215 2641.02799062935 143 117 100
-29.3956511758264 165.138996955957 2630.65893424644 135 117 103
318.048897736829 184.215974362591 2856.68799516334 31 38 31
289.920265798523 184.126610691111 2869.64484173646 13 18 11
295.857646840126 183.3782968038 2855.41816378304 13 18 11
316.238394305993 182.334665585338 2829.42816283608 14 17 10
281.807380729102 182.38608895421 2847.69816803868 12 15 6
278.796193369708 181.808088983903 2840.57192538232 13 16 7
280.5639483476 181.12870227844 2829.49871774089 12 15 8
284.679075151379 180.39514074335 2816.42149126064 12 15 8
268.062365473626 180.098855380857 2820.43083714099 11 14 7
271.325790925173 179.377617150096 2807.97129322346 10 13 6
257.929337219217 179.016572100102 2809.37430236703 10 13 6
246.93720613256 178.606062953579 2808.8146013781 10 13 6
177.777877008433 179.509208913412 2857.49410015963 14 17 10
159.156714219195 179.295274423527 2863.75619669035 15 18 11
135.130838190132 179.213651578279 2874.74681679422 14 17 10
107.305922019355 179.231579523182 2889.15941349123 14 17 10
102.153512899813 178.724619132371 2884.18671767909 17 18 10
107.076197385038 177.975053611635 2870.45978930371 19 21 10
104.977611790172 177.389638655245 2862.75974247775 20 23 12
107.482011866102 176.688398702364 2850.98539726847 18 21 10
80.721485001733 176.711576966125 2864.93458245359 17 20 9
67.1113016413298 176.415493943888 2867.41802008411 18 21 10
72.6549391754165 175.63467295761 2852.90603888135 17 20 9
70.5095059203078 175.045500158164 2845.17201215249 15 21 9
64.5405782745962 174.553922376318 2840.84251918051 16 22 10
60.0864303375426 174.022123278067 2835.14055088202 22 28 16
58.6447575129108 173.408548116445 2826.68182935325 24 30 18
51.9016304333868 172.935796197954 2823.02623467537 22 25 14
48.166787364917 172.380880991879 2816.61055211 19 22 11
38.4251473051878 171.991221237425 2815.72242773037 16 19 10
39.1606025227587 171.309609498892 2805.13590932129 22 25 16
49.5358479678178 170.349612911827 2785.47941640961 23 26 17
39.7667114483711 169.957822721187 2784.57134846845 18 21 12
32.9795669788853 169.48172894252 2780.88382771803 16 19 10
45.3852554543843 168.441643783645 2758.9934362619 15 18 9
43.6985610037395 167.808290927126 2750.35669867246 13 16 9
44.1850348978918 167.106541686985 2739.58988086512 13 16 9
53.4083928721318 166.134527576944 2720.33333590142 15 18 11
63.2672002023837 165.132442722283 2700.30254727063 16 19 12
5.41261555731154 166.22505358391 2746.06184316345 16 15 11
31.226855101818 164.722437735589 2710.42208538086 16 15 11
24.3272950949067 164.237595507588 2706.65302789568 17 16 11
22.474025928688 163.591024556559 2697.89546978779 14 11 4
38.7335102664288 161.632893799351 2660.26739976825 17 7 0
12.4657015606751 161.780380570121 2675.80972761499 37 25 13
1.97594773223253 161.4126979576 2675.61442754664 112 93 79
-5.65065343793503 160.950942549431 2672.55347597488 120 96 84
-9.73356513369805 160.368711124047 2665.88533267139 125 95 84
-11.0108751683593 159.687710180931 2656.31008860565 132 103 89
-16.5369180494832 159.151795652484 2651.06639104759 138 107 89
-19.2659809971854 158.51638785588 2642.90904450991 130 103 84
-26.2085807963062 158.028980376275 2639.10906804436 138 112 95
-26.8821463313298 157.315610775937 2628.7359961911 127 109 95
316.281173728306 175.833327782856 2849.18830244689 17 22 15
323.767524910003 175.000472213464 2833.614004526 13 18 11
272.321950679472 175.535632232944 2865.48977789889 18 21 14
290.270499453721 174.456424314342 2841.4418483763 10 13 4
273.60621381648 174.191287176275 2845.4168632002 17 20 11
279.389347067432 173.388462659666 2831.07809162444 13 16 9
273.94080689839 172.853808234756 2825.89058381903 13 16 9
281.211780578531 172.003041671212 2810.16006342817 12 15 8
278.890318386949 171.384956394106 2802.29828311921 11 14 7
292.364087816071 170.363150753571 2781.18255340672 9 12 5
238.68552874943 171.055268043112 2816.38082443098 9 12 5
211.224819182322 171.094088395444 2829.82251146251 13 16 9
176.038098406301 171.34890003449 2850.01579184895 15 18 11
148.051891019085 171.429728743508 2864.31207818283 15 18 11
114.727887287717 171.66755749239 2883.38552262721 14 17 10
103.333922911216 171.325053488815 2883.76990519958 15 16 8
102.05206620523 170.707395337393 2875.42672262769 18 20 9
96.8759127924534 170.195180676329 2870.43678745675 21 24 13
90.9233440295609 169.704248560533 2866.11915665846 18 21 10
66.5140447418411 169.738841939554 2878.06745034677 17 20 9
75.947784704943 168.810514092707 2860.19896816233 19 22 11
64.6486525731742 168.475953937746 2860.65213688988 19 22 11
60.2409133104747 167.941880334348 2854.98379970902 16 22 10
54.3028280983822 167.45227090723 2850.67667504549 17 23 11
53.6697052193964 166.802979115246 2841.56857660963 23 29 17
45.446664504901 166.380957602194 2839.31078564977 26 32 20
37.9893010376335 165.936813509694 2836.37290178236 22 25 14
54.5847719189818 164.746176473426 2811.34353280865 19 22 11
55.3138732873344 164.038755964489 2800.75227763216 17 20 11
40.3152057971394 163.825966881034 2804.6996686439 19 22 13
32.8160935564767 163.378560159923 2801.73150367384 20 23 14
29.0378195944871 162.811478649868 2795.28427550216 17 20 11
32.6493336562095 162.000712478838 2781.84157834086 16 19 10
10.3651435739383 162.040468348251 2792.8603619349 17 20 13
50.0013423475494 160.020315877107 2745.00538975998 16 19 12
55.6084169930715 159.118375684619 2729.30345087423 15 18 11
64.8018489711584 158.085712309662 2710.02519919381 13 16 9
54.2078629213112 157.724783057767 2709.75437317084 12 15 8
45.8207623398179 157.289978688269 2707.37758696449 14 14 12
55.826215896031 155.472465868147 2676.3324674382 18 17 12
18.5704178076227 156.069649028274 2702.43837243309 16 13 4
45.4390673939749 154.362337139756 2665.09157443085 19 12 4
37.7271894843689 153.898321336691 2661.96908695845 27 17 7
9.31797647555044 154.201516866579 2679.66496370922 24 10 0
0.262050255428026 153.797427934636 2678.03852373293 99 77 64
-5.93913993422368 153.28762426664 2673.54056636842 104 81 67
-7.1899119992489 152.588990524219 2663.98447092961 94 65 51
-7.76763592123175 151.860677936043 2653.68109549484 102 70 55
-10.490323799903 151.211485415366 2645.52830055842 113 81 66
-11.1341336461943 150.477931149963 2635.17699147665 104 78 63
-16.0053266887268 149.907709133496 2629.17250366136 104 81 67
-18.7976180387468 149.253134757014 2620.9695189 96 78 66
332.110992476519 167.641314428324 2837.15471890296 16 21 14
309.640285513511 167.548811150561 2845.56725477561 12 17 10
307.416372365751 166.9246662075 2837.77645363395 16 19 12
303.561531966761 166.342069394962 2831.27364223002 8 11 2
312.525054796307 165.407680681057 2814.29929554024 17 20 11
281.412676991165 165.571023289513 2830.03517653618 13 16 9
283.936546232206 164.809941023715 2818.27434735005 13 16 9
270.502097192862 164.493896763256 2819.65004080345 12 15 8
298.355796072916 163.003901037707 2786.72383117004 11 14 7
290.421864137267 162.525070272297 2783.44029695459 9 12 5
250.15192911823 162.989795660841 2807.36051883887 9 12 5
216.363096482107 163.2845620575 2826.09699281364 11 14 7
206.26137013199 162.891107483231 2824.94781497597 13 16 9
146.113506904309 164.00607356475 2866.57470425847 14 17 10
129.953356314837 163.817444045496 2870.91556486344 14 17 10
97.5131044416107 164.135464957906 2889.39473497288 13 14 6
97.8010640416622 163.454139128982 2879.71914999504 17 19 8
90.3178757903618 163.012507792315 2876.76226344114 20 23 12
84.3850278445126 162.522643056272 2872.45893409048 18 21 10
76.912817975896 162.08197119323 2869.51030533742 17 20 9
77.1178693643408 161.393866240331 2859.77428961302 19 22 11
77.2866251802129 160.702801427745 2850.01224193822 20 23 12
45.3924343698024 161.066030213086 2868.8874923524 16 22 10
66.8709269250072 159.666751598505 2839.98606445895 16 22 10
58.6221905763127 159.250235917047 2837.70967407361 21 27 15
45.849818050828 158.98907439004 2839.56559891319 25 31 19
35.377243831896 158.653432094677 2839.38291500093 22 25 14
40.7128321101768 157.772239522384 2824.71931157375 20 23 12
69.2113045323617 156.071477044035 2788.55404010139 18 21 12
42.2165753600794 156.31073411613 2803.56987262336 19 22 13
23.5385179418195 156.267249185131 2811.02662501313 20 23 14
54.6990422904718 154.43393804015 2771.85001941433 17 20 11
25.6531987368271 154.768379259813 2789.08454736237 16 19 10
19.6317357889533 154.271828606819 2784.71694524012 17 20 13
25.3877176766411 153.337636586687 2769.12278903019 17 20 13
37.4166313270488 151.424067764951 2737.07395910798 13 16 9
67.0308047846047 149.551704557546 2698.01120957027 12 15 8
69.5160335698493 148.700356707988 2684.98716972795 12 14 11
45.8422146903672 148.861893354017 2697.46927185278 15 16 11
44.6840850876726 148.150533934804 2687.98027045394 18 17 12
36.5237627242334 146.950565887867 2674.64779181882 21 14 6
40.3016018331268 146.030140085605 2660.09007515691 20 10 0
15.451748224407 146.271229188386 2674.190415293 41 27 14
4.95375317548863 145.93483441825 2673.98929946713 100 78 65
-1.97022662497459 145.452987587248 2670.20255472474 105 82 68
-3.2308620392929 144.733831876545 2660.63920518571 87 59 45
-5.9340560182779 144.071932339337 2652.50047742964 110 81 65
-5.8481955718217 143.287962344108 2641.44282992022 108 79 63
-5.80292795829296 142.500723390239 2630.35544476496 98 72 59
-8.59310797157042 141.831978649533 2622.15362430395 99 77 64
-15.5854331300602 141.345173006944 2618.31760391263 93 76 66
330.105363512834 159.872119998882 2839.36684752812 4 9 2
314.108106291952 159.641324734519 2842.59054280529 12 17 10
303.808695350309 159.244817021192 2841.29774924665 17 20 13
304.791226726006 158.50762576719 2830.89035457328 12 15 6
304.931566126325 157.791702727399 2821.10728684357 12 15 6
322.635556633328 156.52674441506 2796.88113095156 11 14 7
293.935182945291 156.700891945471 2810.66017557114 11 14 7
276.495224817916 156.532531567272 2815.30841567583 11 14 7
275.777159509009 155.83652430238 2806.13850403668 10 13 6
271.071669664289 155.265596680617 2800.25413443174 9 12 5
255.309786018348 155.05404853223 2803.64855452694 10 13 6
252.975944888516 154.40630579571 2795.77765024059 8 11 4
204.325253046123 155.295902362325 2827.21121553497 9 12 5
185.643483388867 155.206739459077 2833.43000884632 13 16 9
135.820824768382 156.181360577537 2866.48449433677 14 17 10
102.582177641601 156.616937954594 2885.62052276418 14 15 7
91.2203836434573 156.314342655051 2886.02842847582 14 16 5
90.7195307303068 155.636297947505 2877.01606972179 15 18 7
90.18709765295 154.955635150651 2867.98080457164 16 19 8
84.2378630299425 154.463882812742 2863.66558660793 18 21 10
84.424280139511 153.751740279535 2853.91623521903 18 21 10
57.8034118502426 154.006896226811 2867.9678368984 19 22 11
59.519813201752 153.239379372645 2856.85695552069 16 22 10
54.3466638933015 152.720963213471 2851.86916667727 14 20 8
63.575851964881 151.665067841531 2833.85175430665 15 21 9
53.8135470181622 151.313042540767 2832.94854565834 18 24 12
41.8104878383789 151.048675242825 2834.1268148161 21 24 13
44.1237390258009 150.239787795311 2822.21335644244 22 25 14
45.6381254626335 149.455838268329 2810.95594690714 22 25 16
53.8332192326307 148.405652836469 2793.42396305981 22 25 16
30.6491102748936 148.58147598223 2805.02610209258 21 24 15
38.0242046109429 147.554586428043 2788.13513226036 17 20 11
35.6899411801286 146.907481598354 2780.26392507014 15 18 9
11.1772093570219 147.155559148466 2793.37365075181 16 19 12
49.3593788219835 144.855699926499 2746.93357266611 16 19 12
28.548104061537 144.955132585781 2756.5500385498 16 19 12
55.3974096581169 143.082841159706 2720.42341865186 16 19 12
63.8048044895223 141.959885951915 2701.80993115222 16 19 12
62.6655647325061 141.230147194454 2692.33453031066 15 17 14
49.8895213308224 140.993735880056 2694.18791941846 15 16 11
26.3058911109204 141.228147650499 2706.73577035422 16 17 11
28.0577098888051 140.373912340123 2694.41508794946 17 14 5
36.2283163918256 139.231838958386 2675.62955622291 21 14 6
36.4280878977992 138.431414656794 2664.6544019272 36 26 16
22.3018131300661 138.265691026231 2667.99941080783 77 63 50
11.7832206961102 137.943586704831 2667.78343588192 94 72 58
4.83937867851658 137.462348801872 2663.98229567879 77 54 40
0.0216608996015388 136.884176946531 2658.01682743283 78 52 37
-1.27850372562177 136.142152855326 2648.42441201535 106 80 65
-3.31415206225483 135.430431075782 2639.5346078299 92 66 53
-1.87196482860852 134.551594685312 2626.98904782451 103 81 70
-3.27473544556689 133.801492762166 2617.32250469511 99 79 70
-10.2824032959716 133.315681693095 2613.47507261968 97 84 76
307.252495996653 152.082350726984 2848.69868999655 13 18 11
316.332794202831 151.052452237608 2831.80851249356 13 16 9
312.456877374112 150.450516105752 2825.29032437847 17 20 11
302.148372335989 150.066336051187 2823.99129523426 14 17 8
304.66316536141 149.243101868684 2812.22357169402 10 13 6
332.662955046989 147.528490043053 2779.40212867843 10 13 6
275.328122735862 148.784485947614 2816.89348082622 10 13 6
256.461513314029 147.973175595483 2813.09344556371 10 13 6
242.317969641752 147.740265770708 2815.19055890638 10 13 6
254.974713278927 146.537341576668 2794.71666898913 8 11 4
263.601294366994 145.469701167777 2777.49739109416 8 11 4
204.057734237432 146.917881800461 2818.32900375714 10 13 6
147.152827583656 148.303130499296 2857.36741503208 14 17 10
117.769141424439 148.684301045522 2873.1225282065 14 15 7
107.140772220873 148.367243403989 2872.82670484295 14 16 5
106.597154268035 147.665906772632 2863.78322682082 13 16 5
