ply
format ascii 1.0
comment KinectMotionCapture
element vertex 797
property float x
property float y
property float z
property uchar red
property uchar green
property uchar blue
end_header
193.369433130972 -252.670548752869 2822.44757265062 13 16 9
217.500957385113 -243.931773037167 2849.62238611991 13 16 9
201.145903619036 -246.302504119918 2846.3755074844 13 16 9
196.716603959545 -245.407720255228 2852.05852817664 13 16 9
193.092710276667 -244.296275268208 2858.32699356847 12 15 8
168.611753320562 -248.820422525505 2849.29708634857 12 15 8
147.256427092945 -252.466416924986 2842.70190395596 13 16 9
166.144038320342 -245.291489065737 2865.39609570229 13 16 9
191.615731558443 -236.403850899187 2892.63534691366 13 16 9
149.172309455819 -245.654880514235 2870.96703222466 13 16 9
125.232177444262 -249.927036550402 2862.78008080725 16 19 12
61.3100632438264 -264.732504237805 2826.41902340952 15 18 11
60.7649972647142 -262.735312478568 2835.16722950483 5 8 1
70.8784975624393 -257.949863061364 2851.34039095883 5 8 1
35.9679994419304 -264.968610679307 2836.0319477974 7 10 3
23.9322483201008 -265.971643317631 2836.79558630064 6 9 2
38.2295861968203 -260.124343819159 2855.74207864253 13 14 6
31.1505096550451 -259.844949361405 2859.89659328221 13 16 7
36.480349749465 -256.363014179132 2872.51052727795 13 16 7
41.0315877019531 -253.100765355487 2884.51284709862 14 17 8
31.4932884073134 -253.464307772143 2886.95336628 15 18 11
-8.07083226569238 -261.481937090387 2869.32878895486 15 18 11
-5.18386788610581 -258.64491113317 2880.21278615443 21 23 18
188.312001066119 -276.785042185695 2754.514942581 7 9 6
200.893641150317 -270.979452928289 2773.75440363123 17 20 13
211.2162050732 -265.851024949394 2791.08617905101 15 18 11
139.97715921694 -283.787087105521 2745.44971810832 11 14 7
150.354875560696 -276.402385296991 2772.31229098023 14 17 10
182.116378759289 -265.318902805147 2805.73398263151 12 15 8
212.475849652249 -254.700189429225 2837.78278712504 13 16 9
202.480277375231 -255.345509441274 2839.30178458349 13 16 9
199.632088465195 -254.006068491142 2846.1831752828 13 16 9
195.199105135803 -253.107842315593 2851.86934514167 12 15 8
185.967644703792 -253.527875231949 2854.01351806773 13 16 9
178.32242295578 -253.506449626535 2857.35110379038 13 16 9
160.208817041402 -256.332491029805 2853.0836316234 13 16 9
174.28852110353 -250.393833123039 2872.23273482755 13 16 9
142.388764219663 -256.930750122245 2858.11443255132 13 16 9
150.874087529749 -252.530510133277 2873.12717513076 13 16 9
81.4562460656041 -269.081547643259 2832.5624096971 16 19 12
108.614023831855 -259.662268483432 2860.88293421792 16 19 12
77.9868598039641 -265.716211464931 2848.26336370987 7 10 3
43.9684749070559 -272.623962206489 2833.46988079939 6 9 2
33.5935220380885 -273.216796729521 2835.35785146156 8 11 4
28.1275015026412 -272.505103444581 2840.68050269919 7 10 3
25.1338046079743 -271.143426958412 2847.70309857573 11 12 4
18.0236755305123 -270.865176116298 2851.88828002629 12 15 6
1.80220279937426 -272.963286132961 2849.8853694916 13 16 7
-2.85399426829436 -272.032409203756 2855.78836812515 16 19 10
15.7784863756314 -265.064331327606 2877.34957133185 17 20 13
3.68460119519076 -266.079832323324 2878.17311847444 16 18 13
-25.1484074695396 -271.393816585737 2867.9136253879 21 23 18
199.300049784326 -281.105427441 2764.08028064059 10 12 9
211.127398057038 -275.465962725727 2782.67640842716 16 19 12
259.843369693693 -259.279717949197 2829.68224613291 14 17 10
235.825827258652 -263.995126289785 2820.22076758965 12 15 8
187.321198254745 -275.646179530136 2792.17284601296 10 13 6
200.923444288142 -269.583201853556 2811.77769769008 11 14 7
219.364740481284 -262.190299923872 2834.88320823275 11 14 7
209.384282601422 -262.853771257536 2836.38987962879 12 15 8
198.586681315135 -263.73706611479 2837.32356701009 12 15 8
208.474855790938 -258.822154675368 2853.70100806385 11 14 7
185.696382986203 -263.043830361161 2845.77029806755 9 12 5
193.252652117838 -258.804459972243 2860.31247231906 10 13 6
194.452149901705 -256.349886552209 2870.09451863406 10 13 6
189.248336976795 -255.674049722143 2875.16209340665 10 13 6
131.633438439123 -269.402585203205 2842.29774841626 10 13 6
123.880304960117 -269.374189602431 2845.74146192074 10 13 6
107.204009183422 -271.776188087245 2842.81820265897 9 12 5
52.3028958734364 -284.551034026155 2812.78638687739 10 13 6
87.5305669308055 -272.808468232746 2846.91977617653 12 15 8
66.6465635889955 -276.295004978235 2841.24990473697 7 10 3
50.5975750745034 -278.451243137006 2839.08430613939 5 8 1
45.1579361639878 -277.742846190662 2844.38124723087 9 12 5
47.9376488503238 -274.838519883602 2855.36179998499 9 12 5
49.1093589689005 -272.377819274053 2865.17053426647 11 12 4
37.1014761538051 -273.426363997614 2865.91356363747 10 13 4
7.68236432589697 -279.066340849154 2854.86735190075 10 13 4
-21.0184904202944 -284.472920614841 2844.49065143645 11 14 5
15.0328606314467 -272.835991321667 2877.82172735356 11 14 7
31.2754959621104 -266.457915056052 2897.59221846995 15 17 12
-5.01121418025363 -273.815738914578 2882.28358019292 8 10 5
206.520536445677 -284.205149191037 2780.04060646187 14 17 10
242.695009454737 -271.468291797693 2817.33791735759 14 17 10
242.183929241246 -269.430420754034 2826.04636270476 12 15 8
208.64757826896 -276.921904124004 2809.44324124921 11 14 7
144.996577842852 -293.004873934553 2770.16795948623 12 15 8
201.256242327491 -274.649487186588 2822.11539782703 10 13 6
194.402333812573 -274.418839428032 2826.05318418631 12 15 8
213.765130268603 -266.735019808139 2849.61720531382 13 16 9
183.063468451697 -273.277116779815 2835.72718968238 12 15 8
195.359336093228 -267.636083383915 2853.85750111742 11 14 7
196.534865627594 -265.156741926131 2863.66002539533 11 14 7
200.951686162489 -261.782165574361 2875.77922173913 11 14 7
148.306040726597 -274.356894980617 2846.31193451594 11 14 7
136.553846521022 -275.462233832362 2846.80945546525 10 13 6
138.884733638557 -270.49866561527 2866.43347517937 9 12 5
65.3821605662546 -288.589180154242 2823.06722037603 10 13 6
79.4739960874034 -282.521183338183 2842.18549846971 12 15 8
64.2833239020502 -284.494838031674 2840.55750263033 7 10 3
47.4111795037535 -286.907793341436 2837.83034335893 5 8 1
46.0632139507524 -285.085445449899 2845.98443528772 9 12 5
46.379279664424 -282.820903645679 2855.25491998006 10 13 6
36.0146214663928 -283.44618455385 2857.13780128536 13 14 6
28.1044549420848 -283.403093246054 2860.73527890612 11 14 5
26.8045493775846 -281.58618490703 2868.84245051936 11 14 5
28.8432546394817 -278.886660788786 2879.17219495641 10 13 4
4.30948643919749 -283.264276737838 2871.59031997902 10 13 6
2.19037728354721 -281.669467862925 2879.12688975441 14 16 11
180.826482925993 -299.193142165591 2761.00901434626 13 16 9
196.57842565927 -292.285407045452 2782.60573427795 10 13 6
193.597752391853 -290.905604799654 2789.61238067875 16 19 12
189.842883156871 -289.756537423295 2796.00534615728 9 12 5
182.941129956717 -289.525430636047 2799.99057515204 15 18 11
164.962177348555 -292.499253123162 2795.61157008309 10 13 6
229.737400009028 -269.400865140332 2862.49072953025 12 15 8
217.396900910112 -270.784036331032 2862.19660011605 14 17 10
177.872623409119 -279.914872334471 2841.86283291659 15 18 11
193.413469574522 -273.308538790432 2862.29647472236 16 19 12
175.355377222577 -276.270425446181 2857.99395463624 15 18 11
152.409943435862 -280.587591894923 2850.24281501425 14 17 10
148.730688254623 -279.445432758718 2856.56171565451 13 16 9
200.018566046222 -262.885214120118 2902.37524867287 12 15 8
99.5754107355951 -286.6576613919 2848.34192314931 14 17 10
53.5094062470822 -297.258672208827 2824.80243784032 13 16 9
39.0733133160697 -299.030487041574 2823.81254896309 8 11 4
59.7654799919924 -291.100783140576 2847.43705353889 8 11 4
42.8695668193577 -293.547803926106 2844.73853187422 11 14 7
26.7419951310481 -295.762716172379 2842.65963953441 9 12 5
12.2123954000171 -297.521475157453 2841.7606746433 13 14 6
13.3285358994777 -295.009571979002 2851.61702266071 12 15 6
12.8214839331844 -292.950065965564 2860.31827025978 12 15 6
-4.2522938429701 -295.372983480113 2857.79280832279 13 16 7
-20.5479729864178 -297.564963530167 2855.87745980244 13 16 9
-47.7275690762484 -302.655398432261 2846.7772195667 13 16 9
-29.0627139566464 -295.456027802282 2868.27208947246 14 16 11
194.30997361163 -300.387301178793 2781.80473131464 8 11 4
195.248174079057 -297.836041778753 2791.83195958193 16 19 12
187.563099943515 -297.842997986863 2795.21331413416 16 19 12
171.979424328434 -300.167873091509 2792.61057741582 9 12 5
183.230330805533 -294.607625534494 2810.3739193705 11 14 7
200.111959329006 -287.437576570855 2832.22664621691 10 13 6
221.076209994572 -279.125322990228 2856.94167385299 10 13 6
187.208032492149 -286.76570902282 2840.69006879567 12 15 8
197.91581250643 -281.468189714538 2857.61432731751 14 17 10
178.286057664645 -284.937766411455 2852.11370904817 16 19 12
173.831976609746 -284.024231719097 2857.81856666825 15 18 11
172.599892741886 -282.191296419845 2865.85635939841 14 17 10
164.13153075446 -282.428021635984 2868.63224296602 13 16 9
163.730539369995 -280.368087538723 2877.22810756887 13 16 9
166.594024145352 -277.394301337034 2888.11520725813 13 16 9
129.705879331585 -285.643405701752 2870.70137689279 15 18 11
72.3173042348089 -299.589881163959 2839.06174797365 14 17 10
53.8464528693958 -302.539035710438 2835.16722188941 7 10 3
59.033079712917 -298.86275891556 2847.8946451549 8 11 4
48.6943141256444 -299.523576393322 2849.75672916242 11 14 7
24.3633243577817 -304.051681244696 2841.99573439806 9 12 5
36.186726188586 -298.561482945839 2859.20093325323 12 13 5
29.9281816288768 -298.079632648 2863.92729609601 15 18 9
7.94291484612453 -301.908565340174 2857.98469218665 16 19 10
-20.7550338037854 -307.540624960563 2847.63843174983 15 18 9
-26.2801556193439 -306.818886391819 2853.01828674373 13 16 9
-14.3034780736842 -301.347879956708 2870.0737792553 11 13 8
-91.6234646380918 -320.059271937859 2827.75621926073 12 14 9
211.61458675376 -302.618806271022 2796.12484217518 19 22 15
194.54400981432 -305.460081452857 2792.24112552282 12 15 8
184.496940007134 -306.179372346698 2793.82219365402 14 17 10
190.202098326537 -302.202196708933 2807.4071440988 19 22 15
170.660577342661 -305.7329612193 2801.82795183632 20 23 16
204.948361832823 -293.33157643287 2836.79728923133 15 18 11
206.853902993414 -290.545386804386 2847.24645846493 13 16 9
201.626449992257 -289.866510798257 2852.33705899381 11 14 7
185.22127699674 -292.455051027318 2849.17180374874 11 14 7
184.770547455109 -290.373308359262 2857.81383577968 14 17 10
182.739201890404 -288.760197003907 2865.26054991326 14 17 10
175.898573840535 -288.544799326988 2869.18774037183 14 17 10
166.632164954061 -289.025397044223 2871.37523123893 14 17 10
150.07388791535 -291.592614689313 2868.35919694544 15 18 11
152.904235804347 -288.587289521088 2879.27454060722 15 18 11
124.917011867518 -294.388967982045 2868.24758961444 16 19 12
100.891729660681 -299.019475368058 2860.19815777269 15 18 11
80.8575992765372 -302.482582528681 2855.09779635805 7 10 3
67.2973322904325 -304.089500578383 2854.63073701564 7 10 3
37.3033840523123 -310.303615942278 2842.82329443557 11 14 7
46.6368191791871 -305.444770284532 2858.34297704371 10 13 6
46.9808000267813 -303.126118636522 2867.57808202611 13 14 6
34.1428346023998 -304.488814418746 2867.77457992857 15 18 9
-6.86541929280082 -313.653704717582 2848.91945643575 16 19 10
-23.9847726080304 -316.145400270027 2846.44907920476 14 17 8
0.413374613462025 -307.174565161394 2871.90792453142 11 14 7
-21.715760251483 -311.037666344927 2866.11323384253 10 13 6
215.030390301456 -306.666071243204 2808.91843661571 13 16 9
190.872309162756 -311.684923122644 2799.64102606325 12 15 8
175.297602349001 -314.080512102452 2797.03983467248 20 23 16
203.159171081707 -303.428322451088 2827.31307936288 19 22 15
201.858588171611 -301.560717022266 2835.41376842458 18 21 14
216.468764531089 -294.963456996385 2855.35567300777 17 20 13
204.893067302662 -296.178084084406 2855.69408260327 14 17 10
180.512274538731 -301.166071643395 2846.63360409586 12 15 8
188.05338571065 -296.707948939926 2861.15816108689 13 16 9
186.030015522603 -295.084858359293 2868.59581847041 13 16 9
177.588697788599 -295.346310164065 2871.34850127358 13 16 9
175.582393122143 -293.724810759737 2878.76944751705 13 16 9
139.650900700505 -301.968339961531 2861.82173249547 14 17 10
121.394196867815 -305.031706101539 2857.7314351692 15 18 11
112.820399410708 -305.274818642966 2860.61329960271 16 19 12
94.4645366890286 -308.32471124381 2856.61947713584 16 19 12
76.0473806429887 -311.36634612777 2852.68529935919 8 11 4
61.6582212007852 -313.23194122398 2851.66266551575 7 10 3
50.5061933523638 -314.15862492382 2852.95471656462 11 14 7
38.5061310642336 -315.314669696196 2853.70553065501 11 14 7
33.8887816363149 -314.371248394517 2859.56843679723 14 15 7
-39.050295836744 -330.373287855861 2828.0871442149 11 14 5
-19.7488052240065 -322.682106066548 2850.29404550792 14 17 8
24.6111565138532 -308.052096296906 2889.10227890576 17 20 13
-44.127029250927 -324.942769200806 2852.16386907353 18 21 14
-52.1850573636531 -324.910404065953 2855.90976076106 18 20 15
215.110636990528 -313.985314686862 2809.92053145171 15 18 11
180.725890367253 -322.192665380237 2792.84843713723 15 18 11
175.379434274753 -321.499052503282 2798.05503139193 11 14 7
180.31182466836 -317.687736108793 2811.01495641664 13 16 9
214.620592322341 -305.019345177986 2845.92433167025 14 17 10
195.097402964016 -308.648320439392 2840.34111349673 17 20 13
208.159627443906 -302.467094587345 2859.04782821305 16 19 12
191.771461681686 -305.132593842698 2855.87739688637 14 17 10
164.925333804837 -310.891889445983 2845.12796578739 13 16 9
166.856866970265 -308.059016888766 2855.54408701748 11 14 7
172.04105497802 -304.278323176737 2868.25849930819 11 14 7
162.765785144032 -304.784116965263 2870.45885103749 12 15 8
155.087995542881 -304.812158843336 2873.8360883922 12 15 8
134.438724325147 -308.635013653743 2867.98283214657 13 16 9
151.87945648404 -301.307930408075 2889.25748906163 15 18 11
96.1773043531431 -315.304315586885 2858.78441247722 16 19 12
37.7879191936379 -329.978756560992 2826.8289485701 10 13 6
55.5110558801974 -320.286473952458 2857.39263908959 11 14 7
37.771347344103 -323.115647723413 2854.17125357906 10 13 6
32.3284138801663 -322.404565146443 2859.47106927576 11 12 4
38.4438822257431 -318.399773051005 2872.64449409867 14 17 8
23.1001846226042 -320.512038529922 2871.18927921682 16 19 10
-3.07185384496877 -325.66983251847 2862.51538432903 19 22 13
-20.1948247854991 -328.235444739866 2860.05986214683 19 22 15
-40.7044743315583 -331.730920852296 2855.43648240637 19 22 15
-40.4023267786018 -329.367532269967 2864.70617852741 20 22 17
213.621462397878 -321.789962097543 2809.71867083768 12 14 9
183.167795450736 -328.881321381338 2795.66323552239 11 14 7
181.770749045627 -326.974488504873 2803.85391646099 15 18 11
174.859532415616 -326.767427359657 2807.85209671688 16 19 12
178.244463846102 -323.409888359077 2819.58192083283 13 16 9
173.727868792662 -322.477652004237 2825.34609168004 11 14 7
177.97663946902 -318.886539613376 2837.60049792758 9 12 5
194.248060515422 -311.678938586408 2858.63671032297 9 12 5
177.012273336433 -314.616750803665 2854.93098017042 10 13 6
170.148402479279 -314.413931802939 2858.88311020306 9 12 5
179.3610235311 -309.395352502086 2874.49915441099 9 12 5
155.593210604105 -314.245278646198 2866.22648176489 9 12 5
140.625568302611 -316.440939301816 2864.40982633809 9 12 5
170.972601028808 -305.191856409443 2894.96090445814 10 13 6
135.723573692866 -313.382196224524 2878.74487730937 14 17 10
90.5651950319424 -324.427250845348 2855.78664493441 16 19 12
46.0332984877017 -335.208249234456 2833.58418847847 13 16 9
36.4800189946539 -335.68940348594 2836.05696619614 10 13 6
41.6624243410046 -331.87129215811 2848.7672805467 10 13 6
41.1448473268061 -329.728757986059 2857.46670814835 9 12 5
29.9448522504644 -330.68577842059 2858.81087511977 12 13 5
70.7257131471319 -316.648528590731 2895.5928431091 9 12 3
21.5326008098877 -328.548072166088 2871.0994789005 10 13 4
-2.15420708633207 -333.06016367428 2864.11334456743 15 18 9
1.50836887528349 -329.733793204718 2875.5720702549 19 22 15
-13.1174380275714 -331.625474022347 2874.78794845442 18 20 15
-53.67584981229 -340.848578216614 2856.91197624403 14 16 13
140.721587967268 -351.98559455423 2754.79019897186 14 14 12
191.90319134464 -333.586998946521 2803.27170921881 16 17 12
181.852681754411 -334.369159236281 2804.86548517469 16 17 12
184.428567132553 -331.224962480563 2816.01298871141 14 17 10
145.041222537547 -341.067477953211 2795.64843102681 14 17 10
161.893352353799 -333.51515982722 2817.47395131032 13 16 9
171.687563567378 -328.176607063763 2833.88242311182 11 14 7
168.782944301288 -326.754454135061 2840.80762519458 10 13 4
168.291562895039 -324.601806927599 2849.47954546807 10 13 6
187.077322091361 -316.603689387975 2872.15321071166 10 13 6
190.701263031178 -313.245663474898 2883.64528504418 9 12 5
161.318842115158 -319.863116607017 2871.29019993923 9 12 5
139.90120044401 -324.035954988801 2864.83476501373 9 12 5
123.266541328569 -326.742528199561 2861.91517594331 8 11 4
122.816642663627 -324.593577361286 2870.54644956322 7 10 3
90.6505892243143 -331.891793744944 2856.80510341968 10 13 6
55.0940137973774 -340.14082466868 2840.90281274989 12 15 8
41.4736187053069 -341.846277018481 2840.51002483208 10 13 6
48.307015587731 -337.511543934353 2854.33901803065 10 13 6
33.015890284303 -339.69531914262 2852.8418293428 12 15 8
20.1499477100966 -341.150118950617 2853.0800597454 13 14 6
18.8063692467897 -339.231408855123 2861.21555293761 16 17 9
12.5187389495145 -338.75737431257 2865.97229135497 16 17 9
6.22777296807886 -338.282847247291 2870.73193151938 14 17 8
17.3909530304535 -332.770243403914 2887.17218166106 14 17 10
11.9679466491474 -332.060198731676 2892.452362872 17 19 14
-55.2561124568469 -349.063635000077 2856.86122573814 15 17 14
113.388805230419 -370.71943000884 2725.18632569098 15 15 13
165.915626710383 -351.600909552411 2775.05942853329 16 17 12
111.746536610459 -366.300625462132 2743.16828850616 13 14 9
187.454872265061 -340.025804755618 2810.05751782742 9 10 5
178.186218678133 -340.574582300238 2812.25731466397 12 15 8
186.333586517169 -335.672560440358 2827.53182672268 12 15 8
182.631156891628 -334.489667741538 2833.86738168395 13 16 9
192.475475643204 -329.106335341276 2850.21947754873 14 17 10
185.629905279946 -328.916837541231 2854.15506594605 15 18 9
183.578922924959 -327.246334232488 2861.61313503902 12 15 8
182.346219995284 -325.331282215114 2869.63906784964 12 15 8
188.370746780132 -321.203574408896 2882.88463209834 13 16 9
196.868768386404 -316.345050402118 2897.81736874626 13 16 9
140.792957874247 -331.144070349736 2866.41672236672 14 17 10
122.541087353102 -334.379097924579 2862.34733481773 14 17 10
112.346572762468 -335.154809407949 2864.08315673702 17 20 13
97.2466790356745 -337.396452048156 2862.40462504783 15 18 11
53.5494850871157 -348.192868884229 2840.79282257465 11 14 7
41.5609604751848 -349.435872962413 2841.54503212943 11 14 7
42.6566601424372 -346.769118935794 2851.39912914965 10 13 6
44.6055065324975 -343.862565590371 2861.78716810343 10 13 6
20.2379819457312 -348.755104601333 2854.11665400596 14 15 7
15.5926537723392 -347.795966033645 2860.00468260899 17 18 10
17.5712120864149 -344.892611182405 2870.36402776104 17 18 10
11.292045435511 -344.421989332108 2875.11252820487 15 18 9
34.1041341064683 -335.460747768789 2899.31395240483 15 18 11
-2.94150420631167 -343.963659305906 2883.51093731914 12 14 11
146.381537134739 -365.368747247198 2761.06685081049 10 11 6
168.468069421149 -355.873670527868 2787.32677194079 12 13 8
180.439770228193 -349.656923495504 2805.69389561051 14 15 10
208.307881685815 -338.43933998671 2835.87707831314 11 14 7
207.811726887425 -336.254572179568 2844.54899122499 12 15 8
210.517132680514 -333.072275303308 2855.56224789384 12 15 8
197.335472414652 -334.891268865311 2854.75057114949 14 17 10
214.449875486191 -327.221378583254 2876.29827310006 15 18 9
182.860927458737 -334.773795352986 2862.02142345741 14 17 10
180.82438338477 -333.093878657535 2869.46376382943 14 17 10
198.906082812642 -325.19555557509 2891.43407324848 15 18 11
166.321249399727 -332.970884556967 2876.76218952537 16 19 12
154.612552343084 -334.2728248821 2877.2455747747 16 19 12
138.823916532228 -336.81095060435 2874.87788490878 17 20 13
114.867129021471 -341.820181190131 2866.81641194482 20 23 16
92.4493968685325 -346.322652922312 2859.98555415732 16 19 12
55.2679885165044 -355.26558742484 2842.96548661206 10 13 6
32.6542996062469 -359.741835542557 2836.32567878457 11 14 7
39.4657378265846 -355.323016208448 2850.16404934817 11 14 7
29.0836785280835 -356.088883406825 2852.08465095377 9 12 5
12.0911709676808 -358.821919252557 2849.52398400307 11 12 4
11.5538154063848 -356.627121990827 2858.23532753254 15 16 8
13.5225408244004 -353.697996514985 2868.60062800867 15 16 8
1.42904600819938 -354.947181212834 2869.45832586292 12 15 6
-29.8130481661438 -361.833314564649 2857.57238745393 12 15 8
-17.0165606250716 -355.718110837042 2875.13583160226 21 23 20
128.429735753678 -381.25473362379 2738.7308766975 15 16 11
161.373511475204 -368.092676831225 2773.50549835984 14 15 10
174.05702861797 -361.553326483742 2792.53534441623 11 12 7
183.676288215986 -356.03950424017 2809.09130316363 17 18 13
208.389287177817 -345.722670078497 2836.87271446298 13 16 9
208.685553426652 -343.268553635124 2846.13484126772 11 14 7
191.533978228441 -346.378628701924 2842.3712855893 11 14 7
197.417383986353 -342.157915609765 2855.74323896326 12 15 8
180.206854204186 -345.259778881853 2852.03667451655 13 16 9
169.340339889317 -346.337710670577 2853.06756080741 14 17 10
173.6878118249 -342.628425191086 2865.20648931458 15 18 11
201.400190306626 -331.631447620634 2894.15967546607 16 19 12
160.762365965623 -342.011457371824 2873.69939475665 17 20 13
152.2722730181 -342.329014920185 2876.50914231427 17 20 13
147.816670363027 -341.390668920892 2882.21184380549 18 21 14
98.7158118898006 -354.229700155197 2856.34881669413 17 20 13
68.9362500376096 -361.035544258379 2844.41560467088 13 16 9
47.1982830903603 -365.326184426386 2838.29566853239 8 11 4
41.7362944022308 -364.61187407206 2843.61392928431 10 13 6
38.7338179864454 -363.149020689216 2850.63028945397 11 14 7
30.8147130523455 -363.1828772791 2854.24801591346 10 13 6
13.0034626413398 -366.202772513168 2851.12619893324 9 12 3
12.4679772089782 -363.991847161557 2859.83330167239 12 15 6
16.9203174513504 -360.293144847737 2871.86932074595 13 16 7
0.688504515073518 -362.805711028344 2869.93793462785 11 14 7
-32.2166743516172 -370.270683494788 2856.95519743619 11 14 7
130.895567453257 -390.628340776074 2731.99970929873 24 25 19
115.991291932433 -392.996719238026 2730.14565733835 18 19 13
159.102840548554 -376.361025596483 2772.7313006981 19 20 14
183.578383375328 -365.911784942044 2800.728601986 11 12 6
214.51035502805 -353.431614485566 2833.35069153613 13 14 8
214.003912519178 -351.213116894489 2842.02783504923 13 16 9
171.525012294388 -362.550337811418 2819.28617950563 12 15 8
186.055785873941 -355.470285237161 2839.23557569527 11 14 7
174.407595003617 -356.824551698956 2839.66661118729 12 15 8
173.105809792959 -354.860056341203 2847.75417386203 14 17 10
165.422889328394 -354.935510985998 2851.14351382618 14 17 10
167.353976085376 -351.955926680447 2861.53839441412 14 17 10
157.260567252555 -352.793547705875 2863.18330486656 15 18 11
147.144432759224 -353.627995918658 2864.84997545351 16 19 12
162.050883605294 -346.5948316825 2884.43324863987 16 19 12
127.654359749858 -355.033831368751 2868.82433407072 17 20 13
63.082808524122 -372.822256096348 2832.13214766967 16 19 12
56.0037350616906 -372.615364198953 2836.29737509828 13 16 9
43.20779376406 -374.176126883854 2836.48141662336 9 12 5
38.5538044269769 -373.207935647288 2842.37670790947 10 13 6
37.1828343700611 -371.231357217253 2850.53118628648 10 13 6
49.7969283652249 -364.974707959174 2868.25450649254 9 12 5
13.9156977993569 -373.577148524675 2852.7271748077 11 14 7
8.429888465463 -372.858626338513 2858.0684673061 14 17 10
17.8363126645329 -367.619093270286 2873.45974309555 14 17 10
-0.880709361894549 -370.919391057875 2869.86156693445 13 16 9
-33.7886096600681 -378.472444199946 2856.89455044987 11 16 10
162.970256448812 -390.137631015835 2748.25483750923 13 15 10
155.962312659903 -389.950897183113 2752.3520736317 15 16 8
177.905254390641 -380.154933585293 2778.71011135721 15 16 8
171.739673992402 -379.715391271587 2783.35075035696 19 20 14
183.660918631559 -373.314315519227 2801.74073404295 13 14 8
216.456648159788 -357.699371479502 2844.80196369015 14 17 10
119.312669300753 -386.993922462604 2781.22378726571 13 16 9
158.338097249798 -371.82683970743 2819.58193730916 11 14 7
182.453071884578 -361.587992550161 2846.55147489118 11 14 7
177.977916160184 -360.64305375794 2852.27261845736 12 15 8
177.508003595318 -358.411382245558 2860.91154009624 14 17 10
180.270353679152 -355.1539731046 2871.85714868266 14 17 10
160.560296196591 -359.094317157639 2866.50585133235 14 17 10
150.452279605265 -359.945769312934 2868.16697389788 15 18 11
158.095215320651 -355.153464705166 2882.54136351448 15 18 11
176.328531248047 -347.039454462436 2904.3295748821 16 19 12
98.075715583489 -369.389380666678 2857.80778878801 16 19 12
43.8857586700498 -384.024729919528 2828.76167508684 14 17 10
50.6366057965071 -379.476766848319 2842.64112611442 10 13 6
44.3650231349397 -379.018157735349 2847.38387102206 10 13 6
35.6319216075862 -379.32350794925 2850.43312545308 9 12 5
32.6343084720455 -377.844432060195 2857.44225863422 9 12 5
22.2385233828875 -378.65592087223 2859.38323300742 10 13 6
29.9774482927666 -373.874125069318 2873.66385713168 13 16 9
23.7157594455311 -373.415655859057 2878.39713585499 14 17 10
5.01294672007546 -376.760585807247 2874.79144626182 12 15 8
-36.1915594601512 -386.937407356763 2856.28076718609 10 15 9
120.223237948809 -412.142864079367 2716.01986684503 10 12 7
129.503015246819 -406.432437551764 2732.88421634949 15 16 8
179.553326350657 -387.08849453588 2780.93248529584 15 16 8
184.375522914861 -382.982493353091 2793.9579422971 18 19 13
192.597008991584 -375.312468892469 2818.66878518258 16 17 11
131.17663029772 -393.178512761699 2781.69272858516 14 17 10
191.78115506195 -368.285454828742 2845.36365467408 11 14 7
188.905552980736 -366.817707969237 2852.25296565825 11 14 7
173.27226508392 -369.516631657345 2849.75511672836 12 15 8
178.391196663223 -365.446564417473 2862.49122249414 14 17 10
187.57173182623 -360.083614636387 2878.08856849939 13 16 9
184.76316715311 -358.623270506386 2884.91274230851 13 16 9
161.819193231249 -363.647539286138 2877.26466243486 14 17 10
179.990974846829 -355.447637970577 2899.1012836207 15 18 11
186.12901253735 -351.144596271672 2912.2082155893 15 18 11
40.7193660077549 -392.672207209007 2827.51606806238 17 20 13
53.986943787486 -386.018199522203 2845.94898696758 10 13 6
59.1689688987107 -381.953828962634 2858.62361973233 8 11 4
32.4424664704486 -387.940480436535 2849.20591121062 10 13 6
-3.41949576336775 -396.744104511104 2833.689180622 11 14 7
33.8542017107919 -382.651757710789 2868.27735747225 14 17 10
32.5417797795202 -380.654844853838 2876.37069127558 15 18 11
21.3226860450528 -381.738894173172 2877.75259831054 13 16 9
-4.84782055064592 -387.432436160606 2869.15636557159 11 16 9
-26.1277204654502 -391.576955130017 2863.97687476678 12 17 11
138.996946899966 -413.463594768096 2731.58068826833 13 16 9
154.568317701245 -405.585466645218 2753.21329513582 16 17 9
153.02812598004 -403.5519838953 2761.5270648514 16 17 9
138.171237927017 -406.022291619118 2759.64135937736 17 18 10
188.545216872366 -386.528640245672 2807.34575670054 14 15 7
202.140348990986 -379.492546704914 2826.81384650045 16 17 9
158.923968879221 -391.479492042404 2803.48363905446 13 16 9
163.85187013133 -387.350622793554 2816.40108768985 12 15 8
190.275261133304 -376.112496048865 2845.18170640311 11 14 7
185.007541412842 -375.425890185763 2850.31114991002 11 14 7
164.576271834763 -379.736597195086 2844.31351915551 12 15 8
161.673288090153 -378.256300796051 2851.22850356174 13 16 9
195.674632146997 -364.701093613404 2884.89483677742 13 16 9
197.709258248424 -361.661453780466 2895.17836292701 13 16 9
174.797180043266 -366.748800801831 2887.50793307173 13 16 9
173.611679563278 -364.757097115266 2895.4760019108 14 17 10
179.734022031416 -360.414130344353 2908.59261855904 15 18 11
28.603272904336 -404.211217437698 2819.99765931958 17 20 13
42.6569067427391 -397.230520640035 2839.01897559027 10 13 6
40.4539362542087 -395.471909216002 2846.61461096369 8 11 4
12.0448881892421 -402.042953165765 2836.11991160711 9 12 5
10.6340419329065 -400.01998107541 2844.30713067688 10 13 6
21.5930442525369 -394.10338184585 2860.89042199377 8 13 6
20.2512905534875 -392.089077447854 2869.00997437194 13 18 11
8.1763499332439 -393.447187350781 2869.86534673307 12 17 10
-11.3910108055197 -397.131892647586 2865.7514754279 11 16 10
-38.5031111750878 -403.136361757117 2856.71930480085 11 16 10
140.704252270734 -423.149005839579 2724.23192389251 10 12 7
147.646810026953 -418.141152733965 2739.26994120221 21 24 17
164.800116059354 -409.657060748672 2762.07592044111 17 19 8
120.996817997473 -419.481306881523 2747.51067894618 17 19 8
151.665329984929 -406.471847895269 2780.31615922501 15 17 6
192.762137614939 -390.014489348363 2820.67776222126 15 16 8
165.33045496629 -396.792805800698 2809.24315934352 12 15 6
177.650796130518 -387.676443958794 2836.75489493218 11 14 7
144.70806158564 -393.734720163948 2830.68676426362 11 14 7
174.55776331797 -381.35562148474 2861.56434573069 12 15 8
206.984831700198 -368.202915298406 2894.01929095738 12 15 8
189.752821568914 -371.501545724659 2890.36347675633 12 15 8
173.268933150617 -374.527677048103 2887.34106286235 13 16 9
151.077170426944 -379.397778576348 2880.34048745645 14 17 10
104.51293571542 -392.183117221084 2856.20168550539 15 18 11
59.6093501336576 -401.853882938171 2842.70636144452 17 20 13
32.143401075952 -408.253693321374 2832.66708974551 10 13 6
35.6376125462199 -404.638484259997 2844.24997580205 8 11 4
36.7170020626504 -401.817550953893 2854.09714357098 10 13 6
14.830317186759 -406.355598662284 2848.1614532605 11 14 7
-16.1892258279792 -413.770033716904 2836.13293886306 7 12 6
4.66122597877616 -404.651701626472 2859.42492307876 12 17 11
4.12997032495621 -402.359477221003 2868.11547177864 12 17 11
-13.7881768317936 -405.565152086429 2865.12726299556 12 17 11
136.128373945018 -432.416920796025 2721.64350090664 18 20 15
164.860892412255 -419.777984323103 2753.59205795852 18 21 14
139.124428900836 -426.109176818919 2743.24248701148 17 19 8
117.98262714528 -430.804402431147 2736.59034757666 17 19 8
172.196247092599 -406.961791735824 2796.84341351667 15 17 6
166.829254932886 -406.263231208232 2802.06966912908 14 15 7
178.059032349992 -399.906439133075 2819.73592577876 11 14 5
167.188511802383 -401.096879628455 2820.78741905567 11 14 7
176.145804516203 -395.560503847529 2836.58047798406 11 14 7
153.32922637167 -400.779609924634 2828.83502692972 11 14 7
121.649187583349 -408.940010778763 2814.73849154133 11 14 7
137.041598031005 -401.261840281839 2835.16111517557 10 13 6
183.40477827397 -380.85909929221 2886.71393185246 12 15 8
168.517892000533 -383.385891404355 2884.86636342267 13 16 9
154.392709504342 -385.639331504749 2883.63858204979 14 17 10
144.274129352614 -386.552519115328 2885.3193188603 15 18 11
104.914413273357 -397.061475077724 2866.44307242418 18 21 14
82.4773145113582 -401.954915866974 2859.68923102166 16 19 12
73.007900008446 -402.579322492606 2862.09990220271 10 13 6
38.1788495596078 -411.44338879496 2846.98331759495 8 11 4
25.3344420350761 -413.117129086942 2847.23218484079 10 13 6
19.0266312800667 -412.663165021993 2852.01192915883 11 14 7
-2.92634320658092 -417.245809877828 2846.14865685069 8 13 7
-4.32617171845529 -415.196645784938 2854.32072612882 11 16 10
13.3183840309719 -407.063797288105 2875.27389145319 11 16 10
-1.2618391408421 -409.255125290506 2874.48879205698 11 16 10
-46.6307826310004 -421.212271609002 2853.29170758447 8 13 9
88.6407679723629 -454.131077372885 2695.49022986365 19 22 15
108.76748167178 -444.377948842937 2720.82398339994 18 20 9
103.200703289222 -443.654408478377 2726.24493767603 18 19 11
127.443082787046 -432.56128922517 2754.37860862067 16 17 9
88.1371235603456 -443.569529287125 2734.10552764745 16 17 9
166.913122396783 -413.700072681892 2803.08554941963 14 15 7
168.659274094343 -410.552111060461 2813.63918716168 11 14 5
208.467073932406 -394.358799308379 2852.4860013159 11 14 7
182.582708158247 -400.73787965668 2842.29003946385 11 14 7
156.598037955219 -407.103607412033 2832.19170788503 11 14 7
135.301356162053 -411.82928401502 2825.69786726024 10 13 6
136.326715844028 -408.960673993034 2835.59164085571 10 13 6
159.035443891927 -398.789764676211 2861.13382463435 11 14 7
196.349794457977 -383.770128204402 2896.96182651463 12 15 8
173.436482318866 -389.034137694987 2889.3187326098 13 16 9
137.515175250427 -398.604081944557 2872.55728478872 14 17 10
133.406794817509 -395.061982312705 2887.44939673868 17 20 13
77.6833178461085 -411.052746918535 2857.29226444446 15 18 11
79.6192550404977 -407.925451042587 2867.66083461276 9 12 5
48.0766682329263 -415.813925215746 2854.8045260486 9 12 5
14.7722329037849 -424.222615162434 2840.94082813996 12 15 8
3.51162399080174 -425.376232790258 2842.37424252651 13 16 9
14.4517798492645 -419.295388236121 2858.95197327069 9 14 8
15.5682871150837 -416.435215474286 2868.75682083335 10 15 9
1.8284380280793 -418.39048368062 2868.51923733087 9 14 8
-38.4782534492292 -428.885818937564 2850.58133832957 11 16 10
94.955933862761 -459.719939016678 2701.3811583151 16 17 11
93.2429599080891 -457.609905318945 2709.85552698805 14 17 8
156.494426529976 -432.609212878677 2768.04759803073 16 19 12
125.175203812744 -440.996046175753 2753.62623356608 17 20 13
144.841218083917 -431.470585204651 2778.03420829306 16 19 12
159.114152168029 -423.886378744398 2798.16546703106 14 17 10
164.001954956257 -419.61225606208 2811.10126563981 11 14 7
138.046117143187 -426.05208634596 2800.9852553929 11 14 7
185.048544554772 -407.242680368926 2845.05389996998 11 14 7
168.62347677977 -410.390374170641 2841.99138103088 9 12 5
156.932556457193 -411.887989732923 2842.48569659309 8 11 4
150.011152418929 -411.739952966012 2846.5030547153 8 11 4
171.949971267768 -401.752380686577 2871.41961968431 9 12 5
160.261104411046 -403.249311619635 2871.91179493667 11 14 7
199.304587337792 -387.556717093147 2908.75743639235 11 14 7
198.985116621715 -385.245680648071 2917.23523694905 13 16 9
120.155196731364 -409.348128374172 2870.1286364802 14 17 10
126.188265517916 -404.841898640438 2883.31011086135 18 21 14
63.1278636870234 -423.443012146483 2848.0712644543 15 18 11
52.7969931232604 -424.359452310148 2849.96328950811 10 13 6
59.6088868541438 -419.576204083905 2863.74734531189 9 12 5
33.7065751606138 -425.640740050015 2854.93962381847 10 13 6
21.669707228857 -427.089626169285 2855.77060612224 9 12 5
22.7735007039223 -424.206490879016 2865.58434697339 7 12 5
12.3572624133788 -425.110576925968 2867.55931750881 4 9 3
1.91855165280552 -426.011594085694 2869.55614995897 13 18 12
-48.3348085782831 -439.856494107061 2844.98624109772 4 10 6
107.499231020666 -463.03240937079 2712.08729877848 13 14 9
150.30551950148 -445.023443967008 2754.77310099844 11 14 7
151.88422436735 -441.806532847043 2765.48316305589 13 16 9
135.457650704207 -444.993709789942 2762.427637235 14 17 10
133.917656639548 -442.891389406353 2770.73137434451 14 17 10
147.374521238299 -435.514096705944 2790.28633674883 12 15 8
140.380133580478 -435.363522671518 2794.37579367713 12 15 8
150.01339364815 -429.389562591783 2810.84984157997 12 15 8
148.604194992288 -427.302787546503 2819.02599450925 12 15 8
171.095538040545 -416.916202379921 2844.75183016768 11 14 7
161.805048063559 -417.606418919263 2846.994553326 10 13 6
172.493303210572 -411.388205109683 2863.80212208446 10 13 6
156.799009989972 -414.287083791936 2861.39406776173 12 15 8
167.579822289158 -408.080243437928 2878.11140689161 13 16 9
171.99316411011 -404.087130337732 2890.14297603048 13 16 9
186.953199830911 -396.52210006539 2909.59442907623 14 17 10
146.958123497408 -407.667046272013 2890.02585668557 15 18 11
74.3355161971841 -429.778422963058 2847.79731169207 18 21 14
67.2833980550234 -429.616489196845 2851.94207903934 15 18 11
65.9323561222926 -427.53397935161 2860.06111187754 10 13 6
61.3317935035029 -426.549672981539 2865.9009678329 10 13 6
39.5308499250713 -431.313294208889 2859.91347481414 11 14 7
33.256528197779 -430.871276884272 2864.6617297556 11 14 7
21.216940088213 -432.34087195296 2865.49847400983 9 14 7
7.49660693122856 -434.352203115639 2865.24979698081 7 12 6
7.79827915253728 -431.722818240687 2874.48098881931 10 15 9
-14.2546638806147 -436.452312179604 2868.738690986 10 16 12
124.562079202416 -456.505670244798 2755.11048171412 15 18 11
82.1079690672923 -468.982316148295 2732.51261576041 15 18 11
150.737419341289 -439.226959815113 2803.08270478674 12 15 8
144.553556397307 -438.803717360772 2807.74390773677 13 16 9
151.071363933375 -433.904789451137 2821.80289807272 13 16 9
164.81184262945 -426.498444073836 2841.07193351285 12 15 8
163.485531629357 -424.408201691547 2849.16526530375 12 15 8
144.581809494637 -428.456687551461 2844.44581982075 12 15 8
171.31652214299 -416.612141719356 2872.82800090269 13 16 9
131.495264665051 -427.896070121659 2853.10702748477 14 17 10
159.9919045891 -415.514335422209 2882.49401109131 13 16 9
153.924052649689 -415.103713058233 2887.0418786427 13 16 9
138.947621386109 -417.746546744434 2885.30004276381 15 18 11
116.991928621692 -420.241951633998 2887.6331081805 10 13 6
101.082044267752 -423.145376856938 2885.43981101692 9 12 5
60.6029115402813 -434.341193412009 2866.35943239642 10 13 6
-6.25842358663764 -454.359200894776 2829.43641013855 12 15 8
-23.3165886457103 -457.495073781265 2827.00081903531 14 17 10
-0.0947529866754948 -447.106005855556 2852.00123562385 12 15 8
-0.6638485366941 -444.72757518055 2860.71661865105 13 18 12
-19.4027406460342 -448.410047949447 2857.19698294291 8 13 7
-22.4533229507919 -446.857292830175 2864.24748769208 12 18 14
121.684174150414 -473.376803105805 2725.03639436399 20 21 16
45.4317413731329 -492.767916155144 2695.92930685766 11 14 7
74.3328253126583 -479.557576885766 2727.62636066192 13 16 9
161.732107608568 -445.417539521132 2802.99916053298 10 13 6
165.835050481969 -441.321891175185 2815.32346790878 11 14 7
140.678457393555 -447.689022597622 2805.82029813502 13 16 9
138.451967531342 -445.854472260059 2813.42806485592 13 16 9
146.589209620782 -440.354219420179 2828.62387581409 13 16 9
153.197377732115 -435.426053375381 2842.58881537941 13 16 9
159.064396009414 -430.786895497125 2855.91519580723 13 16 9
155.365057094394 -429.530799336028 2862.23686220751 14 17 10
176.589701715853 -419.56133902201 2886.4487182066 15 18 11
161.688083329342 -422.246626602923 2884.63886670194 14 17 10
154.009081855325 -422.400207758808 2888.03586211476 13 16 9
143.080987105452 -423.673523962453 2889.15677641911 15 18 11
136.995316452097 -423.262542268904 2893.72228510809 14 17 10
103.615101085617 -429.707625381773 2888.14541141258 7 10 3
53.3357921879629 -444.371544517638 2862.30507346855 8 11 4
38.8901489533136 -446.728217064841 2861.41110989879 13 16 9
17.8332440152453 -451.309737937129 2856.07477047601 14 17 10
-0.827290868179009 -455.045830710737 2852.48491205549 16 19 12
-19.5490558387399 -458.77361477069 2848.9546279924 13 18 12
-10.2148383252456 -453.039400100775 2864.34449236334 12 17 11
-34.7955167416281 -458.703905339061 2856.99940159894 10 16 12
182.489886359127 -458.665820781182 2773.00818149405 18 21 14
103.55794602305 -479.465479489708 2741.10209192441 12 15 8
98.7936552035293 -478.456463729373 2747.10088036636 13 16 9
183.097137380754 -445.150263804825 2820.00312121624 9 12 5
142.21622565929 -457.306226537046 2798.6294677844 11 14 7
152.644587647417 -450.89385138718 2815.66641733026 12 15 8
135.361626793919 -454.468401406513 2812.10197874492 13 16 9
125.18437187792 -455.471844507404 2813.85432018577 14 17 10
142.112093284276 -446.797267215806 2835.43890748829 14 17 10
185.543060539075 -428.754758960468 2876.0825275147 15 18 11
181.106160141345 -427.785600712984 2881.76210335108 15 18 11
166.225966508765 -430.506035117029 2879.93650927615 15 18 11
159.355962618858 -430.384809362759 2883.90645110518 13 16 9
146.826037511811 -432.245322382453 2883.87063758915 13 16 9
126.976403090431 -436.648371636251 2878.726329829 14 17 10
96.5086635174739 -444.718124082438 2866.24638423901 14 17 10
94.3902115263464 -442.883702811821 2873.74722467487 8 11 4
71.0893156461934 -448.390127731797 2866.52483604904 6 9 2
58.3282452100571 -450.219083488125 2866.713889112 8 11 4
51.2673559665418 -450.070963098318 2870.86940790357 13 16 9
30.2404207532057 -454.707224234598 2865.51173653021 14 17 10
5.8481816629592 -460.458699826107 2857.99237690953 15 18 11
7.76758820534829 -457.206592832998 2868.35857738903 12 17 11
-0.200411253908683 -457.327705150139 2872.03809103517 13 18 12
-212.371707042189 -520.95651837798 2759.13362074071 129 135 133
168.558502280856 -474.088246225872 2753.69658173599 6 6 4
163.891037817951 -473.090729340379 2759.60091970314 23 26 19
177.176652435442 -465.434448931194 2779.28470160887 17 20 13
139.70576838947 -476.592109529197 2760.0456046212 13 16 9
156.189758578148 -467.786997301514 2782.05153057588 13 16 9
151.555992689361 -466.792090567504 2787.92312898201 14 17 10
141.409596172505 -467.817055539045 2789.64800849942 10 13 6
187.336056394059 -448.372746787264 2833.27401888938 10 13 6
176.490177120835 -449.696939141882 2834.32081148294 12 15 8
141.799015127798 -459.649746707823 2817.81130776577 13 16 9
122.08704883371 -464.121100282603 2812.54038886892 14 17 10
124.64532009604 -460.540377580681 2823.64086513883 14 17 10
168.831667444389 -442.041342570387 2864.88381642848 15 18 11
175.578258896828 -437.049826657005 2878.70159864492 15 18 11
166.310653654958 -437.795292498746 2880.92976274573 15 18 11
148.16266059034 -441.686516461216 2876.85387104434 13 16 9
125.915524670947 -446.999232097888 2869.97336237029 12 15 8
133.538350727266 -441.729604841657 2884.29717309663 13 16 9
84.424948479255 -456.45019472308 2858.7246956854 15 18 11
65.1969879790562 -460.590498082581 2854.34113212078 12 15 8
64.6551811918865 -458.168155622069 2863.02292686034 7 10 3
62.5032689457714 -456.31795826466 2870.5546621253 8 11 4
48.8990557990525 -458.4519131589 2870.20913778547 13 16 9
28.6879276163794 -462.85425261923 2865.42335592499 15 18 11
49.5597524469273 -453.050448733023 2888.59280398006 16 19 12
30.1325132247179 -457.16321212132 2884.40305673656 12 17 11
14.7746306566376 -459.850126085367 2883.04652268774 9 14 8
-183.127952607233 -519.318477144752 2779.44758088785 126 132 130
-200.690505053156 -522.49919462073 2777.51914408472 113 119 119
171.74821447381 -480.453899185834 2757.13796621612 25 26 21
153.856026937274 -484.426374594506 2752.82006477212 20 23 16
114.052799548026 -496.572101737529 2731.79198921138 20 23 16
159.348083332678 -476.872614001637 2776.00705179127 19 22 15
172.081173708173 -466.715757714645 2804.37204600473 15 18 11
143.071187268958 -474.751894971895 2791.85680885285 15 18 11
178.729322284636 -458.915569174869 2827.79184161469 12 15 8
159.351140582778 -460.720707714635 2831.71444517374 10 13 6
135.703211800897 -466.696926241904 2823.48919132169 13 16 9
122.338249574459 -468.892060118915 2822.91512950818 13 16 9
144.124011801055 -458.336369752223 2847.89971436048 14 17 10
170.852463274154 -446.061197785365 2876.22412868536 14 17 10
151.126489981337 -450.577606803618 2870.97377812018 14 17 10
151.4703344526 -447.861946785428 2880.15000302057 13 16 9
122.771888869861 -455.541282001483 2868.68957532464 12 15 8
115.8165552554 -455.418852029489 2872.7440728487 14 17 10
127.516104941087 -448.667648068955 2889.88588262876 13 16 9
61.2189552523956 -469.56500682649 2852.53258362491 11 14 7
58.221913420347 -467.987937800881 2859.52666615045 7 10 3
61.7746152251897 -464.113268435726 2871.01312232052 8 11 4
27.6907930799841 -473.45204476416 2856.64392408501 10 13 6
26.4410936736659 -463.419150657187 2891.82713453891 2 7 3
-135.61505573523 -513.971395571154 2802.32680911871 94 100 98
-163.045985294833 -520.630147064754 2793.70794324116 116 122 120
-170.546015889942 -520.433329407302 2798.29233845168 113 119 119
155.584384287952 -496.963184195809 2735.95245217648 28 28 26
156.303535563806 -493.886331462905 2746.11985490607 28 29 24
146.156981538698 -494.94524262208 2747.84990806322 19 20 14
151.59396141523 -490.103034252341 2761.57331220617 17 20 13
191.505190231941 -472.303258407111 2801.49689448195 17 20 13
204.195320814228 -464.836130193761 2820.38304813173 17 20 13
180.813076154778 -470.910413291206 2811.90845991922 17 20 13
166.798932949785 -473.446189303497 2810.61214401319 16 19 12
179.603450011883 -465.992832666362 2829.38674563053 15 18 11
182.202355013451 -462.364632299694 2840.43985481858 10 13 6
175.31409868161 -462.258632314473 2844.43050979627 8 11 4
131.014072166523 -475.916125016082 2821.00603825916 11 14 7
139.975709515932 -469.943514847764 2836.73030764824 12 15 8
142.610147549755 -466.318555639052 2847.74861105171 12 15 8
149.292433496103 -461.237922865179 2861.61741599524 13 16 9
143.175955726612 -460.834320490995 2866.21460726613 14 17 10
130.611868742218 -462.762763675678 2866.22275704803 13 16 9
105.093972777076 -469.347983714922 2857.11026193222 13 16 9
122.378749313936 -460.492463390733 2878.3138827527 14 17 10
117.054887820419 -459.794357303096 2883.49737614202 16 19 12
80.8266758644387 -470.138336128131 2867.15475354138 9 12 5
74.6153643777721 -469.720537641645 2871.84401791613 7 10 3
63.4978176143632 -471.042620002938 2873.16026848734 7 10 3
-13.174284682091 -495.546553130809 2829.63823772926 10 13 6
-3.97363988298816 -489.601727934048 2845.12961363626 10 13 6
21.7568856610635 -477.879743802096 2871.69292544571 8 9 3
49.284940805876 -465.598817913787 2899.22247107718 13 15 10
12.4746052081073 -475.864752266919 2883.44637091934 12 14 9
180.45152870353 -495.014992267769 2756.31554483865 31 32 26
182.785579687055 -491.328517998995 2767.6230451246 24 25 19
172.705522847724 -492.412146549969 2769.29071881296 18 21 14
185.230994655771 -484.86252012048 2788.32818785935 18 21 14
195.499665911326 -478.2162514204 2805.48914329875 18 21 14
186.242555373766 -479.00650031149 2807.71350491819 17 20 13
177.752681858939 -479.497100059723 2810.54861013747 14 17 10
177.916353509245 -476.723109223428 2819.89512804307 13 16 9
185.217692149101 -471.28558070493 2834.51336479318 16 19 12
164.864226051989 -476.218015591663 2828.53036514068 13 16 9
127.766532328925 -487.352507778415 2810.33416968225 13 16 9
157.361916113468 -473.639876796104 2841.26719713896 12 15 8
140.061625023175 -477.372093514403 2837.74293296221 11 14 7
136.298534419813 -476.08061194244 2844.12301362515 11 14 7
134.94885576796 -473.905457027542 2852.22699980445 12 15 8
143.261790696744 -468.198200202002 2867.21775007725 14 17 10
146.002761772796 -464.55942757817 2878.12822297822 14 17 10
119.715323796557 -471.510523016133 2868.41706136178 14 17 10
116.799735602473 -469.928744433908 2875.32956315031 15 18 11
130.122812529716 -462.477840769497 2893.58958970414 20 23 16
72.7823456395873 -480.552819688075 2862.51204179049 14 17 10
66.5518188349812 -480.135193433808 2867.22041271586 9 12 5
48.8781404559582 -483.815503307711 2864.05925582756 8 11 4
9.85144375651892 -495.093219847487 2846.38284801967 11 14 7
9.25380142453092 -492.614081777721 2855.11203175639 12 15 8
29.2534778740081 -482.837992011 2877.73438502163 13 14 8
35.3509833136432 -478.037185517009 2890.80799669521 9 11 6
-14.719785092923 -493.064608174208 2866.23154778215 23 25 20
166.595456969652 -507.944655223373 2746.47977051007 24 25 19
199.172800084559 -492.496843163969 2781.28009369545 29 30 22
208.591879930696 -486.088774524014 2797.90300251081 20 23 16
