ply
format ascii 1.0
comment KinectMotionCapture
element vertex 761
property float x
property float y
property float z
property uchar red
property uchar green
property uchar blue
end_header
32.897312194109 624.694466590881 2585.99996566772 153 152 148
39.8339703679085 623.242139816284 2579.99992370605 155 151 148
46.8105375766754 622.755467891693 2578.00006866455 153 149 146
53.7552200257778 622.02662229538 2575.00004768372 152 149 144
60.8250163495541 622.746706008911 2578.00006866455 153 149 146
67.8057000041008 622.499883174896 2576.99990272522 154 150 147
74.8097971081734 622.494101524353 2576.99990272522 154 150 147
81.7501991987228 622.004628181458 2575.00004768372 155 151 148
88.8518318533897 622.722387313843 2578.00006866455 156 152 149
95.783606171608 622.231781482697 2575.99997520447 157 153 150
102.664351463318 621.499061584473 2572.99995422363 158 154 151
109.443284571171 620.282828807831 2568.00007820129 157 153 150
116.421438753605 620.27382850647 2568.00007820129 156 155 150
123.495355248451 620.747208595276 2569.9999332428 156 155 150
130.630612373352 621.461629867554 2572.99995422363 156 155 150
137.621343135834 621.450960636139 2572.99995422363 156 155 150
144.4993019104 620.956659317017 2571.00009918213 153 152 147
151.483863592148 620.944857597351 2571.00009918213 153 152 147
158.468008041382 620.932579040527 2571.00009918213 155 154 149
165.709167718887 621.885776519775 2575.00004768372 154 153 148
172.63625562191 621.630907058716 2573.99988174438 152 151 146
179.836645722389 622.341573238373 2576.99990272522 151 150 145
186.690360307693 621.844232082367 2575.00004768372 150 149 144
193.984016776085 622.795343399048 2578.9999961853 144 143 139
201.14304125309 623.262941837311 2581.00008964539 147 146 142
208.634972572327 624.695897102356 2586.99989318848 155 154 150
215.992271900177 625.645399093628 2591.00008010864 156 155 151
223.370760679245 626.594364643097 2595.00002861023 153 152 148
230.947986245155 628.025710582733 2601.0000705719 151 150 146
238.831728696823 630.180835723877 2609.99989509583 147 146 142
247.046411037445 633.059740066528 2621.99997901917 144 143 139
255.0348341465 635.213673114777 2631.00004196167 140 139 135
262.274324893951 635.43564081192 2631.99996948242 114 113 109
269.006818532944 634.450078010559 2628.00002098084 128 127 123
275.506764650345 632.981300354004 2621.99997901917 139 138 134
282.189100980759 631.994962692261 2618.00003051758 144 143 139
288.738548755646 630.766808986664 2612.99991607666 148 147 143
295.373469591141 629.779934883118 2608.99996757507 148 149 144
302.333801984787 629.51672077179 2608.00004005432 149 150 145
309.52525138855 629.735887050629 2608.99996757507 149 149 147
316.721469163895 629.954636096954 2609.99989509583 154 154 152
323.922425508499 630.173027515411 2611.00006103516 191 191 189
331.50839805603 631.115078926086 2615.00000953674 179 179 177
339.115291833878 632.056653499603 2618.99995803833 185 187 184
347.404181957245 634.204506874084 2628.00002098084 195 197 196
359.113693237305 642.384767532349 2661.99994087219 200 202 201
-148.625105619431 642.681300640106 2690.99998474121 211 213 210
-140.31571149826 638.155102729797 2671.99993133545 197 199 196
-132.358178496361 634.822428226471 2657.99999237061 197 199 196
-124.852992594242 633.399665355682 2651.99995040894 166 166 164
-117.424428462982 632.215201854706 2647.0000743866 160 159 155
-110.106006264687 631.507813930511 2644.00005340576 167 166 162
-102.842524647713 631.038725376129 2641.99995994568 150 149 145
-95.7344770431519 631.524443626404 2644.00005340576 153 152 148
-88.5482877492905 631.531834602356 2644.00005340576 152 151 147
-81.4234167337418 632.01642036438 2645.99990844727 144 143 138
-74.3716210126877 633.21715593338 2651.00002288818 152 151 146
-67.2924220561981 634.417176246643 2655.99989891052 137 136 131
-60.050155967474 634.183466434479 2654.99997138977 128 127 122
-52.753459662199 633.232653141022 2651.00002288818 133 132 127
-45.3752763569355 630.847930908203 2641.00003242493 140 139 134
-38.0657985806465 628.701567649841 2631.99996948242 146 145 141
-30.8051481842995 626.554548740387 2622.99990653992 156 155 151
-23.6113891005516 624.884605407715 2615.9999370575 156 155 151
-16.4619404822588 623.453140258789 2609.99989509583 153 152 148
-9.34865046292543 622.259795665741 2605.00001907349 151 150 146
-2.2616502828896 620.82701921463 2598.99997711182 157 156 152
4.79273311793804 619.393706321716 2592.99993515015 155 154 150
11.8281813338399 618.676424026489 2589.99991416931 153 152 148
18.8618581742048 618.436276912689 2588.99998664856 151 150 146
25.9100496768951 618.673324584961 2589.99991416931 150 149 145
32.8999944031239 617.715418338776 2585.99996566772 158 157 153
39.8217812180519 616.040349006653 2578.9999961853 154 153 149
46.7961877584457 615.559101104736 2576.99990272522 153 152 148
53.7804812192917 615.316152572632 2575.99997520447 152 151 147
60.8535595238209 616.028070449829 2578.9999961853 153 152 148
67.7848979830742 615.306198596954 2575.99997520447 154 153 149
74.7287720441818 614.822745323181 2573.99988174438 155 154 150
81.7250609397888 614.81636762619 2573.99988174438 156 155 151
88.8245552778244 615.526080131531 2576.99990272522 157 156 152
95.8285331726074 615.518569946289 2576.99990272522 158 157 153
102.672651410103 614.555239677429 2572.99995422363 158 157 153
109.494723379612 613.591253757477 2569.00000572205 158 157 153
116.385444998741 613.104462623596 2566.99991226196 157 156 151
123.601384460926 614.289045333862 2572.00002670288 157 156 151
130.641058087349 614.517688751221 2572.99995422363 157 156 151
137.685805559158 614.745736122131 2573.99988174438 157 156 151
144.454598426819 613.779246807098 2569.9999332428 155 154 149
151.436969637871 613.767504692078 2569.9999332428 155 154 149
158.542215824127 614.232838153839 2572.00002670288 157 156 151
165.850967168808 615.414023399353 2576.99990272522 156 155 150
172.851100564003 615.400671958923 2576.99990272522 154 153 148
179.85075712204 615.386843681335 2576.99990272522 154 153 148
186.849966645241 615.372478961945 2576.99990272522 153 152 147
194.074332714081 616.074025630951 2579.99992370605 152 151 147
201.470419764519 617.252588272095 2585.00003814697 151 150 146
208.973750472069 618.669271469116 2591.00008010864 148 147 143
216.425776481628 619.846761226654 2595.99995613098 146 145 141
223.818331956863 620.784878730774 2599.99990463257 145 144 140
231.320858001709 621.961236000061 2605.00001907349 145 144 140
239.215984940529 624.092102050781 2614.00008201599 145 144 140
247.347831726074 626.69974565506 2625 143 142 138
255.441874265671 629.068195819855 2634.99999046326 141 140 136
262.79228925705 629.526138305664 2637.00008392334 109 108 104
269.743472337723 629.028737545013 2634.99999046326 127 126 122
276.262819766998 627.576053142548 2628.99994850159 139 138 134
282.748937606812 626.123070716858 2622.99990653992 143 142 138
289.091348648071 624.431073665619 2615.9999370575 147 146 142
295.621544122696 623.216152191162 2611.00006103516 148 149 144
302.587628364563 622.955501079559 2609.99989509583 150 151 146
309.666335582733 622.933387756348 2609.99989509583 148 148 146
316.744267940521 622.910737991333 2609.99989509583 159 159 157
324.069619178772 623.365044593811 2611.99998855591 193 193 191
331.531941890717 624.057650566101 2615.00000953674 180 180 178
339.009761810303 624.749779701233 2618.00003051758 185 187 184
347.164124250412 626.63471698761 2625.99992752075 195 197 196
358.059465885162 633.29154253006 2654.00004386902 201 203 202
-148.360803723335 634.237170219421 2686.00010871887 208 210 207
-140.064343810081 629.762172698975 2667.00005531311 196 198 195
-132.269158959389 627.175569534302 2655.99989891052 197 199 196
-124.862998723984 626.241385936737 2651.99995040894 166 166 164
-117.522597312927 625.542640686035 2648.9999294281 159 158 154
-110.239826142788 625.079572200775 2647.0000743866 174 173 169
-102.967612445354 624.615848064423 2644.99998092651 149 148 144
-95.814622938633 624.859988689423 2645.99990844727 152 151 147
-88.655948638916 625.103652477264 2647.0000743866 156 155 151
-81.4915746450424 625.346720218658 2648.00000190735 142 141 136
-74.4618326425552 626.769959926605 2654.00004386902 151 150 145
-67.3739016056061 627.956449985504 2658.99991989136 138 137 132
-60.1229034364223 627.725541591644 2657.99999237061 130 129 124
-52.8174564242363 626.785457134247 2654.00004386902 128 127 122
-45.4477034509182 624.663889408112 2644.99998092651 143 142 137
-38.1412245333195 622.777998447418 2637.00008392334 144 143 139
-30.8898780494928 621.127605438232 2630.00011444092 150 149 145
-23.6674807965755 619.240522384644 2621.99997901917 151 150 146
-16.5074393153191 618.061304092407 2617.00010299683 152 151 147
-9.36376955360174 616.172909736633 2608.99996757507 153 152 148
-2.26705707609653 615.228772163391 2605.00001907349 164 163 159
4.79867029935122 613.103032112122 2595.99995613098 158 157 153
11.8428487330675 612.393856048584 2592.99993515015 153 152 148
18.8633985817432 611.447989940643 2588.99998664856 151 150 146
25.8921571075916 611.209988594055 2588.00005912781 152 151 147
32.8772328794003 610.262870788574 2584.00011062622 158 157 153
39.8250296711922 609.079003334045 2578.9999961853 153 152 148
46.7818453907967 608.367085456848 2575.99997520447 152 151 147
53.7639781832695 608.126759529114 2575.00004768372 152 151 147
60.811311006546 608.594357967377 2576.99990272522 154 153 149
67.7640959620476 608.116924762726 2575.00004768372 155 154 150
74.7929140925407 608.347237110138 2575.99997520447 156 155 151
81.7634463310242 608.104765415192 2575.00004768372 157 156 152
88.7972712516785 608.334004878998 2575.99997520447 158 157 153
95.7247018814087 607.854187488556 2573.99988174438 159 158 154
102.641016244888 607.373952865601 2572.00002670288 159 158 154
109.546169638634 606.893122196198 2569.9999332428 158 157 153
116.530828177929 606.884002685547 2569.9999332428 158 157 152
123.611301183701 607.346713542938 2572.00002670288 158 157 152
130.753070116043 608.044862747192 2575.00004768372 158 157 152
137.750312685966 608.034193515778 2575.00004768372 158 157 152
144.634738564491 607.55068063736 2572.99995422363 157 156 151
151.448994874954 606.830596923828 2569.9999332428 157 156 151
158.61639380455 607.52660036087 2572.99995422363 157 156 151
165.735334157944 607.985973358154 2575.00004768372 157 156 151
172.797620296478 608.208775520325 2575.99997520447 155 154 149
179.864883422852 608.431041240692 2576.99990272522 155 154 149
186.937108635902 608.652830123901 2578.00006866455 154 153 148
194.390386343002 610.054492950439 2584.00011062622 155 154 150
201.641917228699 610.747277736664 2586.99989318848 154 153 149
209.070593118668 611.911833286285 2592.00000762939 149 148 144
216.525837779045 613.075733184814 2596.99988365173 147 146 142
224.265977740288 614.947319030762 2605.00001907349 144 143 139
231.871396303177 616.34624004364 2611.00006103516 144 143 139
239.691808819771 618.216633796692 2618.99995803833 144 143 139
247.555047273636 620.086550712585 2627.00009346008 143 142 138
255.65505027771 622.427940368652 2637.00008392334 141 140 136
262.911707162857 622.644484043121 2638.00001144409 106 105 101
269.866019487381 622.152328491211 2635.99991798401 128 127 123
276.388466358185 620.715975761414 2630.00011444092 138 137 133
282.985508441925 619.515120983124 2625 143 142 138
289.444178342819 618.077993392944 2618.99995803833 147 146 142
296.096086502075 617.112517356873 2615.00000953674 149 150 145
302.841544151306 616.382658481598 2611.99998855591 150 151 146
309.92603302002 616.360485553741 2611.99998855591 147 147 145
317.009776830673 616.337776184082 2611.99998855591 160 160 158
324.092835187912 616.314828395844 2611.99998855591 192 192 190
331.301957368851 616.527378559113 2612.99991607666 179 179 177
338.51569890976 616.739630699158 2614.00008201599 182 184 181
346.395224332809 618.131041526794 2619.99988555908 192 194 193
357.274860143662 624.712347984314 2648.00000190735 199 201 200
-148.151636123657 626.05220079422 2681.99992179871 206 208 205
-139.917969703674 621.86199426651 2664.00003433228 195 197 194
-132.180139422417 619.538426399231 2654.00004386902 197 199 196
-124.873012304306 619.081854820251 2651.99995040894 166 166 164
-117.532022297382 618.391215801239 2648.9999294281 161 160 156
-110.331997275352 618.400394916534 2648.9999294281 176 175 171
-103.053770959377 617.942094802856 2647.0000743866 159 158 154
-95.9672331809998 618.650555610657 2650.00009536743 156 155 151
-88.763602077961 618.657946586609 2650.00009536743 153 152 148
-81.6520676016808 619.365215301514 2653.00011634827 153 152 148
-74.5520442724228 620.305418968201 2657.00006484985 142 141 136
-67.4553960561752 621.47843837738 2661.99994087219 141 140 135
-60.2408908307552 621.717095375061 2663.00010681152 126 125 120
-52.9411770403385 621.021330356598 2660.00008583069 111 110 105
-45.6060618162155 619.624495506287 2654.00004386902 144 143 138
-38.2745191454887 617.760181427002 2645.99990844727 144 143 139
-30.9981107711792 616.12868309021 2638.99993896484 144 143 139
-23.7145479768515 613.329291343689 2627.00009346008 149 148 144
-16.5087841451168 610.996186733246 2617.00010299683 161 160 156
-9.3537662178278 608.42901468277 2605.99994659424 168 167 163
-2.26463074795902 607.495605945587 2601.99999809265 170 169 165
4.79721324518323 605.861186981201 2595.00002861023 158 157 153
11.8438163772225 605.393648147583 2592.99993515015 146 145 141
18.8576504588127 604.224979877472 2588.00005912781 153 152 148
25.884261354804 603.989720344543 2586.99989318848 157 156 152
32.8671894967556 603.053390979767 2582.99994468689 156 155 151
39.8437157273293 602.350056171417 2579.99992370605 152 151 147
46.8219816684723 601.879596710205 2578.00006866455 152 151 147
53.8101121783257 601.641952991486 2576.99990272522 152 151 147
60.7926547527313 601.403892040253 2575.99997520447 155 154 150
67.7432715892792 600.931763648987 2573.99988174438 156 155 151
74.7409015893936 600.925981998444 2573.99988174438 157 156 152
81.674799323082 600.452721118927 2572.00002670288 157 156 152
88.701032102108 600.679337978363 2572.99995422363 158 157 153
95.6208631396294 600.20500421524 2571.00009918213 158 157 153
102.649286389351 600.430428981781 2572.00002670288 158 157 153
109.597600996494 600.188434123993 2571.00009918213 157 156 152
116.676233708858 600.646257400513 2572.99995422363 159 158 153
123.669259250164 600.636601448059 2572.99995422363 158 157 152
130.763530731201 601.093292236328 2575.00004768372 158 157 152
137.707784771919 600.849151611328 2573.99988174438 158 157 152
144.646227359772 600.604474544525 2572.99995422363 158 157 152
151.460990309715 599.892437458038 2569.9999332428 159 158 153
158.628955483437 600.580453872681 2572.99995422363 157 156 151
165.812775492668 601.267874240875 2575.99997520447 157 156 151
172.878280282021 601.487934589386 2576.99990272522 157 156 151
179.948776960373 601.707518100739 2578.00006866455 156 155 150
187.169268727303 602.393329143524 2581.00008964539 156 155 150
194.55598294735 603.545367717743 2585.99996566772 155 154 150
201.735526323318 603.996813297272 2588.00005912781 155 154 150
209.167435765266 605.147778987885 2592.99993515015 153 152 148
216.876059770584 606.998383998871 2601.0000705719 151 150 146
224.885880947113 609.548449516296 2611.99998855591 144 143 139
232.599586248398 611.164450645447 2618.99995803833 143 142 138
240.442276000977 613.013327121735 2627.00009346008 142 141 137
248.045012354851 614.161431789398 2631.99996948242 139 138 134
255.965203046799 616.009175777435 2640.00010490417 139 138 134
263.33013176918 616.456270217896 2641.99995994568 96 95 91
270.500481128693 616.436243057251 2641.99995994568 127 126 122
277.039587497711 615.015923976898 2635.99991798401 137 136 132
283.329874277115 613.12872171402 2628.00002098084 140 139 135
289.79703783989 611.70768737793 2621.99997901917 144 143 139
296.34428024292 610.519826412201 2617.00010299683 148 149 144
303.095519542694 609.798014163971 2614.00008201599 150 151 146
309.9485039711 609.309256076813 2611.99998855591 144 144 142
317.153990268707 609.519779682159 2612.99991607666 162 162 160
324.364215135574 609.730124473572 2614.00008201599 191 191 189
331.452339887619 609.70675945282 2614.00008201599 179 179 177
338.669121265411 609.916210174561 2615.00000953674 180 182 179
346.419543027878 611.058235168457 2619.99988555908 190 192 191
356.085360050201 615.464866161346 2638.99993896484 199 201 200
-157.132744789124 625.489413738251 2710.99996566772 212 214 211
-147.887215018272 617.656886577606 2677.00004577637 205 207 204
-139.771535992622 613.97659778595 2661.00001335144 194 196 193
-132.091075181961 611.910820007324 2651.99995040894 197 199 196
-124.835930764675 611.690402030945 2651.00002288818 167 167 165
-117.541454732418 611.238539218903 2648.9999294281 162 161 157
-110.257551074028 610.786259174347 2647.0000743866 172 171 167
-103.062085807323 610.794842243195 2647.0000743866 165 164 160
-95.9387421607971 611.26434803009 2648.9999294281 158 157 153
-88.8377651572227 611.964046955109 2651.99995040894 148 147 143
-81.7202255129814 612.663269042969 2654.99997138977 153 152 148
-74.6422559022903 613.823354244232 2660.00008583069 142 141 136
-67.5622299313545 615.213632583618 2665.99988937378 138 137 132
-60.3815242648125 615.911066532135 2668.99991035461 116 115 110
-53.0848056077957 615.454196929932 2667.00005531311 107 106 101
-45.7300655543804 614.073574542999 2661.00001335144 140 139 134
-38.3933633565903 612.461686134338 2654.00004386902 142 141 137
-31.0828629881144 610.61829328537 2645.99990844727 143 142 138
-23.7796735018492 607.851326465607 2634.0000629425 151 150 146
-16.5416747331619 605.083703994751 2621.99997901917 165 164 160
-9.36888717114925 602.315485477448 2609.99989509583 172 171 167
-2.26742681115866 601.162075996399 2605.00001907349 166 165 161
4.80315089225769 599.546611309052 2598.00004959106 156 155 151
11.8539175018668 598.853588104248 2595.00002861023 148 147 143
18.8737623393536 597.698509693146 2589.99991416931 155 154 150
25.8963778614998 597.235143184662 2588.00005912781 158 157 153
32.9080410301685 596.77118062973 2585.99996566772 155 154 150
39.9087369441986 596.306681632996 2584.00011062622 152 151 147
46.862106770277 595.380008220673 2579.99992370605 152 151 147
53.8353696465492 594.914555549622 2578.00006866455 153 152 148
60.7739947736263 594.217538833618 2575.00004768372 156 155 151
67.7487701177597 593.981504440308 2573.99988174438 158 157 153
74.7469514608383 593.975782394409 2573.99988174438 158 157 153
81.7449167370796 593.969404697418 2573.99988174438 158 157 153
88.7426733970642 593.962550163269 2573.99988174438 158 157 153
95.6285744905472 593.262910842896 2571.00009918213 158 157 153
102.657556533813 593.485653400421 2572.00002670288 158 157 153
109.60641503334 593.246400356293 2571.00009918213 157 156 152
116.73092097044 593.929529190063 2573.99988174438 159 158 153
123.631082475185 593.458473682404 2572.00002670288 158 157 152
130.773946642876 594.140470027924 2575.00004768372 157 156 151
137.665241956711 593.668341636658 2572.99995422363 157 156 151
144.713953137398 593.887865543365 2573.99988174438 159 158 153
151.473015546799 592.953205108643 2569.9999332428 159 158 153
158.703148365021 593.863785266876 2573.99988174438 158 157 152
165.825843811035 594.312429428101 2575.99997520447 158 157 152
172.958955168724 594.760537147522 2578.00006866455 158 157 152
180.102482438087 595.208048820496 2579.99992370605 158 157 152
187.473967671394 596.347212791443 2585.00003814697 158 157 152
194.947332143784 597.716569900513 2591.00008010864 158 157 153
202.218934893608 598.393201828003 2594.00010108948 157 156 152
209.748283028603 599.761307239532 2599.99990463257 154 153 149
217.393085360527 601.359605789185 2607.00011253357 151 150 146
225.247502326965 603.418588638306 2615.9999370575 145 144 140
233.150273561478 605.477035045624 2625 143 142 138
240.918219089508 607.073545455933 2631.99996948242 141 140 136
248.535066843033 608.208239078522 2637.00008392334 136 135 131
256.372332572937 609.80361700058 2644.00005340576 135 134 130
264.047622680664 610.937237739563 2648.9999294281 90 89 85
271.135061979294 610.686600208282 2648.00000190735 125 124 120
277.375489473343 608.590543270111 2638.99993896484 136 135 131
283.674269914627 606.724977493286 2631.00004196167 139 138 134
289.928913116455 604.858994483948 2622.99990653992 142 141 137
296.479195356369 603.684484958649 2618.00003051758 147 148 143
303.117603063583 602.740287780762 2614.00008201599 149 150 145
309.970915317535 602.256894111633 2611.99998855591 142 142 140
317.419588565826 602.925956249237 2615.00000953674 166 166 164
324.387401342392 602.672398090363 2614.00008201599 190 190 188
331.602692604065 602.879524230957 2615.00000953674 178 178 176
338.563531637192 602.62531042099 2614.00008201599 176 178 175
346.1794257164 603.523313999176 2618.00003051758 187 189 188
355.300545692444 606.956601142883 2632.99989700317 198 200 199
-155.638068914413 612.239599227905 2684.99994277954 212 214 211
-147.62270450592 609.287321567535 2671.99993133545 205 207 204
-139.677599072456 606.334328651428 2658.99991989136 196 198 195
-132.051795721054 604.520857334137 2651.00002288818 196 198 195
-124.798804521561 604.303121566772 2650.00009536743 162 162 160
-117.550864815712 604.084730148315 2648.9999294281 164 163 159
-110.266402363777 603.637754917145 2647.0000743866 152 151 147
-103.109307587147 603.874385356903 2648.00000190735 177 176 172
-95.9464758634567 604.110479354858 2648.9999294281 150 149 145
-88.9119282364845 605.258166790009 2654.00004386902 157 156 152
-81.8499550223351 606.405258178711 2658.99991989136 145 144 140
-74.8166814446449 608.008027076721 2665.99988937378 144 143 138
-67.6944255828857 609.154105186462 2671.0000038147 134 133 128
-60.5447962880135 610.299646854401 2676.00011825562 110 109 104
-53.2483570277691 610.076189041138 2674.99995231628 111 110 105
-45.8540841937065 608.483672142029 2667.99998283386 138 137 132
-38.4543538093567 606.206476688385 2657.99999237061 139 138 134
-31.1323869973421 604.38472032547 2650.00009536743 143 142 138
-23.8177236169577 601.65011882782 2638.00001144409 150 149 145
-16.5745671838522 599.142968654633 2627.00009346008 169 168 164
-9.37682949006557 595.722913742065 2611.99998855591 178 177 173
-2.26587033830583 593.670785427094 2602.9999256134 152 151 147
4.79984376579523 592.074155807495 2595.99995613098 158 157 153
11.8411779403687 591.161251068115 2592.00000762939 148 147 143
18.8825856894255 590.93189239502 2591.00008010864 159 158 154
25.9184967726469 590.701997280121 2589.99991416931 171 170 166
32.9488962888718 590.471565723419 2588.99998664856 156 155 151
39.9428717792034 589.784383773804 2585.99996566772 152 153 148
46.902246773243 588.86855840683 2582.00001716614 155 156 151
53.8606196641922 588.180303573608 2578.9999961853 156 157 152
60.7789158821106 587.263405323029 2575.00004768372 157 158 153
67.7279308438301 586.802124977112 2572.99995422363 158 159 154
74.7239515185356 586.796343326569 2572.99995422363 159 160 155
81.7197561264038 586.789965629578 2572.99995422363 159 160 155
88.7498259544373 587.011218070984 2573.99988174438 159 160 155
95.6362634897232 586.319625377655 2571.00009918213 159 160 155
102.625891566277 586.3116979599 2571.00009918213 158 159 154
109.529927372932 585.847139358521 2569.00000572205 157 158 153
116.558849811554 586.066007614136 2569.9999332428 160 159 155
123.496748507023 585.828483104706 2569.00000572205 157 156 151
130.632013082504 586.502373218536 2572.00002670288 157 156 151
137.569189071655 586.2637758255 2571.00009918213 157 156 151
144.500523805618 586.024463176727 2569.9999332428 159 158 153
151.426047086716 585.784733295441 2569.00000572205 159 158 153
158.654019236565 586.684584617615 2572.99995422363 159 158 153
165.903255343437 587.583839893341 2576.99990272522 159 158 153
172.972545027733 587.798535823822 2578.00006866455 159 158 153
180.18639087677 588.468730449677 2581.00008964539 159 158 153
187.488585710526 589.366436004639 2585.00003814697 160 159 154
194.962486624718 590.719521045685 2591.00008010864 161 160 156
202.546432614326 592.299938201904 2598.00004959106 160 159 155
210.087195038795 593.651950359344 2604.00009155273 154 153 149
217.743366956711 595.231354236603 2611.00006103516 151 150 146
225.350886583328 596.582055091858 2617.00010299683 146 145 141
233.168035745621 598.388254642487 2625 145 144 140
241.119608283043 600.421845912933 2634.0000629425 139 138 134
248.836636543274 601.770997047424 2640.00010490417 134 133 129
256.973475217819 604.031264781952 2650.00009536743 133 132 128
264.864921569824 605.607211589813 2657.00006484985 86 85 81
272.076904773712 605.587184429169 2657.00006484985 124 123 119
278.026789426804 602.831661701202 2644.99998092651 135 134 130
284.126549959183 600.531816482544 2634.99999046326 138 137 133
290.28183221817 598.459482192993 2625.99992752075 142 141 137
296.840608119965 597.298502922058 2621.00005149841 147 148 143
303.487539291382 596.36515378952 2617.00010299683 149 150 145
310.230672359467 595.659196376801 2614.00008201599 141 141 139
317.563772201538 596.092343330383 2615.9999370575 166 166 164
324.658781290054 596.0693359375 2615.9999370575 189 189 187
331.753045320511 596.045911312103 2615.9999370575 177 177 175
338.716983795166 595.794379711151 2615.00000953674 174 176 173
346.071511507034 596.22597694397 2617.00010299683 184 186 185
354.785531759262 598.93536567688 2628.99994850159 196 198 197
-154.954731464386 602.283537387848 2673.00009727478 211 213 210
-147.24762737751 600.492835044861 2664.99996185303 195 197 194
-139.478549361229 598.250925540924 2654.99997138977 195 197 194
-131.813228130341 596.233725547791 2645.99990844727 195 197 194
-124.620363116264 596.243917942047 2645.99990844727 162 162 160
-117.471523582935 596.478939056396 2647.0000743866 163 162 158
-110.3585511446 596.938669681549 2648.9999294281 153 152 148
-103.078633546829 596.49658203125 2647.0000743866 171 170 166
-95.9179699420929 596.729934215546 2648.00000190735 150 149 145
-88.8855904340744 597.864091396332 2653.00011634827 155 154 150
-81.9489061832428 599.899172782898 2661.99994087219 146 145 141
-74.9630481004715 601.933777332306 2671.0000038147 145 144 139
-67.877322435379 603.51699590683 2677.99997329712 132 131 126
-60.6854483485222 604.423582553864 2681.99992179871 108 107 102
-53.4119345247746 604.653656482697 2683.00008773804 95 94 89
-45.9609292447567 602.629363536835 2674.00002479553 131 130 125
-38.5153442621231 599.928379058838 2661.99994087219 137 136 132
-31.1584081500769 597.67746925354 2651.99995040894 142 141 137
-23.8286852836609 594.749927520752 2638.99993896484 150 149 145
-16.5822226554155 592.272520065308 2628.00002098084 171 170 166
-9.3847718089819 589.118361473084 2614.00008201599 178 177 173
-2.2677956148982 587.09055185318 2605.00001907349 154 153 149
4.80393180623651 585.512816905975 2598.00004959106 155 154 150
11.8467072024941 584.385275840759 2592.99993515015 149 148 144
18.898693844676 584.384083747864 2592.99993515015 165 164 160
25.940615683794 584.156811237335 2592.00000762939 168 167 163
32.9642966389656 583.703696727753 2589.99991416931 155 154 150
39.9461090564728 582.799255847931 2585.99996566772 153 154 149
46.9060502946377 581.894338130951 2582.00001716614 155 156 151
53.8440905511379 580.988764762878 2578.00006866455 156 157 152
60.7130080461502 579.631984233856 2572.00002670288 157 158 153
67.6807537674904 579.401433467865 2571.00009918213 159 160 155
74.6719017624855 579.395711421967 2571.00009918213 159 160 155
81.7263498902321 579.840064048767 2572.99995422363 159 160 155
88.6535197496414 579.382538795471 2571.00009918213 159 160 155
95.6067442893982 579.149782657623 2569.9999332428 159 160 155
102.554269134998 578.916490077972 2569.00000572205 158 159 154
109.496064484119 578.682661056519 2568.00007820129 157 158 153
116.56815558672 579.124271869659 2569.9999332428 160 159 155
123.554654419422 579.114735126495 2569.9999332428 159 158 154
130.591616034508 579.329967498779 2571.00009918213 159 158 154
137.580096721649 579.319357872009 2571.00009918213 159 158 154
144.511967897415 579.082846641541 2569.9999332428 159 158 154
151.55591070652 579.29652929306 2571.00009918213 158 157 153
158.728167414665 579.96016740799 2573.99988174438 160 159 155
165.916293859482 580.623328685761 2576.99990272522 160 159 155
173.053175210953 581.060707569122 2578.9999961853 159 158 154
180.200472474098 581.497490406036 2581.00008964539 160 159 155
187.503188848495 582.384407520294 2585.00003814697 161 160 156
194.827109575272 583.270728588104 2588.99998664856 159 158 154
202.562093734741 585.282921791077 2598.00004959106 158 157 153
210.264727473259 587.06921339035 2605.99994659424 154 153 149
217.84345805645 588.404417037964 2611.99998855591 152 151 147
225.368112325668 589.513838291168 2617.00010299683 146 145 141
233.185797929764 591.298341751099 2625 143 142 138
241.229444742203 593.532919883728 2634.99999046326 143 142 138
249.232470989227 595.541596412659 2644.00005340576 136 135 131
257.671654224396 598.450660705566 2657.00006484985 132 131 127
265.682280063629 600.232839584351 2664.99996185303 76 75 71
272.711634635925 599.762320518494 2663.00010681152 103 102 98
278.257638216019 596.13835811615 2647.0000743866 131 130 126
284.363180398941 593.865513801575 2637.00008392334 138 137 133
290.524274110794 591.817557811737 2628.00002098084 137 136 132
297.315359115601 591.120481491089 2625 150 151 146
303.74151468277 589.747488498688 2618.99995803833 144 145 140
310.371786355972 588.824570178986 2615.00000953674 150 150 148
317.465215921402 588.801980018616 2615.00000953674 167 167 165
324.433743953705 588.553845882416 2614.00008201599 185 185 183
331.523001194 588.530540466309 2614.00008201599 172 172 170
338.611334562302 588.506817817688 2614.00008201599 169 171 168
346.095770597458 589.158177375793 2617.00010299683 183 185 184
354.540318250656 591.384947299957 2627.00009346008 194 196 195
367.030769586563 600.139260292053 2665.99988937378 203 208 204
-154.619097709656 593.726694583893 2667.00005531311 209 211 208
-147.093504667282 592.625439167023 2661.99994087219 192 194 191
-139.489620923996 591.078460216522 2654.99997138977 193 195 192
-131.773889064789 588.862895965576 2644.99998092651 195 197 194
-124.6302947402 589.095711708069 2645.99990844727 165 165 163
-117.480896413326 589.328050613403 2647.0000743866 159 158 154
-110.409043729305 590.004980564117 2650.00009536743 155 154 150
-103.086888790131 589.345574378967 2647.0000743866 153 152 148
-95.9981083869934 590.02149105072 2650.00009536743 152 151 147
-88.959738612175 591.142177581787 2654.99997138977 149 148 144
-82.078643143177 593.598186969757 2665.99988937378 148 147 143
-75.0252231955528 595.16316652298 2673.00009727478 143 142 137
-67.95883923769 596.950173377991 2680.99999427795 130 129 124
-60.8034953474998 598.291277885437 2687.00003623962 114 113 108
-53.5356961190701 598.741173744202 2688.99989128113 63 62 57
-46.1021587252617 597.186625003815 2681.99992179871 131 130 125
-38.6052802205086 594.072699546814 2667.99998283386 135 134 130
-31.196178868413 591.180860996246 2654.99997138977 140 139 135
-23.8306149840355 587.620377540588 2638.99993896484 147 146 142
-16.5835656225681 585.172653198242 2628.00002098084 175 174 170
-9.38194058835506 581.83366060257 2612.99991607666 178 177 173
-2.26797931827605 580.05279302597 2605.00001907349 156 155 151
4.80617070570588 578.716695308685 2598.99997711182 151 150 146
11.8568055331707 577.825367450714 2595.00002861023 152 151 147
18.9075153321028 577.601492404938 2594.00010108948 175 174 170
25.9327068924904 576.931655406952 2591.00008010864 164 163 159
32.9542383551598 576.483964920044 2588.99998664856 154 153 149
39.9647876620293 576.035618782043 2586.99989318848 153 154 149
46.9280034303665 575.141429901123 2582.99994468689 156 157 152
53.8484416902065 574.024140834808 2578.00006866455 157 158 153
60.7415214180946 572.906196117401 2572.99995422363 157 158 153
67.6862075924873 572.455704212189 2571.00009918213 159 160 155
74.6488496661186 572.227239608765 2569.9999332428 159 160 155
81.5740898251534 571.775734424591 2568.00007820129 159 160 155
88.4537324309349 571.100950241089 2565.00005722046 159 160 155
95.4655930399895 571.316182613373 2565.99998474121 159 160 155
102.562479674816 571.976244449615 2569.00000572205 158 159 154
109.547443687916 571.967780590057 2569.00000572205 157 158 153
116.577461361885 572.181403636932 2569.9999332428 159 158 154
123.468339443207 571.726560592651 2568.00007820129 159 158 154
130.398780107498 571.493864059448 2566.99991226196 159 158 154
137.376934289932 571.483254432678 2566.99991226196 160 159 155
144.467160105705 571.917414665222 2569.00000572205 160 159 155
151.567861437798 572.350978851318 2571.00009918213 160 159 155
158.617302775383 572.561323642731 2572.00002670288 161 160 156
165.864899754524 573.439061641693 2575.99997520447 161 160 156
173.066720366478 574.093699455261 2578.9999961853 160 159 155
180.284321308136 574.747681617737 2582.00001716614 160 159 155
187.445193529129 575.178563594818 2584.00011062622 159 158 154
194.691672921181 575.831532478333 2586.99989318848 159 158 154
202.343806624413 577.59690284729 2595.00002861023 158 157 153
210.200220346451 579.806804656982 2605.00001907349 154 153 149
217.943549156189 581.570982933044 2612.99991607666 152 151 147
225.643664598465 583.112001419067 2619.99988555908 146 145 141
233.558893203735 585.09761095047 2628.99994850159 144 143 139
241.705477237701 587.527692317963 2640.00010490417 144 143 139
249.722585082054 589.511930942535 2648.9999294281 136 135 131
258.369892835617 592.830955982208 2664.00003433228 133 132 128
266.400068998337 594.591557979584 2671.99993133545 72 71 67
273.448824882507 594.126462936401 2670.00007629395 94 93 89
278.909027576447 590.323209762573 2653.00011634827 127 126 122
284.815520048141 587.632358074188 2641.00003242493 135 134 130
290.877252817154 585.386157035828 2631.00004196167 136 135 131
297.450304031372 584.252178668976 2625.99992752075 147 148 143
303.763568401337 582.673013210297 2618.99995803833 143 144 139
310.275465250015 581.538438796997 2614.00008201599 152 152 150
316.880941390991 580.62607049942 2609.99989509583 169 169 167
324.084520339966 580.825626850128 2611.00006103516 183 183 181
331.419587135315 581.24715089798 2612.99991607666 170 170 168
338.635206222534 581.44599199295 2614.00008201599 170 172 169
346.119970083237 582.089304924011 2617.00010299683 182 184 183
354.160100221634 583.621799945831 2624.00007247925 191 193 192
365.817070007324 590.936481952667 2657.00006484985 201 206 202
-153.993487358093 584.101438522339 2655.99989891052 209 211 208
-146.718293428421 583.893418312073 2654.99997138977 191 193 190
-139.34300839901 583.244919776917 2651.99995040894 192 194 191
-131.734520196915 581.496238708496 2644.00005340576 195 197 194
-124.545983970165 581.506371498108 2644.00005340576 167 167 165
-117.401473224163 581.735849380493 2644.99998092651 159 158 154
-110.417850315571 582.84467458725 2650.00009536743 155 154 150
-103.17301005125 582.633197307587 2648.9999294281 149 148 144
-96.1144790053368 583.521008491516 2653.00011634827 154 153 149
-89.00036662817 584.188163280487 2655.99989891052 146 145 141
-82.1468159556389 586.83443069458 2667.99998283386 148 147 143
-75.1435235142708 588.820338249207 2677.00004577637 142 141 136
-68.1417509913445 591.245591640472 2687.99996376038 130 129 124
-61.0120669007301 593.010485172272 2696.00009918213 117 116 111
-53.7192039191723 593.454957008362 2697.99995422363 58 57 52
-46.2090261280537 591.25941991806 2687.99996376038 132 131 126
-38.6518016457558 587.523400783539 2671.0000038147 135 134 130
-31.1986990272999 584.00684595108 2654.99997138977 140 139 135
-23.8415710628033 580.70957660675 2640.00010490417 144 143 139
-16.5849067270756 578.071594238281 2628.00002098084 175 174 170
-9.39706340432167 575.65301656723 2617.00010299683 179 178 174
-2.27077468298376 573.673784732819 2608.00004005432 158 157 153
4.81580570340157 572.793781757355 2604.00009155273 149 148 144
11.8760401383042 571.693301200867 2598.99997711182 156 155 151
18.930908292532 571.252107620239 2596.99988365173 184 183 179
25.9548202157021 570.370435714722 2592.99993515015 157 156 152
32.9823568463326 569.928109645844 2591.00008010864 152 151 147
39.9680100381374 569.045305252075 2586.99989318848 156 157 152
46.9136163592339 567.942023277283 2582.00001716614 158 159 154
53.7901073694229 566.3982629776 2575.00004768372 159 160 155
60.6991834938526 565.513849258423 2571.00009918213 159 160 155
67.6653161644936 565.288722515106 2569.9999332428 160 161 156
74.6839120984077 565.503001213074 2571.00009918213 160 161 156
81.5806239843369 564.836859703064 2568.00007820129 160 161 156
88.4952917695045 564.390122890472 2565.99998474121 159 160 155
95.4360142350197 564.162850379944 2565.00005722046 159 160 155
102.530732750893 564.814746379852 2568.00007820129 158 159 154
109.513528645039 564.806401729584 2568.00007820129 158 159 154
116.4960116148 564.797401428223 2568.00007820129 159 158 154
123.430050909519 564.567923545837 2566.99991226196 160 159 155
130.358308553696 564.337968826294 2565.99998474121 160 159 155
137.334257364273 564.327359199524 2565.99998474121 161 160 156
144.366040825844 564.536154270172 2566.99991226196 162 161 157
151.579767465591 565.404236316681 2571.00009918213 162 161 157
158.62974524498 565.612018108368 2572.00002670288 162 161 157
165.877878665924 566.478908061981 2575.99997520447 163 162 158
173.147320747375 567.345321178436 2579.99992370605 162 161 157
180.438011884689 568.211197853088 2584.00011062622 161 160 156
187.604814767838 568.636655807495 2585.99996566772 158 157 153
194.706708192825 568.841814994812 2586.99989318848 159 158 154
202.281400561333 570.36566734314 2594.00010108948 157 156 152
210.135653614998 572.548627853394 2604.00009155273 155 154 150
218.127056956291 574.950873851776 2615.00000953674 153 152 148
225.919231772423 576.692759990692 2622.99990653992 147 146 142
233.931988477707 578.873932361603 2632.99989700317 145 144 140
241.99840426445 581.054389476776 2642.99988746643 143 142 138
250.30705332756 583.674013614655 2654.99997138977 136 135 131
258.874177932739 586.732566356659 2668.99991035461 133 132 128
267.117857933044 588.911294937134 2678.99990081787 79 78 74
273.981183767319 588.011920452118 2674.99995231628 88 87 83
279.350191354752 584.03480052948 2657.00006484985 124 123 119
285.26782989502 581.376314163208 2644.99998092651 134 133 129
291.34076833725 579.157173633575 2634.99999046326 137 136 132
297.92508482933 578.036844730377 2630.00011444092 143 144 139
304.133534431458 576.25675201416 2621.99997901917 138 139 134
310.416519641876 574.696123600006 2615.00000953674 156 156 154
316.782206296921 573.355078697205 2608.99996757507 168 168 166
323.611080646515 572.892725467682 2607.00011253357 185 185 183
331.189393997192 573.748528957367 2611.00006103516 171 171 169
338.399887084961 573.944628238678 2611.99998855591 165 167 164
346.408665180206 575.458765029907 2618.99995803833 178 180 179
354.589611291885 577.19212770462 2627.00009346008 189 191 190
365.429192781448 583.09942483902 2654.00004386902 199 204 200
-153.947591781616 576.70658826828 2654.99997138977 207 209 206
-146.508768200874 575.84947347641 2651.00002288818 187 189 186
-139.14380967617 575.209081172943 2648.00000190735 189 191 188
-131.744921207428 574.350833892822 2644.00005340576 194 196 193
-124.555833637714 574.360966682434 2644.00005340576 169 169 167
-117.455169558525 574.805021286011 2645.99990844727 161 160 156
-110.468290746212 575.900197029114 2651.00002288818 154 153 149
-103.414930403233 576.777696609497 2654.99997138977 149 148 144
-96.303291618824 577.437341213226 2657.99999237061 158 157 153
-89.1750380396843 578.096508979797 2661.00001335144 144 143 139
-82.1533799171448 579.624056816101 2667.99998283386 146 145 141
-75.1776099205017 581.802845001221 2677.99997329712 141 140 135
-68.223275244236 584.632873535156 2690.99998474121 130 129 124
-61.1753910779953 587.245166301727 2703.00006866455 114 113 108
-53.9027340710163 588.1187915802 2707.00001716614 59 58 53
-46.3330782949924 585.515677928925 2694.9999332428 128 127 122
-38.7272760272026 581.391215324402 2676.00011825562 134 133 129
-31.2482174485922 577.700555324554 2658.99991989136 141 140 136
-23.8796174526215 574.443817138672 2644.00005340576 142 141 137
-16.6114866733551 571.83825969696 2631.99996948242 174 173 169
-9.40500199794769 569.014847278595 2618.99995803833 178 177 173
-2.27269902825356 567.059934139252 2609.99989509583 156 155 151
4.81804320588708 565.973579883575 2605.00001907349 152 151 147
11.881566606462 564.886569976807 2599.99990463257 156 155 151
18.917853012681 563.799023628235 2595.00002861023 181 180 176
25.9468983858824 563.145399093628 2592.00000762939 155 154 150
32.9977385699749 563.143014907837 2592.00000762939 152 151 147
39.986677467823 562.271058559418 2588.00005912781 157 158 153
46.8810461461544 560.529470443726 2579.99992370605 159 160 155
53.7735298275948 559.221863746643 2573.99988174438 159 160 155
60.7040598988533 558.565557003021 2571.00009918213 159 160 155
67.6707327365875 558.343112468719 2569.9999332428 160 161 156
74.6608301997185 558.337450027466 2569.9999332428 161 162 157
81.6189125180244 558.113932609558 2569.00000572205 161 162 157
88.5713398456573 557.889938354492 2568.00007820129 160 161 156
95.5552533268929 557.882606983185 2568.00007820129 159 160 155
102.538883686066 557.874739170074 2568.00007820129 159 160 155
109.522216022015 557.866334915161 2568.00007820129 159 160 155
116.505242884159 557.8573346138 2568.00007820129 160 159 155
123.439803719521 557.630658149719 2566.99991226196 160 159 155
130.31779229641 557.186186313629 2565.00005722046 161 160 156
137.291550636292 557.175576686859 2565.00005722046 162 161 157
144.208669662476 556.947290897369 2563.99989128113 162 161 157
151.414766907692 557.804644107819 2568.00007820129 162 161 157
158.518776297569 558.226943016052 2569.9999332428 163 162 158
165.762037038803 559.083104133606 2573.99988174438 164 163 159
173.160791397095 560.373187065125 2579.99992370605 164 163 159
180.45200407505 561.228275299072 2584.00011062622 162 161 157
187.691852450371 561.865568161011 2586.99989318848 158 157 153
194.721683859825 561.850786209106 2586.99989318848 159 158 154
202.218934893608 563.138663768768 2592.99993515015 157 156 152
210.0710272789 565.294682979584 2602.9999256134 155 154 150
218.143671751022 567.88432598114 2615.00000953674 153 152 148
226.10867023468 570.039033889771 2625 148 147 143
234.30509865284 572.627544403076 2637.00008392334 146 145 141
242.474496364594 574.998140335083 2648.00000190735 144 143 139
250.797271728516 577.585399150848 2660.00008583069 135 134 130
259.378552436829 580.60610294342 2674.00002479553 130 129 125
267.736047506332 582.974910736084 2684.99994277954 86 85 81
274.923354387283 582.737684249878 2684.00001525879 86 85 81
280.632525682449 579.460501670837 2668.99991035461 108 107 103
286.151647567749 575.966060161591 2653.00011634827 133 132 128
292.025506496429 573.339819908142 2641.00003242493 137 136 132
298.399865627289 571.798741817474 2634.0000629425 141 142 137
304.387509822845 569.606125354767 2624.00007247925 136 137 132
310.438841581345 567.630350589752 2615.00000953674 159 159 157
316.440552473068 565.654337406158 2605.99994659424 168 168 166
323.509901762009 565.631568431854 2605.99994659424 185 185 183
331.339627504349 566.910684108734 2611.99998855591 170 170 168
338.423669338226 566.887140274048 2611.99998855591 163 165 162
346.168279647827 567.948341369629 2617.00010299683 176 178 177
353.804290294647 568.792104721069 2621.00005149841 187 189 188
365.041255950928 575.277507305145 2651.00002288818 198 203 199
-163.362964987755 577.240347862244 2690.99998474121 209 211 208
-154.017627239227 569.744884967804 2655.99989891052 206 208 205
-146.409720182419 568.255066871643 2648.9999294281 186 188 185
-138.997107744217 567.408204078674 2644.99998092651 188 190 187
-131.705448031425 566.989719867706 2642.99988746643 193 195 192
-124.565675854683 567.214369773865 2644.00005340576 169 169 167
-117.508850991726 567.867517471313 2647.0000743866 162 163 158
-110.518716275692 568.949162960052 2651.99995040894 151 150 146
-103.539988398552 570.24484872818 2657.99999237061 153 154 149
-96.4196398854256 570.89638710022 2661.00001335144 164 163 159
-89.316189289093 571.761906147003 2664.99996185303 141 140 136
-82.2831094264984 573.270618915558 2671.99993133545 142 141 137
-75.3239765763283 575.636923313141 2683.00008773804 135 134 129
-68.3808550238609 578.64636182785 2697.00002670288 129 128 123
-61.3387189805508 581.44074678421 2710.00003814697 109 108 103
-54.0265366435051 582.089006900787 2713.00005912781 73 72 67
-46.4227609336376 579.303741455078 2700.00004768372 125 124 119
-38.8316921889782 575.65975189209 2683.00008773804 129 128 124
-31.3329920172691 572.014987468719 2665.99988937378 146 145 141
-23.9357277750969 568.584322929382 2650.00009536743 145 144 140
-16.631755977869 565.367460250854 2634.99999046326 173 172 168
-9.40934754908085 562.150061130524 2619.99988555908 174 173 169
-2.27201078087091 559.790372848511 2608.99996757507 152 151 147
4.81658056378365 558.717548847198 2604.00009155273 159 158 154
11.8779512122273 557.644009590149 2598.99997711182 156 155 151
18.933953717351 557.213664054871 2596.99988365173 170 169 165
25.9690042585135 556.568264961243 2594.00010108948 154 153 149
33.0003872513771 556.136727333069 2592.00000762939 154 153 149
39.958979934454 554.846465587616 2585.99996566772 158 159 154
46.8484535813332 553.126513957977 2578.00006866455 160 161 156
53.7778362631798 552.264273166656 2573.99988174438 160 161 156
60.7089102268219 551.616072654724 2571.00009918213 160 161 156
67.6761418581009 551.396369934082 2569.9999332428 161 162 157
74.6377259492874 551.176130771637 2569.00000572205 163 164 159
81.6571861505508 551.384449005127 2569.9999332428 163 164 159
88.647373020649 551.377654075623 2569.9999332428 161 162 157
95.6000536680222 551.155865192413 2569.00000572205 160 161 156
102.467156946659 550.504386425018 2565.99998474121 160 161 156
109.402939677238 550.281465053558 2565.00005722046 161 162 157
116.332955658436 550.058007240295 2563.99989128113 161 160 156
123.449541628361 550.692141056061 2566.99991226196 161 160 156
130.378872156143 550.467729568481 2565.99998474121 162 161 157
137.462928891182 550.886273384094 2568.00007820129 162 161 157
144.332468509674 550.446152687073 2565.99998474121 162 161 157
151.367619633675 550.649046897888 2566.99991226196 162 161 157
158.469468355179 551.066040992737 2569.00000572205 164 163 159
165.710523724556 551.911473274231 2572.99995422363 166 165 161
173.107072710991 553.185284137726 2578.9999961853 167 166 162
180.465951561928 554.244160652161 2584.00011062622 165 164 160
187.92399764061 555.516839027405 2589.99991416931 160 159 155
194.962471723557 555.502116680145 2589.99991416931 158 157 153
202.234402298927 556.130409240723 2592.99993515015 157 156 152
209.844887256622 557.61593580246 2599.99990463257 155 154 150
217.993393540382 560.38773059845 2612.99991607666 154 153 149
226.211950182915 563.158869743347 2625.99992752075 149 148 144
234.500512480736 565.929412841797 2638.99993896484 146 145 141
242.85900592804 568.699240684509 2651.99995040894 141 140 136
251.193195581436 571.254014968872 2664.00003433228 133 132 128
259.591907262802 573.808193206787 2676.00011825562 126 125 121
268.05505156517 576.361656188965 2687.99996376038 107 106 102
275.763154029846 577.199161052704 2691.99991226196 97 96 92
281.599491834641 574.176967144012 2677.99997329712 109 108 104
286.927670240402 570.297002792358 2660.00008583069 127 128 123
292.599648237228 567.274332046509 2645.99990844727 134 133 129
298.987954854965 565.752148628235 2638.99993896484 138 139 134
304.989486932755 563.5866522789 2628.99994850159 134 135 130
