ply
format ascii 1.0
comment KinectMotionCapture
element vertex 807
property float x
property float y
property float z
property uchar red
property uchar green
property uchar blue
end_header
41.5677401048109 174.781017206291 2741.43682510989 17 20 11
20.8109613275753 174.667546520206 2751.09171789739 18 21 12
8.8904214158716 174.32494583794 2752.32941076611 18 21 12
-5.9037214124722 174.064727861393 2756.42512031033 20 23 12
-6.15199798574739 173.407677646275 2746.36063477034 22 25 16
5.12309237447939 172.423887012081 2724.88626486137 22 25 16
4.04641683269702 171.778526568458 2715.45664554742 24 27 18
-1.37077766290994 171.254200592579 2710.29191320527 24 27 18
-9.65695843362768 170.812635899446 2707.98825168111 20 23 14
43.4449861817172 168.569392346438 2643.95592548746 21 24 15
22.1869334947731 168.494978495134 2654.48296305689 20 23 14
-21.6758607899925 169.110519325367 2688.15065821703 17 20 13
-37.0236847234788 168.885035046141 2693.08020507421 12 15 8
-58.6587402189873 168.859425938892 2704.5689346199 11 14 7
-61.9292016144568 168.273244396493 2697.25469724033 18 21 14
-11.2851406484211 165.987908475597 2633.91104774176 19 22 15
-4.28952192429621 165.051447855726 2615.5101148742 18 21 14
-6.42712498160813 164.399459646041 2606.54640962119 17 18 12
3.89617110499563 163.338660144671 2584.38167366588 18 19 13
-5.94380443739273 162.929582820467 2583.42187096545 19 20 12
-0.596282479002008 162.017353104637 2566.29668805001 65 65 57
10.859773591553 160.890776308078 2542.48241307097 192 192 184
254.843813852998 177.772253208659 2792.30962045156 100 105 101
278.354197336214 176.573766611892 2762.41209744728 15 20 14
236.753903318762 176.199422199159 2777.95285491914 9 14 8
225.016463002488 175.810027068886 2778.08800693982 5 10 4
236.571281659143 174.864253518677 2758.05164723586 11 14 7
247.251000650415 173.92890028051 2738.61599851903 11 14 7
219.281322813143 173.934976850791 2752.92388884211 11 14 7
210.654467498694 173.471855313617 2750.37315588118 10 13 6
175.974033468118 173.667685614636 2770.93315558199 10 13 6
118.521657287675 174.462770194756 2812.04207295128 11 14 7
88.8033456699349 174.572392338981 2828.78827017256 13 16 9
88.1020222956548 173.937223793507 2819.63080327922 11 14 7
78.274838811927 173.540339926203 2818.68033557737 9 12 5
79.0475640310544 172.861650389743 2808.12084978933 11 14 7
70.7381452434097 172.424879529429 2805.80036681249 13 16 9
75.9633124999466 171.618034859681 2791.05738789395 18 21 12
69.885670605327 171.117679883165 2786.64904118464 19 22 13
63.0601661176731 170.638261943893 2782.93369560088 15 18 9
62.9396831414928 169.9687227844 2772.96208158474 16 19 10
58.328286551343 169.424281875262 2767.1460563485 17 20 11
52.9665266540018 168.900615647917 2762.02151307142 18 21 12
49.8136741472677 168.311427581481 2754.79222317953 19 22 13
57.6796882486459 167.39248135244 2737.02264168696 19 22 13
36.1148800168172 167.349261157193 2747.32716914041 18 21 12
21.9558891338045 167.091159413988 2750.64799349753 18 21 12
3.46856912031157 166.971564365579 2758.24292446682 19 22 13
-4.03901397323492 166.518972798421 2755.26829805543 19 22 11
0.0585350115915872 165.70244261235 2740.94287215732 21 24 15
6.98394928496171 164.78892121633 2723.72619940606 22 25 16
3.02207485430417 164.216161990705 2717.14614105469 24 27 18
-5.26318487934963 163.782308761814 2714.84289179303 24 27 18
-2.08020075705262 162.973273504256 2701.0898473778 18 21 12
21.7454145578357 161.472332563761 2666.47857519396 19 22 13
21.1897381553503 160.767990539513 2656.1910094152 18 21 14
12.0845145315718 160.349478094766 2654.52905411803 15 18 11
-25.2921186396005 160.901991157353 2681.78217354902 11 14 7
-54.7207388288746 161.201830149919 2701.20941101336 11 14 7
-41.1344517940959 160.012876751127 2676.46870223646 18 21 14
-31.1758694502122 158.937708110103 2655.27454135235 18 21 14
9.40861953695871 156.75576391031 2601.93070786073 17 20 13
0.0231530150558434 154.834420368108 2577.82556018252 20 23 16
259.990062946866 169.826066451673 2788.58918851438 145 150 146
248.197678792539 169.450696032614 2788.68458161223 10 15 9
254.424239413972 168.599078426864 2773.43227070175 10 15 9
255.120143889134 167.888542924672 2762.81693461088 14 19 13
286.10827832637 166.348823590658 2725.98692024511 9 14 8
271.125943501436 166.051693550775 2728.7109817987 10 13 6
245.363831580276 166.059986177698 2740.91349614928 10 13 6
221.252710422227 166.033822601406 2751.84260115206 10 13 6
236.45938650255 164.899057219244 2728.2771159251 10 13 6
237.740001570502 164.15151478109 2716.85042494465 9 12 5
133.430861186441 165.78737437532 2789.45778564097 10 13 6
153.128579297398 164.511163386175 2761.73642744648 9 12 5
124.163764104605 164.682106224924 2777.7938298018 8 11 4
91.5506066547156 164.978798474239 2797.38288004107 9 12 5
91.4953540253132 164.291920307876 2787.45817059288 11 14 7
81.6354270885542 163.905627469154 2786.48431458582 17 20 11
79.2886230196461 163.285802872393 2778.60415459917 18 21 12
78.4125648296747 162.61670365532 2769.31984684337 13 16 7
70.8012821779804 162.160053052441 2766.27032032643 14 17 8
72.1090718220281 161.415212412463 2754.86334246127 14 17 8
58.563525234467 161.151788100849 2757.39380209065 18 21 12
46.5373428773637 160.843092118996 2758.55508423018 19 22 13
43.3772319836954 160.241870524084 2751.32076610353 19 22 13
47.5364530875697 159.391166928606 2737.0398745456 18 21 12
23.1005296505953 159.509584084507 2750.20432903307 18 21 12
6.06741880488526 159.385441816851 2756.38305649447 19 22 13
2.91624403329704 158.7851951683 2749.15492681469 19 22 11
1.92119225209808 158.106926625829 2739.78431162072 18 21 12
11.0131484556306 157.066206876935 2720.4324571786 21 24 15
4.87923695986758 156.561502538543 2715.98329740419 24 27 18
5.20967273891726 155.822159069672 2705.10287933799 22 25 16
-13.8376166994698 155.788294931228 2713.52734739399 16 19 10
-0.677588572482346 154.571547734143 2689.71253028615 17 20 11
8.09140579010714 153.504694346268 2670.12642154115 17 20 13
-1.68191517692384 153.126866344469 2669.21539092588 15 18 11
-22.7517567806816 153.182442264547 2679.87923067293 13 16 9
-32.4478439307347 152.811154846382 2679.02422162917 13 16 9
-36.4992326008156 152.222986047898 2672.37889996578 18 21 14
9.18712838950153 149.679877415533 2614.08555316407 17 20 13
-29.9758051924892 150.461714704422 2643.75031124275 15 18 11
-12.5307231348213 149.002201063366 2614.39504063553 17 20 13
-21.6128585368294 148.596750629041 2612.74959416768 20 23 16
-68.0409548836667 149.718001140109 2650.73598073604 11 14 7
244.701482230195 161.746431828142 2792.28686259464 8 13 7
250.159367572632 160.875012258357 2777.7119644214 12 17 11
275.833041634232 159.381263049616 2745.67575699634 16 21 15
294.324671218025 158.087734366131 2719.55006503016 11 16 10
280.870389110261 157.770031130108 2720.91137266598 10 13 6
223.363696057233 158.838679194102 2760.74726359893 10 13 6
237.107881131377 157.682007763258 2738.59154973043 10 13 6
246.891058314383 156.638982126766 2719.74076444794 11 14 7
238.174441810229 156.183726521355 2717.1250015275 11 14 7
198.880325417885 156.729154524196 2741.75302393392 9 12 5
193.326049572155 156.182503638479 2736.48851083851 9 12 5
186.245364978182 155.686150143596 2732.58838844496 8 11 4
169.312052318642 155.522053912335 2737.60392826038 7 10 3
128.248646027041 156.185940489827 2764.65535904097 8 11 4
94.9238856780692 156.607474263652 2784.96422212847 9 12 5
89.5638543010611 156.077062591031 2779.84089772565 17 20 11
81.9503751777155 155.625040536175 2776.78950790702 19 22 13
81.8159178963054 154.909277657595 2766.80752948654 14 17 8
73.4507109173981 154.483446043803 2764.44665986872 14 17 8
65.8404966119632 154.0318527711 2761.39763895813 14 17 8
51.5726004561072 153.823838778429 2764.64006374017 16 19 10
38.090555367666 153.592615276738 2767.2167200649 18 21 12
24.6514490739607 153.364997251894 2769.82452190074 17 20 11
16.3929078234868 152.948254830289 2767.54102258437 17 20 11
21.3180343057133 152.033757999077 2752.57969794891 17 20 11
18.1508460887594 151.420634141094 2745.34018903226 18 21 12
9.14624622373905 151.030665497506 2743.75102814818 19 22 11
-0.567087954487677 150.670377719367 2742.88357208098 17 20 11
9.98288190036067 149.515609824497 2722.11771743849 20 23 14
21.1512650610759 148.323844055295 2700.56464529127 23 26 17
-9.46237251701709 148.793906566427 2720.36903168283 21 24 15
-13.4229575419011 148.203923200244 2713.78952632854 16 19 10
-13.8271693526728 147.466998827849 2703.61159542871 17 20 11
-5.72489329363979 146.375029236404 2684.77707776767 16 19 12
-5.51868811742207 145.600626384563 2673.80642470357 14 17 10
-6.06086385742644 144.852670177245 2663.52871940576 13 16 9
-11.5765077569983 144.311071070466 2658.29253149784 13 16 9
12.4321707959303 142.506068400412 2622.57738900021 18 21 14
4.71037016331755 142.046906582211 2619.44743844351 17 20 13
2.58571753186398 141.345006027088 2610.49286841471 15 18 11
0.433307731402266 140.640971741772 2601.51846029099 17 20 13
-22.5742311108241 140.858769702317 2614.4838480086 20 23 16
-3.95384009627797 139.226474329061 2583.5093410376 22 25 18
258.465457014801 153.495802331362 2781.2257755073 10 15 9
263.888338656307 152.579756272703 2766.62527636228 13 18 12
265.343052699421 151.790464793916 2755.32458197726 9 14 8
254.303861023263 151.423602208002 2754.73098684111 8 13 7
239.410738326272 151.192887639908 2757.51976210057 12 15 8
226.11196999205 150.912113422617 2758.99399204241 12 15 8
231.367128677324 149.982281189027 2744.27213159436 12 15 8
238.094113907127 148.992233366387 2728.14626240249 11 14 7
224.033933915468 148.739505867633 2730.30370747589 11 14 7
195.483602817486 149.017076478695 2745.42708165856 10 13 6
189.940347014352 148.468020383939 2740.17083952137 9 12 5
204.92506155062 147.160272890381 2716.44327896871 7 10 3
178.8374572991 147.368645706337 2729.64618153448 7 10 3
148.32625869802 147.757115832979 2747.0540471097 8 11 4
105.892107502841 148.615224324128 2775.58314716424 8 11 4
97.4947126710388 148.194238176227 2773.19896842817 16 19 10
82.3639347965659 148.035210254902 2777.05086211385 18 21 12
80.7363057931823 147.355397100846 2768.45670699709 14 17 8
89.5125642732881 146.262383706099 2750.11076828951 13 16 7
82.5986438319237 145.782370330628 2746.33161955504 14 17 8
59.3924319513071 145.956477572906 2757.91772701593 13 16 7
42.194529397193 145.899741150847 2763.97704039794 15 18 9
30.9518909054254 145.607754677223 2764.47137821486 17 20 11
13.8660350622763 145.560404365786 2770.61225866837 17 20 11
20.2660727931954 144.544238970782 2754.24954044353 19 22 13
16.3743125681211 143.950667973284 2747.71990948336 21 24 15
12.4682996167387 143.355972217911 2741.17994072059 19 22 11
-0.880943711497384 143.163093846509 2743.85306210107 18 21 12
13.2903628863348 141.789257071155 2719.53551001962 16 19 10
21.5698749472719 140.656091292305 2700.82926585194 18 21 12
13.2304775992593 140.240998463701 2698.48716058042 18 21 12
37.861118603435 138.367976914785 2663.22254740801 16 19 10
18.7303789781872 138.425197813874 2671.58698200632 17 20 11
3.95055105103026 138.296467746411 2675.69344026306 15 18 11
17.6167732130148 136.881619305592 2651.00982843987 13 16 9
2.85238597035331 136.754394016987 2655.12748760032 12 15 8
4.3649979673015 135.881138752537 2642.63330275532 13 16 9
8.64104918621234 134.872694462259 2627.20097374712 18 21 14
-17.950155640253 134.498088598927 2632.62533835459 17 20 13
-1.92313694327439 132.915462456143 2604.71153302353 16 19 12
24.3775635694119 130.818238210656 2565.716005005 18 21 14
272.233934083134 145.152725552874 2770.16748395781 11 16 10
277.621810373186 144.192082743535 2755.54138279513 13 18 12
249.385358637228 144.480643672207 2769.65731386478 9 14 8
239.947890576179 144.07462881442 2767.7542763103 11 16 10
228.198929347143 143.758621667828 2767.88144830006 13 16 9
221.122488773288 143.266746354707 2763.98413069312 13 16 9
226.395260215784 142.296669639777 2749.27483426242 12 15 8
243.912191857175 140.839666270101 2723.67677155439 10 13 6
223.697156654667 140.854542050292 2731.25496266235 10 13 6
200.500242124849 140.997688749507 2741.61232204378 11 14 7
197.995273376514 140.321694866334 2733.61751507413 9 12 5
199.270560703334 139.489773293408 2722.18653450348 7 10 3
192.916387807712 138.964096242882 2717.57759630878 8 11 4
155.554855302761 139.716681590758 2741.13727157593 9 12 5
129.683102182024 140.01372551135 2754.49709836953 9 12 5
93.398592029192 140.761785901078 2777.60247057552 15 18 9
77.5295506302021 140.667804740968 2782.15484185785 18 21 12
70.6858984600949 140.195664528378 2778.42667197193 13 16 7
83.222418805617 138.889586749641 2756.6297760254 13 16 7
83.0157257679534 138.122977408391 2746.59517481627 13 16 7
59.0654374901343 138.391835708619 2758.87740197944 13 16 7
48.5153079003706 138.082022863962 2758.638627355 14 17 8
51.2468105881023 137.183702515637 2745.79258431835 17 20 11
39.2392394799566 136.940940489217 2746.96769211791 18 21 12
22.8733625842743 136.900154142219 2752.39549729413 21 24 15
25.5442177290153 135.997070026089 2739.50546542986 22 25 16
14.3358650197527 135.726919360261 2740.02476834488 20 23 12
10.4116021103668 135.122082301558 2733.47151843038 19 22 13
10.8123547624563 134.312712888243 2722.64201434789 15 18 9
6.1252458889598 133.738674056369 2716.77095374236 17 20 11
15.0858739353668 132.512811045933 2697.32295892934 18 21 12
-3.27885733333777 132.588469477329 2705.00745161625 18 21 12
-19.4264100442925 132.566434854412 2710.5933251574 19 22 13
25.0249419746087 129.590183406494 2655.10790440678 16 19 12
21.5913078880248 128.932973447185 2647.6750198882 14 17 10
10.4341750314911 127.826376997357 2637.11129778792 14 17 10
15.3982671582167 126.739447933204 2620.94231014726 18 21 14
6.26705624698332 126.361230510788 2619.26142573603 19 22 15
-28.7095093056282 127.313014097186 2644.551023423 18 21 14
-4.35752985332427 124.365056036354 2596.72770805629 17 20 13
-19.0141362906318 124.280073897735 2600.92400826961 18 21 14
293.856586352854 136.401782091627 2752.44924150297 11 16 10
253.005397545794 137.266546856169 2777.18545749627 15 20 14
272.448704698239 135.690358006145 2750.51318855075 9 14 8
238.818055506162 136.284156708518 2769.36584773749 11 16 10
239.490854296616 135.470688147208 2758.73353494346 11 14 7
217.678216782043 135.595014655951 2767.6242176888 11 14 7
233.769175126063 134.127445539745 2743.46275072357 10 13 6
235.10970965072 133.272745060315 2732.07895385943 10 13 6
231.800927563236 132.61238637835 2724.73656127057 11 14 7
208.578809073606 132.813175347115 2735.07594173311 11 14 7
199.185774822384 132.421389944991 2733.20548174766 11 14 7
196.656604642777 131.729116473866 2725.19275370765 10 13 6
188.035383549433 131.304769560905 2722.64630151496 10 13 6
173.375156806508 131.152755593335 2725.60430665582 8 11 4
134.62772138138 132.095579203001 2750.63064264922 8 11 4
104.340076721646 132.677044775061 2768.20154480738 13 16 7
81.6900972170185 132.92555291246 2778.95621721421 15 18 9
59.1360067181226 133.182042809637 2789.78014755984 16 19 10
65.0025867040021 132.123442759844 2774.2658305974 15 18 9
57.4202937298471 131.688980168368 2771.23713722601 15 18 9
57.9966717887594 130.868212852494 2760.53459553931 14 17 8
68.875511299209 129.549048750331 2740.00631282939 17 20 11
59.7635792501281 129.181260509732 2738.33975137964 20 23 14
55.8091053803222 128.564820286635 2731.76454212289 18 21 12
37.1963396374619 128.665491739935 2739.26935602205 17 20 11
20.8473530079272 128.664045464993 2744.70931010085 19 22 13
15.475691129974 128.123603064202 2739.57750369207 17 20 9
4.29390839990784 127.874454036699 2740.11617412948 17 20 11
-16.9855286989469 128.140801275692 2750.62914122743 17 20 11
8.70329922515634 126.021424327903 2714.89534586824 17 20 11
0.405074649541426 125.625200344986 2712.58318319252 18 21 12
-5.73063667470342 125.11850561012 2708.13270860229 17 20 11
22.4319889140028 122.818220869024 2669.25057015915 18 21 12
41.1208708496789 120.988626069951 2639.56004546427 18 21 14
-3.38206066467683 121.65131085325 2662.88275381424 13 16 9
-33.6024774567045 122.433076131717 2682.97377318133 16 19 12
3.86595619060515 119.552653855603 2633.54298436779 19 22 15
-1.02018549495186 118.957248626492 2627.52753240421 18 21 14
-17.1023602332616 118.97944380245 2633.16131834264 17 20 13
-2.45921236112867 117.298528070452 2606.71389091964 21 24 17
-10.1804448185205 116.8549261592 2603.5847255363 20 23 16
309.990919205742 127.743819753397 2739.39900997951 0 4 0
253.431586614674 129.41344053076 2777.45463351589 13 18 12
226.818569583505 129.790129783671 2790.27750570076 10 15 9
251.699979028192 127.87825535209 2758.89988748965 9 14 8
250.010256289698 127.141748448812 2750.26043213414 12 15 8
237.455590067971 126.895500514498 2751.03892135347 10 13 6
219.531398218751 126.899648587796 2756.57233499467 10 13 6
211.678556847453 126.447092163083 2753.34742366757 10 13 6
252.187718781693 123.744391719879 2707.35715498392 12 15 8
231.201098448052 123.89219179881 2715.61171748086 10 13 6
188.166050708415 125.09350016585 2743.70665870457 10 13 6
183.387565910563 124.498567121194 2737.76954638513 11 14 7
177.840615120559 123.939313731502 2732.51027954477 10 13 6
176.070867915261 123.196443441586 2723.81278051366 9 12 5
144.099528855481 123.924187897857 2742.63424533621 9 12 5
106.259542308861 124.960280551464 2767.08355170744 12 15 6
100.850892536541 124.412704459526 2761.92489585112 14 17 8
61.0401064536696 125.58363632113 2788.65190940839 16 19 10
31.8640024053303 126.245226903394 2805.79366581995 16 19 10
37.0172879799897 125.182486341323 2790.99728217304 18 21 12
39.1390989651663 124.265880101251 2778.94420461729 16 19 10
46.3838132098235 123.078590817117 2761.95790701812 18 21 12
55.7584717202575 121.769887939671 2742.80963212406 20 23 14
53.2869489871284 121.06890194001 2734.83864981759 17 20 11
42.003991845184 120.829793456404 2735.30402762199 16 19 10
21.9889840146772 121.059142815041 2744.26334582086 17 20 11
20.2551420986907 120.32025664266 2735.59189548057 17 20 9
2.52751702092269 120.441335016032 2742.50343347357 18 21 12
-21.6426252641329 120.922625119842 2755.86269089016 18 21 12
-34.8835738190585 120.819711677663 2758.61477315304 19 22 13
10.8869729039034 117.462079039315 2702.84869639629 19 22 13
11.8897811181062 116.553179053332 2691.21979999108 17 20 11
39.2920506120746 114.156923703013 2653.0210137072 18 21 12
3.78455717715998 115.288476319145 2677.92693548432 14 17 10
17.4682221964306 113.642910927938 2653.25450525677 11 14 7
-62.8345982533809 116.527399209364 2713.62823818122 17 20 13
-87.892266877778 117.134679857286 2728.81482023902 18 21 14
-40.5793617684598 113.508863539354 2669.22503259506 17 20 13
-31.3636966537816 112.089743943153 2648.72560960667 17 20 13
-39.6728398927988 111.70159699901 2646.40557267063 22 25 18
298.49061011112 119.44138880966 2739.66598239699 0 2 0
239.734026914455 121.409936050216 2779.8356905638 7 12 6
261.471650412782 119.535634374277 2751.11970613569 12 17 11
232.580433009104 120.100439298972 2765.99741945891 11 14 7
237.883221366373 119.00769531746 2751.30896711941 11 14 7
207.603681876723 119.661680028538 2767.65107558287 10 13 6
225.191599932356 117.95388740764 2742.10320214446 11 14 7
234.19777699581 116.657745876227 2723.9229074406 13 16 9
214.792176441395 116.783909142312 2730.85310758599 11 14 7
201.566403911709 116.605639212474 2732.38077294877 11 14 7
178.484801580383 116.937653072843 2742.82297573019 12 15 8
183.577925248494 115.82775961777 2727.98244611759 11 14 7
176.496923820871 115.342250939793 2724.08185449868 11 14 7
170.173600918498 114.817534679527 2719.49528498905 10 13 6
126.234111865531 116.27943105737 2749.40655954509 12 15 6
120.768689591508 115.723840003806 2744.20641301632 13 16 7
92.8605614819782 116.37079536529 2759.79720485719 12 15 6
56.8762544254242 117.471393138494 2783.12198636568 13 16 7
39.6541742709475 117.575017429472 2789.16487962486 17 20 11
36.5818460100376 116.911828420476 2781.9938831249 17 20 11
37.9253319347232 116.002208559987 2770.61194761614 18 21 12
47.3298688306101 114.637814946323 2751.48475563975 17 20 11
50.7630217997019 113.595303813817 2737.91158688207 16 19 10
46.8129534153112 112.961790226087 2731.33948477576 15 18 9
34.8152077876307 112.784327980039 2732.52234050907 16 19 10
20.6674319419777 112.735005916921 2735.85235239635 16 19 8
16.7294058561702 112.102796480659 2729.28898661506 17 20 11
7.71133766624033 111.764229162175 2727.69032261268 19 22 13
-7.06222894511677 111.765451665112 2731.80227254327 19 22 13
11.3028228171461 109.817477455429 2703.11143345895 19 22 13
0.116998980375094 109.60584876014 2703.64736445975 17 20 11
-24.621594225553 110.210665163113 2717.83020198672 16 19 10
-5.77410486196728 108.200966324999 2688.25344846169 11 14 7
12.9179300245501 106.178539516981 2658.56393819901 10 13 6
-4.66637545597504 106.35584207007 2665.57965641319 16 19 12
-59.6014887176466 108.847932155469 2710.99235479621 19 22 15
-28.8455722375649 104.256754782824 2646.80597173646 18 21 14
-60.169696021469 105.337520588283 2668.56847810588 22 25 18
304.406547521253 111.154215613904 2735.2667501535 0 2 0
247.882467833417 112.336135040956 2763.46428250361 7 12 6
271.059016587098 110.272241553394 2733.320372123 11 14 7
219.72447837652 112.095642391388 2767.75323632848 11 14 7
236.598479866728 110.347957349628 2742.92295857931 11 14 7
237.169022052713 109.45031528171 2732.21609143502 12 15 8
224.646221275183 109.249470183288 2733.01791056921 13 16 9
208.329200075871 109.258355944877 2737.24605277516 12 15 8
192.068212016557 109.271930375243 2741.51483834913 12 15 8
196.416594416981 108.163424635241 2727.36976803329 12 15 8
183.244602135816 108.013787007807 2728.93627039719 12 15 8
180.706629421796 107.278049155879 2720.91723553349 11 14 7
172.10844431428 106.878689271155 2718.38760918276 10 13 6
165.779709851591 106.353011855769 2713.79711184913 11 14 5
127.939332200813 107.618439690481 2738.24759080553 12 15 6
98.5111711085667 108.428058528104 2755.20737547909 11 14 5
78.1684348209217 108.732840919316 2763.9294984085 11 14 5
60.1391002667855 108.914970859884 2770.6226300015 14 17 8
54.7837942229656 108.365552233519 2765.50234034257 17 20 11
44.2480525524851 108.120651621593 2765.27432462113 17 20 11
52.9009555679214 106.740672731274 2746.83750936786 17 20 11
55.5859761051183 105.704790536248 2733.95707365044 17 20 11
53.0884658599993 104.973271560641 2725.9673922634 17 20 11
38.1502476552953 104.99284954223 2729.96007571426 18 21 12
29.0898014221028 104.661050386072 2728.330725246 18 21 10
39.6488646208781 103.125039603059 2707.56953149219 19 22 13
29.1142388304722 102.880946315646 2707.34232878529 20 23 14
8.5021606812119 103.269351189971 2717.10466024474 20 23 14
-8.42556101097514 103.439050318137 2723.36098044021 19 22 13
1.24865026401455 101.935031818712 2703.19383179662 16 19 10
16.89226420865 98.2017932458566 2655.22913645009 11 14 7
6.37865091978096 97.9603282345421 2655.01717946672 14 17 10
-38.7128601565943 99.989666168084 2690.27138602196 19 22 15
0.956193672105865 95.5228725258 2627.6065154763 20 23 16
-20.0308310749242 95.9862999140095 2638.33245677829 18 21 14
-20.7158238977929 94.1510092839934 2616.82949967216 18 21 14
314.24057753204 102.616141558892 2727.53107836713 177 182 176
284.324969851502 103.361229848311 2742.90213911707 6 11 5
259.992485595904 103.816240692505 2753.67321052961 10 15 8
267.606952623162 102.509027788574 2736.95405269966 9 12 5
246.482500832496 102.799726345774 2745.1094220409 12 15 8
262.514080875449 101.00695578005 2720.90326326857 13 16 9
249.150619307378 100.865326554706 2722.33130050139 14 17 10
212.018517877633 102.088256893069 2744.82464101216 13 16 9
209.520914687889 101.341421035268 2736.83481466455 14 17 10
194.783103930998 101.301145804239 2739.7371434767 14 17 10
193.797371611869 100.464549398224 2730.37248219782 13 16 9
194.298190568091 99.5360516586835 2719.61462042924 12 15 8
173.562544997683 99.8594277961654 2728.05200921546 10 13 6
192.913221214027 97.8041526581678 2700.07512683182 10 13 6
108.652713068861 100.174194762114 2746.46073414247 12 15 8
100.960489771829 99.7503433025448 2743.3526981585 12 15 6
96.9950687709624 99.0976180292435 2736.76936930188 13 16 9
88.5656945853288 98.7204173335818 2734.3622298317 11 14 7
66.0999930185424 99.2238047144171 2745.25148578495 10 13 4
62.896972899213 98.526952158754 2737.98557745522 12 15 6
58.2053201410755 97.9219414522169 2732.11106601209 14 17 10
38.8477735223369 98.2530103914718 2740.31247047483 16 19 12
40.0250181094028 97.2740626614537 2728.80967191333 16 19 10
35.3300010814324 96.6691080025244 2722.9327219231 17 20 11
34.2560034382404 95.826496253386 2713.50404475824 18 21 12
34.598002277392 94.8862226377781 2702.63099125026 18 21 12
10.3587210880414 95.5662803751025 2715.94113519688 17 20 11
-20.9672136187011 96.7348480277051 2736.46773689416 17 20 11
-25.5970820418798 96.1359029940579 2730.63804495782 15 18 9
18.3941862493922 92.2517974604616 2676.04983234066 13 16 7
22.9999251886595 90.0522738118037 2649.73454932823 12 15 8
-8.78828352448635 91.2907207999057 2671.16113483764 17 20 13
-21.3477623723692 91.2185695037227 2673.17234822157 19 22 15
-36.6850540596915 91.3466136629556 2678.11132082 20 23 16
2.78438021571459 87.6265320063123 2626.42144266032 20 23 16
4.18081402087722 86.5600631652303 2613.84205909987 18 21 14
-2.1448516314293 86.0370390462717 2609.25379985185 17 20 13
11.6921786978224 84.0656938738714 2583.45586064246 17 20 13
267.567728040188 96.3856941771456 2757.89169715194 8 13 6
283.793020265865 94.5290032472411 2733.82593518267 4 9 2
270.368055168674 94.4062189740161 2735.20918817105 13 16 7
239.93776668626 95.3007823535141 2751.4432340509 13 14 6
238.225567828819 94.4943466846214 2742.78713107412 13 14 6
193.348236545464 96.2873812529438 2772.01992658599 13 14 6
212.443351397025 94.2273338008738 2745.09279477156 14 15 7
183.905152459356 95.0583383113124 2760.22776706796 13 16 7
185.27868370757 94.0665850866983 2748.86719603374 13 16 7
185.845742777726 93.1183312608291 2738.15725306891 12 15 8
192.446741650493 91.7877340704971 2721.93862320548 11 14 7
177.772129918548 91.7824953807619 2724.88694380653 10 13 6
161.634872987357 91.8767255379064 2729.24583325299 10 13 6
167.383129355508 90.585924141708 2713.64427035229 8 11 4
128.027199808368 92.1756075142039 2739.46810354918 13 15 10
165.194916621906 88.8559056941757 2694.75753464155 13 16 9
119.284275879083 90.8953534492867 2726.94791457033 10 13 6
116.754354302918 90.1321882361733 2718.93457722329 10 12 7
90.4656470429206 90.9300063517925 2733.22971821231 9 11 6
113.104517232191 88.502323352466 2701.4588593939 9 12 5
91.3298611953128 89.0125997263978 2711.61436174136 10 13 6
38.0355858850239 91.6542472654589 2752.0415240105 11 13 8
57.5831163297402 89.4118754571564 2722.97106667035 12 14 9
55.0530646267973 88.6493120764286 2714.95763804003 12 15 8
32.829521908837 89.2332063307099 2726.02314237093 15 18 11
18.6915260592051 89.273874072422 2729.36069980214 13 16 9
-6.98515291906121 90.1234091457884 2744.09977511051 15 18 11
-18.1054682381552 89.9731718775153 2744.68350559347 17 20 13
-30.6354785807028 89.9268722423235 2746.71621226957 19 22 15
-9.40344702983453 87.4939029034386 2715.16051595161 14 17 10
35.9803294711609 83.3119682630476 2659.11018043174 12 15 8
33.9806276883428 82.4840190293773 2650.24555147829 11 14 7
13.4698765890566 82.9903371054292 2660.0819343323 13 16 9
-1.99282628117858 83.1429327168479 2664.93011804577 16 19 12
-26.5836407305147 83.9732751145877 2679.22122588077 17 20 13
-22.8893080280397 82.7353165490122 2664.60107079967 14 17 8
-11.5351730949769 80.9188406464665 2641.9447476442 15 18 9
10.2056289051844 78.3086305039896 2608.28689886462 18 21 12
15.7228088836341 76.8912819904677 2591.28185166529 18 21 10
8.64547506907121 76.4160281336572 2587.38426519707 19 20 12
281.107655916 86.7261178326295 2736.78017509783 19 22 13
246.709751139595 87.9413089038215 2756.31511291852 14 16 5
242.688105131293 87.2655679389842 2749.6909087751 14 15 7
225.517163475177 87.421737742651 2754.53580847025 13 14 6
213.029098396226 87.2878669031387 2755.36344196848 13 14 6
166.771682344179 89.3291638759687 2786.06711533548 14 15 7
161.343115628791 88.7631414695917 2780.89392782787 13 16 7
186.46415818486 86.2071857730443 2748.45172574544 13 16 7
183.222159475887 85.483207888649 2741.15712913207 12 15 8
193.631834102595 83.8559241764361 2721.5225092051 11 14 7
179.710699141521 83.8296730341125 2723.78189813593 10 13 6
171.873233401246 83.4033201857826 2720.56826565817 10 13 6
133.174940107803 85.0544446934731 2745.63381351526 11 13 8
141.958027070294 83.5186106934523 2727.29058194663 12 14 9
139.424616919731 82.7407496714917 2719.27464122039 12 14 9
79.969833950444 84.930635208041 2753.99859512297 10 12 7
113.880453701862 81.6337659272065 2711.86773816727 9 11 6
126.840926799976 79.766168828831 2689.14029378344 10 12 7
96.9114758201193 80.9012820383901 2706.97336804178 11 13 8
65.6509810347901 82.1523606557433 2726.31278983975 11 13 8
66.7950692473296 81.1146722550134 2714.78565798169 12 14 9
75.2028834292915 79.5484817824699 2696.17022940421 12 14 9
3.366288398162 83.7684559769703 2755.27697110603 10 13 6
-29.0305335226617 84.246189111164 2766.37791923649 11 14 7
-25.6419684463667 83.055948843884 2752.77167948657 13 16 9
-1.43544979457966 80.3123736249575 2718.43023807293 14 17 10
14.9383523064133 77.1449764947838 2680.87891426705 12 15 8
4.64627127217865 75.9514175694098 2669.70651510557 14 17 10
-9.37179979885761 76.0328374676201 2673.13121498581 17 20 13
-13.449547708424 75.3553894543359 2666.46633273035 17 20 13
-23.1770952311754 75.1143863002303 2665.58917730652 16 19 10
-16.7322429294012 73.61336631403 2648.02115913017 15 18 9
-6.86794228527998 71.8306535409037 2626.75506757931 18 21 12
15.4542730200062 69.0454822553018 2592.28277487071 18 21 10
3.51019220305115 68.9605987140728 2593.50470782295 19 21 10
258.935854803621 80.2250733628025 2756.49314676987 12 14 3
258.793056013877 79.2830840003133 2746.50368105322 15 17 6
246.989029582235 79.111378058036 2746.59166601651 14 15 7
246.03387619137 78.2178884698883 2737.24888388014 14 15 7
216.534376925062 79.2426514685828 2752.92300710729 13 14 6
187.933878904669 80.2263028587433 2768.01359065563 14 15 7
180.147622802553 79.8088585538954 2764.83742073799 13 16 7
186.885543682299 78.3953168080127 2748.71762842896 13 16 7
202.689681980219 76.343667004241 2724.34528100744 12 15 8
194.057121701424 75.972006628982 2721.79087566493 11 14 7
186.194211767182 75.5483720223946 2718.55881191638 10 13 6
174.562742483198 75.3914516749949 2718.77196213052 10 13 6
167.47896666652 74.9168110766584 2714.86970882376 11 13 8
128.333119738168 74.7893338925545 2719.83974807913 9 11 6
74.4283016966833 77.7297972320895 2759.82582845374 11 13 8
81.6510484911266 76.2412176579843 2742.82208008638 11 13 8
102.110724391817 73.7653485951564 2713.17663711458 11 13 8
94.3804453119106 73.3536040577772 2710.04107500539 11 13 8
59.446970308513 74.9720058898297 2732.8949187685 11 13 8
52.5467256586203 74.5135327907811 2729.12579301286 12 14 9
47.1121032224482 73.9449930913454 2723.94790835641 12 14 9
8.874362700662 75.8690767550964 2750.58403444452 11 14 7
33.672580718664 72.014306111284 2705.54968701119 15 18 11
36.1513810192826 70.8282903244047 2692.51929186409 16 19 12
53.150074463117 67.4858293978457 2654.18474728962 12 15 8
18.9334095696911 69.1650892886835 2677.55882473401 11 14 7
-8.69163520256899 70.3485894806087 2694.59258406191 12 15 8
-12.7158822065052 69.6665588729221 2687.96646254297 15 18 11
-18.8814106222146 69.154670533712 2683.49434660017 18 21 14
-44.8381254503785 70.2453081624693 2699.26697028288 18 21 14
4.05563450099722 64.2211927877554 2627.22444936423 11 14 5
-6.45131002119581 63.0026400591014 2615.89616447637 21 24 13
246.889043622192 73.1819150649131 2767.48653971976 18 18 6
273.989604781843 70.3272116991243 2734.0071574898 16 18 7
276.870519473597 69.1392994810681 2721.26825404059 15 16 8
261.147111181328 69.253922587697 2724.69192338546 14 15 7
235.455260443492 70.0832861662204 2736.94982493053 13 14 6
206.797884049499 71.1410870581718 2751.99955171386 14 15 7
198.192396458591 70.7791924011306 2749.46482140584 13 16 7
204.118201168312 69.3696801163789 2733.99136579296 13 16 7
200.829001923043 68.6187679640456 2726.66271055316 12 15 8
201.320037923732 67.588570392144 2715.89724178163 11 14 7
192.67939667127 67.2239623200564 2713.33701409016 10 13 6
175.741770624658 67.4756696690416 2718.35153316635 10 13 6
162.630311033521 67.4518975768147 2719.96284897985 8 10 5
139.51812926922 67.1883714825393 2720.49869108578 7 9 4
145.178031188756 65.7572284906274 2704.83236730184 10 12 7
123.223951286848 66.4234933150144 2714.8585915727 12 14 9
95.4236882565702 67.5537320749406 2730.53002503717 11 13 8
104.009523326987 65.891158016055 2712.042864922 11 13 8
74.8788995726075 67.1484896403255 2729.22090299209 11 13 8
35.585423122209 69.2233579248259 2756.32750395806 12 14 9
47.0927158375085 67.3290453993071 2735.01655604182 12 14 9
41.6757978321023 66.7587838923807 2729.85179146079 12 14 9
18.0290095830751 67.6414375210553 2742.35714126618 11 14 7
31.1887850607473 64.5779935476702 2708.65219961361 14 17 10
33.6784775015095 63.3594529945452 2695.62924118998 15 18 11
34.6737772698895 62.2542837459571 2683.99390760964 13 16 9
5.46947144599619 63.6255315458833 2702.35414561218 12 15 8
-5.70081308533621 63.5277787992726 2702.90191819124 11 14 7
-7.32287233013484 61.6118442649651 2683.189326419 16 19 12
-71.9987977597207 65.0220815031153 2727.72112487865 18 21 14
34.7379736128546 54.8985878304612 2607.42532078496 16 19 10
-6.76175057373207 57.3860069962191 2639.11013295787 13 16 7
-17.2280521406187 57.2292529518379 2638.93290232919 15 18 9
-10.9144282612514 55.6180642262335 2621.26949031952 20 23 14
292.032273604105 60.0435411781976 2708.74579855175 16 17 9
273.172950247624 60.415629893882 2714.83821572774 15 16 8
215.066616075152 63.7194841671819 2755.48577240554 14 15 7
191.07666574741 64.5154510307278 2766.50688098188 13 14 6
195.547570223688 63.1834966671784 2752.44949772224 13 16 7
190.784270130733 62.5414357121414 2746.52285993026 13 16 7
177.627587177884 62.5377929976712 2748.10149432301 12 15 8
191.866711321885 60.4389822097202 2725.064763598 11 14 7
187.800719824822 59.7335705904065 2718.40826217568 10 13 6
192.031153902464 58.3818367236894 2704.1764566051 10 13 6
178.872338517011 58.3782751696113 2705.75354556304 9 11 6
135.706890270943 60.7389472462516 2734.9948657117 7 9 4
157.912769960227 57.9665546316384 2704.14370792344 8 10 5
150.827915334772 57.4964464250601 2700.24040104562 13 15 10
148.958015535332 56.6097097740127 2691.46957055017 13 15 10
101.035818501487 59.4258730232965 2725.91106897657 12 14 9
81.4839548470614 59.984775650117 2733.97276289575 12 14 9
61.7438463388775 59.5543793553897 2732.01180664436 12 14 9
49.7046648619461 59.5234621533427 2733.16507244879 12 14 9
41.3561687953923 59.1921398536556 2730.81679563627 12 14 9
27.1866365189948 59.3488695605843 2734.13237399245 14 17 10
38.5071097472918 57.3730322585149 2712.68558370409 15 18 11
5.5124782590128 59.1234611780468 2734.47582647013 17 20 13
9.52852777850044 57.7554397374846 2720.08823198135 15 18 11
18.52372300079 55.9512041555564 2700.66236608073 12 15 8
8.75464637994439 55.7455851230888 2699.75499007794 13 16 9
34.9558982162423 51.3626650273982 2652.02994673302 14 17 10
-8.33169723792104 54.0805414387869 2684.8902279158 16 19 12
3.44600189710942 49.8359428535716 2640.29623038185 16 19 10
-13.3681712124785 50.2606118030083 2646.6361558405 17 20 11
2.10387426705161 47.7815176806339 2619.55082889958 16 19 10
1.37836977953443 46.7500688448109 2609.13849425719 16 19 10
4.09666277913701 45.3977362856698 2595.04553894515 26 27 19
229.018695969902 58.8839915846323 2784.10246197324 24 22 7
311.396554423919 51.5702484746904 2702.97840162194 18 18 6
175.348626162979 58.0049666598393 2781.01014309962 13 14 6
215.134295907369 53.8566865964365 2735.72281949387 13 16 7
195.791391685932 54.3564093032815 2742.70065617828 13 16 7
179.57132798384 54.6190104389183 2747.00037006152 12 15 8
179.368834387888 53.6049882752526 2736.96726544556 11 14 7
180.366290717227 51.4452561431311 2715.44727164575 10 13 6
180.804163573202 50.3604026633616 2704.64298693311 10 12 7
143.782373715577 50.2541811386926 2707.44750378816 13 15 10
156.084274215501 48.1686129347396 2685.47687311287 13 15 10
146.743307269909 47.8859901540057 2683.64441628162 12 14 9
123.353310294033 48.7956956244372 2695.10101995483 12 14 9
114.82513901668 48.4567180395352 2692.62245397201 12 14 9
79.0814765655816 50.451415356089 2716.12621268106 12 14 9
60.3874534534019 51.0066665657409 2723.57442391516 12 14 9
69.894180538276 48.0661010267391 2693.39740954925 15 18 11
49.8263082909336 48.7560493400224 2702.32073822868 14 17 10
47.9627951062875 47.8540129009264 2693.55446003016 15 18 11
11.3838681369964 50.0286965724245 2718.92399706633 14 17 10
3.08694285895417 49.7101402551747 2716.61316968119 11 14 7
-13.8168603382069 50.1668894702394 2722.88828286944 13 16 9
40.233428610168 44.2244104315858 2658.28995221227 13 16 9
26.8107387648828 44.3497370784872 2660.91144241626 15 18 11
28.3756824839765 43.1125247116935 2648.45305596196 17 20 13
47.6267418260004 40.2402193201725 2617.92945302547 17 20 13
29.9419039857676 40.7571314432414 2624.87401337606 16 19 12
-3.81320441064537 41.6772380997991 2637.46262462059 16 19 10
3.22754671954018 39.9024296711514 2619.09045727745 15 18 9
1.10432625816204 38.980847641682 2610.13581272932 17 20 11
-21.2360283300963 39.9812913858068 2622.35378417705 30 31 23
222.849570499714 47.4773215346847 2749.92961379174 15 16 8
211.906417640314 47.3248677264056 2749.40643078913 13 14 6
222.458786891815 45.4051972103828 2729.87377224413 13 16 7
217.62158526787 44.7449168610015 2723.89346937037 13 16 7
221.923291036044 43.3211106048656 2709.71296510841 14 17 10
182.069962470405 45.5894159514581 2735.17936601884 13 16 9
175.003468749634 45.1249278645514 2731.28969229669 11 14 7
179.277961189622 43.699026154594 2717.08915542146 10 13 6
188.764961707192 41.8178928714653 2698.01942017301 8 10 5
143.847431956051 41.3698951323451 2697.56878324733 13 15 10
141.969580512027 40.4486694381003 2688.79201374123 13 15 10
137.102577087656 39.7868410958457 2682.79009906546 12 14 9
84.9789441406639 43.321900739738 2721.60033701654 11 13 8
106.729797266071 40.302706132262 2690.41807066063 11 13 8
73.2754736767047 42.2161905829844 2711.87560424366 12 14 9
58.2734129073827 42.489854890877 2715.82329385429 13 15 10
51.346874288539 42.0384269403136 2712.03484824747 15 18 11
56.0591245512385 40.5233237457825 2696.91616290783 15 18 11
61.4292271539902 38.9360276996874 2681.03896646853 13 16 9
66.7275476302396 37.3429567310931 2665.10999885973 10 13 6
-31.8129998052092 45.4004794962896 2751.81254466996 11 14 7
-31.3693184358126 44.2929711368291 2741.01265039825 10 13 6
51.3967141860183 35.428160964961 2647.81087960173 13 16 9
55.0754271675418 33.9550055418277 2633.17850461014 16 19 12
65.8093909288686 31.7987841870048 2611.30562741165 17 20 13
55.858241122253 31.6052803992581 2610.26661851399 17 20 13
43.8061122085571 31.618122171834 2611.41072009303 17 20 13
14.1589178477326 33.3426715530294 2630.68672491479 13 16 7
-20.2646048934689 35.5591827517877 2655.14889908078 19 22 13
-22.9782329299721 34.6983946601687 2647.00160004401 19 22 13
-18.7296623552333 33.1469484104443 2631.54689379543 18 21 12
166.191955299235 44.4662163983682 2800.24123661359 15 16 8
221.557022328906 38.6898611085572 2741.53729908967 13 14 6
213.679761324066 38.289528997525 2738.29494997552 13 16 7
243.283108552288 34.6507684362576 2701.6857728577 13 16 7
214.724394981793 36.0326367715096 2716.80866389284 14 17 10
195.416442392566 36.6274997224051 2723.8120251884 13 16 9
173.907535285198 37.4285653961674 2732.92631640514 11 14 7
188.771904600104 35.0285957044012 2709.10627718948 11 14 7
182.406563825859 34.4950089688273 2704.48920309712 7 9 4
174.537123308173 34.0958032909465 2701.25252892661 6 8 3
163.303964827391 32.8942387364087 2690.63321319667 12 14 9
134.584995341676 34.3936143275119 2706.87556312544 12 14 9
63.9807553932075 37.5917988052915 2742.16799031398 11 13 8
88.745964294473 34.199708673336 2708.22827052934 11 13 8
93.5076908121761 32.6467584871157 2693.14555435737 14 16 11
52.8327727235047 35.3581289892632 2721.72401606594 15 17 12
46.6533913042535 34.8413993497774 2717.2418332631 16 19 12
37.5634118006718 34.6016775771271 2715.59153988697 14 17 10
-15.5544030058157 36.4041543696507 2736.38060760062 11 14 7
-11.936136651681 33.8471280311194 2711.81774707432 14 17 10
-3.77406322858875 31.9295860657919 2693.02239611179 18 21 14
2.1629306413784 30.2163671062164 2676.32047679657 18 21 14
50.60785674711 24.2544131214976 2616.30415122738 17 20 13
40.694788620447 24.0775263486674 2615.29283272067 17 20 13
11.75921027431 25.821643537161 2633.84976566373 17 18 10
-22.6610176534205 28.1477424759813 2658.3145889168 14 15 9
-22.5613376946712 26.9879056511007 2647.26476115014 19 20 14
-9.92595696480958 24.5355227889736 2623.06365168638 17 20 13
264.460207989377 31.451780780322 2745.42920448892 21 23 12
317.039509733296 25.7540104192755 2689.64664530016 16 17 9
188.24183043808 35.9625024745652 2791.48008923578 19 20 12
186.661235044872 35.0312739889629 2782.91875631856 18 19 11
209.670448106932 31.9069933143881 2752.64816965381 17 18 10
225.60816863261 29.3864372607708 2728.37028373738 12 15 6
225.354476125143 28.3006672873951 2718.29970052102 13 16 7
247.945557389858 25.1414229494696 2687.72582409515 13 16 9
195.078362262614 28.819071314649 2724.76242908713 12 15 8
191.768257608208 28.0091414003542 2717.41832013351 9 12 5
209.610935279108 25.249666002635 2690.81476376725 8 11 4
179.060936262759 26.9428148494071 2708.20111054833 7 9 4
184.733108171735 25.2905981024066 2692.54256175944 6 8 3
178.341501396932 24.7544951930618 2687.90643413781 7 9 4
175.685298642039 23.8668696214948 2679.80092245309 11 13 8
110.415799275054 28.8987677836099 2730.08611815332 12 14 9
89.3252053252578 29.7899105464857 2739.50410976344 12 14 9
52.7664211928212 32.1765195396366 2763.65399110923 11 13 8
81.3767369866354 28.3262792349083 2726.32387312568 11 13 8
120.823954327437 23.3902474645319 2678.31713477354 12 14 9
95.3946412094298 24.7159268085447 2692.00290600846 15 17 12
49.5851041994686 28.055982455547 2725.50820265543 16 18 13
35.3898748971857 28.3293413775859 2728.80574343912 14 17 10
34.3373119476031 27.3114003453983 2719.39171666371 12 15 8
15.5052511280802 26.9316794568189 2716.85394913523 10 13 6
38.1974007876207 23.5173028744336 2683.88167931514 11 14 7
-10.8111404890077 26.1929632334953 2711.35947431836 14 17 10
-34.0768309740798 27.4353946697644 2724.1429123714 17 20 13
-55.448087123926 27.3766552725524 2724.70678926424 16 19 12
25.5838553421515 16.6256149674469 2620.35750339137 17 18 12
19.2463138137509 16.09741683111 2615.7606088599 18 19 13
10.8045988554397 15.7918200666463 2613.34488598826 18 19 13
0.977516285064262 15.6362272400828 2612.39571362735 15 18 11
218.920080067511 26.5816977285713 2775.38310567463 16 17 9
263.716487042448 21.3797105253394 2726.3120264581 17 18 10
191.70489388353 26.8753500042621 2779.12289215559 18 19 11
223.170595768828 22.862687156963 2741.39151404909 16 17 9
215.290525978499 22.4721001425423 2738.14747262425 15 18 9
163.045444759131 26.2326380279089 2774.40044448718 15 18 9
239.618082589951 16.7729745535325 2685.35207641928 13 16 9
208.118354640876 18.6091110286278 2703.28570531853 9 12 5
219.869550735834 16.3363798046423 2682.14965140204 8 11 4
179.895182641796 17.8684940188417 2697.64369723436 6 8 3
115.566603640707 21.8374177701617 2736.25435229006 12 14 9
131.698000823898 19.1182712127295 2710.88082418667 12 14 9
75.6186845455091 23.5084180075085 2753.0036061574 11 13 8
47.9862672902116 25.1268635925468 2768.79889299295 12 14 9
69.9709506125483 21.8131509764072 2737.7846433452 12 14 9
120.509666170334 15.6010273704568 2679.28488327503 13 15 10
93.6103032466748 17.1456458382356 2694.37646073866 15 17 12
50.7278567128657 20.3358949687259 2725.06246794564 15 17 12
44.5575263722056 19.8190322822261 2720.58684578892 13 16 9
50.028686594338 18.1070378493846 2704.78227655267 11 14 7
39.0585972771156 16.9175992193401 2694.35372669377 11 14 7
35.0075133099237 16.1718882605943 2687.7078279339 12 15 8
8.65796533288954 17.7636961121597 2703.19792253248 13 16 9
-19.7192090738076 19.592755668568 2720.9250480288 15 18 11
-90.1123942338082 25.9057784632241 2781.08875005389 16 19 12
-45.1044191460934 18.826860830361 2714.8701378149 16 19 12
46.4698075637355 6.56124806490954 2599.62848534261 20 21 15
44.9923335452374 5.49019961919489 2589.90616246578 17 18 12
27.355308432039 6.18561627818523 2596.88628744324 17 18 12
-4.89088329177312 8.50601270352708 2619.22168268779 21 24 17
214.608510511708 18.1099430698791 2769.74427804725 21 22 14
272.076036794931 10.3261645953203 2698.96770928146 17 18 10
174.272706860067 18.5988489874002 2775.0898510101 16 19 10
239.977406678384 11.0923379676976 2706.58087965662 16 19 10
215.234522780389 12.3386952810702 2718.2934885651 15 18 11
219.50630310076 10.7569814508845 2704.09049087439 13 16 9
197.16443474572 11.7895203692361 2713.83715979323 8 11 4
221.8109081305 8.17821979886946 2681.04558686089 7 10 3
207.81146139339 8.387482429184 2683.2493988377 8 10 5
191.59891303335 8.82662299112991 2687.55545495978 7 9 4
166.070381445544 9.03751525017496 2690.0474408983 12 14 9
123.17120190417 12.2236811970219 2719.48626067967 13 15 10
88.6620521014567 14.5904770299898 2741.41646097025 11 13 8
84.7002927095812 13.8422446026137 2734.8355972066 12 14 9
88.112573539858 12.3279633201992 2721.24490818124 14 16 11
72.7299413623195 11.5912516797482 2715.03041923823 14 16 11
61.3891822845836 11.6093625445688 2715.45519805253 14 16 11
85.8485206961435 7.84529230978856 2681.29186206975 13 16 9
90.4709002383623 6.15626357052812 2666.10744103675 10 13 6
100.10552655848 3.91848051773835 2645.90758527544 10 13 6
45.9829148894766 8.51877109769844 2688.21455748914 13 16 9
39.0278415765279 8.07476976056101 2684.40546409086 12 15 8
-5.31149771035278 11.6958093426363 2717.74292505269 15 18 11
-25.0474959086846 12.6726183668662 2726.90828931886 16 19 12
-56.8486374366073 14.9915702975551 2748.3312670024 17 20 13
-3.91793247308869 4.3456758431259 2652.01923074902 15 16 10
27.1281536038108 -0.386528577553391 2609.03957857422 31 32 26
20.0666426465825 -0.837629083616454 2605.15329029743 16 17 11
52.1603888636548 -5.75834809355053 2560.46178671744 10 13 6
228.185418661802 9.01152447308751 2758.54328814542 20 23 16
235.760956553196 7.10303266919726 2741.79286415793 18 21 14
211.527390852472 7.18419908504903 2742.75286815856 15 18 11
252.288626389515 0.714465144772941 2685.81003914792 12 15 8
232.867818771894 1.48407704293735 2692.73247456283 10 13 6
207.450668139495 2.88053269377245 2705.19209003285 9 12 5
199.5428797934 2.49791635960658 2701.92799520847 9 12 5
188.625389911627 2.42777290494448 2701.42412724121 9 12 5
170.963935084624 3.06294062665088 2707.1509063188 8 11 4
98.9838822201969 7.0475335436129 2742.68529178326 12 15 8
103.196437809752 5.42278580801464 2728.43914284605 14 17 10
78.4412260048013 6.8757335891545 2741.37889804234 13 16 9
95.9154378621836 3.82175360836492 2714.50703569766 14 17 10
86.724583550299 3.61499346801458 2712.78378297737 16 19 12
65.0628035831846 4.76302812750998 2723.02404749112 14 17 10
60.3364665954103 4.08376436696911 2717.1243110804 11 14 7
56.3304676421339 3.32390214022543 2710.51102373032 10 13 4
99.6271620165508 -2.6472498971741 2657.8788016143 9 12 3
59.8876754508222 0.515516012805334 2685.90262737448 9 12 3
60.1449400525502 -0.733582198955723 2674.96658395202 11 14 5
24.2942227727179 2.04960891093128 2699.63206131378 12 15 6
13.7931609373108 2.01671529888189 2699.42996512512 17 20 11
7.61902214850352 1.49963370133191 2694.95158103423 16 19 10
35.1689644349378 -4.09523107408194 2645.72772570494 16 19 10
26.8521327841409 -6.90602485867248 2621.15771238057 17 18 10
16.996776647892 -7.02447724136027 2620.18823203204 15 18 11
46.9983802913272 -13.1168620534786 2566.5636406814 17 20 13
