ply
format ascii 1.0
comment KinectMotionCapture
element vertex 801
property float x
property float y
property float z
property uchar red
property uchar green
property uchar blue
end_header
-48.4191398421983 228.658088134687 2677.71135003623 17 23 13
-23.0982673616287 228.150788721263 2640.48365030777 15 20 13
-13.3116687911397 227.634750151906 2619.16764682006 15 20 13
-11.2707333601447 227.11611107324 2605.82321447907 11 14 7
-16.2096681728674 226.600107693217 2599.76989383697 11 10 5
-14.2545829884684 226.074544502643 2586.36289727107 14 11 4
-28.181963483781 225.568982765758 2589.85066198441 25 15 6
-42.0615426573123 225.067331652506 2593.3728042271 36 22 13
-53.158459402306 224.563913766049 2593.97170790632 100 76 64
-60.1362410482684 224.053388075187 2590.14611027087 124 98 83
-60.3170183731834 223.5253955238 2578.89617344984 139 111 97
-53.0901557318682 222.97259285344 2559.42978090679 129 105 93
226.202590050034 240.709035208481 2821.27077218355 110 117 110
214.505856015866 240.17438474455 2821.43469730995 21 26 20
207.536605213836 239.665692747651 2817.61529315335 18 23 17
205.255833442272 239.179730183856 2809.78367942584 24 27 20
185.043845067107 238.609923500418 2817.36111771201 31 32 26
193.637424635927 238.171740239039 2800.121104636 33 34 28
184.339406040295 237.652926971002 2798.31858562882 27 30 23
160.389371052208 237.077944993003 2809.36168556055 28 31 24
153.473741287697 236.093920511859 2795.69756832098 31 34 27
89.248946370871 234.931265659232 2833.12242958772 26 29 22
107.588204830377 234.508780202786 2806.89069254746 29 32 25
77.2191580775381 233.949795832866 2824.39680798733 29 32 25
74.229430255643 233.466048465836 2817.28630473866 28 31 24
74.9930142380335 232.988749540406 2806.72150683319 28 31 24
68.193508298025 232.494011249344 2803.02493055086 28 31 24
65.1475022406731 232.005726277951 2795.87390150143 27 30 23
56.847819759267 231.508551564313 2793.56017062334 24 27 20
59.7452231486417 231.025526593928 2780.83649609877 22 25 18
64.075450960277 230.539510801656 2766.68141816839 22 25 18
60.9304081111186 230.043228883556 2759.45855472892 20 23 16
37.073056252233 229.535982584207 2771.80422236273 22 25 18
9.63571785753947 229.036487997309 2787.73049272003 21 24 17
10.2421209013892 228.546542388248 2777.05139246284 20 23 16
18.8646717356362 228.051083717041 2758.59705453498 21 24 17
23.7468398673584 227.550279171903 2743.60668390744 23 26 19
0.167685962275677 227.065860416874 2756.15443327804 24 27 20
-5.88646370618795 226.572251555689 2751.76315075522 21 24 17
3.97854025454203 226.058358304212 2731.7390325038 21 24 17
8.69537479211191 225.544193499991 2716.62874035312 24 27 20
1.83697218984014 225.045041541754 2712.88974074432 22 25 16
-21.1622610112605 224.068917257195 2714.73888885303 21 24 15
10.499567437849 223.474845439329 2672.2265619219 21 24 15
7.11611571629955 222.959544728841 2664.830774469 21 24 15
-20.3650594900622 222.516785926685 2681.96059059314 19 22 13
-32.1828712337378 222.03289392249 2683.27203763479 17 20 11
-43.9666675793413 221.551838849046 2684.60845201107 17 20 11
-44.4905997225078 221.030143790793 2674.34482346624 20 26 16
-35.2597688757204 220.464971684698 2653.86101433011 14 21 13
-17.063776013345 219.851841980986 2623.81905098573 15 20 13
-19.1773664595836 219.320521223348 2614.87336419138 13 16 9
-12.3128351488231 218.742320936409 2596.37951239657 11 11 3
-19.344011304202 218.229576507886 2592.51490222638 12 9 2
-28.4368251999128 217.728540911482 2590.86123053287 26 16 7
-40.2573784163107 217.244811418232 2592.17069104559 40 26 17
-52.0437715917421 216.763926839434 2593.5052237881 74 52 41
-59.7055002872855 216.259867810421 2590.41888772437 111 85 72
-58.5258476711503 215.697797428414 2577.68461525427 120 94 81
-48.5912230671619 215.070684015433 2555.24031975209 116 94 83
253.403621599795 233.046680679919 2798.95637895347 94 101 94
221.212487957337 232.488727641511 2816.37666657488 10 15 9
218.141420225611 231.986683937278 2809.20740009217 24 29 23
186.156582117047 231.445588763338 2826.77732113708 19 22 15
189.359779275717 230.953835154206 2814.27527882956 35 36 30
199.498252632533 230.463601739237 2795.68485532744 28 29 23
188.635490106907 229.952882535319 2795.21842878557 27 30 23
207.140915645032 229.455545904568 2769.10677067082 27 30 23
121.557112132867 228.930686266987 2834.28048813368 26 29 22
137.004434232774 228.434686678565 2810.89268781663 29 32 25
105.626733773269 227.943239439759 2828.90298737688 22 25 18
72.1027133507604 227.464814529348 2849.06284411649 25 28 21
60.8106083273823 226.981859913328 2849.52035529768 31 34 27
82.9441521225589 226.467070746806 2819.8632315118 32 35 28
59.5057992956067 225.996432297756 2831.27778928253 29 32 25
70.1247781998657 225.482770349499 2811.80024472989 29 32 25
67.8550441860297 224.983535215 2803.97656528032 29 32 25
54.3090618875786 224.504893319573 2806.50561893408 27 30 23
42.3017869268398 224.026412814033 2807.68004193367 24 27 20
48.228240304677 223.506198693907 2792.21156102468 22 25 18
54.8266758096867 222.978126679085 2775.99513786949 21 24 17
49.4868410789113 222.479328462909 2770.88632009791 19 22 15
21.2255962772319 222.054353487865 2787.4510316805 20 23 16
14.4687619377177 221.565420751065 2783.7854183583 19 22 15
11.3892505831341 221.063021610198 2776.61002911282 19 22 15
21.477911673085 220.506304654998 2756.74782777695 19 22 15
8.09565374119359 220.041262318129 2759.39563760253 23 26 19
4.95104654032152 219.53364569757 2752.1730325613 24 27 20
3.96573163337477 219.01410992793 2742.81027984806 19 22 15
2.22470911638961 218.495656823116 2734.13474067381 19 22 15
2.6209047884671 217.963485118585 2723.30304272328 23 26 17
-25.7992701339087 217.588562016528 2740.98783262144 21 24 15
-59.8210786976132 217.258270547791 2764.49269232686 17 20 11
-6.44506876965512 216.40846107631 2700.66639442252 17 20 11
9.49968186731276 215.765487166186 2673.9330418491 19 22 13
-3.82655530350506 215.30535653457 2676.62148719868 20 23 14
-27.0267441258256 214.917558853262 2689.44415137306 19 22 13
-51.5344763849424 214.548542363796 2703.7894122716 18 21 12
-34.395766479282 213.877746238988 2675.45107759199 17 23 13
-41.2627632133093 213.380423080015 2671.70556269988 20 26 16
-27.1405454252613 212.714432905856 2646.12097384599 13 20 12
-32.6725846257239 212.200727790466 2640.87304192312 15 20 13
-22.9174658832592 211.554787593906 2619.53356005891 14 15 9
-32.6664419464526 211.073364479374 2618.6396528543 11 11 3
-19.6012275036053 210.384067325291 2593.52373829265 12 9 2
-25.2500031662517 209.861043412155 2588.19113441553 26 16 7
-37.7669797667228 209.404765940889 2590.23121291085 43 28 21
-51.6131932483761 208.965490690196 2593.77785860168 67 45 34
-57.229576874962 208.445270124672 2588.46875060228 107 83 71
-56.7345313269094 207.859389189555 2576.47340235936 116 92 80
-44.090789836015 207.136074981571 2551.05178075708 121 101 92
209.723051892796 225.304770113139 2836.41924482456 104 111 104
231.063097706298 224.754106834597 2808.65678896662 11 18 11
217.00026570734 224.259870426077 2810.81108825309 22 27 21
181.109240079244 223.817135446984 2831.72560091674 30 33 26
199.128772687843 223.257308713915 2806.49672322944 22 23 17
196.816845016456 222.740171281401 2798.64236601839 22 23 17
189.834741208507 222.234669500183 2794.81336612555 21 24 17
170.498682357406 221.768359883926 2801.79097754381 21 24 17
110.419021182351 221.446494470262 2844.69536122119 18 21 14
134.350930841781 220.845457256023 2813.87110663054 23 26 19
119.823506820894 220.378870578351 2816.92378992597 18 21 14
45.0230459488141 220.165035570659 2873.85979838696 21 24 17
90.1488566862292 219.460664077904 2823.81525566874 27 30 23
52.9906797544655 219.111191475487 2847.51706006695 28 31 24
83.3806262687515 218.448029473152 2810.25784644557 28 31 24
75.8206011989597 217.960991912889 2807.24532372771 29 32 25
64.5055096196447 217.494856273698 2807.68625665538 31 34 27
53.9703940745557 217.026934180947 2807.45756517783 24 27 20
37.4754248670235 216.59637727794 2812.7895198405 22 25 18
35.2141316409105 216.083606913364 2804.97189073947 20 23 16
47.8048292715849 215.473623679665 2783.21808939628 20 23 16
32.8468893266738 215.037645178188 2787.19387417636 18 21 14
20.8978359181646 214.585418913061 2788.41063620457 16 19 12
16.3545261949545 214.082926324774 2782.64418106774 19 22 15
18.4159049771351 213.530274405736 2770.54943289577 18 21 14
2.84162487828654 213.109625362564 2775.31382829785 16 19 12
4.85673395285469 212.553258687091 2763.18551941141 15 18 11
13.3776594007662 211.938635006972 2744.65661300091 15 18 9
8.73836988514931 211.428489363133 2738.82083577704 15 18 9
12.776565927958 210.840921007709 2724.45354340142 15 18 9
-7.06532874126831 210.46499465231 2733.53499470748 21 24 15
-31.1419865034286 210.136342347886 2746.9579185318 22 25 16
-42.9147382466002 209.698873543945 2748.30226567211 18 21 12
-2.44926075825447 208.74538435178 2697.34874830738 16 19 10
-12.8886799458561 208.2858652888 2697.18917724762 18 21 12
-6.24582902709347 207.649242996882 2679.76936531598 23 26 17
-36.5258396177479 207.403796649208 2699.81168636023 19 22 15
-50.4120354107602 206.990518671371 2703.32977417863 16 19 12
-38.9031944757032 206.292849015845 2680.79097320278 19 22 15
-23.2945345883557 205.537016449696 2653.81340962109 19 24 17
-29.5138615882764 205.029410274459 2649.30231562649 16 21 14
-27.3645223987675 204.41918060926 2636.03570908209 14 19 12
-30.1359760034627 203.86570514062 2627.8480476559 15 16 10
-30.8516222194857 203.283670399426 2617.44543033291 16 13 6
-24.0042168046362 202.598740285374 2598.93832852603 16 11 5
-21.3735982829046 201.962560008489 2584.78544356641 124 114 105
-33.9028943513615 201.529577851779 2586.81670941184 148 134 125
-48.4460914956752 201.128720766192 2591.09362247304 110 92 82
-54.0709459672453 200.604622251219 2585.77805965774 102 82 73
-52.9034509156188 199.980242835006 2573.03495277915 110 90 81
-35.5233911534159 199.107768346405 2542.40018848511 122 105 97
260.564919059946 217.40002669436 2794.18762093725 114 121 114
242.487988234174 216.945960095886 2799.60769541007 8 15 8
223.692268129237 216.501455078198 2805.74208373222 25 30 24
212.778265336402 216.018196787402 2805.23865112206 22 25 18
248.633270625204 215.259662436446 2764.52988342747 18 19 13
189.472471908366 215.067502846261 2805.63065936045 17 18 12
191.033519453288 214.51112625315 2794.40822815998 18 21 14
150.835952326551 214.229795337827 2819.61216878073 18 21 14
173.993439556914 213.526217921619 2789.46133056415 16 19 12
157.042639530002 213.096002577387 2794.46284546799 20 23 16
150.108799424638 212.596628683469 2790.66886400212 16 19 12
88.1920641750518 212.520963012177 2835.94816489261 18 21 14
57.0550134766346 212.229049074906 2854.13392727591 23 26 19
54.1561713374108 211.718046654841 2847.08917094599 25 28 21
80.0083349185883 210.961573291995 2813.95105220113 27 30 23
73.2140567276738 210.473722040917 2810.2583005099 27 30 23
60.4012811064103 210.040406582968 2812.08406428951 27 30 23
46.1261229733028 209.624184172979 2815.31987561555 23 26 17
44.6194144841128 209.090479911456 2806.81411843044 21 24 15
48.3079881500847 208.503311895413 2793.42841598953 19 22 13
43.7551051662846 207.993896777677 2787.65528040484 19 22 13
42.1593266281781 207.452991784808 2779.0849179673 17 20 11
22.0481265167964 207.106377345467 2787.97158695874 15 18 9
18.9777344400115 206.581611890865 2780.80240070554 17 20 11
20.2991501468768 206.006031549774 2769.4061580009 17 20 11
16.4451155291072 205.485596242417 2762.90424558525 15 18 9
16.9607903110474 204.912548365047 2752.15924802242 14 17 8
10.1509400709672 204.423816471144 2748.45520335978 14 17 8
6.97568493954215 203.890685785658 2741.21025174587 14 17 6
12.470925468631 203.246613680834 2725.42854807516 15 18 9
10.6755962431127 202.689751960185 2716.71344626173 17 20 11
-18.4954469518519 202.490998212871 2735.08984468648 22 25 16
-25.2844397230971 202.004202449791 2731.40092985501 19 22 13
-19.1952521250045 201.340562594955 2714.81465534637 17 20 11
-6.76444411737265 200.580543366427 2691.70885553511 19 22 13
-19.3297808900645 200.168236583749 2693.71409942974 24 27 20
-26.8957612158822 199.686456565168 2690.69699177316 21 24 17
-42.225087251851 199.321565033803 2695.6392420258 15 18 11
-23.6943452856029 198.445604960048 2665.8389086401 18 21 14
-26.3801746344545 197.884734963371 2657.71328060953 20 25 18
-30.4888827133958 197.344243299681 2651.02664837748 17 20 13
-21.3571687910594 196.588225542832 2630.47002059671 17 20 13
-42.9008881483957 195.716149923144 2630.90475552157 18 15 8
-15.2808538974292 194.627222061592 2590.40038017044 17 12 6
-25.7615620376228 194.180989317539 2590.21094516562 14 4 0
-32.7841426278792 193.675975216301 2586.35289973669 20 7 0
-43.9093136704014 193.245512017891 2586.93169080253 97 80 72
-46.818659722816 192.666990222086 2578.64394133363 118 100 90
-42.2716995290156 191.946641996894 2562.17442265698 117 99 89
257.059694931765 209.034316074105 2787.89883082337 10 17 10
226.468293683897 208.734495238657 2804.00973835268 29 34 28
221.016665974228 208.216259212962 2798.82007548561 23 26 19
212.428340508909 207.15585532243 2786.41307181706 14 15 9
189.132947295586 206.813121326734 2796.69687529468 16 19 12
182.930886780683 206.304621260436 2792.19829361582 16 19 12
169.023482415184 205.876749391266 2794.46560186024 16 19 12
172.060167456559 205.27087918891 2781.84227334231 17 20 13
115.291772361453 205.318228477452 2822.20819914137 16 19 12
90.1297967431765 205.036230000583 2834.8445892008 18 21 14
116.868725465045 204.165368329412 2801.11339492539 19 22 15
62.1563693744531 204.238867759137 2840.49955199707 21 24 17
70.5760970953144 203.575793663726 2823.13266536691 25 28 21
65.3204455132004 203.073781994465 2818.08485747958 25 28 21
58.5533469628232 202.590375880857 2814.41212588233 24 27 20
51.7897577068704 202.10725863681 2810.74164523366 25 28 19
57.00488051263 201.466484243894 2795.99193158006 22 25 16
58.4214442649493 200.870502490558 2784.66456038695 19 22 13
59.7929433920212 200.270877467979 2773.3045024314 18 21 12
57.4099349716946 199.719643620154 2765.39873904045 16 19 10
46.8675172502073 199.283081708841 2765.1649129049 17 20 11
16.4390553499985 199.139501453355 2783.86509776939 17 20 11
18.5061620821547 198.525815615969 2771.77389828475 17 20 11
20.5236116202974 197.908109882476 2759.64697535588 17 20 11
9.33616293185446 197.490054162219 2760.18068287344 18 21 12
9.83695430164122 196.890555910161 2749.42446755412 18 21 12
3.03227913342496 196.404523878147 2745.72448256388 18 21 10
8.54319241326085 195.717257106464 2729.95392161516 18 21 10
12.538532449605 195.048255835322 2715.55485505506 18 21 10
7.11295257527977 194.532981324149 2710.38408982037 20 23 14
-11.2354785766189 194.240452217799 2718.07853386735 19 22 13
-16.6324192901501 193.727632221629 2712.92854220411 24 27 18
-22.7479955772099 193.227176391074 2708.49269553331 23 26 17
-20.3324843886092 192.571424789753 2695.41881217387 21 24 17
-25.059186510944 192.042514100058 2689.51957263726 18 21 14
-41.8078887524129 191.738929953095 2695.90327057993 16 19 12
-30.8721834900783 190.287353253074 2663.06429064816 19 21 16
-33.5650259750926 189.711773656307 2654.93379861552 17 18 12
-64.191743658093 189.695215064515 2675.96098028024 20 21 15
-82.8404960825919 189.449867166866 2684.67328511588 19 16 9
-56.3425667504736 188.276129208091 2645.82541011773 17 13 4
-30.7443661995988 187.099972825845 2607.56032690429 62 53 44
-26.7074406268186 186.364259139857 2591.9560320463 90 81 72
-30.9785848843465 185.80220686015 2585.15153715307 84 74 65
-38.0020719359826 185.299491251686 2581.29255177623 76 63 54
-38.1991663701733 184.64428083432 2570.03043642791 65 51 42
-27.555352677022 183.738361816553 2546.86350391973 73 60 51
249.630070365809 201.291745200994 2794.82496949464 8 15 8
242.568371173808 200.786090810521 2790.93826843625 28 33 27
211.281717199308 200.587607913105 2807.78101682946 24 27 20
208.191683668753 200.037689814583 2800.59746466416 15 16 10
218.294630616804 199.311835130253 2781.98009384198 14 15 9
214.355036749266 198.766254173824 2775.41603033258 14 17 10
168.671042248669 198.79302337314 2805.29044308714 14 17 10
160.968668037749 198.308864249938 2802.17444854183 15 18 11
164.799622717673 197.660641948443 2788.8916518845 15 18 11
149.417592488278 197.286692004594 2792.56061323072 15 18 11
116.51539546332 197.177839914916 2811.93807835158 17 20 13
90.6219962840304 196.977846567435 2825.27969586363 18 21 14
76.2358764126469 196.611639504646 2828.43532199515 19 22 15
59.6247784733004 196.284982758759 2833.68361873658 21 24 17
64.9749936241872 195.613491399671 2819.03197529652 23 26 19
61.975311916004 195.071206461424 2811.91395975892 24 27 20
58.9567608399837 194.527418188275 2804.78255227621 24 27 18
55.9195284744978 193.982131458294 2797.63759473811 21 24 15
54.3564475580824 193.409769086938 2789.09077616652 20 23 14
57.2311855660268 192.757404980027 2776.34981328714 19 22 13
59.30994425619 192.113808291039 2764.26720352817 18 21 12
45.0633257748065 191.75934300724 2767.52401666883 17 20 11
33.0766365024897 191.368296152738 2768.71380554196 15 18 9
21.8596611002035 190.96639142601 2769.2261903225 16 19 10
16.537955727979 190.456036894761 2764.13075085184 17 20 11
9.74885472308706 189.97336962275 2760.44177847111 18 21 12
8.06460279818344 189.391422555652 2751.80707190117 18 21 12
-0.913229708091379 188.951368932278 2750.2370615564 20 23 12
-3.35507108301414 188.381411310182 2742.2885540615 20 23 12
-18.819407344272 188.07547524069 2747.13323114161 20 23 14
-10.4679810508561 187.280833687536 2728.48083382773 20 23 14
-9.38368019737101 186.630243675552 2716.91232156682 20 23 14
-20.5093320613361 186.236327144071 2717.490949191 27 30 21
-20.9045391540605 185.61251037064 2707.32011891575 24 27 18
-22.758709880667 185.017129467 2698.5624610122 19 22 15
-23.2222881596762 184.387856012728 2688.34203936573 16 19 12
-24.4291309441065 183.771702611818 2678.81820697911 15 18 11
-25.6678962756278 183.153000468469 2669.27122034696 19 22 15
-35.3666456075774 182.72850919738 2668.41371746571 18 20 15
-63.0763277660358 182.086008048659 2675.49599030169 21 20 15
-33.7282401596357 180.055627848309 2622.65326271244 19 15 6
-17.8718103741924 178.989572756558 2594.61841037308 24 17 9
-22.8306313284716 178.436361421815 2588.55077985397 65 56 47
-25.051705178635 177.811784609307 2579.526703686 69 59 50
-29.3542451860005 177.238563410409 2572.69939277091 69 59 49
-23.4341351418641 176.393939003305 2554.75430250646 53 43 33
287.79011317111 192.892378856551 2763.15927909653 0 6 0
242.212140127159 192.990134688959 2791.8755775227 24 29 23
219.52165725205 192.739635483228 2801.36332397212 24 27 20
242.818029354802 191.118045759008 2761.4273399855 10 13 6
227.959208214751 190.742453160318 2764.24024733982 13 16 9
192.27840324723 190.731202447138 2785.30933899953 14 17 10
176.031780243933 190.395334027785 2789.58676811225 16 19 12
171.369234880017 189.858407009484 2783.73370209767 15 18 11
162.864971877902 189.390153907391 2781.27181292782 16 19 12
121.514668032843 189.527994634817 2808.11260102328 14 17 10
94.0805074645144 189.425843786712 2822.80785657288 15 18 11
77.4045962099672 189.131667549169 2828.00962775614 13 16 9
76.6979535800321 188.535608131946 2818.84820843928 12 15 8
72.1825272924672 188.010938348908 2813.10214874517 16 19 12
67.6572735759113 187.485484480078 2807.34866648949 21 24 17
64.6240024168474 186.928950755777 2800.20652354622 19 22 13
67.562218172851 186.248220242036 2787.51143335964 18 21 12
60.7410507097916 185.764817645947 2783.79950607152 20 23 14
58.3895152956311 185.187543156648 2775.91613175641 22 25 16
54.5305438127235 184.640166718257 2769.41050403973 23 26 17
43.9974413424506 184.236180495747 2769.18359573086 18 21 12
31.2764073237535 183.883050161688 2771.07627110949 15 18 9
23.0072453963772 183.434597134238 2768.78491201731 16 19 10
21.3503686394185 182.837795965849 2760.16997505187 18 21 12
25.5151867487955 182.104524180385 2745.89373569795 20 23 14
17.9541152904017 181.637555030227 2742.8802616041 19 22 13
3.85973434755726 181.325551394062 2746.24794453899 22 25 14
-7.28891473460647 180.948210266399 2746.80998494661 22 25 14
-11.9067110272577 180.415819515108 2740.98938146588 22 25 14
-19.4150992086137 179.953427375383 2738.01441626435 23 26 15
-16.1467644246192 179.223742958802 2724.32335181589 24 27 18
-19.3783567694747 178.651755380817 2717.03736333584 25 28 21
-22.6285647523947 178.078301646002 2709.73757807908 23 26 19
-14.5165612690286 177.208844318547 2690.91123910402 20 23 16
-0.821126051108179 176.183450107663 2666.25077711097 17 20 13
-9.87108489134547 175.748523904926 2664.62850681885 12 15 8
-16.0857482529304 175.23923437478 2660.12078506868 14 16 11
-8.95411507243105 174.366449147867 2641.81877451166 21 22 17
-103.845478324699 175.641200085166 2718.7813804912 19 19 11
-3.61146597249418 170.740880494852 2580.21175766209 43 39 30
-10.6816813945749 170.238792941599 2576.31890107351 39 35 26
-12.9394144872381 169.594281968498 2567.26844334487 33 26 18
-13.1701000492352 168.88589375283 2555.98141323807 155 148 140
267.782353132215 185.341023025022 2780.73028592694 4 9 3
245.775240112918 185.123991056228 2789.4782601806 16 21 15
258.256276455035 184.238388382135 2768.87860359144 14 19 12
253.478721432607 183.685863730298 2762.9420856159 11 16 9
243.248845896567 183.242559384898 2761.6997571996 11 14 7
256.298160419102 182.324022491055 2740.27655966655 13 16 9
235.221261742307 182.103865476966 2748.46381369068 13 16 9
211.143132995948 181.955539952117 2759.41621682243 13 16 9
210.225479371397 181.322240579794 2750.10193698169 14 17 10
154.088858947939 181.883048666249 2789.69311938678 15 18 11
134.922405968512 181.66080551703 2796.79521244279 15 18 11
128.785384134733 181.155938822294 2792.3437970956 16 19 12
102.889897395217 181.09724971353 2805.68461702452 14 17 10
112.719746017455 180.232722881243 2786.86827451896 11 14 7
82.4141737522881 180.289365360284 2804.42352224091 14 17 10
59.7812743867698 180.180465697293 2815.18876606412 17 20 13
61.2795114271347 179.507115522928 2803.92020969421 21 22 14
68.7240178610704 178.685547402634 2787.08030368959 18 21 12
64.1409369291681 178.149389695073 2781.28484703435 16 19 10
51.3581096477274 177.815188283555 2783.13282303681 20 23 14
47.5216250988972 177.260866132727 2776.64346139713 21 24 15
43.6707907074445 176.705426292474 2770.14369158898 17 20 9
39.0675795461437 176.167827401655 2764.333929278 18 21 10
30.7759909287872 175.725234642459 2762.02634228305 16 22 10
28.3646919748839 175.129011631576 2754.09954812456 15 21 9
39.0936361371113 174.179691352916 2733.46447640967 16 22 10
31.4925053938993 173.71440124111 2730.42226546703 17 23 11
3.54596064087964 173.806332873135 2747.21743358777 18 24 12
-6.15199798574739 173.407677646275 2746.36063477034 19 25 13
-4.99173332195335 172.707216787401 2734.846937691 20 26 14
0.445060352274762 171.880619709478 2719.02194012292 23 29 17
2.93774693816573 171.130604097359 2706.0038198672 22 28 16
-13.9521034947567 170.937313396214 2712.28575513168 19 25 15
-10.7941415855557 170.162512665763 2698.51445050778 18 24 14
-3.42591352756916 169.256128428138 2680.38407691805 17 23 13
1.0205603810558 168.428145648816 2665.07620502775 14 20 10
-22.8825947288041 168.454936356162 2678.62670501639 9 15 5
-26.9407185781256 167.88355510743 2671.97658591007 13 16 9
-5.01544227115969 166.502007450696 2638.45868991009 18 21 14
-8.47891743526641 165.184822091417 2619.88461695821 17 18 12
9.96295066271014 162.405816841516 2566.5424604158 22 23 15
5.6082787106293 161.810770352153 2559.67724739204 64 65 57
257.965319084568 177.039286350058 2779.74713613003 14 19 13
259.469116074345 176.338082961154 2768.48246920407 7 12 5
249.230863708356 175.907161490703 2767.23413096668 9 14 7
263.119572618272 174.906135889086 2745.18397388783 9 14 7
254.405968143308 174.435822406964 2742.57031818051 11 14 7
251.117054413169 173.834867956744 2735.24262948205 10 13 6
209.116912102886 173.510191315075 2751.72881659951 11 14 7
152.208275100782 174.267556141674 2791.99667441596 12 15 8
152.157087566395 173.603376774556 2782.07532129281 12 15 8
139.111629882228 173.271363754897 2783.73292199616 13 16 9
135.985279284391 172.683926835864 2776.52285277352 11 14 7
113.893830757395 172.59683598159 2786.44567970143 9 12 5
108.517934643708 172.07168850411 2781.31088127661 11 14 7
69.2311157265948 172.465751101736 2807.17846371214 14 17 10
63.9431711736873 171.947915380964 2802.1074602862 19 20 12
77.3762946481975 170.909698495124 2779.72685122136 17 20 11
59.3257845573136 170.743158242303 2786.4028661326 15 18 9
48.7912617463566 170.370770563847 2786.1747937643 18 21 12
54.6159058459792 169.530990360194 2770.63118494861 18 21 12
57.4081368084607 168.771475569232 2757.82986821184 18 21 10
50.5516652568874 168.289720715897 2754.09206210565 19 22 11
33.3964117143046 168.114684334444 2760.18198793071 17 23 11
27.3109500255155 167.61406179826 2755.76797113048 15 21 9
23.4186803040997 167.046662124792 2749.23810338845 15 21 9
18.7829524800436 166.500571237364 2743.40443156403 16 22 10
8.3207900243023 166.134616011311 2743.22914182013 17 23 11
-4.29056929091276 165.839181248374 2745.20161497134 18 24 12
1.92530990682949 164.94972714028 2728.70603811331 20 26 14
9.50605065905474 164.007779717752 2710.7292448993 23 29 17
14.1290735472026 163.152286172043 2695.54921778455 23 29 17
9.37626746181985 162.597027185184 2689.63092146872 16 22 12
6.04141840375583 161.993647998697 2682.26962651195 15 21 11
9.09209738188865 161.173916952884 2668.42061709791 15 21 11
-25.5142377306918 161.624598876843 2692.74102792405 13 19 9
-48.6298552718991 161.701921080896 2705.62735554886 9 15 5
-44.1457022373553 160.835506119308 2690.34660339448 11 17 7
-50.9736397519158 160.357320351711 2686.62979477581 19 22 15
-42.3852219499268 159.334249873485 2666.91270952038 18 21 14
-5.95567873661684 157.304997355161 2617.96844930906 16 19 12
10.0146613477978 155.982877856627 2590.01487595969 15 18 11
18.9030998971651 154.902448265622 2569.27995498238 18 21 14
28.384949778566 153.788576830719 2547.74000452496 21 24 17
25.3523218249838 153.128803812893 2539.3627682985 64 67 60
226.955535832988 170.685049093829 2816.52147236188 0 2 0
238.001225524145 169.718920162684 2797.35096773065 16 21 15
240.345617607681 168.973718205851 2785.46040663673 10 15 8
249.660452150269 168.035503782657 2767.50567729794 10 15 8
227.694129054209 167.247655252822 2766.3994477514 10 13 6
222.935972753929 166.684574119335 2760.47693885288 9 12 5
234.362735617384 165.664612759155 2740.34737299569 9 12 5
219.541908849481 165.380840097826 2743.18828836731 10 13 6
196.333524111004 165.343858898949 2753.5367148434 10 13 6
158.693413195836 165.737775410881 2776.89292042448 11 14 7
154.015503108974 165.18141915492 2771.02861778143 11 14 7
145.526579823203 164.737402641797 2768.57797146242 9 12 5
161.305876227589 163.564662922624 2744.19206747497 8 11 4
128.585025900613 163.852474020355 2763.70300386458 10 13 6
83.2057610949328 164.546757160374 2795.03644492013 11 14 7
85.3925679193184 163.788878655833 2783.0315826996 18 19 11
62.0567981448499 163.826983444071 2794.52308199909 18 21 12
55.2553397474203 163.351738963393 2790.8251890787 15 18 9
29.8369050541982 163.474125646035 2804.51275140135 15 18 9
60.9700322669764 161.776311989504 2765.31697135556 12 15 6
72.6313449609659 160.690946894606 2744.12206776406 16 19 8
59.8250445519555 160.403243856259 2745.95326311883 17 20 9
41.1692109691657 160.31572832955 2753.42590301756 15 21 9
21.1196295483549 160.283919290573 2762.35854078719 14 20 8
15.7844927331889 159.759385299149 2757.25329275514 15 21 9
23.5731743826033 158.781559491409 2739.4270586041 16 22 10
18.9144779069297 158.227658799858 2733.57699123277 17 23 11
-2.42882231394903 158.260065877394 2744.04247763762 17 23 11
1.61685967261693 157.400380918521 2729.67923365814 18 24 12
4.15871443947768 156.587387706122 2716.69614299513 21 27 15
18.8589698672073 155.326860235187 2691.52757451356 21 27 15
6.21544439876986 155.053307151364 2693.47684056885 14 20 10
25.0252390071362 153.620042643558 2663.87597554187 13 19 9
13.7854832489261 153.291801168373 2664.37221947513 15 21 11
-15.1634403781933 153.63594038511 2682.91209249775 13 19 9
-24.1665123361521 153.236397507442 2681.32428520775 10 16 6
-48.6662299544123 153.435749631127 2695.67823498956 12 18 8
-77.2696515139417 153.808572890339 2714.46871512469 19 22 15
-51.7767062757439 152.074042153049 2677.35983291887 17 20 13
-11.8143219765443 149.741511969393 2624.79929634407 15 18 11
-2.08606230055297 148.583975312712 2603.43775243244 16 19 12
6.1514396029696 147.474226513371 2583.46584171051 19 22 15
242.348004137603 161.816519127315 2794.28653547022 13 18 12
230.601819167579 161.463561299661 2794.4155328669 10 15 8
243.848806138944 160.353891335452 2773.13466418386 9 14 7
239.870922692595 159.761020476809 2766.54260420896 8 13 6
226.570212022173 159.455989747171 2768.01530324582 10 13 6
230.325487991607 158.620284275116 2754.67669583698 9 12 5
249.449162219468 157.290842494185 2727.77396798567 9 12 5
239.969027192584 156.860640032457 2725.83987772212 9 12 5
215.933404788417 156.903211683515 2736.82406154029 9 12 5
204.233529590026 156.554209989601 2736.98694439435 10 13 6
194.851020073662 156.132162726213 2735.12366625449 10 13 6
188.526389830524 155.610088772265 2730.53616240944 9 12 5
200.396328828766 154.475097106061 2709.49195063281 8 11 4
166.046260545579 154.900098185259 2730.29289478645 9 12 5
113.767834016138 155.960010398047 2767.74305135023 10 13 6
82.7999676163405 156.311778403039 2786.0547194181 18 19 13
88.694616047126 155.388685495768 2770.56114176375 19 22 13
65.3785920944534 155.491016370059 2782.06728054865 15 18 9
47.3772558928824 155.415282450104 2788.77940261365 15 18 9
42.0721416435197 154.889625864328 2783.69591289411 12 15 6
75.2705242964056 152.960255426673 2742.29070334622 13 16 7
78.7002307264912 152.098346954544 2728.71595090694 14 17 8
54.8339378589788 152.243641347022 2741.05844226004 14 20 8
45.0171637025818 151.874525698441 2740.11595563024 14 20 8
18.3910507522027 152.144605274056 2755.39886756316 15 21 9
18.1508460887594 151.420634141094 2745.34018903226 17 23 11
28.0572976693949 150.30068555618 2725.3430472553 18 24 12
13.9359381025916 150.105219356942 2728.69146861801 17 23 11
0.584645227521552 149.885315526884 2731.36326182599 16 22 10
13.9439081699368 148.610051206719 2707.69257788697 19 25 13
17.1234310517208 147.728226071965 2693.93636117253 18 24 14
8.78327667225198 147.305424707026 2691.59366806749 15 21 11
19.7365019796671 146.096239110575 2669.88482964288 14 20 10
-9.99640826705983 146.551114207118 2689.09226603912 15 21 11
-24.6809770619048 146.397894697767 2693.26795010698 13 19 9
-24.4559772471291 145.625126440906 2682.31092995702 9 14 7
-45.4306796422885 145.745853376212 2693.04406814949 11 16 9
-52.2521056530838 145.272772982878 2689.33200571858 17 20 13
-41.5478369731064 144.043692547906 2667.44229807344 16 19 12
-25.36140477571 142.562449221234 2639.64486299187 15 18 11
-1.65611278097533 140.732824048641 2603.70966438579 17 20 13
-12.8546591512246 140.427584176637 2604.23589839149 20 23 16
263.957934662548 153.313179308167 2776.56061938938 13 18 12
250.586760856176 153.026349850321 2777.98203591124 15 20 13
255.979942862212 152.107878276437 2763.36028905795 12 17 10
244.967084313155 151.743193775356 2762.78579440004 14 19 12
237.858943335655 151.246509982937 2758.86547213808 11 14 7
236.169716942764 150.561183994994 2750.22663583552 10 13 6
256.054440498556 149.112631504396 2722.6399689352 10 13 6
260.403138259837 148.198856405854 2708.49611358027 9 12 5
220.9654378966 148.849668235791 2733.02058269182 10 13 6
224.549304842816 147.963677801841 2719.55746252074 11 14 7
209.007752358645 147.770446526905 2723.11140367876 10 13 6
207.967036364017 147.047927559322 2713.70746138483 9 12 5
204.619564396598 146.407615165895 2706.33712321473 9 12 5
177.814211528426 146.647661509357 2720.25491155264 9 12 5
146.603030009898 147.069244383271 2738.39054892441 9 12 5
112.528956880056 147.618008915789 2759.39190026401 16 17 11
88.359929148901 147.803274747017 2771.51542959401 18 21 14
73.2632317049551 147.647127208271 2775.3920435008 14 17 10
84.296850498391 146.467875768168 2754.97667228149 14 17 10
56.5969575861076 146.816163542992 2770.71690545059 14 17 8
86.7987418395546 144.856875227416 2732.07968722625 13 16 7
81.3353198519953 144.315003487836 2726.88135471588 14 17 8
83.2294292916358 143.471921909088 2714.66387834431 14 20 10
60.1145296681316 143.653784925426 2726.3162192936 15 21 9
26.8532208496586 144.270214617734 2747.90710356513 17 23 11
15.6446761327813 143.981303775131 2748.42617226574 18 24 12
24.8357192526805 142.832222751539 2729.1455991727 20 23 12
11.4489979332664 142.636248501071 2731.79153627631 18 21 10
1.72089241072104 142.288009379925 2730.91313869818 16 19 10
-2.21934114128275 141.690780349524 2724.34834986018 19 22 13
33.3534692472663 139.357987764073 2678.48689261495 19 22 13
9.91850760118584 139.604966105377 2691.14258022478 17 20 11
-1.9833342668989 139.350262261963 2692.39427291917 16 19 10
-22.3958282903507 139.483464331743 2702.29999451823 16 19 12
14.067552892528 137.04293023889 2654.61321758013 14 17 10
-18.377185502036 137.72772176335 2676.79639744459 9 12 5
-33.0236506290014 137.610328686767 2680.9998851424 11 14 7
-31.4437186671848 136.742736193598 2668.55453065967 17 20 13
-22.9029027141934 135.541282814599 2648.80203426347 18 21 14
-8.86542111871291 134.066870589725 2623.15221799518 17 20 13
0.166739113505177 132.815402406955 2602.52061758876 17 20 13
20.2112628014581 131.019452595618 2570.10729810779 18 21 14
-6.98268504616073 131.50241514519 2587.45002043516 19 22 15
296.562464594308 144.259411740033 2749.51014983595 13 18 12
295.62149473047 143.525138374801 2740.17845610257 18 23 16
277.479853807025 143.430195020056 2745.55373435166 8 13 6
254.733902508078 143.516769690405 2755.0026834255 9 14 7
221.990913232132 143.99496350164 2773.26320403828 12 15 8
245.884788785612 142.31557218082 2742.4059156364 11 14 7
252.630611388162 141.279863139827 2726.293765252 10 13 6
250.067541717984 140.598968266625 2718.25681485969 10 13 6
232.136844403942 140.521566352943 2723.78480500683 10 13 6
234.926785129273 139.627393057608 2710.98144043343 11 14 7
210.963545190515 139.800946980564 2722.01875929652 10 13 6
223.611242634141 138.503711491164 2700.30250278899 10 13 6
196.70873006049 138.809117796399 2714.15018904399 10 13 6
175.217381901287 138.906061355265 2723.27364259965 10 13 6
145.518143594618 139.355177009014 2740.03538607273 9 12 5
108.4356303749 140.130948532903 2763.79744581686 15 16 10
85.0260934334539 140.350568385971 2775.23638913233 17 20 13
84.8876242570804 139.589456066432 2765.25127269972 13 16 9
70.5531018257828 139.4350760694 2768.44537586255 13 16 9
73.3560137843208 138.542461411044 2755.65142230772 14 17 8
96.1081883288348 136.769310019812 2723.96601556609 15 18 9
97.26655851152 135.928275317206 2712.45023310273 16 19 10
75.5497668238201 136.100822249542 2722.64567740858 16 22 12
40.7076482751956 136.874957374161 2745.56176551509 15 21 9
20.6771921214002 136.99968351009 2754.50935495748 17 23 11
23.3546664507456 136.097150557686 2741.62412427315 18 24 12
12.8805065153519 135.7939999247 2741.44045541785 19 22 11
5.33354682942555 135.358142976787 2738.43736883846 17 20 9
-2.2058793547326 134.923011236586 2735.44004160561 16 19 10
-2.52721665347888 134.147726805745 2725.32228838395 19 22 13
-2.16600340957007 133.335278324618 2714.46381126754 19 22 13
4.60414913826401 132.209500230973 2697.13351085598 18 21 12
2.72053711609033 131.492799253959 2688.35389581887 17 20 11
7.93167054035315 130.425763802359 2672.364094452 18 21 14
13.0711385234572 129.352937586744 2656.32231194605 15 18 11
-10.8808988439997 129.716641201234 2669.83878819623 11 14 7
-11.4392307052571 128.922560838544 2659.54913735338 13 16 9
-5.70337152243239 127.80573548695 2642.70443206223 18 21 14
-1.44586896285848 126.754191917077 2627.25843842869 19 22 15
12.5299608740841 125.194553845974 2601.56320332219 18 21 14
-2.19080456876442 125.104030585447 2605.71296523629 16 19 12
-7.13590553872856 124.510132455739 2599.65507453997 16 19 12
286.007245950147 136.717218071718 2759.11193460031 14 19 13
267.877569022245 136.663765176693 2764.49609596245 13 18 11
292.743021504494 134.860765648413 2733.10746168158 1 6 0
251.271604666601 135.770735050076 2758.62932673861 12 17 10
256.566512517841 134.760725153792 2743.93558071656 11 14 7
227.73980559005 135.173122090089 2758.85928708396 11 14 7
261.553029808232 132.952597066699 2719.13335118195 11 14 7
242.035970701844 132.977396880672 2725.9822392185 11 14 7
242.544406890178 132.15040858979 2715.2304135094 11 14 7
236.125522825808 131.618682671411 2710.57453416877 10 13 6
232.757429576231 130.95344444409 2703.18912093689 11 14 7
211.8724353351 131.058232112399 2711.51713649076 11 14 7
198.65567453197 130.832613397637 2713.05109481551 10 13 6
184.721054823286 130.644140770796 2715.29988668122 9 12 5
142.16973210413 131.754678525151 2743.74503072443 8 11 4
87.0440011034752 133.465288579633 2784.07514689623 13 14 8
101.934763076571 131.99529337342 2760.27895078586 14 17 10
77.8260081800481 132.3161510857 2772.44656550256 14 17 10
72.4565956572918 131.775263597706 2767.31638744491 14 17 10
78.229920682348 130.708964074115 2751.73413449484 15 18 11
92.0826749810133 129.249835808204 2728.42055614148 15 18 9
87.3455091627453 128.664945946575 2722.51315322581 17 20 11
56.0806701100303 129.35898433743 2741.84630977605 16 22 12
37.4491815342699 129.458034480786 2749.33754288182 15 21 11
42.3216966817832 128.414115142295 2734.33771809355 15 21 11
15.0072726715198 128.952802656683 2750.35835030826 16 22 12
7.47000842373291 128.522630140231 2747.36232095165 17 20 11
-2.23646670298439 128.202575383023 2746.50004094545 18 21 12
5.43941984750163 127.005000029834 2728.59092614526 19 22 13
9.42442872545124 125.984602938447 2714.18288489587 18 21 12
-3.18971235728061 125.810212407783 2716.15366012032 18 21 12
-13.6150996741218 125.527547001682 2716.00545133878 16 19 12
-9.72369560243846 124.499746108523 2701.529516466 18 21 14
10.4892334771849 122.603243411531 2670.47309943343 16 19 12
-17.7528230928652 123.259026628361 2688.29193738011 13 16 9
-9.75366502601771 121.992533375563 2669.38178328913 13 16 9
-10.2048138941351 120.318197762497 2648.04915992518 18 21 14
-1.02252343173914 118.090684607993 2616.40552964951 19 22 15
7.29757071601833 116.754999221122 2596.49234739468 20 23 16
-2.53873665445248 116.425875391758 2595.53590328759 20 23 16
10.4986752852265 114.805429086237 2570.39511764404 20 23 16
298.056538222452 127.449593729009 2739.39187755804 19 24 17
294.739399926643 126.7768483132 2732.04336463419 9 14 7
229.049886712183 128.086721292078 2768.41894418926 10 13 6
247.519098979363 126.438141248615 2742.27520302673 10 13 6
241.917140512286 125.874113391011 2736.97633024074 10 13 6
244.006931518499 124.954191672187 2724.90031840237 11 14 7
235.302153394057 124.53039890279 2722.29300226446 12 15 8
218.955885151638 124.466746216771 2726.49957524317 11 14 7
224.033475775462 123.397186465632 2711.64828417045 11 14 7
204.694007363872 123.48288366656 2718.62621994891 11 14 7
198.326706139186 122.954993006526 2714.00775353593 11 14 7
178.34052059522 123.08652701934 2721.75213906518 10 13 6
160.69523606021 123.114135980873 2727.48785740466 9 12 5
151.388504141352 122.740115430406 2725.67975532718 13 14 9
90.3516228585253 124.933304010605 2771.60807885225 14 17 10
74.4997357229247 124.911031007621 2776.17324884215 14 17 10
71.3783034950475 124.255110802888 2768.96669264654 14 17 10
68.9814680548211 123.560021369774 2761.05017709688 17 20 13
82.1258746433138 122.066878151189 2738.45796670829 16 19 12
58.2070702033488 122.469051268904 2750.76369244325 17 20 13
43.9706420293082 122.382346879927 2754.0292490169 16 22 12
38.5959508133533 121.838104311969 2748.89522732776 15 21 11
25.8922910714401 121.679936513365 2750.8014852141 14 20 10
24.1794206584651 120.942674586839 2742.14524579102 14 20 10
15.8874590347984 120.554291526191 2739.83766297865 17 20 11
18.493856407451 119.579162154375 2726.90053937637 17 20 11
14.534303822308 118.954021044338 2720.32160437878 18 21 12
25.7084099827094 117.497160533803 2698.77163267606 19 22 13
12.3253191887378 117.382597561462 2701.42061398922 19 22 15
-18.220871515489 118.229757533574 2721.27550965499 18 21 14
-28.6062039952613 117.966497717989 2721.15643577281 18 21 14
-24.0034590726181 116.859530622145 2705.96072944202 15 18 11
-25.1503081012503 116.070835593286 2696.47951385195 12 15 8
-7.91847450815086 114.222785256673 2668.20272349605 15 17 12
9.16659074906967 112.362785304232 2639.81947711412 17 19 14
19.0681451586006 110.900897726488 2618.58201665571 18 21 14
16.8860920878364 109.234791637917 2598.46473883849 17 20 13
1.45395692768835 109.249659776449 2603.33438412055 21 24 17
8.31363453061185 107.933641749731 2584.83298210001 20 23 16
289.708300503311 119.018688909054 2737.00276204481 9 14 7
288.724585581706 118.22155242918 2727.63976309276 6 11 4
250.271470529456 118.401149864275 2740.52434259147 10 13 6
255.472010545213 117.299983625634 2725.76202006375 10 13 6
257.526331216066 116.346365183006 2713.65982986474 11 14 7
236.500811808591 116.542378748254 2721.88643780371 12 15 8
223.977843457836 116.320246698747 2722.68832211491 12 15 8
202.32962247353 116.566820691117 2731.69881311946 12 15 8
199.795387761992 115.845549520855 2723.68226681311 12 15 8
191.166870100248 115.43590592117 2721.13059965745 12 15 8
193.144108510397 114.476157865833 2708.97279431196 10 13 6
184.508892843665 114.066076204722 2706.41626941067 10 13 6
129.995703184017 116.080753145736 2745.95663892536 13 14 9
81.6419781698792 116.972270537829 2770.19468281125 13 16 9
66.5703774336688 116.947755383402 2774.09015660104 14 17 10
70.1378613727068 115.916036941841 2760.61442189735 18 21 14
60.3035440713313 115.611180959698 2759.65954335525 17 20 13
51.229259097 115.267312657039 2758.02009975559 18 21 14
42.908417492129 114.883863805335 2755.69160622126 16 21 14
34.3605309537405 113.665158770683 2743.31311576734 14 20 10
38.4667491613957 112.576540628172 2728.99259619473 14 20 10
38.8697862398573 111.691501147104 2718.16407038083 17 18 10
22.5364361883118 111.767415716389 2723.61604607367 17 18 10
14.9481832754086 111.343179382281 2720.5830840135 18 19 13
20.3541408923908 110.158548795615 2704.73391921913 19 20 14
12.0222061503692 109.774992881638 2702.39738349065 20 21 15
-12.0732003825494 110.330923314689 2715.81119651689 18 19 13
-31.7702454831557 110.639009028593 2725.00141149949 16 17 11
-15.7513157159155 108.803199765297 2698.31549653742 11 12 6
-23.315413911722 108.38170726063 2695.30035312222 11 12 7
5.95728771415516 105.705136572905 2654.75095326772 13 14 9
-7.35437764758906 105.624215410967 2657.4518828034 20 21 16
24.4227284465079 102.747245634328 2613.77622866281 21 24 17
11.7576458080775 102.618116891169 2615.71059900328 16 19 12
-0.209386109666809 101.528320522065 2605.79488551434 18 21 14
15.6949172708378 99.5822787874976 2577.79028045988 16 19 12
301.075280161983 110.457204729903 2727.90787186064 11 16 9
321.868521151064 108.5101856148 2699.74195269849 11 16 9
316.878758024841 107.885351492851 2693.65152875506 11 14 7
267.737857312565 109.576094344847 2725.96882577116 11 14 7
262.853755083389 108.960063486761 2719.95474778017 11 14 7
240.249260296645 109.286304150249 2729.50745565404 12 15 8
257.662730461313 107.478507928721 2703.83290915563 12 15 8
213.688573194936 108.968777363927 2732.48386459281 12 15 8
172.982257034369 110.310692028682 2758.5625553468 12 15 8
194.894235665224 108.246873566605 2728.73667362908 12 15 8
203.738632419772 106.882064277815 2710.438753111 12 15 8
204.925650987023 105.930912553662 2698.94318070858 11 14 7
191.729248476188 105.779397399494 2700.49227254302 10 13 6
162.017550671853 106.565314739611 2717.24639535026 11 12 7
141.44389247975 106.850807379049 2725.80102035661 13 15 10
91.778676717253 108.813514889962 2761.44501212261 13 16 9
80.4059724091672 108.603803651584 2761.84547919382 13 16 9
75.0120672348662 108.051104128065 2756.69748606008 16 19 12
64.4226495272284 107.801650632741 2756.43024189553 15 18 11
53.1191080583722 107.597945626419 2756.88087700766 16 19 12
44.0563286549267 107.265579481028 2755.2501267796 15 20 13
44.5632174065009 106.363651637936 2744.49679971696 15 21 11
38.4355963055754 105.855401780222 2740.05218202526 14 20 10
49.8373280719076 104.284215789008 2718.66664190095 15 21 11
40.0134632832327 103.993967167989 2717.71912012051 18 19 11
23.6761863345412 104.107430835266 2723.16814483837 19 20 12
14.6375869940525 103.777695662559 2721.55493658037 20 21 15
16.4401990982173 102.774127766329 2709.2700244658 20 21 15
6.68229089712957 102.489800289095 2708.37064049207 21 22 16
2.68317372770444 101.844262723672 2701.76292097092 17 18 12
2.24488232326747 100.969817880979 2691.55958847806 15 16 10
-19.6142137813691 101.465003365097 2702.88883860923 10 11 5
-28.5863507956581 101.141478437058 2701.32354728896 11 12 7
-20.5404141638001 99.7126869634783 2682.44648190558 17 18 13
1.54001637916323 97.3506991098902 2649.03609439953 20 21 16
7.25124949808675 96.0432227400564 2632.17257146412 22 25 18
15.6934568050029 94.5429584270286 2612.3473724967 18 21 14
-0.442943928157469 94.6746369819928 2617.9421089321 18 21 14
3.00747255546963 93.4947600960792 2603.14572245071 19 22 15
2.2242510608268 92.5930889950922 2592.69220486792 17 20 13
288.230761534479 103.147139954179 2739.55667435422 7 12 5
281.024042082865 102.655205996992 2735.56520898848 12 17 10
269.937229176064 102.379467868089 2734.93725929227 14 17 10
266.621087421117 101.672211514207 2727.58929397745 13 16 9
260.969278464845 101.094048506262 2722.25421191066 12 15 8
242.989356463018 101.21517544145 2727.74752361887 12 15 8
197.427001967371 102.922624245328 2757.71862878249 13 16 9
195.736964736978 102.135145326294 2749.07868726178 11 14 7
179.511492881846 102.18672632862 2753.3734118009 11 14 7
199.127043501828 100.153312242033 2725.58865325569 11 14 7
223.147232843437 97.8395535088445 2693.5846825893 11 14 7
206.1130749255 97.9318258326924 2698.52841608204 10 13 6
197.442014869057 97.5340899850944 2695.94596935167 9 12 5
184.267572540167 97.4085546733006 2697.51081770667 10 11 6
150.870706726922 98.5114503346336 2717.7708612366 13 15 10
125.861202469904 99.126333326298 2730.52232392116 14 16 11
69.6287361985832 101.671496054021 2772.52444450857 12 14 9
83.6067790355375 99.9242614955724 2749.30023117524 12 15 8
72.9922224080379 99.6886736806007 2749.01512798062 9 12 5
63.8817860466809 99.3626824960622 2747.34956802013 11 14 7
54.0505752551828 99.0846343017175 2746.39707724006 12 17 10
54.5302619067591 98.1552311513321 2735.62389162677 12 17 10
55.7020004331563 97.1757178813642 2724.11709873982 14 19 12
51.7144998970882 96.5217266778566 2717.51775754475 17 20 11
41.8853835761608 96.2442813016464 2716.56678814449 18 19 11
20.4584592639439 96.726856997708 2726.9739338537 19 20 14
10.7066154502173 96.4560345968164 2726.07872001264 20 21 15
12.5240700488565 95.4230159533966 2713.80471284226 19 20 14
9.25492810633965 94.7215685262873 2706.49084811786 20 21 15
17.6790701916887 92.300083931873 2676.76671065879 14 15 9
-21.5422236528362 92.1700037014183 2684.15241138499 18 19 14
-27.7048744700994 91.6598570111079 2679.68239029652 20 21 16
1.33811534299566 88.6890639492902 2638.96497715231 20 23 16
12.6113064063937 86.9349796308992 2616.24999760694 19 22 15
7.6793444444796 86.3121694481004 2610.20148521271 19 22 15
-23.0701650092175 87.5299029846307 2631.14590443531 19 22 15
8.91100392415822 84.2654676155838 2586.38118058303 19 22 15
308.19456656415 94.0173341432759 2723.10464133346 6 13 6
271.327460360999 95.2606623177569 2744.55514922914 11 16 9
261.045182352338 94.9571597036721 2743.27524678842 14 17 8
256.981361190749 94.2867097421322 2736.62049577629 13 16 7
260.62844168047 93.1523024944584 2723.20194217182 12 15 6
230.323314235941 94.0573189688905 2739.52677290608 12 15 6
213.211453241145 94.1806961052542 2744.41433533215 12 15 8
