ply
format ascii 1.0
comment KinectMotionCapture
element vertex 784
property float x
property float y
property float z
property uchar red
property uchar green
property uchar blue
end_header
-69.7145164012909 235.538944602013 2476.0000705719 122 121 117
-63.1381049752235 236.207902431488 2483.00004005432 110 109 105
-54.6845458447933 229.170918464661 2408.99991989136 45 44 40
-46.5146973729134 221.562713384628 2328.9999961853 32 31 26
-33.3855524659157 218.807518482208 2299.99995231628 20 20 8
-27.0985774695873 218.71380507946 2299.00002479553 31 31 19
-20.1194230467081 211.294367909431 2220.99995613098 30 30 18
-14.1165619716048 212.151378393173 2230.00001907349 22 22 10
-7.98889342695475 211.010247468948 2217.99993515015 22 24 11
-1.96597818285227 214.149937033653 2250.99992752075 20 22 9
4.21661743894219 216.242879629135 2273.00000190735 20 22 9
10.3038214147091 213.864147663116 2247.99990653992 21 23 10
16.1083247512579 209.582462906837 2203.00006866455 19 21 8
22.2093835473061 210.437789559364 2211.99989318848 22 24 11
28.4360833466053 211.863666772842 2226.99999809265 23 25 12
34.465566277504 211.5768045187 2223.99997711182 24 26 13
40.2416214346886 210.052967071533 2207.99994468689 28 30 17
46.7054955661297 212.048754096031 2229.00009155273 29 31 18
52.9759004712105 212.807506322861 2236.99998855591 28 30 19
59.5010258257389 214.327022433281 2253.00002098084 26 28 17
65.0351345539093 212.326467037201 2232.00011253357 24 26 15
71.0916966199875 212.228208780289 2230.99994659424 25 27 16
76.9003927707672 211.463823914528 2223.00004959106 26 27 19
85.0909724831581 216.882199048996 2279.99997138977 24 25 17
91.9902548193932 218.495279550552 2296.99993133545 22 23 15
98.5113605856895 219.061657786369 2302.99997329712 25 28 19
105.701848864555 220.959410071373 2322.99995422363 31 34 27
114.206753671169 225.2347022295 2368.00003051758 31 34 27
121.478885412216 226.751193404198 2384.0000629425 34 35 29
128.139927983284 227.030888199806 2387.00008392334 82 83 78
134.591206908226 226.929843425751 2385.99991798401 185 186 181
141.03652536869 226.828530430794 2384.99999046326 180 180 178
147.537708282471 226.822048425674 2384.99999046326 175 175 175
154.23209965229 227.100595831871 2388.00001144409 196 194 195
160.807624459267 227.188631892204 2388.99993896484 191 189 190
167.528077960014 227.466583251953 2391.99995994568 187 185 188
174.264267086983 227.744281291962 2394.99998092651 195 193 194
181.167095899582 228.211849927902 2400.00009536743 198 196 197
188.09649348259 228.679075837135 2404.99997138977 206 204 205
195.214331150055 229.336202144623 2411.99994087219 206 206 206
202.285915613174 229.897931218147 2417.99998283386 205 205 205
209.389448165894 230.459362268448 2424.00002479553 205 205 205
216.524913907051 231.020480394363 2430.0000667572 206 206 206
223.784044384956 231.676340103149 2437.00003623962 203 203 203
231.364160776138 232.617080211639 2447.00002670288 204 204 204
240.262448787689 234.79326069355 2470.00002861023 200 202 201
287.841588258743 259.472638368607 2730.00001907349 174 179 175
296.675115823746 260.695725679398 2743.00003051758 181 186 182
305.023938417435 261.443227529526 2750.99992752075 18 23 19
314.324021339417 262.950658798218 2766.99995994568 83 88 84
-176.259055733681 255.980461835861 2770.99990844727 178 170 168
-167.914286255836 254.787027835846 2757.99989700317 174 170 169
-142.289534211159 237.155348062515 2566.99991226196 95 95 93
-133.446007966995 233.927890658379 2532.00006484985 118 120 119
-125.54244697094 232.085779309273 2512.00008392334 103 107 106
-118.030980229378 230.797663331032 2497.99990653992 93 93 95
-110.996127128601 230.340778827667 2493.00003051758 113 113 113
-103.988118469715 229.883551597595 2487.99991607666 133 133 133
-97.085103392601 229.610815644264 2484.99989509583 129 129 127
-90.1617333292961 229.245379567146 2480.99994659424 123 124 119
-83.495132625103 229.526460170746 2483.99996757507 118 119 114
-76.9353732466698 230.176836252213 2490.9999370575 114 115 109
-70.393443107605 231.011778116226 2500 76 77 71
-63.1663948297501 229.536265134811 2483.99996757507 33 34 26
-33.198356628418 211.340472102165 2286.99994087219 26 26 14
-26.899415999651 210.879787802696 2282.00006484985 17 17 5
-20.0388059020042 204.412087798119 2211.99989318848 20 20 8
-13.9336176216602 203.39635014534 2200.99997520447 21 21 9
-7.93162453919649 203.489258885384 2201.99990272522 19 19 7
-1.94510573055595 205.799758434296 2226.99999809265 20 20 8
4.16115391999483 207.278281450272 2243.00003051758 22 24 11
10.1988641545177 205.614551901817 2224.99990463257 26 28 15
16.1456186324358 204.042986035347 2207.99994468689 25 25 13
22.280678153038 205.058634281158 2219.00010108948 22 24 11
28.7438370287418 208.014607429504 2250.99992752075 23 25 12
34.5446243882179 205.980181694031 2229.00009155273 25 27 14
40.2069948613644 203.853130340576 2206.00008964539 29 31 18
46.4351996779442 204.775258898735 2216.00008010864 30 32 19
53.0967116355896 207.175612449646 2242.00010299683 28 30 19
58.7113946676254 205.417409539223 2223.00004959106 28 30 19
64.892366528511 205.784261226654 2226.99999809265 25 27 16
70.2026411890984 203.563585877419 2203.00006866455 24 26 15
76.7654851078987 205.038726329803 2219.00010108948 24 25 17
96.5908169746399 208.630740642548 2257.99989700317 22 25 16
121.688142418861 220.627397298813 2388.00001144409 36 37 31
128.199338912964 220.621898770332 2388.00001144409 25 26 21
134.484380483627 220.246583223343 2384.0000629425 130 131 126
140.983656048775 220.240518450737 2384.0000629425 185 185 183
147.544249892235 220.326587557793 2384.99999046326 173 173 171
154.174327850342 220.504760742188 2387.00008392334 189 187 188
160.612776875496 220.405519008636 2385.99991798401 190 188 189
167.395383119583 220.767885446548 2390.00010490417 186 184 185
174.199149012566 221.129938960075 2394.00005340576 191 189 190
181.099534034729 221.58408164978 2398.9999294281 195 193 194
187.948301434517 221.945598721504 2403.00011634827 203 201 202
194.899097084999 222.399160265923 2407.99999237061 203 203 203
201.709061861038 222.667679190636 2411.00001335144 202 202 202
208.793818950653 223.213061690331 2417.00005531311 202 202 202
216.26690030098 224.127471446991 2427.00004577637 201 201 201
223.885491490364 225.133910775185 2437.99996376038 200 200 200
231.468617916107 226.047679781914 2447.99995422363 203 203 203
239.883616566658 227.699846029282 2466.00008010864 194 196 195
287.326544523239 251.580029726028 2724.99990463257 186 188 185
296.363115310669 252.952694892883 2740.00000953674 170 175 169
305.036723613739 253.955721855164 2750.99992752075 26 31 27
313.314706087112 254.589140415192 2757.99989700317 29 34 30
-175.885006785393 247.895032167435 2765.00010490417 193 183 182
-168.347761034966 247.90233373642 2765.00010490417 164 158 158
-127.147242426872 228.11222076416 2543.99991035461 111 115 114
-119.311951100826 226.41384601593 2525.00009536743 89 89 91
-111.713379621506 224.984094500542 2509.0000629425 102 102 104
-104.452438652515 224.092051386833 2499.00007247925 123 123 123
-97.5972637534142 224.006727337837 2497.99990653992 124 124 122
-90.8198654651642 224.10050034523 2499.00007247925 118 119 114
-84.3055546283722 224.911376833916 2507.99989700317 113 114 109
-77.7727067470551 225.811660289764 2517.99988746643 111 112 106
-54.6894371509552 216.045081615448 2408.99991989136 28 30 19
-38.8536378741264 202.058538794518 2253.00002098084 22 19 10
-32.9820737242699 203.764110803604 2272.0000743866 22 19 10
-26.6530532389879 202.778860926628 2260.99991798401 22 19 10
-20.012516528368 198.11624288559 2209.00011062622 22 19 10
-13.8266095891595 195.874810218811 2184.00001525879 23 20 11
-7.88154546171427 196.23401761055 2187.99996376038 23 20 11
-1.92335539031774 197.489857673645 2201.99990272522 27 24 15
4.08341782167554 197.400122880936 2200.99997520447 33 30 21
10.1030515506864 197.668865323067 2203.9999961853 42 39 30
16.0878319293261 197.309568524361 2200.00004768372 39 36 27
22.2414992749691 198.654010891914 2214.99991416931 31 31 21
28.7578795105219 201.971262693405 2252.00009346008 29 29 19
33.8177196681499 195.691928267479 2181.99992179871 24 24 14
39.698414504528 195.331618189812 2177.99997329712 23 25 14
46.521071344614 199.096456170082 2220.00002861023 22 24 13
52.6727475225925 199.45302605629 2223.99997711182 20 22 11
58.4234446287155 198.374405503273 2211.99989318848 21 23 12
64.6621063351631 198.999524116516 2219.00010108948 22 24 13
70.6200152635574 198.727548122406 2216.00008010864 23 25 14
76.4920935034752 198.275953531265 2210.99996566772 21 24 13
83.8668569922447 201.500833034515 2246.99997901917 20 23 12
90.3963521122932 202.393800020218 2256.99996948242 20 23 12
114.216841757298 212.334081530571 2368.00003051758 20 21 13
123.273208737373 216.902002692223 2418.99991035461 22 23 17
128.473341464996 214.565306901932 2392.99988746643 21 22 16
134.546622633934 213.842377066612 2384.99999046326 31 32 26
140.989765524864 213.746845722198 2384.0000629425 182 181 177
147.550627589226 213.830336928368 2384.99999046326 177 176 172
154.180973768234 214.0032351017 2387.00008392334 179 178 176
160.686999559402 213.996544480324 2387.00008392334 182 181 179
167.47260093689 214.348182082176 2391.00003242493 179 178 176
174.279361963272 214.699551463127 2394.99998092651 183 183 183
181.031763553619 214.961007237434 2398.00000190735 186 186 186
187.799841165543 215.222164988518 2401.00002288818 194 194 194
194.664537906647 215.572714805603 2404.99997138977 195 195 195
201.466605067253 215.833321213722 2407.99999237061 197 197 197
208.284288644791 216.093689203262 2411.00001335144 198 198 198
215.830430388451 217.070758342743 2421.99993133545 197 197 197
223.527535796165 218.137159943581 2434.00001525879 194 194 194
231.194615364075 219.113573431969 2444.9999332428 192 192 192
239.115327596664 220.268905162811 2457.99994468689 191 191 191
250.106036663055 224.112153053284 2500.99992752075 194 194 194
286.283880472183 243.265748023987 2714.99991416931 151 153 148
295.293599367142 244.597986340523 2730.00001907349 10 13 6
301.83345079422 243.86915564537 2721.99988365173 37 40 33
308.669567108154 243.408963084221 2717.00000762939 44 49 43
-176.401287317276 241.058319807053 2773.00000190735 65 60 57
-168.659269809723 240.80465734005 2769.99998092651 166 162 161
-160.87481379509 240.463778376579 2766.00003242493 155 154 152
-120.781891047955 222.229778766632 2555.99999427795 92 92 92
-112.786784768105 220.234945416451 2532.99999237061 96 96 96
-105.167485773563 218.761414289474 2516.00003242493 116 116 116
-98.1875136494637 218.504831194878 2513.00001144409 121 121 119
-91.6233062744141 219.204425811768 2520.99990844727 112 113 108
-85.216797888279 220.425501465797 2535.00008583069 108 109 104
-39.0622615814209 196.962848305702 2265.00010490417 20 20 10
-32.2285927832127 193.051174283028 2220.00002861023 20 20 10
-26.0529778897762 192.182794213295 2210.00003814697 20 20 10
-19.9861973524094 191.835924983025 2206.00008964539 20 20 10
-13.9791518449783 192.010581493378 2207.99994468689 20 20 10
-7.95393157750368 192.011043429375 2207.99994468689 21 21 11
-1.92169123329222 191.315546631813 2200.00004768372 27 27 17
4.05205274000764 189.924106001854 2184.00001525879 34 34 24
9.96596273034811 189.05420601368 2174.00002479553 41 41 31
15.9715171903372 189.923286437988 2184.00001525879 38 38 28
22.2022905945778 192.270413041115 2210.99996566772 30 30 20
27.8013311326504 189.312696456909 2177.00004577637 27 27 17
34.1136567294598 191.398411989212 2200.99997520447 21 21 11
40.0646738708019 191.135957837105 2197.99995422363 19 21 10
46.3763773441315 192.438513040543 2213.00005912781 19 21 10
52.6039525866508 193.132072687149 2220.99995613098 18 20 9
58.7957389652729 193.564519286156 2226.0000705719 18 20 9
64.6065846085548 192.779287695885 2217.00000762939 19 21 10
70.8461254835129 193.298175930977 2223.00004959106 20 22 11
77.1873146295547 193.990677595139 2230.99994659424 20 23 12
82.8253254294395 192.943871021271 2219.00010108948 20 23 12
89.8795202374458 195.113986730576 2243.99995803833 20 23 12
96.8986228108406 196.935996413231 2265.00010490417 21 22 14
104.259431362152 199.192360043526 2290.99988937378 24 25 17
122.412078082561 208.833649754524 2401.99995040894 22 23 17
128.639832139015 208.306759595871 2395.99990844727 17 18 12
134.552299976349 207.344964146614 2384.99999046326 18 19 13
140.93653857708 207.165345549583 2382.99989700317 179 178 174
147.433087229729 207.159385085106 2382.99989700317 172 171 167
154.122829437256 207.413926720619 2385.99991798401 175 174 172
160.761043429375 207.581296563148 2388.00001144409 176 175 173
167.619675397873 208.009168505669 2392.99988746643 177 176 174
174.359381198883 208.262890577316 2395.99990844727 180 180 180
181.039288640022 208.429455757141 2398.00000190735 182 182 182
187.729403376579 208.595767617226 2400.00009536743 189 189 189
194.591611623764 208.935603499413 2404.00004386902 191 191 191
201.474875211716 209.275186061859 2407.99999237061 195 195 195
208.292797207832 209.527626633644 2411.00001335144 197 197 197
215.750142931938 210.388094186783 2421.0000038147 196 196 196
223.628476262093 211.595818400383 2434.99994277954 192 192 192
231.58223927021 212.803244590759 2448.99988174438 191 191 191
239.31959271431 213.749647140503 2460.00003814697 189 189 189
249.516069889069 216.780975461006 2494.99988555908 192 192 192
291.952073574066 234.472438693047 2698.99988174438 10 13 6
298.075169324875 233.50527882576 2687.99996376038 23 26 19
305.159866809845 233.319774270058 2686.00010871887 34 36 31
317.932814359665 237.390205264091 2733.00004005432 16 21 15
-169.579535722733 234.520956873894 2785.00008583069 89 88 84
-161.986529827118 234.52764749527 2785.00008583069 136 135 131
-154.392912983894 234.534025192261 2785.00008583069 150 150 148
-114.127308130264 215.859487652779 2562.99996376038 91 91 91
-106.175072491169 213.926881551743 2539.99996185303 104 104 104
-99.0121141076088 213.425680994987 2533.99991989136 106 106 104
-92.3903807997704 214.103430509567 2542.00005531311 100 100 98
-86.027167737484 215.538948774338 2559.00001525879 104 105 100
-78.5515010356903 214.194655418396 2542.99998283386 107 108 102
-51.4019802212715 190.702214837074 2263.99993896484 26 28 17
-44.7649657726288 188.766822218895 2240.9999370575 23 23 13
-37.8738641738892 184.978023171425 2196.00009918213 22 22 12
-31.7653641104698 184.30557847023 2187.99996376038 21 21 11
-25.8064959198236 184.390991926193 2188.99989128113 20 20 10
-19.9689138680696 185.655474662781 2203.9999961853 18 18 8
-14.1760110855103 188.604429364204 2239.00008201599 18 18 8
-8.05873703211546 188.436418771744 2236.99998855591 21 21 11
-1.92264537326992 185.404106974602 2200.99997520447 21 21 11
4.05593356117606 184.140548110008 2186.00010871887 24 24 14
9.99388657510281 183.634832501411 2180.0000667572 31 31 21
15.9648731350899 183.886989951134 2183.00008773804 32 32 22
22.0425445586443 184.897020459175 2194.9999332428 26 26 16
28.5943001508713 188.60237300396 2239.00008201599 23 23 13
39.9934351444244 184.808969497681 2194.00000572205 17 19 8
46.3573522865772 186.323389410973 2211.99989318848 18 20 9
52.6535175740719 187.247917056084 2223.00004959106 20 22 11
58.454804122448 186.403334140778 2213.00005912781 19 21 10
64.4927173852921 186.400786042213 2213.00005912781 18 20 9
70.657841861248 186.734929680824 2217.00000762939 18 20 9
76.4985382556915 186.226561665535 2210.99996566772 17 20 9
82.49282091856 186.139076948166 2210.00003814697 18 21 10
88.6815935373306 186.472460627556 2213.99998664856 23 24 16
96.3036715984344 189.584970474243 2250.99992752075 17 18 10
102.306805551052 189.328238368034 2247.99990653992 17 18 10
109.161451458931 190.587252378464 2263.00001144409 20 21 15
122.213244438171 201.951950788498 2398.00000190735 20 21 15
128.430351614952 201.441586017609 2391.99995994568 24 25 19
134.501412510872 200.762555003166 2384.0000629425 41 42 36
140.942320227623 200.672775506973 2382.99989700317 167 166 162
147.439107298851 200.666978955269 2382.99989700317 161 160 156
154.193714261055 200.997740030289 2387.00008392334 168 167 165
160.902231931686 201.244011521339 2390.00010490417 166 165 163
167.696535587311 201.574251055717 2394.00005340576 172 171 169
174.439236521721 201.820030808449 2397.0000743866 175 175 175
180.895581841469 201.728731393814 2395.99990844727 177 177 177
187.736973166466 202.058210968971 2400.00009536743 184 184 184
194.518476724625 202.303200960159 2403.00011634827 186 186 186
201.482936739922 202.716305851936 2407.99999237061 191 191 191
208.38750898838 203.044965863228 2411.99994087219 193 193 193
215.669617056847 203.710094094276 2420.00007629395 196 196 196
223.637342453003 204.964116215706 2434.99994277954 191 191 191
231.591403484344 206.133663654327 2448.99988174438 192 192 192
239.426285028458 207.134559750557 2460.99996566772 188 188 188
248.725771903992 209.313362836838 2486.99998855591 191 191 191
292.071551084518 227.207705378532 2700.00004768372 3 6 0
305.627554655075 231.908634305 2756.00004196167 23 26 19
310.397893190384 229.877501726151 2732.00011253357 33 35 30
-163.854286074638 229.546397924423 2816.99991226196 117 116 112
-156.062260270119 229.389727115631 2815.00005722046 139 139 137
-147.806093096733 228.499293327332 2803.99990081787 104 104 102
-100.110210478306 208.801805973053 2562.00003623962 98 98 96
-93.2664275169373 209.131643176079 2565.99998474121 96 96 94
-86.4004418253899 209.461241960526 2569.9999332428 108 109 104
-50.2688176929951 180.456310510635 2213.99998664856 24 26 15
-44.247392565012 180.539682507515 2214.99991416931 19 19 9
-38.1513573229313 180.296808481216 2211.99989318848 20 20 10
-31.7956916987896 178.505018353462 2190.00005722046 20 20 10
-25.8429124951363 178.669199347496 2191.99991226196 20 20 10
-20.1871804893017 181.604474782944 2227.9999256134 21 21 11
-14.2715610563755 183.724403381348 2253.99994850159 21 21 11
-8.0878846347332 182.991281151772 2244.99988555908 22 22 12
-1.93058559671044 180.138617753983 2210.00003814697 20 20 10
4.0932078845799 179.812535643578 2206.00008964539 21 21 11
10.0676454603672 178.99714410305 2196.00009918213 26 26 16
16.0825364291668 179.241120815277 2198.99988174438 28 28 18
22.3145876079798 181.115075945854 2221.99988365173 26 26 16
28.3400285989046 180.869564414024 2219.00010108948 24 24 14
32.7369309961796 172.146856784821 2111.99998855591 20 20 10
40.049746632576 179.073646664619 2197.00002670288 18 20 9
46.4849807322025 180.783554911613 2217.99993515015 18 20 9
52.3477233946323 180.129528045654 2210.00003814697 17 19 8
58.2722686231136 179.801315069199 2206.00008964539 19 21 10
64.1455873847008 179.391324520111 2200.99997520447 19 21 10
69.8001459240913 178.492143750191 2190.00005722046 18 20 9
76.294019818306 179.711744189262 2204.99992370605 17 20 9
82.085520029068 179.219603538513 2198.99988174438 16 19 8
88.4047746658325 179.86823618412 2207.00001716614 20 21 13
96.6498181223869 184.102475643158 2259.0000629425 14 15 7
102.583982050419 183.691039681435 2253.99994850159 18 19 11
107.380978763103 181.405082345009 2226.0000705719 20 21 15
121.198810636997 193.787440657616 2378.00002098084 20 21 15
128.220707178116 194.597452878952 2388.00001144409 19 20 14
134.56317782402 194.347828626633 2384.99999046326 40 41 35
141.125366091728 194.423899054527 2385.99991798401 162 161 157
147.568702697754 194.336771965027 2384.99999046326 158 157 153
154.199823737144 194.493874907494 2387.00008392334 164 163 161
160.773918032646 194.569200277328 2388.00001144409 165 164 162
167.563021183014 194.888725876808 2391.99995994568 170 169 167
174.300506711006 195.126533508301 2394.99998092651 172 172 172
180.827170610428 195.11966407299 2394.99998092651 174 174 174
187.587842345238 195.356979966164 2398.00000190735 181 181 181
194.607004523277 195.838436484337 2404.00004386902 183 183 183
201.49077475071 196.156695485115 2407.99999237061 187 187 187
208.395600318909 196.474686264992 2411.99994087219 188 188 188
215.677931904793 197.118252515793 2420.00007629395 196 196 196
223.462283611298 198.168814182281 2433.00008773804 190 190 190
231.50572180748 199.381917715073 2447.99995422363 193 193 193
239.143565297127 200.187504291534 2457.99994468689 188 188 188
247.935146093369 201.888605952263 2479.00009155273 191 191 191
258.483946323395 204.892337322235 2516.00003242493 206 206 204
304.530024528503 223.589852452278 2746.00005149841 17 18 12
316.204071044922 226.591020822525 2782.99999237061 35 36 31
-165.198475122452 223.681017756462 2839.99991416931 106 107 102
-156.67812526226 222.584471106529 2825.99997520447 144 144 142
-148.180827498436 221.408829092979 2811.00010871887 95 95 93
-139.764726161957 220.232829451561 2796.0000038147 105 105 103
-131.240859627724 218.741402029991 2776.99995040894 78 78 76
-94.79670971632 205.446198582649 2608.00004005432 89 89 87
-87.5805243849754 205.213367938995 2605.00001907349 99 100 95
-51.5423193573952 178.833037614822 2269.99998092651 16 18 7
-44.6087270975113 175.919994711876 2233.00004005432 20 20 10
-38.0666181445122 173.873245716095 2207.00001716614 20 20 10
-31.8695344030857 172.92919754982 2194.9999332428 20 20 10
-25.8439294993877 172.693952918053 2191.99991226196 20 20 10
-19.9705101549625 173.640251159668 2203.9999961853 20 20 10
-14.0568390488625 174.901485443115 2220.00002861023 20 20 10
-8.04857350885868 176.004886627197 2233.99996757507 20 20 10
-1.96123775094748 176.871702075005 2244.99988555908 20 20 10
4.11749165505171 174.82328414917 2219.00010108948 20 20 10
10.1230582222342 173.956364393234 2207.99994468689 21 21 11
16.1416828632355 173.877075314522 2207.00001716614 20 20 10
22.2150385379791 174.270242452621 2211.99989318848 18 18 8
27.3321531713009 168.596848845482 2140.00010490417 20 20 10
33.9628048241138 172.613605856895 2190.99998474121 22 22 12
40.5435338616371 175.211995840073 2223.99997711182 22 24 13
46.1933836340904 173.634678125381 2203.9999961853 19 21 10
52.3024015128613 173.947885632515 2207.99994468689 17 19 8
57.6405562460423 171.89747095108 2181.99992179871 16 18 7
63.4777769446373 171.580031514168 2177.99997329712 17 19 8
69.7709992527962 172.444000840187 2188.99989128113 18 20 9
75.7433772087097 172.441214323044 2188.99989128113 16 19 8
81.5287828445435 172.044306993484 2184.00001525879 15 18 7
88.2880464196205 173.616528511047 2203.9999961853 15 16 8
96.3112860918045 177.315279841423 2250.99992752075 17 18 10
105.500862002373 182.58909881115 2318.00007820129 19 20 12
128.547847270966 188.562020659447 2394.00005340576 20 21 15
134.90691781044 188.320711255074 2391.00003242493 35 36 30
141.426563262939 188.315466046333 2391.00003242493 166 165 161
147.883772850037 188.231214880943 2390.00010490417 160 159 155
154.399558901787 188.225507736206 2390.00010490417 159 158 156
160.982072353363 188.298285007477 2391.00003242493 163 162 160
167.569443583488 188.370868563652 2391.99995994568 167 166 164
174.234390258789 188.521951436996 2394.00005340576 167 167 167
180.75855076313 188.515305519104 2394.00005340576 170 170 170
187.594935297966 188.823387026787 2398.00000190735 178 178 178
194.533422589302 189.209967851639 2403.00011634827 179 179 179
201.331004500389 189.438819885254 2405.99989891052 182 182 182
208.144202828407 189.667448401451 2408.99991989136 182 182 182
215.329468250275 190.210744738579 2415.99988937378 191 191 191
223.011359572411 191.147416830063 2427.99997329712 189 189 189
230.946868658066 192.241221666336 2441.99991226196 193 193 193
238.665953278542 193.098604679108 2453.00006866455 188 188 188
247.24417924881 194.585382938385 2471.99988365173 191 191 191
256.952345371246 196.858927607536 2500.99992752075 207 207 205
292.417794466019 212.738230824471 2703.00006866455 6 5 0
304.652005434036 216.190412640572 2746.99997901917 33 32 27
311.32972240448 215.628519654274 2740.00000953674 33 32 28
-164.913803339005 215.560436248779 2835.00003814697 87 89 84
-156.351342797279 214.425802230835 2819.9999332428 154 155 150
-147.870078682899 213.290825486183 2805.0000667572 107 107 105
-139.769971370697 212.611749768257 2796.0000038147 108 108 106
-131.954744458199 212.312623858452 2792.00005531311 94 93 91
-124.338924884796 212.317392230034 2792.00005531311 86 86 84
-51.6805239021778 173.101022839546 2276.00002288818 14 15 7
-44.1109798848629 167.93105006218 2207.99994468689 13 14 6
-37.8955826163292 167.095959186554 2197.00002670288 15 16 8
-31.7110382020473 166.108548641205 2184.00001525879 20 21 13
-25.7034320384264 165.805399417877 2180.0000667572 22 23 15
-19.826291128993 166.414707899094 2187.99996376038 19 20 12
-13.9307342469692 167.328044772148 2200.00004768372 17 18 10
-8.0488808453083 169.914424419403 2233.99996757507 21 22 14
-1.93859834689647 168.773755431175 2219.00010108948 20 21 13
4.09352593123913 167.784959077835 2206.00008964539 16 17 9
10.0363316014409 166.49167239666 2188.99989128113 16 17 9
15.9813892096281 166.186973452568 2184.99994277954 16 17 9
21.9045449048281 165.882021188736 2180.99999427795 13 13 5
27.614189311862 164.435967803001 2161.99994087219 14 14 6
33.5455574095249 164.586961269379 2164.00003433228 18 18 10
39.8340821266174 166.182771325111 2184.99994277954 20 21 13
46.2370663881302 167.778328061104 2206.00008964539 21 22 14
52.1148927509785 167.320162057877 2200.00004768372 20 21 13
57.4578233063221 165.416747331619 2174.99995231628 17 18 10
63.5093301534653 165.718704462051 2178.99990081787 16 17 9
69.7736516594887 166.476726531982 2188.99989128113 17 18 10
75.8846700191498 166.778221726418 2193.00007820129 17 20 11
81.6438645124435 166.318982839584 2187.00003623962 16 19 10
88.7320414185524 168.445155024529 2214.99991416931 12 13 5
96.2293595075607 171.027317643166 2249.00007247925 13 14 6
105.186231434345 175.738379359245 2311.00010871887 14 15 7
113.323085010052 178.623989224434 2348.99997711182 16 17 9
128.284186124802 181.656688451767 2388.99993896484 20 21 15
135.081246495247 182.032033801079 2394.00005340576 21 22 16
141.55013859272 181.950896978378 2392.99988746643 164 163 159
147.951155900955 181.793540716171 2391.00003242493 160 159 155
154.405295848846 181.711956858635 2390.00010490417 148 147 145
160.988047719002 181.782230734825 2391.00003242493 158 157 155
167.575627565384 181.852266192436 2391.99995994568 163 162 160
174.240812659264 181.998118758202 2394.00005340576 164 164 164
180.916205048561 182.143703103065 2395.99990844727 161 161 161
187.836542725563 182.517141103745 2401.00002288818 175 175 175
194.621503353119 182.738304138184 2404.00004386902 175 175 175
201.254650950432 182.807177305222 2404.99997138977 178 178 178
207.97897875309 182.951867580414 2407.00006484985 177 177 177
215.0699198246 183.400347828865 2413.00010681152 188 188 188
222.74386882782 184.304594993591 2424.99995231628 191 191 191
230.387762188911 185.132548213005 2436.00010871887 195 195 195
238.188028335571 186.036229133606 2447.99995422363 190 190 190
246.352836489677 187.167569994926 2463.00005912781 195 195 195
255.934059619904 189.286455512047 2490.9999370575 205 205 203
304.108202457428 208.328872919083 2742.00010299683 37 38 33
312.476933002472 208.926007151604 2750 35 34 29
320.771753787994 209.446907043457 2756.99996948242 31 30 25
-165.268808603287 208.272650837898 2841.00008010864 93 96 89
-156.689688563347 207.178711891174 2825.99997520447 134 135 130
-148.455336689949 206.451013684273 2815.99998474121 133 134 129
-140.274956822395 205.723017454147 2805.99999427795 111 112 107
-132.479444146156 205.507978796959 2802.99997329712 101 100 98
-124.966956675053 205.73253929615 2805.99999427795 90 91 86
-44.2724376916885 162.497654557228 2216.00008010864 16 17 9
-38.034975528717 161.692500114441 2204.99992370605 18 19 11
-31.9009721279144 161.107137799263 2197.00002670288 19 20 12
-25.6218463182449 159.348249435425 2173.00009727478 17 18 10
-19.6548495441675 159.055724740028 2168.99991035461 16 17 9
-13.8679249212146 160.596311092377 2190.00005722046 17 18 10
-7.95910228043795 161.989986896515 2209.00011062622 19 20 12
-1.92032288759947 161.183536052704 2197.99995422363 19 20 12
4.06584143638611 160.670176148415 2190.99998474121 16 17 9
9.99085139483213 159.789904952049 2178.99990081787 16 17 9
15.9161500632763 159.569472074509 2176.00011825562 16 17 9
21.7546988278627 158.835470676422 2165.99988937378 13 13 5
27.436388656497 157.514616847038 2148.00000190735 15 15 7
33.2367457449436 157.22019970417 2144.00005340576 18 18 10
39.598535746336 159.272089600563 2171.99993133545 20 21 13
45.9662862122059 160.810470581055 2193.00007820129 20 21 13
51.998358219862 160.955369472504 2194.9999332428 19 20 12
58.0147281289101 161.0267162323 2196.00009918213 18 19 11
64.2403438687325 161.611109972 2203.9999961853 15 16 8
69.9674710631371 160.948753356934 2194.9999332428 16 17 9
75.7144168019295 160.43284535408 2187.99996376038 16 19 10
81.8708539009094 160.796627402306 2193.00007820129 15 18 9
88.7352898716927 162.406638264656 2214.99991416931 13 14 6
95.8477705717087 164.236351847649 2240.00000953674 13 14 6
104.825928807259 168.851837515831 2302.99997329712 14 15 7
115.064024925232 174.859941005707 2384.99999046326 15 16 8
119.683295488358 172.143071889877 2348.00004959106 19 20 14
128.718435764313 175.731018185616 2397.0000743866 21 22 16
135.255426168442 175.726309418678 2397.0000743866 22 23 17
141.614407300949 175.501450896263 2394.00005340576 166 165 161
148.080229759216 175.422981381416 2392.99988746643 160 159 155
154.475450515747 175.271034240723 2391.00003242493 149 148 146
161.128476262093 175.412058830261 2392.99988746643 156 155 153
167.791813611984 175.552889704704 2394.99998092651 157 156 154
174.610942602158 175.84003508091 2398.9999294281 159 159 159
181.300222873688 175.980433821678 2401.00002288818 154 154 154
188.077911734581 176.193848252296 2404.00004386902 171 171 171
194.628372788429 176.187172532082 2404.00004386902 170 170 170
201.178088784218 176.18028819561 2404.00004386902 172 172 172
207.986295223236 176.393046975136 2407.00006484985 174 174 174
215.077474713326 176.825448870659 2413.00010681152 190 190 190
222.476080060005 177.477419376373 2421.99993133545 192 192 192
230.301216244698 178.422227501869 2434.99994277954 194 194 194
238.099008798599 179.293498396873 2447.00002670288 188 188 188
246.06129527092 180.237740278244 2460.00003814697 193 193 193
255.120933055878 181.914314627647 2483.00004005432 203 203 201
306.114941835403 202.178597450256 2759.99999046326 26 27 22
314.532905817032 202.754244208336 2767.99988746643 26 25 20
-165.972664952278 201.374873518944 2852.9999256134 99 102 95
-157.249629497528 200.180485844612 2835.99996566772 118 119 114
-149.093210697174 199.621096253395 2828.00006866455 136 137 132
-140.92980325222 198.990792036057 2819.00000572205 118 119 114
-132.956743240356 198.571965098381 2812.99996376038 101 100 98
-125.594884157181 199.07058775425 2819.9999332428 99 100 95
-118.69602650404 200.416058301926 2838.99998664856 98 99 94
-112.670056521893 203.526243567467 2882.99989700317 74 75 70
-72.1402168273926 164.848551154137 2335.00003814697 17 18 12
-44.6735993027687 157.867223024368 2236.00006103516 15 16 8
-38.4848304092884 157.515630125999 2230.99994659424 17 18 10
-32.0473164319992 155.822396278381 2207.00001716614 17 18 10
-25.6463401019573 153.56408059597 2174.99995231628 14 15 7
-19.6555517613888 153.141245245934 2168.99991035461 16 17 9
-13.8620855286717 154.553920030594 2188.99989128113 19 20 12
-7.89452902972698 154.695510864258 2190.99998474121 19 20 12
-1.92475982476026 155.542954802513 2203.00006866455 19 20 12
4.0195919573307 152.93051302433 2165.99988937378 16 17 9
10.0508164614439 154.766008257866 2191.99991226196 17 18 10
16.1361563950777 155.754014849663 2206.00008964539 17 18 10
21.9563562422991 154.341265559196 2186.00010871887 13 13 5
27.5523271411657 152.292877435684 2157.00006484985 13 13 5
33.346451818943 151.86819434166 2151.00002288818 16 16 8
39.3264703452587 152.290523052216 2157.00006484985 17 18 10
45.8002313971519 154.2659252882 2184.99994277954 18 19 11
52.00020596385 154.970228672028 2194.9999332428 17 18 10
58.3338141441345 155.886098742485 2207.99994468689 17 18 10
64.1551837325096 155.38977086544 2200.99997520447 14 15 7
70.0974613428116 155.246242880821 2198.99988174438 13 14 6
75.7170990109444 154.46712076664 2187.99996376038 13 16 7
82.1350887417793 155.311539769173 2200.00004768372 13 16 7
89.2592370510101 157.285243272781 2227.9999256134 14 15 7
96.0223153233528 158.411547541618 2243.99995803833 13 14 6
104.146838188171 161.514148116112 2288.00010681152 13 14 6
112.462759017944 164.545804262161 2331.00008964539 14 15 7
121.165752410889 167.788907885551 2377.00009346008 19 20 14
128.937751054764 169.478684663773 2401.00002288818 22 23 17
135.203704237938 169.121220707893 2395.99990844727 24 25 19
141.619354486465 168.975293636322 2394.00005340576 159 158 154
148.085400462151 168.89975965023 2392.99988746643 153 152 148
154.610022902489 168.894588947296 2392.99988746643 152 151 149
161.26874089241 169.030353426933 2394.99998092651 159 158 156
168.007791042328 169.236496090889 2398.00000190735 159 158 156
174.762561917305 169.442400336266 2401.00002288818 157 157 157
181.532979011536 169.648095965385 2404.00004386902 149 149 149
188.240826129913 169.782966375351 2405.99989891052 172 172 172
194.796949625015 169.776514172554 2405.99989891052 169 169 169
201.352313160896 169.769868254662 2405.99989891052 169 169 169
207.993373274803 169.833600521088 2407.00006484985 181 181 181
215.084761381149 170.249879360199 2413.00010681152 187 187 187
222.299888730049 170.736491680145 2420.00007629395 192 192 192
229.930639266968 171.505063772202 2430.99999427795 195 195 195
237.815052270889 172.41445183754 2444.00000572205 191 191 191
245.86945772171 173.394113779068 2457.99994468689 195 195 195
254.512906074524 174.726188182831 2476.99999809265 201 201 199
297.251850366592 189.017757773399 2680.0000667572 22 23 18
313.975006341934 194.861635565758 2763.00001144409 27 28 22
-157.975792884827 193.33054125309 2848.99997711182 104 105 100
-149.941802024841 192.996352910995 2844.00010108948 120 121 116
-141.73449575901 192.39042699337 2835.00003814697 125 126 121
-133.575737476349 191.784232854843 2825.99997520447 96 97 92
-126.089081168175 192.127883434296 2831.00008964539 87 88 83
-119.243614375591 193.557187914848 2851.99999809265 82 83 78
-113.064713776112 196.343630552292 2892.99988746643 69 70 65
-73.193147778511 160.788863897324 2368.99995803833 16 17 11
-65.3481632471085 157.465428113937 2319.9999332428 14 15 9
-51.6179092228413 154.279306530952 2273.00000190735 15 16 10
-38.7276597321033 152.38182246685 2244.99988555908 15 16 8
-32.2371907532215 150.686100125313 2220.00002861023 15 16 8
-25.6236381828785 147.4968791008 2173.00009727478 12 13 5
-19.6471661329269 147.158265113831 2167.99998283386 16 17 9
-13.7802371755242 147.701859474182 2176.00011825562 20 21 13
-7.8875944018364 148.584604263306 2188.99989128113 18 19 11
-1.90385640598834 147.905990481377 2178.99990081787 19 20 12
4.02529817074537 147.227182984352 2168.99991035461 17 18 10
10.0374072790146 148.584514856339 2188.99989128113 19 20 12
16.3269005715847 151.502817869186 2232.00011253357 19 20 12
22.4291980266571 151.570051908493 2233.00004005432 15 15 7
27.7704335749149 147.564440965652 2174.00002479553 15 15 7
33.3941094577312 146.205872297287 2154.00004386902 16 16 8
39.2184294760227 146.001026034355 2151.00002288818 16 17 9
45.3616045415401 146.881982684135 2164.00003433228 17 18 10
51.6229309141636 147.898465394974 2178.99990081787 16 17 9
58.0451972782612 149.118363857269 2197.00002670288 17 18 10
64.215674996376 149.523541331291 2203.00006866455 13 14 6
69.8767155408859 148.774683475494 2191.99991226196 13 14 6
75.7889077067375 148.636505007744 2190.00005722046 13 16 7
81.6152021288872 148.362413048744 2186.00010871887 12 15 6
88.2206037640572 149.445429444313 2201.99990272522 13 14 6
96.2395370006561 152.632132172585 2249.00007247925 13 14 6
102.966852486134 153.511077165604 2262.00008392334 13 14 6
111.308611929417 156.561389565468 2306.99992179871 14 15 7
123.106934130192 163.886681199074 2414.99996185303 16 17 11
135.433986783028 162.860199809074 2400.00009536743 24 25 19
141.742438077927 162.584185600281 2395.99990844727 162 161 157
148.214146494865 162.511542439461 2394.99998092651 153 152 148
154.809042811394 162.574410438538 2395.99990844727 152 151 149
161.476135253906 162.704929709435 2398.00000190735 156 155 153
168.223574757576 162.903055548668 2401.00002288818 155 154 152
174.986720085144 163.101002573967 2404.00004386902 150 150 150
181.690022349358 163.230866193771 2405.99989891052 144 144 144
188.40354681015 163.36053609848 2407.99999237061 168 168 168
194.884344935417 163.286477327347 2407.00006484985 164 164 164
201.275259256363 163.144409656525 2404.99997138977 168 168 168
207.827359437943 163.137808442116 2404.99997138977 182 182 182
214.913502335548 163.538008928299 2411.00001335144 187 187 187
222.123399376869 164.005815982819 2417.99998283386 194 194 194
230.221852660179 165.083795785904 2434.00001525879 197 197 197
238.017395138741 165.890216827393 2446.00009918213 191 191 191
246.377557516098 167.035490274429 2463.00005912781 192 192 192
254.829376935959 168.180420994759 2480.00001907349 195 195 193
298.037737607956 182.191073894501 2687.00003623962 27 29 24
-158.25816988945 185.887858271599 2854.00009155273 110 111 106
-150.210291147232 185.567110776901 2848.99997711182 116 117 112
-142.239063978195 185.311242938042 2845.00002861023 121 122 117
-134.289115667343 185.055136680603 2841.00008010864 94 95 90
-126.850381493568 185.515284538269 2848.00004959106 88 89 84
-119.916506111622 186.822012066841 2868.00003051758 82 83 78
-57.1362785995007 146.319463849068 2246.00005149841 13 14 8
-51.8694184720516 148.796811699867 2283.99991989136 13 14 8
-45.1161749660969 147.104516625404 2257.99989700317 11 12 6
-38.3321680128574 144.760549068451 2221.99988365173 11 12 6
-31.8461731076241 142.872348427773 2193.00007820129 12 13 7
-25.8485358208418 142.808139324188 2191.99991226196 13 14 8
-19.7021923959255 141.636177897453 2174.00002479553 16 17 11
-13.7173617258668 141.115516424179 2165.99988937378 17 18 12
-7.83020257949829 141.571938991547 2173.00009727478 15 16 10
-1.90916215069592 142.353892326355 2184.99994277954 16 17 11
4.058837890625 142.484158277512 2187.00003623962 16 17 11
9.89558827131987 140.594571828842 2157.99999237061 18 19 13
16.1079857498407 143.460750579834 2201.99990272522 18 19 13
28.1929038465023 143.785074353218 2207.00001716614 19 18 13
33.6277708411217 141.308382153511 2168.99991035461 16 15 10
39.4020564854145 140.7860070467 2161.00001335144 16 17 11
45.4679094254971 141.305819153786 2168.99991035461 14 15 9
51.6009442508221 141.890585422516 2177.99997329712 13 14 8
57.7829033136368 142.475143074989 2187.00003623962 15 16 10
63.9554411172867 142.929196357727 2194.00000572205 15 16 10
70.0702890753746 143.187612295151 2197.99995422363 15 16 10
75.5491405725479 142.208114266396 2183.00008773804 13 16 9
81.7298740148544 142.596408724785 2188.99989128113 11 14 7
87.9029929637909 142.919406294823 2194.00000572205 11 12 4
104.973182082176 150.208860635757 2305.99999427795 13 14 6
113.000988960266 152.550309896469 2342.00000762939 15 16 8
129.322230815887 156.84150159359 2407.99999237061 22 23 17
135.607704520226 156.511604785919 2403.00011634827 23 24 18
141.983672976494 156.311795115471 2400.00009536743 144 143 139
148.466482758522 156.242042779922 2398.9999294281 140 139 135
155.137121677399 156.367510557175 2401.00002288818 152 151 149
161.818042397499 156.492739915848 2403.00011634827 154 153 151
168.509259819984 156.617790460587 2404.99997138977 153 152 150
174.992337822914 156.547263264656 2404.00004386902 139 139 139
181.695803999901 156.671896576881 2405.99989891052 141 141 141
188.331305980682 156.731233000755 2407.00006484985 163 163 163
194.971516728401 156.790360808372 2407.99999237061 157 157 157
201.365321874619 156.653985381126 2405.99989891052 172 172 172
207.920327782631 156.647622585297 2405.99989891052 185 185 185
214.831113815308 156.901523470879 2410.00008583069 190 190 190
222.130388021469 157.415613532066 2417.99998283386 194 194 194
230.039864778519 158.320054411888 2431.99992179871 193 193 193
237.927481532097 159.159168601036 2444.9999332428 183 183 183
246.385216712952 160.323485732079 2463.00005912781 182 182 182
255.042791366577 161.552593111992 2482.00011253357 182 184 181
301.929086446762 177.147775888443 2721.99988365173 27 32 26
303.312122821808 173.68957400322 2668.99991035461 24 29 22
-150.584056973457 178.234696388245 2855.99994659424 115 116 111
-142.693504691124 178.114384412766 2854.00009155273 117 118 113
-134.766027331352 177.931427955627 2851.0000705719 94 95 90
-127.210706472397 178.247526288033 2855.99994659424 87 88 83
-120.254799723625 179.499581456184 2875.99992752075 81 82 77
-115.221656858921 183.997005224228 2947.99995422363 75 76 71
-51.6666732728481 142.005324363708 2275.00009536743 13 14 8
-45.3174263238907 141.569882631302 2267.99988746643 12 13 7
-37.884846329689 137.076899409294 2196.00009918213 11 12 6
-31.6003113985062 135.829538106918 2176.00011825562 11 12 6
-25.7432274520397 136.267378926277 2183.00008773804 13 14 8
-19.8297016322613 136.58019900322 2187.99996376038 15 16 10
-13.7304654344916 135.332271456718 2167.99998283386 15 16 10
-7.77279445901513 134.645968675613 2157.00006484985 13 14 8
-1.90223287791014 135.894581675529 2177.00004577637 15 16 10
4.05525509268045 136.393919587135 2184.99994277954 15 16 10
9.99220181256533 136.019170284271 2178.99990081787 17 18 12
15.9036684781313 135.706648230553 2174.00002479553 15 16 10
21.8882206827402 136.018171906471 2178.99990081787 20 21 15
28.0405022203922 137.016147375107 2194.9999332428 19 20 14
33.6753539741039 135.579481720924 2171.99993133545 16 17 11
39.3303744494915 134.642034769058 2157.00006484985 16 17 11
45.4483926296234 135.327339172363 2167.99998283386 14 15 9
51.6262799501419 136.012449860573 2178.99990081787 13 14 8
57.9696856439114 136.94703578949 2194.00000572205 15 16 10
64.1032233834267 137.257233262062 2198.99988174438 15 16 10
70.35943120718 137.754499912262 2207.00001716614 16 17 11
76.8666714429855 138.626039028168 2220.99995613098 14 17 10
97.23000228405 141.801089048386 2272.0000743866 11 12 4
106.251128017902 145.667493343353 2334.00011062622 13 14 6
112.763270735741 145.851343870163 2336.99989318848 16 17 9
120.667800307274 147.720038890839 2367.00010299683 20 21 15
128.789216279984 149.650856852531 2398.00000190735 22 23 17
135.611936450005 149.958834052086 2403.00011634827 23 24 18
142.047241330147 149.829775094986 2401.00002288818 141 140 136
148.594871163368 149.825349450111 2401.00002288818 138 137 133
155.20653128624 149.88312125206 2401.99995040894 152 151 149
161.957740783691 150.065511465073 2404.99997138977 151 150 148
168.654605746269 150.18530189991 2407.00006484985 149 148 146
175.216123461723 150.180116295815 2407.00006484985 134 134 134
181.852445006371 150.237113237381 2407.99999237061 139 139 139
188.415303826332 150.231555104256 2407.99999237061 159 159 159
195.058420300484 150.288194417953 2408.99991989136 154 154 154
201.455146074295 150.157511234283 2407.00006484985 173 173 173
208.013072609901 150.151416659355 2407.00006484985 184 184 184
214.837625622749 150.332272052765 2410.00008583069 188 188 188
222.045212984085 150.76245367527 2417.00005531311 191 191 191
230.046764016151 151.691377162933 2431.99992179871 188 188 188
237.934619188309 152.495354413986 2444.9999332428 181 181 181
246.492579579353 153.673261404037 2463.99998664856 182 182 182
254.947602748871 154.726162552834 2480.99994659424 182 184 181
298.943012952805 168.04713010788 2694.9999332428 20 25 19
313.094556331635 171.779558062553 2755.00011444092 19 24 17
-151.274040341377 171.221494674683 2868.99995803833 115 116 111
-142.997786402702 170.688703656197 2859.99989509583 118 119 114
-135.006442666054 170.454055070877 2855.99994659424 106 107 102
-127.303630113602 170.577317476273 2858.00004005432 115 116 110
-120.300240814686 171.714976429939 2877.00009346008 104 105 99
-114.717036485672 175.180241465569 2934.99994277954 81 82 76
-51.8726482987404 136.336833238602 2283.99991989136 11 12 6
-44.8392406105995 133.950561285019 2243.99995803833 11 12 6
-38.1275303661823 131.922259926796 2210.00003814697 10 11 5
-31.6884070634842 130.251869559288 2181.99992179871 12 13 7
-25.8383583277464 130.78998029232 2190.99998474121 13 14 8
-19.9571903795004 131.447285413742 2201.99990272522 11 12 6
-13.8512216508389 130.552396178246 2187.00003623962 9 10 4
-7.80906900763512 129.35882806778 2167.00005531311 12 13 7
-1.88568839803338 128.821700811386 2157.99999237061 13 14 8
4.03867522254586 129.896178841591 2176.00011825562 14 15 9
10.001678019762 130.194440484047 2180.99999427795 15 16 10
15.8529430627823 129.35833632946 2167.00005531311 16 17 11
21.8386631458998 129.775628447533 2174.00002479553 14 17 10
27.7730841189623 129.774883389473 2174.00002479553 15 18 11
33.6298681795597 129.475504159927 2168.99991035461 15 18 11
39.1856953501701 128.28055024147 2148.9999294281 13 16 9
45.4288199543953 129.353761672974 2167.00005531311 11 14 7
52.2438734769821 131.620600819588 2204.99992370605 12 15 8
58.1299848854542 131.320506334305 2200.00004768372 10 13 4
64.3675401806831 131.796211004257 2207.99994468689 11 14 5
70.3615620732307 131.734505295753 2207.00001716614 12 15 6
76.4883011579514 131.911411881447 2210.00003814697 13 16 7
99.8863130807877 139.304742217064 2334.00011062622 15 16 8
106.299854815006 139.361381530762 2335.00003814697 15 16 8
114.359013736248 141.447022557259 2369.99988555908 16 17 9
122.914589941502 143.890485167503 2411.00001335144 13 14 8
128.793060779572 143.110930919647 2398.00000190735 24 25 20
135.615989565849 143.405467271805 2403.00011634827 20 21 16
142.051488161087 143.282040953636 2401.00002288818 150 149 147
148.723095655441 143.397137522697 2403.00011634827 140 139 137
155.534237623215 143.631398677826 2407.00006484985 152 150 151
162.299260497093 143.805801868439 2410.00008583069 149 147 148
169.009953737259 143.920332193375 2411.99994087219 149 147 148
175.439685583115 143.796011805534 2410.00008583069 130 129 127
182.084381580353 143.850520253181 2411.00001335144 148 147 145
188.499093055725 143.725842237473 2408.99991989136 155 154 152
195.064127445221 143.720328807831 2408.99991989136 153 153 151
201.544746756554 143.655017018318 2407.99999237061 188 188 186
208.278402686119 143.768489360809 2410.00008583069 185 185 183
215.111315250397 143.941402435303 2413.00010681152 180 180 180
222.14350104332 144.233465194702 2417.99998283386 176 176 176
229.864239692688 144.942864775658 2430.0000667572 179 179 179
237.649500370026 145.652011036873 2441.99991226196 179 181 180
246.09948694706 146.718814969063 2460.00003814697 179 181 180
254.749357700348 147.844970226288 2479.00009155273 182 184 181
300.282567739487 161.418572068214 2707.00001716614 17 20 13
303.215891122818 159.084737300873 2667.99998283386 25 28 21
-143.351912498474 163.286551833153 2867.00010299683 119 120 115
-135.1048797369 162.777870893478 2858.00004005432 111 112 107
-127.396389842033 162.895485758781 2859.99989509583 106 107 101
-120.261900126934 163.810312747955 2875.99992752075 111 112 106
-114.329487085342 166.604578495026 2924.99995231628 97 98 92
-59.3548938632011 132.895648479462 2332.99994468689 13 14 8
-50.0117801129818 125.434935092926 2201.99990272522 11 12 6
-44.0412536263466 125.550210475922 2203.9999961853 11 12 6
-37.662822753191 124.355122447014 2183.00008773804 10 11 5
-31.6893309354782 124.299131333828 2181.99992179871 11 12 6
-25.7565602660179 124.413900077343 2184.00001525879 12 13 7
-19.8399499058723 124.699376523495 2188.99989128113 11 12 6
-13.8452928513288 124.528959393501 2186.00010871887 9 10 4
-7.80208921059966 123.332969844341 2164.99996185303 11 12 6
-1.88224820885807 122.706465423107 2154.00004386902 12 13 7
3.99795966222882 122.706435620785 2154.00004386902 13 14 8
9.91942454129457 123.218953609467 2163.00010681152 14 15 9
15.8973038196564 123.788245022297 2173.00009727478 14 15 9
