ply
format ascii 1.0
comment KinectMotionCapture
element vertex 788
property float x
property float y
property float z
property uchar red
property uchar green
property uchar blue
end_header
195.168647425754 -88.0564212848631 2894.10486771353 14 17 10
186.774942951984 -88.0415474986488 2896.76942904377 14 17 10
183.266867550958 -87.0589406054319 2902.94192738361 13 16 9
181.404550210773 -85.7559377712135 2910.26662789554 11 14 7
144.27466102186 -91.3542423850034 2892.70106622283 13 16 9
91.3671807999861 -99.9768955928393 2864.32691683628 14 17 10
57.1974824146491 -104.891782751456 2849.38880824741 8 10 7
45.2053141931161 -105.477221414779 2850.04778592125 6 8 5
88.6800291757588 -95.3753805396543 2888.98743450072 6 8 5
84.2297106151557 -94.5367830551237 2894.69963159493 8 10 7
60.6438964383571 -97.3546210640352 2887.36279907824 8 10 5
52.8222114717201 -97.1461315960148 2890.84796742839 8 10 5
53.3504678762995 -95.3516084686095 2899.97721218307 9 11 6
51.3928968701784 -94.0352099245623 2907.39485895531 9 11 6
61.2106328781032 -90.509464128521 2922.63065520665 10 13 6
51.7362337185978 -90.6199924355064 2924.97032523431 11 14 7
42.2431711715863 -90.7280664347981 2927.32782769406 11 14 7
30.1946364997585 -91.3053082881453 2928.04156660135 9 15 5
25.7450337301766 -90.4660344457021 2933.75295293909 13 18 11
4.30799460723685 -92.7614715548362 2928.45621019949 11 16 10
230.389104888078 -182.997417140336 2432.47177772436 178 179 183
228.922082400371 -181.209476551664 2442.16642749335 177 176 181
226.759253531637 -179.600327679403 2451.1612014625 160 160 162
222.452544470383 -178.520888039475 2458.11244299525 169 169 171
218.153899942719 -177.442125991395 2465.0557764747 145 145 147
213.863143047964 -176.364153618176 2471.99105628968 148 148 150
208.853603900702 -175.461984625862 2478.24950969416 135 135 137
203.119081109967 -174.734943834626 2483.83651928575 135 135 137
195.922802181226 -174.356848475735 2488.09249183618 145 145 147
185.787263523188 -174.674922420253 2489.7021111542 117 117 119
172.689053858563 -175.686184820274 2488.68818441621 106 106 108
160.289056117084 -176.518459229963 2488.37137788798 109 109 111
149.33205852502 -176.998775059834 2489.40378803296 126 127 131
124.75718682865 -146.284961801622 2655.21998139339 8 10 5
188.220287872573 -130.539674227262 2715.98708828333 24 27 20
186.696401849076 -129.004130673709 2724.35826139581 9 12 3
207.0253212858 -122.756066934 2750.00926869107 22 25 16
228.2651161874 -116.356193377646 2776.15023507761 19 22 11
271.579490333629 -105.272229495113 2819.35501292148 20 23 12
278.214148072191 -102.098143120317 2833.55290010456 18 21 12
244.744574490317 -107.468474126294 2816.56996232013 17 20 11
227.714363450267 -109.310777566948 2812.49817630389 16 19 10
249.405538056918 -102.967687952593 2838.19964645452 16 19 10
263.296096871668 -98.3079688232282 2857.72560027815 15 18 11
223.996372933908 -104.808562798275 2836.78009944778 15 18 11
219.608527946337 -103.977251412024 2842.43133624258 15 18 11
244.795135298881 -97.0081953934677 2870.23724755625 13 16 9
264.522166735935 -91.2176098075435 2893.71939712663 12 15 8
245.020647930778 -93.5468560695281 2887.92289823696 12 15 8
215.789867143061 -97.8488352667119 2875.07500620658 12 15 8
198.547540700729 -99.6623637660195 2871.20960099669 12 15 8
197.425780939194 -98.1753605508463 2879.18896886933 12 15 8
206.054117131957 -94.7180314248473 2894.19905935592 11 14 7
208.247074480323 -92.5823846278456 2904.45863217066 12 15 8
190.108402642031 -94.5486537109593 2900.08931470522 13 16 9
180.074800157564 -94.870408677337 2901.59825394941 13 16 9
183.934804761237 -92.4113723267221 2912.98878383879 11 14 7
149.273531289337 -97.6259570409538 2897.16620242781 12 15 8
96.3794236830875 -106.406371820958 2868.80209092773 13 16 9
65.5199855784963 -110.766269281828 2856.16279282336 7 9 6
43.6312920596604 -113.324214904189 2849.93643890146 6 8 5
118.575471983022 -96.9001023359612 2910.53862277267 6 8 5
104.232211679866 -98.0101831601825 2909.3584078842 8 10 7
70.7077806643262 -102.832798000905 2895.18314860975 8 10 5
37.8866534050286 -107.477110984383 2881.70005468969 7 9 4
27.511428131938 -107.753749803372 2883.54156226621 9 11 6
26.3316990453286 -106.257418951372 2891.57711591494 9 11 6
34.4110371544386 -102.996430816924 2905.74414156738 10 13 6
47.6045620773657 -98.7809698823854 2923.19410288139 11 14 7
38.1021762043567 -98.9007957392026 2925.56293830308 12 15 8
36.1926327318813 -97.5790135808573 2932.9317594866 10 15 8
22.4325310139024 -98.4945094857866 2932.560947096 15 20 14
-0.710871622786158 -101.158591665196 2926.1789776532 8 13 7
227.602341519148 -191.720571278197 2430.86037820477 184 185 189
226.844844655413 -189.736316884129 2441.23835276346 164 163 168
226.114874821862 -187.755223123264 2451.58945971446 171 171 173
221.806377386831 -186.670029702923 2458.54162672257 159 159 161
218.229060011375 -185.407247657052 2466.15838291912 148 148 150
211.763037303493 -184.8579485212 2471.08080572132 141 141 143
208.201892724017 -183.596659851592 2478.68172281274 132 132 134
201.736647535816 -183.046749404236 2483.60362101683 138 138 140
195.26782330336 -182.49613714397 2488.52896953713 145 145 147
184.397804477815 -183.007128359648 2489.4795422898 115 115 117
172.031002135498 -183.868044897637 2489.13400553354 107 107 109
160.366276726075 -184.547689156342 2489.48141335832 110 110 112
148.670922654334 -185.223131410443 2489.8589526851 126 127 131
196.804907746047 -138.068661070502 2714.24318992521 25 28 21
172.779731859837 -141.495318080482 2704.59847678597 18 21 14
196.88320837097 -134.286594473817 2733.44453027192 20 23 14
199.30344765603 -131.887336374685 2744.85669428806 20 23 14
212.706442271055 -127.10110941526 2764.84810876751 17 20 11
221.502183749411 -123.350300883036 2781.06583436244 18 21 12
265.717967670899 -111.942781294888 2824.74458689992 19 22 13
247.968156655941 -114.004232016752 2820.00285485115 18 21 12
226.999221307146 -116.736963917423 2812.88900080547 15 18 9
209.118685243364 -118.781271270449 2808.27454688022 15 18 11
230.049508922529 -112.519410281495 2833.32581513754 14 17 10
215.322716808676 -113.883352209395 2831.14740209127 14 17 10
223.668937175742 -110.344639122756 2846.42560924937 13 16 9
237.676054130722 -105.6341438594 2865.82831442628 13 16 9
241.36304497553 -103.124106806297 2877.38311165427 12 15 8
235.457337064707 -102.636685678621 2881.7586169646 13 16 9
219.083901511835 -104.330761429854 2878.42998235261 14 17 10
217.181313986851 -103.00102559745 2885.79072062789 12 15 8
222.575012220016 -100.167026226576 2898.43700717782 11 14 7
194.777034219121 -104.19071238711 2886.95900784557 13 16 9
188.815450286173 -103.695318439995 2891.38882049263 14 17 10
180.406795732253 -103.699212085809 2894.07133913371 11 14 7
172.80006184576 -103.534729927866 2897.34956214493 12 15 8
178.279618759905 -100.711038430736 2909.91211325465 13 16 9
150.169827476682 -104.693911867448 2898.73771701844 12 15 8
81.6529010383378 -116.777371175533 2859.45218001647 9 12 5
30.9745242341131 -125.184586184805 2833.08338426549 6 8 5
59.410578392221 -117.714140425453 2861.839507476 6 8 5
39.1391846554261 -119.990766434546 2856.7993906819 6 8 5
68.6107749659515 -112.381941276962 2885.92366808813 7 9 6
65.7928954425029 -111.204033433028 2892.79883564106 8 10 5
47.9742226655007 -112.981597671362 2889.50043535938 9 11 6
22.5744924035642 -116.226373850754 2881.19413096955 9 11 6
25.5726785148491 -113.896540198122 2892.0426461465 10 12 7
54.6468823335982 -106.507604782151 2920.17712450357 11 14 7
41.7899907443147 -107.294590205108 2920.30732662788 11 14 7
22.1491811770798 -109.380030157223 2916.03002037565 11 14 7
21.8943121114386 -107.716964286183 2924.53944030634 9 14 7
5.55876488231544 -109.14179047492 2922.55029637875 9 14 8
-18.4722102757586 -112.019205706379 2915.66432078462 10 15 9
226.246419958243 -200.10059955967 2430.6112364018 182 183 187
226.20248819315 -197.915040052807 2441.66812462106 159 158 163
225.470596576776 -195.914730800761 2452.01829988961 171 171 173
221.881472172098 -194.642543726295 2459.6453905816 156 156 158
217.581013437477 -193.552586471173 2466.58853310667 147 147 149
212.563750939679 -192.644077664595 2472.85371889062 142 142 144
207.550501160604 -191.73581106955 2479.11461794232 130 130 132
201.083541912692 -191.188293908303 2484.03857195968 138 138 140
192.419938223863 -191.180098269987 2486.97213422766 145 145 147
183.008396777926 -191.349337692342 2489.25806309375 113 113 115
173.577531986203 -191.51593641333 2491.56245219135 104 104 106
162.654053991036 -192.038321165387 2492.56779464943 111 111 113
195.339767494688 -147.846091953229 2704.38999848259 17 19 16
247.180387068045 -134.235701066801 2755.75894694901 31 34 27
232.592008418278 -135.651605421143 2753.45042946872 25 28 21
238.178768828521 -132.536149162329 2767.28031253541 20 23 14
243.820694034706 -129.427514622716 2781.05642439138 19 22 13
218.253146599013 -133.267693790467 2770.17094660209 20 23 14
249.785506167334 -124.443933743207 2804.15416725603 19 22 13
254.008374624671 -121.700271445587 2816.55920970166 17 20 11
239.379971419148 -123.10966888596 2814.28981331985 16 19 10
234.967714559506 -122.26985486331 2819.96403477855 14 17 10
213.941910515284 -125.048740122662 2812.91347363436 12 15 8
185.699463141256 -129.36606210628 2800.5033288888 13 16 9
213.011770960335 -121.642572894284 2830.3379491142 13 16 9
229.323534421159 -116.34125686202 2851.6158489854 13 16 9
229.758680785727 -114.479402873449 2860.82760191436 13 16 9
207.792170671338 -117.410465145515 2853.31675818234 13 16 9
213.850028138324 -114.352835482225 2866.68738165316 13 16 9
220.767967707812 -111.131611786472 2880.59666107301 14 17 10
213.221343137219 -110.983211911819 2883.8179094414 12 15 8
206.47245144418 -110.663315371887 2887.63822161321 11 14 7
188.365923467688 -112.719585468417 2883.24994908632 13 16 9
183.201559498716 -112.054943017259 2888.28000498682 14 17 10
174.779542773593 -112.067501178123 2890.97707307298 11 14 7
171.242313052932 -111.063677398092 2897.1750483946 12 15 8
164.194099013621 -109.058922297597 2909.5460401539 11 14 7
80.086373910417 -124.552129215819 2859.32271397755 9 12 5
50.839109827626 -128.737439704323 2847.89119367838 6 8 5
32.2219914490005 -130.726806108179 2844.00005663216 6 8 5
45.844633327496 -126.173463801383 2862.39086906424 6 8 5
33.8222186887416 -126.818158287437 2863.08830202022 7 9 6
40.0761680579542 -123.783507839517 2876.26793749335 8 10 5
43.0490621017117 -121.423168411032 2887.1370593269 9 11 6
37.7018765111998 -120.733384996222 2892.34494397673 9 11 6
40.7347194731367 -118.380573597009 2903.15564828776 10 12 7
47.1665648166559 -115.368528374078 2916.161633629 11 14 7
31.7671442307828 -116.674551542419 2914.64225238936 11 14 7
17.166024255872 -117.80902827105 2913.72203951282 11 14 7
-6.77903579480832 -120.756479168718 2906.76110018787 9 14 7
4.79051210596726 -116.760465044125 2923.02197235691 14 19 13
-42.1788167373416 -124.146355326182 2901.32121739259 9 14 8
223.543387480725 -211.071690738311 2417.91298475645 148 149 153
224.175377254465 -208.67516006139 2429.68406292462 182 183 187
225.560064308657 -206.098311767984 2442.09829786113 159 159 161
225.545619283113 -203.894474160889 2453.12320381689 174 174 176
221.23533952899 -202.798089553478 2460.07514879965 154 154 156
214.76386285216 -202.253496801507 2465.00402091713 145 145 147
209.738818384062 -201.341251865581 2471.27604427234 141 141 143
206.172086141332 -200.062747510822 2478.87996552522 129 129 131
199.70147245004 -199.517320050666 2483.80785731579 138 138 140
192.496238901111 -199.1538699807 2488.07488650376 132 132 134
180.886362304679 -199.883960835647 2488.37562247331 110 110 112
171.450007085972 -200.063209098065 2490.68733324277 103 103 105
160.521066678698 -200.603642570897 2491.70076754987 111 111 113
262.5682859417 -139.939974833982 2759.74279756247 27 29 24
258.087988441886 -139.090138471269 2765.4831030852 29 32 25
253.612238392795 -138.240668996082 2771.21894714796 21 24 15
211.149844936161 -144.132381179301 2756.15818791718 21 24 15
241.776214241054 -135.341856065429 2789.62907308662 20 23 14
242.80764598956 -133.262306796301 2799.63343986493 19 22 13
253.296842273447 -129.077570702131 2816.93922413539 15 18 9
236.304635593705 -131.045343195361 2812.84858134073 14 17 8
224.780291526216 -131.778803159004 2813.06454235543 14 17 10
239.339342596252 -126.732919989499 2833.28684577066 11 14 7
195.294806965828 -134.631381381292 2808.75748569573 12 15 8
197.977866413295 -132.209427203201 2819.90531093484 12 15 8
189.540545729077 -132.231938275387 2822.61904711456 13 16 9
202.259880617282 -125.841750302263 2850.13716550234 13 15 10
206.698039855196 -123.091157884568 2862.32773459354 13 16 9
194.280161031713 -123.984908658971 2862.03777042393 14 17 10
199.579226462961 -121.067951368266 2874.76576760076 12 15 8
185.518482069065 -122.303558825722 2873.32390086161 11 14 7
187.630699049268 -120.083489965566 2883.65151035343 13 16 9
180.839097553513 -119.762720291596 2887.51410494187 14 17 10
174.855380370336 -119.268855563146 2891.96612225146 11 14 7
172.951369069045 -117.915721265689 2899.32481607474 11 14 7
154.693627711941 -119.994707926473 2895.09005816842 13 16 9
110.94108426656 -127.374628500728 2873.02826190835 10 13 6
76.0533067801563 -132.849989332058 2857.46914492834 8 11 4
64.1080008547421 -133.526059193863 2858.09498290093 6 8 5
68.6576283861124 -130.787958156113 2870.17637070744 6 8 5
45.9243500638995 -133.6743823593 2863.42034165362 6 8 5
39.7130897027167 -133.150168032699 2868.09348920332 7 9 6
32.6671282147544 -132.795163431427 2872.20394495885 8 10 5
33.9542240680513 -130.744114906769 2881.95864589928 9 11 6
42.7969280418812 -127.173729798433 2896.73915638551 9 11 6
48.3548030520478 -124.287910604597 2909.21475402169 10 12 7
43.0462607081408 -123.602468065599 2914.38490693595 11 14 7
37.738780081447 -122.917026693067 2919.55400572172 11 14 7
22.3079280223439 -124.250722495891 2918.07026424492 11 14 7
4.29452319912826 -126.082505275606 2914.97324924055 13 18 11
-16.318490015212 -128.410103553177 2910.28023715873 8 13 7
215.771494888664 -221.187978991362 2411.53841811299 152 153 157
222.104522663744 -217.265105657047 2428.75897655855 181 182 186
226.352485165906 -213.911700511538 2443.8834748395 157 157 159
224.901546795256 -212.060243730754 2453.55276517703 165 165 167
220.589489431273 -210.9581214421 2460.50562732588 146 146 148
214.116314773291 -210.415938745403 2465.43654176885 138 138 140
210.539704851838 -209.128287329541 2473.04891977109 139 139 141
206.247956487544 -208.027752327358 2479.98184938328 130 130 132
199.777589436396 -207.484921104063 2484.90987997921 138 138 140
189.64902373596 -207.868489192298 2486.52225505309 127 127 129
178.031785597549 -208.61910191854 2486.83333426626 107 107 109
167.118453124498 -209.180579434847 2487.83437996438 105 105 107
158.38835742449 -209.184316182729 2490.83573338386 110 110 112
184.68660592873 -165.440980733505 2697.7311804619 35 37 34
251.198002272123 -148.007069693417 2760.88968235947 24 27 20
253.686524343259 -145.534969032863 2772.22327446087 18 21 12
232.275334542401 -146.698389606214 2773.81877368528 22 25 16
230.12719844249 -145.306120667754 2781.41410295958 20 23 14
227.211928149207 -144.094411548141 2788.38098517287 18 21 12
207.814485654322 -146.631699738671 2782.51188547475 14 17 10
242.678481727358 -136.86347262584 2818.71512512192 13 16 9
254.061183657614 -132.459384771458 2836.51813430045 13 16 9
254.448468256315 -130.553578387084 2845.77125636753 12 15 8
234.239393758921 -133.265140303371 2839.31662966687 12 15 8
212.366907739085 -136.321557759603 2831.73060821851 13 16 9
189.616673871088 -139.544293877487 2823.6242137087 13 15 10
173.973261154592 -141.165540659127 2820.9768008563 14 16 11
170.295139215638 -140.133370271942 2827.31049461729 14 16 11
184.290897091075 -135.225414190396 2846.69563274741 13 16 9
191.941249775731 -131.737139441318 2861.25505440551 14 17 10
189.97287414426 -130.365260162065 2868.67523030201 12 15 8
191.255789215423 -128.293517244733 2878.43102419871 11 14 7
175.545655640686 -129.905099714478 2875.84843776377 13 16 9
176.851864430357 -127.835952565436 2885.58182214905 14 17 10
167.60004498205 -128.042032107868 2887.71425182203 11 14 7
147.714912272036 -130.51349024675 2882.31970606404 11 14 7
135.126934543291 -131.408087567793 2882.1987777411 12 15 8
115.121177867292 -133.863751155159 2876.92134109467 10 13 6
73.6655037822658 -140.826845778118 2856.76817870739 8 11 4
56.7688496197416 -142.564098065612 2853.96548938259 6 8 5
57.1697354149183 -140.65692691128 2863.2045657061 6 8 5
55.1141634428234 -139.272140365235 2870.70908332746 6 8 5
56.3955509527094 -137.198493074267 2880.46645049148 7 9 6
36.075470597507 -139.612821071503 2875.49503252289 8 10 5
21.5247195042951 -140.812645908895 2874.53446102417 9 11 6
31.1737172018658 -137.020214454087 2889.89840088819 9 11 6
30.839225886818 -135.297252790575 2898.47803431761 10 12 7
37.2472005329087 -132.205671492377 2911.49596821709 11 14 7
34.451361304721 -131.004404245529 2918.34579692146 11 14 7
20.7003915210997 -132.027121552517 2917.98176366144 11 14 7
18.7500011995563 -130.654960909906 2925.38370045194 17 22 16
-17.9327064859689 -136.273597755994 2910.21124250829 18 23 19
-3.78979241125865 -131.661346091409 2928.07671018114 0 5 1
203.720392036768 -232.504904708647 2401.08883046046 151 152 156
218.60342521577 -226.250454769997 2426.47876432435 177 178 182
222.841340444992 -222.857970950404 2441.6071260429 159 159 161
222.819159284771 -220.609727539908 2452.6331509364 159 159 161
219.222677800504 -219.311993503605 2460.26377148737 143 143 145
213.468897296825 -218.582805073586 2465.86958685253 136 136 138
209.165340505324 -217.475621659208 2472.81325977507 139 139 141
204.142935634088 -216.557694666107 2479.08182216601 132 132 134
196.938101115843 -216.205099233455 2483.35039726325 138 138 140
187.532953567622 -216.415643254095 2485.63574385398 125 125 127
175.910299450917 -217.187067347468 2485.95527712464 107 107 109
162.787178817061 -218.329490826308 2484.98547289751 107 107 109
151.835652986778 -218.904522252517 2486.02644842593 110 110 112
224.191018750963 -161.721033643738 2740.13939173318 22 25 18
252.985340865828 -153.010900977491 2772.60759017817 18 21 12
231.404211226994 -156.163076330317 2764.74640051173 21 24 15
210.521814917045 -159.122705921075 2757.5801473007 15 18 9
214.571674463973 -156.2590188165 2770.13958837985 15 18 9
246.090853149062 -147.051759215804 2804.07921677917 14 17 8
240.093067671844 -146.563639480731 2808.54605322022 13 16 9
258.500682068651 -140.466608331563 2831.876201578 13 16 9
268.343312284615 -136.371723571843 2848.42040618218 13 16 9
272.721762157537 -133.549077201573 2860.65961801276 13 16 9
253.351265461843 -136.137263432269 2854.77094560383 12 14 9
231.526294653032 -139.256072914067 2847.14730020465 12 14 9
234.330368930574 -136.794710476006 2858.16913140496 12 14 9
203.614492395544 -141.873607476437 2844.07663304001 12 14 9
178.381989063755 -145.682287612829 2834.27036743533 12 14 9
193.199405655311 -140.532728048988 2854.22078674255 13 16 9
216.163450021292 -133.60892686176 2879.98935880654 14 17 10
223.127951944672 -130.270858962655 2893.83513159844 12 15 8
203.463127247038 -132.819565272464 2888.23323397333 11 14 7
191.835938434447 -133.580099855031 2888.5553229571 13 16 9
153.362027271675 -140.199398030104 2869.64147873976 14 17 10
167.676708153149 -135.266385216537 2888.70588039429 11 14 7
186.168041524438 -129.459491973965 2910.57886751098 11 14 7
172.853205197153 -130.566631019619 2909.79422477769 12 15 8
57.298613056207 -151.818157876232 2846.30504086711 6 9 2
43.6607184670668 -152.883155042959 2845.83497121223 6 8 5
37.4209253231439 -152.359867858862 2850.53692711024 6 8 5
40.2876683926143 -149.903914384871 2861.49732671628 6 8 5
50.6646795152355 -145.874231429322 2877.52018213674 7 9 6
60.2844436870522 -142.029183536022 2892.90571247935 8 10 5
40.7864986547914 -144.314965444272 2888.51615008559 9 11 6
36.269504749701 -143.448414307163 2894.29042524487 9 11 6
43.4870513803824 -140.140623367103 2907.88973366505 10 12 7
42.3657874768377 -138.581993016211 2915.857684842 11 14 7
28.6394658105915 -139.634456777399 2915.47357215001 11 14 7
14.0317467270417 -140.855581837615 2914.57271887147 11 14 7
-5.69108351561987 -143.111701335426 2910.40208672473 7 12 6
-46.6663799073181 -149.688257854999 2892.54859065925 7 12 6
205.2229026952 -240.244646960559 2403.57490216761 153 154 159
214.387256634808 -235.454742463986 2423.52374016285 167 168 173
220.047820385289 -231.63769419482 2440.01079690637 167 166 172
220.017711236268 -229.366796738137 2451.04100830983 153 152 158
217.855868471778 -227.675730095846 2460.02303349425 145 144 149
214.267605332861 -226.370511117132 2467.64438683558 139 138 143
209.966198184365 -225.258055629722 2474.58514592075 138 138 140
202.765246413622 -224.911522233189 2478.85076135862 139 139 141
195.556620862719 -224.563802005934 2483.12348371857 135 135 137
184.686324565491 -225.16891671558 2484.08824341602 117 117 119
175.987516869907 -225.1984882861 2487.06268360208 110 109 114
162.13018072013 -226.55818704056 2485.4371701091 113 112 117
148.966808084077 -227.722147502191 2484.51018202985 135 134 139
207.222463723126 -175.202626886749 2717.888918361 38 40 37
209.566055959395 -172.657606157728 2729.35565037661 20 22 17
220.481648352505 -168.081131475356 2747.59702753278 27 30 23
229.147012090621 -164.069578909248 2763.90568229677 20 23 14
199.68411358466 -169.11300335511 2749.98062471618 12 15 6
218.555342613914 -162.710109231531 2774.22243763612 13 16 7
245.38234652164 -154.481420933453 2804.46396577333 13 16 7
265.301060698929 -147.927869809212 2829.06025273541 13 16 9
253.063684544856 -148.918440659222 2828.60535671165 13 16 9
262.892343562348 -144.770108431531 2845.15553541002 13 16 9
244.31111709005 -147.223349847626 2839.88040837675 12 15 8
258.977985893332 -141.98761806949 2859.96724980559 12 14 9
233.191673068987 -146.077683159058 2849.3356044693 12 14 9
212.884521591884 -148.878086162121 2842.99150033317 11 13 8
215.675840815019 -146.387472405073 2854.02201200089 11 13 8
203.288531808337 -147.357240092023 2853.71292681776 10 12 7
208.530823353041 -144.326893209915 2866.48054237112 13 16 9
221.872811392556 -139.489292095149 2885.10803488645 14 17 10
236.918377122691 -134.300932526723 2904.82582626066 12 15 8
208.391335538971 -138.89165193658 2892.73903363459 11 14 7
180.562966109176 -143.287211910316 2881.34617622769 13 16 9
169.691547353035 -143.881010523562 2882.31037802934 14 17 10
170.197300567035 -141.949688079866 2891.44174990572 11 14 7
199.307934413575 -133.726574808818 2920.83367090169 11 14 7
75.4697148975203 -155.394101198716 2859.96376086559 6 8 3
51.1598098528432 -158.816368114289 2852.01838629545 6 8 5
32.5448677605467 -160.976812079517 2848.15037335359 6 8 5
36.2278700547156 -158.313513461233 2859.68647927893 6 8 5
40.7845653703807 -155.477573167963 2871.7467259139 7 9 4
59.5324488453248 -149.624048141506 2893.35806282786 8 10 5
88.4006048614392 -141.653755680345 2921.61088753951 9 11 6
61.4258523706233 -145.58699651828 2912.13620180449 9 11 6
56.1340503421852 -144.902411274477 2917.28985804588 10 12 7
44.9650916818523 -145.455840267001 2918.54355475852 11 14 7
9.36153863134503 -151.127377805486 2903.72420832641 11 14 7
3.9892888966957 -150.432075903995 2908.95616641198 11 14 7
-18.2928835706559 -153.258907884594 2903.16028418895 11 16 10
194.082605953354 -253.809050909013 2382.63366813466 146 147 152
205.298738483005 -248.364160488044 2404.69965666268 152 153 158
214.46281246017 -243.51737474903 2424.64036564196 165 166 171
217.254563208306 -240.438089669047 2438.41726206996 165 164 172
219.374085591277 -237.559438713487 2451.47409767819 150 149 155
215.768196022284 -236.244095820442 2459.11145801504 142 141 147
212.8972284736 -234.735390123778 2467.40736030136 138 137 142
207.867363533089 -233.81116954511 2473.68273830417 137 137 139
202.114616352818 -233.081197365114 2479.28741172599 136 136 138
192.717667225983 -233.319900587218 2481.56877908078 134 134 136
182.570791421344 -233.749337927117 2483.20611581416 117 117 119
173.133733313386 -233.982172249184 2485.52678240125 109 108 113
159.268963980487 -235.3705527302 2483.91255147365 112 111 116
136.52160755111 -239.066699076338 2474.45602229004 137 136 141
188.005077732082 -187.403122728125 2703.34985901352 18 19 14
201.131716691511 -182.191609404869 2723.55284160542 18 19 14
196.512737959905 -181.31166903617 2729.42674812447 16 17 11
193.45344767009 -180.056948547249 2736.53028726172 11 12 6
198.201786470257 -176.930396217763 2749.77384822726 11 12 6
202.220201270483 -173.997201152596 2762.3542411585 14 17 10
223.52136622789 -166.95985685197 2788.3400482748 14 17 10
222.179836669451 -165.349854538306 2796.51947159152 13 16 9
253.925796186964 -155.916822231913 2830.20053416451 12 15 8
237.710297333426 -157.857351902739 2826.75149185704 13 16 9
223.023448995228 -159.419144402923 2824.56231843725 13 16 9
205.911462390644 -161.531445346685 2820.61198012049 13 16 9
233.267109602259 -153.258347894389 2850.32199398855 13 16 9
204.990268876623 -157.960425108873 2838.00286900465 13 16 9
171.008915861577 -163.941562224223 2821.61875048105 13 16 9
201.763003963289 -154.95465822541 2853.51653712408 13 16 9
203.789757169921 -152.625573233716 2863.91290086981 13 16 9
212.290688706462 -148.828384900219 2878.99927502097 13 16 9
216.824780472753 -145.958710147526 2891.07698137624 12 15 8
189.867451975691 -150.254032155811 2880.22159947899 12 15 8
176.586635879262 -151.419432914858 2879.41144736735 13 16 9
175.456734635653 -149.833691991028 2887.38430646183 12 14 9
197.153301630825 -143.131645597798 2911.61012107607 12 14 9
172.44111956498 -146.852218695737 2902.69139374046 13 15 10
137.815961584466 -152.748465891572 2886.93369852973 13 15 10
58.7541571837686 -168.458031184402 2840.23380776696 12 14 9
37.7255693362506 -171.2137450099 2834.5998334125 6 8 3
49.5922994807598 -166.69749990165 2851.90561862589 6 8 5
-2.0717618485846 -176.152633898499 2825.25359483044 8 10 7
32.9969329472619 -166.568377149178 2858.4469377238 8 10 7
50.825721399602 -160.805641399071 2879.56712103761 7 9 4
62.108639898637 -156.501409214357 2896.06740378706 8 10 5
60.961273005216 -154.911831787213 2904.05670165448 9 12 5
68.1926153425878 -151.524181901543 2917.63050761668 10 13 6
67.9428358572638 -149.762337915823 2926.11993631468 11 14 7
38.327863968334 -154.287922103546 2915.10384760686 11 13 8
17.8593454234881 -156.826683934674 2910.29822222121 11 13 8
-5.20848667950968 -159.893583864536 2903.90108425091 11 13 8
-26.6657561424211 -162.592382534948 2898.68404720056 15 20 14
204.661238958993 -256.681071927438 2405.14469183287 151 152 157
213.107947719833 -251.975434079308 2424.40170735548 163 164 169
215.895750051093 -248.863100446424 2438.17764005812 164 163 171
217.292302161671 -246.151869013486 2450.56023104891 144 143 149
215.122908554635 -244.432636354093 2459.54559140657 141 140 146
213.696230038285 -242.518310765412 2469.18149936781 141 140 145
210.118164295789 -241.19764663033 2476.79010591439 139 139 141
202.917814616894 -240.861833010222 2481.05670784443 132 132 134
194.252196050962 -240.917613454579 2484.00206439422 131 131 133
182.647935487374 -241.756209018803 2484.31292266679 119 119 121
172.478387157911 -242.198473834541 2485.97466944782 106 105 110
156.408239632183 -244.203426229877 2482.39081277369 109 108 113
131.443942161908 -248.547195079504 2470.98039134413 144 143 148
185.735261549932 -193.501110542941 2712.17307508523 10 11 6
200.528708130146 -185.827183362898 2743.11014676255 14 15 9
202.95600127785 -183.237490157717 2754.48715996331 14 15 9
205.422940325583 -180.652647526116 2765.82552111191 13 16 9
209.496412511792 -177.693547682929 2778.3474125301 14 17 10
221.470740818051 -172.847609938321 2796.91486991031 12 15 8
223.296474707259 -170.469818574403 2807.50331218732 12 15 8
225.947295600371 -167.907626451736 2818.66242368052 12 15 8
197.781971573952 -172.702557508172 2806.24662256506 12 15 8
218.67814378164 -165.810123440046 2831.23910182009 12 15 8
223.80210473066 -162.694435585132 2844.11160804569 12 15 8
213.037018655187 -163.34063396314 2844.9776267439 12 15 8
189.462676910401 -166.983428805178 2836.33475871656 12 15 8
181.817437443516 -166.869272486377 2839.65865647537 12 15 8
183.795391348433 -164.509285106694 2850.09857344765 13 16 9
193.052301101581 -160.472737451548 2865.81612001081 12 15 8
196.73275151605 -157.750826443304 2877.34609710477 12 15 8
194.796197341812 -156.338158902735 2884.72830749463 12 15 8
182.338392288172 -157.34559362704 2884.49513094192 12 15 8
171.471247810354 -157.977038919344 2885.46031464273 11 13 8
163.836111781778 -157.86272460114 2888.7744940277 11 13 8
183.948263495922 -151.447914204136 2911.78195331534 12 14 9
109.251677730398 -166.510179363249 2867.73688751355 12 14 9
65.3978424313202 -174.508768683838 2845.86711453209 10 12 7
51.7854854718505 -175.656799581203 2845.38395798255 5 7 2
10.1130574564841 -183.064689798471 2825.5114382049 6 8 7
20.3164103032591 -178.857759380275 2841.68087960484 8 10 7
48.8116936902636 -170.617571273326 2870.26441973268 8 10 7
67.5067587150213 -164.600088297335 2891.90397323514 7 9 4
56.3654832574487 -165.194468848754 2893.13589489874 8 11 4
49.36766423701 -164.870241308761 2897.20309330855 9 12 5
42.36274649501 -164.545017370972 2901.27685574467 10 13 6
36.1888904940959 -164.036263822643 2905.91548314996 11 14 7
16.5772582769765 -166.44313556484 2901.65671083593 12 14 9
1.10874860793242 -167.93147846985 2900.23288285466 12 14 9
15.9622055501538 -162.870698888864 2918.74338804387 12 14 9
-5.44592002849287 -165.626537093088 2913.48631865015 5 10 4
209.016536819651 -263.594081148777 2410.34368800827 152 153 158
213.89893887883 -259.840431958537 2426.19593185306 164 165 170
215.971411340236 -256.896556457745 2439.28984856963 162 161 169
215.92992100675 -254.559047222156 2450.32185430767 143 142 148
213.035617749334 -253.025964520192 2458.63732638699 142 141 147
210.880088187672 -251.294608931877 2467.60678993705 141 140 145
208.744503041609 -249.565308941349 2476.55709004604 138 138 140
203.721054354108 -248.635957828352 2482.82500048203 131 131 133
195.786509094836 -248.50361025375 2486.43349450974 130 130 132
184.18679371375 -249.364138563545 2486.7434188411 120 120 122
171.823364853337 -250.419134008693 2486.42321694516 106 105 110
156.486513510711 -252.263157883254 2483.50431047374 109 108 113
149.202226136656 -251.920169736982 2487.85286554207 147 146 151
175.813046459582 -205.620285917255 2695.47697676855 0 0 0
193.54949314097 -199.113621983789 2719.41306104279 15 16 11
194.340523287796 -196.872632640763 2729.63262723493 1 2 0
223.299714515579 -185.65685202454 2771.48547760687 19 20 14
208.625832346342 -187.285570645169 2769.29365808299 14 17 10
218.190346420001 -182.949235738242 2786.07801205949 15 18 11
227.829665629266 -178.622196823108 2802.78979521603 14 17 10
220.223819701934 -178.522471182555 2806.07670745566 13 16 9
213.396435590616 -178.229577464979 2809.9792926065 13 16 9
212.890963162756 -176.405808516925 2818.71347569388 12 15 8
229.857907879035 -170.383417543048 2840.65144349131 12 15 8
241.36906215592 -165.710069801197 2858.28710109698 12 15 8
221.880524981544 -168.475464401933 2852.54217379004 12 15 8
194.33346479402 -173.134019092452 2840.90884265133 12 15 8
187.50115729646 -172.839118936388 2844.81602024676 12 15 8
202.337485332052 -167.420673820838 2864.70758120137 13 16 9
202.786318669409 -165.425138124859 2873.88598466604 12 15 8
202.45655480326 -163.622176787804 2882.44909975201 12 15 8
197.299141568761 -162.955992865282 2887.47202564163 12 15 8
190.52150332315 -162.667129589101 2891.32580810992 12 15 8
160.986486976042 -167.654287818629 2878.8812956492 12 14 9
150.06821087354 -168.297390586923 2879.89897677905 12 14 9
136.674602937423 -169.50074310732 2879.20677572734 12 14 9
49.0736452942944 -185.764557268572 2835.400670836 11 13 8
41.1783635454848 -185.623655622071 2838.96891132931 5 7 2
43.9862827379005 -183.050722384104 2849.97043435682 6 8 7
37.746976167877 -182.536548255243 2854.67325398533 8 10 7
51.3772527802163 -177.546840868573 2872.99199044561 8 10 7
73.3972287791404 -170.706565446242 2896.87622494813 7 9 4
46.4638012580312 -174.854340545034 2887.39221097736 8 11 4
30.2705869379012 -176.574867973456 2885.30543288116 10 13 6
24.0570008505561 -176.06339256277 2889.98277271753 10 13 6
16.1653413665785 -175.9218107061 2893.54765355555 11 14 7
12.4609460749223 -174.853983744016 2899.90216711797 12 14 9
21.3889967697947 -171.016629515454 2914.55846912917 12 14 9
17.7310691997197 -169.954555648273 2920.86802770405 12 14 9
-7.0544955344034 -173.498541056457 2913.41298017713 9 14 8
209.805670591988 -271.492899372197 2412.14475555036 151 152 157
214.689745970723 -267.698936508773 2427.98904157881 162 163 168
216.047110498785 -264.928926319817 2440.40185894387 156 155 163
214.567520356785 -262.976028244866 2450.08460793493 144 143 149
213.111561206834 -261.025755418984 2459.74427901222 146 145 151
209.510365209677 -259.686060411645 2467.37337933099 138 137 142
208.095880126952 -257.740278940603 2476.99252986671 135 135 137
201.616934008685 -257.212245250408 2481.93092883005 131 131 133
195.863314079305 -256.481455420603 2487.53634805636 127 127 129
184.26407107653 -257.363507934028 2487.84898457697 119 119 121
173.366618692604 -258.03988320619 2488.85124294998 105 104 109
157.299500812676 -260.120625627677 2485.27524168356 109 108 113
185.886860083651 -206.525262799457 2723.86654042384 7 8 2
202.238488336592 -200.349909763745 2746.39291883947 21 22 16
178.947471928243 -204.155192205318 2737.49238231899 9 10 4
219.050624928567 -190.09378936497 2787.6969518488 15 18 11
240.470802531891 -182.795209031746 2813.52596707685 14 17 10
237.619757625833 -181.540735929853 2820.42275203329 13 16 9
223.732680236119 -183.006043017158 2818.84238089669 14 17 10
210.594684516291 -184.271782073674 2817.90557383836 12 15 8
226.761960650461 -178.366410569199 2839.23767262585 12 15 8
238.264962091953 -173.634982693284 2856.87284189915 12 15 8
224.347964191115 -175.095456385868 2855.32146789877 12 15 8
175.237599622639 -185.038980839873 2827.62267868321 12 15 8
194.786245027044 -178.384952425657 2851.1543517481 12 15 8
204.020281373439 -174.247839353082 2866.87974841752 12 15 8
205.277590591259 -172.041353185817 2876.64105431161 12 15 8
196.886995434677 -172.141829401366 2879.31991456579 11 14 7
195.759247544852 -170.515140732286 2887.28458328926 11 14 7
173.57736464435 -173.867821058551 2880.04958503994 12 15 8
191.126714581535 -167.842604824168 2901.4087982712 13 15 10
185.167106624582 -167.368012320549 2905.83938534717 13 15 10
67.6781547714729 -190.98050592507 2840.36927112697 13 15 10
76.2237467334339 -187.048852558312 2855.39142294229 9 11 6
50.3046170841248 -191.102023529199 2846.30312305967 6 8 3
47.3648420833257 -189.832059864667 2853.28572881348 6 8 7
47.7417946741197 -187.805909352367 2862.53098606559 8 10 7
44.8349050765766 -186.539914508964 2869.48152271786 8 10 7
58.5391237990116 -181.497198650574 2887.71899894077 7 9 4
44.0498826481686 -182.880342732193 2886.72444166423 8 11 4
26.1836014653802 -185.011585531629 2883.52559077016 10 13 6
22.4679272280666 -183.936659225384 2889.89059305438 11 14 7
15.4099933372187 -183.614363678357 2894.0174341249 11 14 7
0.788812571492326 -184.979901689449 2893.15129266683 12 14 9
-19.7649999961613 -187.651735821522 2888.45003353467 13 15 10
3.47391289571153 -180.582743851976 2912.50728863721 12 14 9
-29.7980396060851 -186.053089678178 2899.59395814079 9 14 10
211.307731634408 -279.178703881967 2414.62296391613 150 151 156
215.480541389311 -275.550923532077 2429.7811996087 160 161 166
215.405845869942 -273.166239980695 2440.83920624391 155 154 162
215.362368329463 -270.785184069542 2451.86641128624 147 146 152
213.908476758046 -268.818896498679 2461.52166225517 149 148 154
210.309432475014 -267.471246597801 2469.14745016021 139 138 143
207.447199073087 -265.919651234561 2477.4283402357 135 135 137
200.239999642392 -265.598777739897 2481.70395221455 131 131 133
192.296410490996 -265.481182137728 2485.32360729592 125 125 127
181.418574360092 -266.179224703292 2486.3095888562 117 117 119
168.315711190242 -267.485776541905 2485.34392676775 103 102 107
155.174050337085 -268.787070465198 2484.41567639278 107 106 111
192.944947462338 -212.26377284676 2730.45910198342 32 33 28
174.326764586668 -214.941832509246 2725.25390124364 26 27 19
192.276137649166 -208.299109946227 2748.95843706779 15 16 8
200.966666462873 -204.045743848141 2765.20636260528 13 16 9
251.243544380434 -189.326911196546 2813.71289880631 14 17 10
216.20399176263 -196.157697408358 2795.67100941928 13 16 9
243.993632773233 -187.199092982627 2826.26565271576 12 15 8
230.911708982666 -188.498938003713 2825.27820624944 12 15 8
231.240218843229 -186.4509948077 2834.56834689966 11 14 7
232.389872063344 -184.209986511437 2844.43179227732 11 14 7
229.59645964841 -182.953520795036 2851.27105281056 11 14 7
208.48621534924 -186.203506846483 2844.37397057913 11 14 7
188.896728732046 -189.052163377532 2838.74125579615 11 14 7
188.457608955066 -187.202629322799 2847.40607949081 11 14 7
208.914155946275 -180.282884749875 2871.41416728625 12 15 8
208.573759924349 -178.44567845547 2879.98277887034 11 14 7
194.544625629972 -179.919953759717 2878.54445999661 11 14 7
188.559551228728 -179.444905894491 2883.00060616796 11 14 7
176.08716132089 -180.522224505684 2882.79190355705 11 14 7
156.268802399167 -183.339711815379 2877.38219340051 12 14 9
201.53291604462 -170.658841460326 2918.41482901997 12 14 9
135.200578195921 -184.499977076504 2880.05356568049 13 15 10
88.2167048682021 -193.668737477278 2855.79660455169 13 15 10
53.3391792355378 -199.918825845785 2840.34181172102 11 13 8
52.0312911918142 -198.253682971326 2848.47967876551 6 8 3
53.2157611298465 -196.013925489859 2858.30839765548 6 8 7
39.5637568098084 -197.236094372591 2857.87556908294 8 10 7
26.701840326889 -198.261358528348 2858.04597849356 8 10 7
42.8526060483811 -192.575817911339 2878.01005395636 7 9 4
64.9278808384168 -185.563838236054 2901.81399812825 8 11 4
47.944443964925 -187.550305904135 2899.13431924273 10 13 6
45.9503967178958 -186.094389979647 2906.56722901152 11 14 7
30.5705183102649 -187.690097457351 2905.0715951564 12 15 8
-1.64679149185432 -193.086787876578 2892.51701194944 13 15 10
5.56460161840144 -189.532719220648 2906.08603116751 13 15 10
21.269206175905 -184.087752043167 2925.11146075121 13 15 10
209.957346683923 -287.689646347936 2414.38801107846 145 146 151
214.126183472156 -284.023507155869 2429.54452256554 159 160 165
216.915651109715 -280.781521067484 2443.29930117611 154 153 161
217.595284081103 -278.17071681703 2454.99173724612 151 150 156
216.868275535461 -275.980598070726 2465.30900979289 150 149 155
211.831546692219 -275.041831420312 2471.58905384952 140 139 144
207.523613992448 -273.895471771822 2478.53128188337 140 140 142
198.136321568758 -274.202600390479 2480.81351107489 123 123 125
189.458362791947 -274.299652969705 2483.77688379803 127 127 129
177.84253684897 -275.222544245704 2484.11202337468 112 112 114
166.195850311772 -276.141132271661 2484.47717195912 102 101 106
154.518157629028 -277.055474113849 2484.87214467833 110 109 114
157.540815931294 -273.839094962599 2498.39948404778 140 139 144
206.982305615373 -216.140684355606 2742.59919842595 109 110 105
196.951773344638 -216.657025459016 2744.13384864859 21 22 14
206.383643803657 -212.149365491721 2761.02493576816 14 15 7
243.237041787514 -200.630728520471 2799.24502589163 14 17 10
203.539103826589 -208.7712983884 2777.52043587598 13 16 9
180.945775088692 -212.48794070246 2769.3308935306 11 14 7
216.51887414294 -201.405929763915 2806.05305391898 11 14 7
241.247052530078 -193.144025350415 2834.12277170197 12 15 8
228.152741857659 -194.468667873662 2833.15129065243 13 16 9
228.501440266049 -192.403869020973 2842.41889251752 13 16 9
224.108602920476 -191.535336407543 2848.06992335849 12 15 8
210.157406770779 -193.050159811909 2846.56020374645 11 14 7
194.566744531003 -194.955947224099 2843.90246387179 11 14 7
194.941944038171 -192.893575239186 2853.14410844403 11 14 7
207.386046057872 -187.867269593564 2871.21841528527 10 13 6
193.362535997084 -189.371780857383 2869.77931816806 11 14 7
180.103725904051 -190.6732973774 2868.96776946176 9 12 5
182.169084860821 -188.225438071304 2879.30790449312 9 12 5
156.714042223637 -192.473758392974 2869.78794017781 11 14 7
163.659558433665 -188.846767515161 2883.60986337365 12 14 9
151.119648151008 -189.938791381384 2883.47072076533 11 13 8
153.238891946405 -187.497105942714 2893.75825985027 13 15 10
31.2768489560922 -212.743588841637 2825.88627188529 8 10 5
46.3590108593781 -207.151526201271 2845.50839342284 5 7 2
48.3537961742555 -204.692971417038 2855.91702833686 7 9 8
40.4727284330204 -204.576548223735 2859.47510985721 6 8 5
44.1718335362133 -201.734805526948 2870.96885149827 6 8 5
58.7027550261414 -196.372605076626 2889.7550892867 9 11 6
67.5049649660573 -192.380809879145 2904.51352672009 11 14 7
58.0316055605286 -192.661196288458 2906.87726921002 11 14 7
61.9105167858809 -189.842238948023 2918.19582837947 13 16 9
23.1144578063316 -196.887075994331 2901.08168548345 13 16 9
1.79497246527216 -199.857783482105 2895.76801476774 13 15 10
34.2584282590916 -190.479950068001 2925.91093266854 15 17 12
18.8214408995901 -192.099845917089 2924.47524603559 13 15 12
-50.7640678850891 -206.020527889986 2887.9392771253 2 6 5
208.481335320112 -293.776259088952 2425.25510463547 157 158 163
213.40643758902 -289.865297946367 2441.04169590292 157 156 164
216.952238312711 -286.383864593416 2455.42728153689 149 148 154
216.223387300029 -284.174496128326 2465.74353858063 148 147 153
213.353437928897 -282.60049287614 2474.02877885141 141 140 145
207.600087770539 -281.870179321457 2479.63400058436 138 138 140
200.393558714307 -281.559945758086 2483.91051944865 124 124 126
188.806980616627 -282.508506524081 2484.22007157998 127 127 129
177.189703150732 -283.452679465391 2484.55979796118 112 112 114
165.541377022137 -284.392600862969 2484.92938990512 102 101 106
159.004389004124 -283.863277927275 2489.925572625 109 108 113
172.163529003911 -232.773523372605 2715.86743557481 64 65 60
193.920327006457 -224.939396881265 2742.70027544168 19 20 12
247.768103326555 -208.777796491954 2794.53283857244 15 18 11
223.780642279282 -212.982304114012 2784.96564002137 15 18 11
241.996667263055 -206.210856083294 2808.38636097794 13 16 9
184.165367505822 -219.124047057214 2772.78257940005 12 15 8
164.644588836965 -222.079443513222 2767.09775056497 12 15 8
223.963793859313 -204.797682943066 2821.83367651659 12 15 8
212.409117226415 -205.73953306917 2822.11055819215 13 16 9
194.480401483563 -208.291385086751 2817.6189622802 13 16 9
218.621192042209 -200.154109673952 2844.87347565423 12 15 8
230.156833333922 -195.255682073246 2862.45188842934 11 14 7
202.633055321221 -200.217912866891 2850.84032094229 11 14 7
215.038942980249 -195.127201694746 2868.94305609989 10 13 6
201.844944514952 -196.464191316914 2868.07239139817 11 14 7
193.440754801387 -196.594413591475 2870.76914770293 11 14 7
176.956084664859 -198.722688506072 2867.61514512359 10 13 6
157.992217364004 -201.443162149576 2862.75914505406 9 12 5
138.15294939937 -204.354486542303 2857.38406696612 12 15 8
140.991703981547 -201.677173829751 2868.339542755 12 14 9
147.127396130125 -198.208776052152 2881.57216388849 11 13 8
137.809213385389 -198.523820964793 2883.78693617198 13 15 10
92.4709114591713 -207.570826165306 2860.71205942748 12 14 9
47.7635437897472 -216.394906949724 2838.39461682544 8 10 5
28.3559588113129 -219.056448557344 2833.97086268192 5 7 2
41.8445190284991 -213.7990541339 2852.39076159041 7 9 8
62.856900187716 -206.775600158056 2875.83156963582 6 8 5
67.435931956958 -203.713368800885 2887.83585227978 6 8 5
61.2745784850537 -203.218103097944 2892.4640579866 9 11 6
47.6240964534282 -204.493093566952 2892.03752476655 11 14 7
55.6125427388281 -200.653999173759 2906.20970133297 11 14 7
26.0592770725014 -205.654176088237 2895.20214418968 12 15 8
8.12103917669793 -207.895743027771 2892.09139107707 12 15 8
6.91593246165434 -206.214914969755 2900.12453863752 13 15 10
-1.84189289922632 -206.29598576788 2903.16519580101 14 16 11
-8.92771366030765 -205.984622000244 2907.32134465813 10 12 9
206.412253300757 -302.498842645257 2424.34786191249 162 163 168
210.61447708788 -298.760708244581 2439.46091659772 159 158 166
211.995572871398 -295.885010210246 2451.8345478579 148 147 153
211.253187443523 -293.654947554941 2462.16118618373 147 146 152
207.646982991994 -292.281805000411 2469.79031643886 141 140 145
203.327820726168 -291.123002516137 2476.74185655212 137 137 139
196.836625253281 -290.603698213876 2481.69404734739 123 123 125
186.698263440801 -291.147104696066 2483.33977415016 126 126 128
175.075623143054 -292.112095704461 2483.68790280389 111 111 113
167.817571016042 -291.799422650467 2488.01488644148 103 102 107
164.959415374633 -290.213579230524 2496.28666539267 110 109 114
200.217964998091 -230.764636726851 2748.64354595071 23 24 16
222.126429794238 -222.855073731469 2775.31462896714 18 21 14
273.860561749978 -207.135432140039 2825.06032771928 17 20 13
212.310780152192 -221.283525165719 2786.24634928969 16 19 12
185.029421914328 -226.354037737174 2774.41005938207 14 17 10
208.802946038185 -218.070287556366 2802.00796269028 13 16 9
172.752083272209 -225.383466698187 2783.62436953498 12 15 8
188.756820677252 -219.164765411969 2805.07156167836 12 15 8
180.285943138954 -219.298256454239 2807.83502310135 12 15 8
177.364553414094 -217.999976240513 2814.79518683075 12 15 8
185.611234807523 -213.847424303223 2830.08151254708 12 15 8
217.089347637779 -203.795181007765 2862.52012240854 12 15 8
203.906627933516 -205.160482281849 2861.64244218016 12 15 8
187.475302767183 -207.333517070636 2858.44208274669 12 15 8
181.450034654574 -206.860789699254 2862.93814699359 13 16 9
184.293881734118 -204.157465067343 2873.88472130698 11 14 7
168.582176479956 -206.115866203554 2871.35495522039 11 14 7
148.768838048579 -209.078695926013 2865.96174118786 13 16 9
141.071861096428 -209.002892552071 2869.34268358286 12 14 9
105.67781590261 -215.7837580076 2853.06234161592 11 13 8
137.88935475877 -205.824534920219 2884.78639693775 12 14 9
139.18913356218 -203.53438927546 2894.4931650713 11 13 8
77.3713189984639 -216.722120058916 2860.05447201428 5 7 2
43.2369203618523 -223.050989171113 2845.29029616833 7 9 4
33.6879104337879 -223.348404086353 2847.7316775512 9 11 10
65.4172814911886 -213.633071121897 2878.55367016089 9 11 8
66.6903934227863 -211.338620193002 2888.28628257324 10 12 9
50.5693854625044 -213.241854605553 2886.15480650677 10 12 7
26.9131036969856 -216.933587129843 2879.0171105751 11 14 7
25.6822314839589 -215.235813707162 2887.07367698043 11 14 7
16.115188655847 -215.530057718512 2889.53215879942 12 15 8
5.69230710617674 -216.020390107574 2891.4529114214 12 15 8
-4.75306464413272 -216.507756273928 2893.39522089667 13 15 10
-11.0137037085822 -216.001140383083 2898.12000326979 14 16 11
-55.2284904518592 -224.401298641442 2878.08525928161 9 11 8
205.773469145818 -310.802071828743 2424.79248835072 162 163 168
205.671828655628 -308.327307260724 2435.86393780536 159 158 166
206.320279910224 -305.63946716108 2447.57561407423 148 147 153
206.283406496107 -303.172012464122 2458.58382926065 146 145 151
205.555018324731 -300.924343125908 2468.89396584381 136 135 140
201.955144712074 -299.543389225544 2476.51565496885 131 131 133
195.46021315484 -299.026254489769 2481.4715385701 119 119 121
186.047188512699 -299.369854658058 2483.78471071405 121 121 123
175.884250994236 -299.925789721034 2485.45669327493 109 109 111
170.826229439317 -298.973917750202 2491.75560650639 104 103 108
166.507116953353 -297.807468631938 2498.70630486033 115 114 119
179.307550265531 -243.867119933675 2733.08518387438 22 23 15
257.273120155761 -220.812703097321 2803.87689563007 17 20 13
169.405609590621 -237.94950506357 2763.29832758243 14 17 10
187.629606205884 -231.016072147273 2786.68719129575 13 16 9
