ply
format ascii 1.0
comment KinectMotionCapture
element vertex 792
property float x
property float y
property float z
property uchar red
property uchar green
property uchar blue
end_header
150.630523500273 -106.078481237952 2714.09038569405 14 17 10
15.0219122970232 -89.2841513676638 2809.78476167475 19 22 13
70.5586476324318 -99.535290617615 2747.47690566466 19 22 13
85.09538897987 -103.349919502657 2723.41219641575 18 21 12
75.9371115135616 -103.406025253068 2721.71332244024 16 19 10
67.5298220816014 -103.578591648852 2719.32322919237 16 19 10
97.2085876528492 -109.893664151763 2680.28480065789 14 17 10
84.3312054911949 -109.363348009013 2682.06861076163 14 17 10
70.0370766764111 -108.592548860383 2685.29668233388 13 16 9
47.0832915292796 -106.392989799675 2697.0760386337 13 16 9
22.0596744894803 -103.828007816778 2711.06218492588 13 16 9
38.2566747027915 -108.040821400163 2684.49361151191 15 18 11
53.5973947140951 -112.145834024014 2658.53959049086 15 18 11
87.4408396032216 -119.367711939475 2613.86978836595 16 19 12
58.8689767181294 -116.201421074324 2631.46255336964 18 21 14
64.6263057665379 -118.775107567441 2614.62603275334 15 18 11
78.8295382147073 -122.795109319277 2589.08318442564 13 16 9
289.388782379517 -112.369405813614 2745.4802866858 15 21 21
268.139091023341 -110.697927424517 2753.55186111532 21 24 17
278.889852853096 -113.814275992143 2734.15666569692 20 23 16
281.780356702165 -115.767576425926 2721.42054231326 20 23 16
245.912240724764 -111.859363366975 2742.3737010812 19 22 15
234.139121206553 -111.579769964852 2742.48637704577 19 22 15
218.547227439759 -110.709043838475 2746.0095083647 15 18 11
236.010130437434 -114.902837390593 2720.358416758 14 17 10
231.605316156572 -117.294056659877 2703.56687453313 10 13 6
222.13657973867 -117.367606095544 2701.64285388238 9 12 5
177.783095712615 -111.982649444981 2731.273591244 8 11 4
132.135262379063 -106.341309498631 2762.4376935372 12 14 9
133.48344242199 -108.058733543215 2751.05506920748 14 16 11
123.504547797795 -107.991970646646 2749.99726580151 16 19 12
104.547697501171 -106.490788874001 2757.25973932539 20 23 16
98.3760056940142 -107.015797397614 2752.78308895228 20 23 16
48.2168012202231 -100.475335429854 2789.32720161722 20 23 16
48.7275644111849 -103.545098023435 2768.68452624333 18 21 12
98.0644422761503 -113.085430391189 2711.76733256007 17 20 11
80.0274425994867 -111.688194515669 2718.46106229329 14 17 8
84.0961162102296 -113.905467897759 2704.10731450281 13 16 7
95.4253309824602 -117.336603198971 2682.65978425195 13 16 9
94.2356025965978 -118.718577813508 2673.14447942267 13 16 9
88.6464660908919 -119.375514098638 2667.8544309506 13 16 9
53.2971476678572 -115.053856665186 2691.65584457305 13 16 9
6.54663132501465 -108.771251490194 2726.96427754901 13 16 9
-1.00668410117688 -109.045105210671 2723.95740413615 13 16 9
49.6964907945912 -119.199651955444 2663.08682174099 14 17 10
36.2449594306566 -118.509364396038 2665.69026575101 20 23 16
57.8575611438357 -123.811178657753 2633.16088497116 20 23 16
53.6467150985169 -124.715417445793 2626.39866277368 18 21 14
94.8813627688017 -133.47585464754 2573.49252734553 16 19 12
102.538854417105 -136.483524118207 2554.32587257542 13 18 12
272.460227579984 -119.204088605665 2750.46548773947 19 22 15
270.74521069018 -120.466881659651 2741.80503037077 19 22 15
279.872923734019 -123.40993316036 2723.70449776912 19 22 15
226.198472239736 -116.637163637792 2760.1718772688 19 22 15
216.02562181862 -116.57441389443 2758.97315636199 18 21 14
235.897773088201 -121.206074901181 2731.36125247093 12 15 8
228.751946455803 -121.629354504436 2727.41398288017 12 15 8
233.856760677468 -123.984964727548 2712.57591267533 13 16 9
220.576676020817 -123.442683578295 2714.06756127445 13 16 9
217.228798379346 -124.472155240149 2706.69495785415 9 12 5
153.727127230462 -117.420064908595 2743.45059964717 14 16 11
195.75693085523 -125.743604468424 2694.82850707719 15 17 12
143.469852992773 -118.85169115813 2732.30222681738 20 23 16
103.451458248228 -113.890607816046 2758.89764381264 24 27 20
92.7970043403743 -113.681827092249 2758.5858690423 23 26 19
111.249500520443 -118.247313594295 2731.18019869601 21 24 17
61.8991075256878 -111.662666698462 2767.07582323917 20 23 14
46.9020125124437 -110.707411486495 2771.03027054764 19 22 13
88.8656835807953 -119.221453525658 2721.12452999139 17 20 11
84.8559318803312 -120.11977733941 2714.50782085955 14 17 8
80.8319689969923 -121.019103057924 2707.88080466311 13 16 7
88.5135099152601 -123.897022968994 2689.96727755833 13 16 9
81.5049288636489 -124.306256702654 2686.11957136315 14 17 10
61.3942220830097 -122.48336148358 2695.0175869747 14 17 10
52.9802632202827 -122.63988926892 2692.62274015286 14 17 10
1.15831787228338 -115.334398264708 2732.90581249015 14 17 10
22.4811152535418 -120.58289946857 2701.40194751274 13 16 9
12.7073190587605 -120.482594298667 2700.49269975648 13 16 9
99.6745730207782 -140.58957370955 2580.63659972449 19 22 15
89.6255973215476 -140.511401430481 2579.5280508424 17 20 13
298.059347599593 -129.508860816975 2739.32770001125 6 10 11
331.450078959457 -136.290750533895 2700.50742243757 20 22 17
288.296240108743 -131.097558175061 2727.30172697695 19 22 15
277.1878233855 -130.912599452527 2726.66044973353 18 21 14
236.677868334964 -126.060341005264 2751.66423080084 17 20 13
217.209548843353 -124.511366553489 2758.55617146932 17 20 13
225.534651661125 -127.38900840508 2741.10917752821 14 17 10
221.490596209974 -128.300566372862 2734.46753384182 15 18 11
215.901195401384 -128.966246666491 2729.17724948083 15 18 11
204.706541149701 -130.298752492777 2718.5848885679 10 13 6
196.824093551785 -130.59334459367 2715.33960965276 9 12 5
202.572191937331 -133.123857889428 2699.73165284192 25 27 22
187.119636125292 -132.175707431356 2703.35618538737 28 30 25
158.927794895628 -129.104240991561 2718.75358815931 23 26 19
136.864276627386 -127.02045373003 2728.70736377647 25 28 21
118.632150801004 -125.553770824466 2735.25999416245 20 23 16
89.8124776660785 -123.856139232612 2741.54916960786 19 22 15
87.3364092867872 -125.010147073692 2733.57289189755 16 19 10
81.1413253559419 -125.53717010783 2729.07927387088 16 19 10
86.7377016483233 -128.079257659406 2713.3612718509 18 21 12
77.5662268607449 -128.104529342707 2711.65298703618 19 22 13
76.4701895722504 -129.517687669545 2702.2054429312 13 16 9
45.3951747856234 -125.746505419195 2721.69179348327 13 16 9
39.2282414133081 -126.27011281166 2717.21859969813 13 16 9
36.6903396038927 -127.427994717677 2709.19747799184 14 17 10
55.8440930811619 -132.399655299968 2679.82773893865 14 17 10
86.3883415774742 -139.420346289929 2638.94307009173 13 16 9
71.5617241100715 -141.806592497915 2620.7720431372 17 20 13
101.421584483007 -150.578788833844 2568.26616192034 22 25 18
342.344724683345 -144.479660642304 2702.18822755895 9 13 12
312.350057591142 -141.292376781243 2717.5143466562 21 24 17
298.843199089553 -140.721169254381 2718.84204305035 20 23 16
272.171008697181 -138.016691349494 2731.63351543428 19 22 15
241.739006995834 -134.674980858088 2747.87871464773 17 20 13
229.978465080879 -134.337940496381 2748.0007993655 16 19 12
232.110011140903 -136.263746796189 2735.94996165302 16 19 12
218.833704137199 -135.672767124611 2737.444595421 15 18 11
196.406885388277 -133.563526201026 2747.13543017133 14 17 10
190.105956943285 -134.101364214292 2742.56502841751 13 16 9
216.542271840695 -140.08338914943 2708.58857387307 11 14 7
204.830992982638 -139.741670876843 2708.74639412665 10 13 6
180.281155936805 -137.238556598708 2720.60531253989 17 19 14
164.138269664957 -136.125358826346 2724.96528242902 17 19 14
152.566895384588 -135.771320949755 2725.22458489791 22 25 18
120.765388487844 -131.970890048516 2744.18472844245 21 24 17
112.305652666834 -132.117355328594 2741.75674789519 22 25 18
100.128411495427 -131.623091868731 2742.81259142435 21 24 17
109.554475387119 -134.840881210698 2723.6919114889 20 23 16
95.8986205201997 -134.089270070611 2726.14754764715 16 19 10
91.1583713464452 -134.875656759899 2720.23688892013 16 19 10
87.1453717834147 -135.791270674069 2713.61773776564 16 19 10
82.3833443265403 -136.579122928092 2707.69128407304 17 20 11
52.6973647429294 -132.980021558663 2725.71363100527 16 19 12
42.8765024249467 -132.858097917893 2724.7706679907 16 19 12
31.6200366344193 -132.475292903738 2725.25840005557 15 18 11
52.3445445146087 -137.792416487302 2694.55551129402 15 18 11
83.7645658086554 -145.070143425455 2653.06907579412 15 18 11
96.9105796537901 -149.117602152452 2629.23005579935 14 17 10
76.1176815049205 -147.057158324131 2638.86977618912 16 19 12
61.9690164375224 -147.873762668831 2631.0790439307 21 24 17
79.1398245044452 -152.72595602014 2602.7427982919 23 26 19
61.3379902613236 -151.175454641033 2609.60778078656 27 30 23
298.89998434092 -145.479285773497 2739.85620217421 15 19 18
307.305184177253 -148.454691830829 2722.46677707623 20 23 16
309.393601839615 -150.41467046093 2710.3845015783 19 22 15
255.498840427383 -143.16149543835 2746.69431258836 17 20 13
232.857478398051 -141.013744574021 2756.22981539658 17 20 13
249.703872850183 -145.40623501383 2731.36583377857 17 20 13
240.998375886165 -145.566904152947 2728.7596237886 16 19 12
209.262586693632 -141.863330946947 2746.53158578987 15 18 11
197.390324904646 -143.071718432126 2736.68397250238 12 15 8
202.491147801541 -145.551471054044 2721.84238009531 11 14 7
206.006643608398 -147.777841439681 2708.3229069375 11 14 7
194.322045190214 -147.414933348776 2708.50017574194 15 17 12
172.098635763589 -145.230824780626 2718.33855099333 13 15 10
147.708452434086 -142.648610495633 2730.31360644984 22 25 18
103.158946075943 -136.539975385502 2761.0412397199 20 23 16
77.5405809338894 -133.67364344092 2774.59776681717 22 25 18
83.9251899819917 -137.985497758603 2748.32599423211 16 19 10
91.1129601289895 -140.868926789263 2731.28982535909 15 18 9
97.4810546149292 -143.627808176568 2714.89512359419 14 17 8
103.036212162969 -146.261566136883 2699.1467768981 14 17 8
104.109224724461 -148.111658514787 2687.56400579746 14 17 8
72.156396919377 -144.035880646913 2707.65059042505 15 18 11
63.0084187580682 -144.037402118615 2705.95975359268 15 18 11
61.8910193765445 -145.490985491939 2696.49622441271 15 18 11
58.5626206773551 -146.549886182319 2689.13759262955 15 18 11
99.3861177339954 -155.693730879959 2638.40183104805 15 18 11
69.8978542083175 -151.989414788762 2656.56803950345 15 18 11
68.6178263586479 -153.455774188515 2646.98684724019 17 20 13
23.5388952068605 -146.806751555679 2681.03853623579 21 24 17
66.7261605258687 -158.269482386516 2615.94821548691 24 27 20
90.1931844974087 -164.423278590011 2581.05342515636 27 30 23
296.788226145191 -154.665561463501 2732.10304119353 18 21 14
295.79221990208 -156.130897669614 2722.72774743687 17 20 13
281.555523676617 -155.376425199703 2724.76233379174 17 20 13
273.560289080777 -155.665666430079 2721.43532027803 16 19 12
270.981399647405 -156.871985729592 2713.38394594644 16 19 12
249.119053371091 -154.797690029265 2722.24847072794 15 18 11
225.03888825302 -152.32138827827 2733.21269190496 14 17 10
217.911397799057 -152.733374102512 2729.27906628351 13 16 9
221.481253265318 -154.991127294802 2715.79884064279 12 15 8
199.858931154071 -152.895982980621 2724.83746966625 10 13 6
195.031403140017 -153.7026734844 2718.86343780245 10 13 6
193.223061934061 -155.039790562255 2710.1349511795 21 23 18
184.591887960954 -155.185477137955 2707.58269540141 20 22 17
153.38755083294 -151.346008498997 2725.74060668316 22 25 18
105.062303574654 -144.435304443587 2759.91066505675 20 23 16
103.386392836148 -145.760498300368 2751.27824049932 20 23 16
111.384361912154 -148.821667893199 2733.59346520025 18 21 14
70.9343582758564 -143.208954122385 2761.1146314417 17 20 11
73.7134482554085 -145.335874532979 2748.29686234693 16 19 10
93.4508790786728 -150.547528876244 2719.34902784244 15 18 9
135.894405850731 -159.929837108091 2668.55141588077 14 17 8
111.138239744086 -157.115096010331 2681.49767151204 14 17 8
101.885376099327 -157.115177389056 2679.73051377168 13 16 9
92.6491576024828 -157.113671349907 2677.97543049486 13 16 9
98.7312093291486 -159.942594413772 2661.37301545441 13 16 9
86.5760586626267 -159.401424437805 2662.44540492976 13 16 9
41.1400027569058 -152.636155421887 2696.23879538065 14 17 10
55.1484207816873 -156.955433951443 2671.78853713024 13 16 9
78.3906058453292 -163.048005931826 2637.96610301901 15 18 11
26.0989460269849 -154.896637654133 2679.14828495392 19 22 15
27.7461993589037 -156.920206491262 2666.74558344398 20 23 16
69.9982514905111 -166.709675930993 2613.33673734197 20 23 16
50.801030701281 -164.797194303191 2621.66237558707 22 25 18
282.359267478536 -160.133962072371 2745.08294541661 19 22 15
277.509364686985 -160.948798027068 2739.09265234079 17 20 13
279.643970876179 -162.965465740454 2727.04357275028 16 19 12
274.755030315415 -163.783613549357 2721.02496358726 13 16 9
275.265447337592 -165.539342786803 2710.27016404792 13 16 9
227.758369427044 -160.605769752859 2731.4367354546 14 17 10
219.858096276775 -160.881552768938 2728.17862968786 13 16 9
229.537249973983 -164.252036334365 2709.24064652729 12 15 8
198.748998437298 -160.487374528786 2726.46447711632 9 12 5
180.253550635271 -158.870110811682 2732.82698250408 8 11 4
192.122986361579 -162.652717400307 2711.76928968036 28 30 25
151.022733835595 -156.970773786439 2738.81942728749 27 29 24
148.52644801691 -158.183216320299 2730.82790306364 22 25 18
126.486367098627 -155.868970048643 2740.8001307133 21 24 17
109.029568390306 -154.362229159708 2746.67968406883 18 21 14
90.1448104068585 -152.577577596497 2753.99585467943 17 20 13
91.4272232104154 -154.465879632826 2742.56468874363 17 20 11
85.2447795354783 -154.99322290111 2738.08023228617 16 19 10
113.09211558245 -161.806423460266 2701.41704265271 16 19 10
114.920051554699 -163.847367315064 2689.14552831384 15 18 9
111.550901651612 -164.933168114432 2681.75721885894 15 18 9
84.70095080864 -161.629552632235 2696.893231384 14 17 10
106.949872349036 -167.521127517316 2664.82243964984 14 17 10
102.0609161241 -168.336379020154 2658.80383380188 13 16 9
50.2388122087076 -161.966872448339 2687.96583715075 12 15 8
114.056116182389 -175.897241724157 2614.35070979735 11 14 7
68.7272877262104 -168.974852580145 2648.22262755919 13 16 9
70.2912819510213 -171.03616301519 2635.75967305406 18 21 14
38.1735632226561 -166.581953444686 2656.96397266981 19 22 15
74.6866922126816 -177.243413425824 2598.15540527459 21 24 17
256.199516077116 -163.461152985926 2768.09652063404 23 26 19
249.865358405654 -164.003266148222 2763.50200865034 24 27 20
258.298853211476 -167.132868562991 2746.13260862166 17 20 13
241.070052634812 -165.769542429776 2750.94167963534 16 19 12
257.136686027576 -170.272947753579 2726.74720188493 18 21 14
242.246888138094 -169.317523051468 2729.54439539755 16 19 12
217.207142830156 -168.216978058009 2731.16018257885 14 17 10
232.247011943007 -172.605283250364 2707.45729560077 12 15 8
232.686488067816 -174.391712892872 2696.65061951034 8 11 4
223.968635456579 -174.529306219686 2694.03556953156 6 9 2
184.961913513986 -169.150942623125 2718.89641007949 25 28 21
192.973862764239 -172.315959907601 2701.22094882103 30 33 26
136.884860947415 -163.737201834883 2742.12259457391 29 32 25
126.892130689836 -163.578000964326 2741.0552296386 24 27 20
116.920570056955 -163.41691624501 2740.00292608106 20 23 16
96.5184647474269 -161.310514474546 2748.69113669684 16 19 12
75.4545940035021 -159.057930486653 2758.13539649741 14 17 10
108.322247719806 -168.606507326426 2706.57095971513 13 16 9
112.380782998887 -171.095092149733 2692.20848818573 13 16 9
94.3103143913717 -169.396322251998 2698.87948290597 13 16 9
80.709428894516 -168.531106029543 2701.37554296583 13 16 7
98.5906408625383 -173.687228696038 2673.55274481381 12 15 6
79.8786671494969 -171.840037830135 2680.99448720332 11 14 5
65.6008973900644 -170.829316131229 2684.23592753595 12 15 6
33.9820264443369 -166.437981149788 2704.56620297687 14 17 8
90.640799518491 -179.219579584295 2638.11877227763 13 16 7
108.028415017917 -184.416405995273 2609.93794933916 14 17 8
51.4677070232152 -176.884553459467 2644.31657033402 17 20 11
23.0306308057417 -173.030356329197 2662.0105294504 21 24 15
53.7687349469671 -180.9343575473 2620.0265854509 22 25 18
268.338894079055 -173.39011646148 2758.31959531128 20 23 16
246.379313255277 -171.16110505084 2767.11441635981 23 26 19
208.957996096342 -166.146692964731 2789.41730281884 21 24 17
287.222241611481 -181.841258749173 2711.44451824025 18 21 14
247.50420624413 -176.407036095852 2735.78999544352 15 18 11
234.953904457504 -175.837905335388 2736.57577858883 16 19 12
219.363152347849 -174.707171254053 2740.10105451093 16 19 12
226.051598055981 -177.627277992702 2723.93776554545 14 17 10
238.778677141813 -181.674005134828 2702.26512776716 12 15 8
230.819097018955 -181.944286868977 2698.9640569754 7 10 3
237.304886372875 -184.881468214371 2682.6537716076 6 9 2
245.230586582908 -188.106256293705 2664.91548382838 9 12 5
151.082526224447 -172.332985824954 2740.01999606283 27 30 23
147.083417482782 -173.291057540862 2733.41069960405 28 31 24
121.069720608738 -171.818229147613 2736.79270193416 20 23 16
103.640857804203 -170.227525471645 2742.69293191059 15 18 11
98.1886664188485 -170.898549692874 2737.50208652065 14 17 10
100.153981845788 -172.988854892626 2725.32991145536 13 16 9
101.329970142022 -174.941131145705 2713.82127208097 13 16 9
88.4412584907204 -174.193708122797 2715.59767440801 14 17 10
74.8554960790377 -173.30035217304 2718.10484004832 15 18 11
74.5154389368441 -174.970890723349 2707.96898177403 15 18 9
66.0950986478821 -175.073001037311 2705.56978455535 15 18 9
98.5157116663848 -183.183579307701 2663.5694441648 14 17 8
106.71500014327 -186.587669110935 2644.79354153111 15 18 9
88.0120995303608 -184.69308330307 2652.24210126926 16 19 10
50.59873102697 -179.058445725804 2678.25929580735 16 19 10
110.610909423278 -192.81796006972 2608.06209475444 16 19 10
99.8457531403956 -192.502841909565 2607.67060809001 16 19 10
18.9510565720132 -178.058024177458 2677.55442024319 18 21 12
79.0867927344956 -193.855192872057 2595.08521800777 22 25 18
307.069375890487 -188.202139217183 2725.79991032434 14 17 10
243.671503934278 -178.432371168524 2770.05507819294 18 21 14
265.349149768157 -184.071658072878 2741.27654428345 23 26 19
220.18500371588 -177.529209086847 2770.32547836875 22 25 18
266.475645459525 -187.723329234198 2719.84253690569 21 24 17
209.153923874261 -178.890632336833 2759.8518440411 17 20 13
231.307442100331 -184.697294967608 2730.18210128706 17 20 13
241.798379967015 -188.379515538156 2710.59598215669 14 17 10
220.851188394677 -186.217380174952 2718.88933040948 12 15 8
208.370963793767 -185.620377553577 2719.7260551787 7 10 3
232.405524727686 -191.890252986353 2687.71246427526 6 9 2
227.466532250699 -192.729363058364 2681.65746523201 7 10 3
154.511969067542 -180.654256994463 2737.52348249493 23 26 19
152.011595577903 -181.908940961615 2729.52878106999 25 28 21
149.488108486758 -183.165337670345 2721.5176099037 22 25 18
110.239694491494 -177.36458967276 2747.44041881414 19 22 15
93.5884264980178 -175.87470860782 2752.66909102522 16 19 12
99.3367557746225 -178.712614999903 2737.0597445856 16 19 12
81.9986689967513 -177.073125117575 2743.02602715277 16 19 12
87.6726117846993 -179.917027772913 2727.36272598779 16 19 12
65.9679821578831 -177.401721831471 2737.57914784438 18 21 14
56.1283818441121 -177.201508798612 2736.62270333096 18 21 14
68.3184993382451 -181.360580206665 2714.56053606669 18 21 12
72.3522074326324 -183.927708136074 2700.17966894495 18 21 12
52.25871944041 -181.690080417697 2709.09226752556 18 21 12
80.9585464687039 -189.223155339393 2670.57334723356 18 21 12
78.2789036725946 -190.490629548997 2662.44862487746 17 20 11
37.277193745469 -184.004975964964 2692.04463680237 15 18 9
63.4850282471309 -191.125944916497 2655.42641523164 15 18 9
108.167369533207 -202.077534721505 2600.06804686927 15 18 9
65.249609191433 -196.999887302146 2620.85713240001 18 21 12
83.7067927072197 -204.569583953196 2579.85335673449 20 22 19
304.36177844423 -195.649751913099 2728.73983251981 17 20 13
262.653807204507 -191.417669401848 2744.22586493581 14 17 10
253.165408070084 -191.386935337939 2742.28841305573 16 19 12
214.307405712589 -185.855577902674 2766.02250744246 18 21 14
214.960686696512 -187.698490092469 2755.37083143901 19 22 15
210.191171392071 -188.529187822992 2749.43873262513 18 21 14
237.615148718813 -195.462269129057 2714.93840173626 14 17 10
213.620319175532 -192.665757677943 2725.96610641786 12 15 8
204.972735242301 -192.773701188287 2723.40214588554 9 12 5
197.097671115765 -193.026273168196 2720.16213776955 8 11 4
193.020189054396 -194.008258678711 2713.49590569066 18 21 14
139.048362384602 -185.340888677205 2752.22738136265 16 19 12
162.969634581046 -191.729691149658 2720.13106264681 13 16 9
146.140398284066 -190.21731618265 2725.23054129568 13 16 9
112.140788043098 -185.323599452982 2746.30817488902 16 19 12
90.2546582694592 -182.767475529735 2756.39293568988 15 18 11
90.8030325302871 -184.61814989474 2745.66487677008 16 19 12
83.1425880686818 -184.851263768282 2742.58084406557 17 20 13
82.893715808928 -186.558804980878 2732.51090023276 18 21 14
75.965299115877 -186.939797758747 2728.7214499379 19 22 15
81.5518817179432 -189.834778883299 2712.9945607873 20 23 16
90.316321822919 -195.197515079487 2683.50221460576 19 22 13
42.4514947169774 -187.270898884297 2719.24622379811 17 20 11
34.1037516547322 -187.35045948883 2716.8997680771 15 18 9
42.4425463624263 -190.85225032237 2698.22450161235 13 16 7
51.4150674648812 -194.510440775669 2678.77280811145 14 17 8
59.5736617202509 -198.026979215038 2659.96683579362 14 17 8
46.0924988327314 -197.06857214431 2662.550157358 16 19 10
110.715450384488 -212.412423069339 2587.04153382869 17 20 11
14.9758112624503 -194.24104922925 2672.12063661165 20 23 14
194.484246909491 -182.979575684833 2823.3042691771 20 23 16
269.453903101327 -198.781736049858 2749.11809912328 21 24 17
257.623565663948 -198.299885105286 2749.19032107149 22 25 18
272.19574629991 -202.821718848375 2726.38275701631 22 25 18
227.864647868081 -196.148942500921 2754.80120860437 22 25 18
212.285113705718 -194.919708118632 2758.33511557931 18 21 14
223.675393380161 -198.859265805875 2738.16431394884 17 20 13
215.791779187821 -199.107661315529 2734.91812886232 13 16 9
227.79787166422 -203.208057014086 2713.95789176865 11 14 7
203.860468559334 -200.343953271718 2725.02756846927 9 12 5
173.940775396777 -196.282677644711 2741.64779581496 9 12 5
149.46320794577 -193.250950340483 2753.56178152898 20 23 16
134.917014130948 -192.146380059593 2756.60881641995 16 19 12
130.216323342358 -192.976211639804 2750.72690883065 12 15 8
163.081544869449 -201.272531424751 2710.2829704482 13 16 9
141.766880983703 -198.824111354903 2719.54641689643 16 19 12
123.527588515005 -196.96689614113 2726.09583015359 12 15 8
117.276395768851 -197.50160116535 2721.56149873848 13 16 9
104.340016907491 -196.68566008595 2723.30369314514 14 17 10
86.2585209965103 -194.814347227271 2729.96756790188 15 18 11
99.9940960675296 -199.406046384744 2706.55317673654 15 18 11
97.4153790172796 -200.693802052939 2698.50180935491 15 18 11
91.1442285803044 -201.229227715462 2693.95300653363 17 20 11
95.8479954018934 -204.029659549519 2678.82166092353 17 20 11
96.8371141801025 -206.07955065446 2667.17706140906 16 19 10
89.4141031494256 -210.126075344411 2642.01340740042 14 17 8
88.0921173025486 -211.731780861338 2632.401093074 15 18 9
38.9474463656247 -206.9553939292 2648.67463228171 22 25 16
-5.57629924641079 -201.144821977245 2672.00832711146 17 19 18
212.133444260726 -195.622761415028 2798.98075959209 29 32 25
258.03704793865 -206.191554874629 2749.45009033338 19 22 15
250.114548250053 -206.43807170429 2746.17602031367 13 16 9
273.144672219821 -212.689994594079 2715.90475028776 11 14 7
202.665341127562 -200.765160309223 2767.38858286122 13 16 9
200.241525374045 -202.055582404218 2759.44919875235 11 14 7
246.117650561488 -212.842992948077 2708.66276025866 9 12 5
258.806544459736 -217.167186987524 2686.96103579845 8 11 4
222.575816413122 -211.830770411055 2708.89360010046 7 10 3
175.869420553974 -204.361761385693 2740.53462196141 7 10 3
145.318162726213 -200.053638109966 2757.93330156424 24 27 20
136.83198305892 -200.1314492155 2755.48649905541 21 24 17
142.681302143277 -203.093267882276 2739.94973464256 20 23 16
158.982495247036 -208.189427329099 2714.68725518671 19 22 15
145.922396554726 -207.360238719752 2716.33982954896 17 20 13
144.109488353031 -208.813648290199 2707.60773764595 21 24 17
151.210198161521 -212.100451135662 2690.50611923067 21 24 17
114.402083499754 -206.379489794309 2714.49243918379 21 24 17
100.733874312752 -205.385244213571 2716.94034842303 21 24 17
89.3241286276143 -204.846528380999 2717.31775434018 19 22 15
128.009959241396 -214.733038212993 2669.96903198268 18 21 14
120.914820259021 -215.122847466144 2666.05867648507 14 17 8
75.0344878848859 -207.364591711436 2699.5353255933 13 16 7
92.1415759260014 -212.822602133583 2672.38485599425 13 16 7
70.5516002761639 -210.124959980642 2682.68531653445 16 19 10
28.0209965806053 -202.94492386193 2713.64659118124 19 22 13
62.3530752870893 -212.12053951079 2669.3211140717 15 18 9
49.5825848909037 -211.263767076405 2671.18377138587 15 18 9
100.091597808127 -224.030419699357 2610.1592059976 16 19 10
55.6809126121278 -216.361173249485 2643.46574623021 17 20 11
33.6445487468184 -213.483840194517 2654.67826274864 19 22 13
28.7929426293729 -214.328018504859 2648.68688074774 20 23 16
201.543609303917 -199.450752358556 2818.45743988637 17 20 13
271.843219725471 -214.906409894982 2748.29841782433 11 14 7
280.238347981205 -218.352128634357 2730.89930939619 10 13 6
264.494596970615 -217.07185355921 2734.31443060446 13 16 9
224.816394977083 -211.048287259425 2758.69176901225 14 17 10
206.15822042992 -209.141066105169 2764.93777900129 17 20 13
201.418237764231 -209.986278862296 2759.02701550603 16 19 12
259.576886226965 -223.413961233265 2697.36871382998 15 18 11
252.342452571114 -223.815223781494 2693.3576171147 13 16 9
239.772356473948 -223.139530403529 2694.12959070253 10 13 6
171.713802528571 -211.218806256867 2744.89820221465 9 12 5
139.65449888449 -206.514376122569 2763.67574785271 21 24 17
153.115085501764 -211.059697488069 2741.29728323056 27 30 23
156.658705430551 -213.605450207179 2727.79658011444 23 26 19
138.34218558326 -211.668191331291 2734.29041503367 21 24 17
136.586275155298 -213.133512969686 2725.59928721924 25 28 21
118.360323925422 -211.188170228048 2732.15881820844 25 28 21
120.324102730734 -213.430289458063 2719.98476024534 23 26 19
108.121869285331 -212.72186765584 2721.02357109594 18 21 14
110.028927709092 -214.968492253602 2708.80837249721 16 19 12
121.488567111317 -219.245578911761 2687.45110493364 14 17 10
135.051077823937 -223.999861567187 2663.91013772702 14 17 10
111.049383183857 -220.794910340367 2676.17026568765 10 13 4
94.4725220400455 -219.145261140774 2681.45339179206 12 15 6
75.0372058488997 -216.863683711651 2689.60800466508 16 19 10
64.4113273556708 -216.456986809645 2689.31794730709 16 19 10
63.9665180888658 -218.246029685953 2679.10555173437 16 19 10
39.6202556098832 -214.850390755573 2692.35160313813 13 16 7
45.1644483993157 -219.84824808496 2665.46741460831 18 21 12
68.992021358723 -227.007777910068 2630.8288996945 20 23 14
38.3405186901342 -222.178874900761 2650.6276207833 20 23 14
43.4466707021652 -225.243634729824 2634.55189175949 20 23 16
240.297065564092 -212.909025537854 2795.84214856375 9 13 12
268.471707715147 -220.259304886856 2761.88387743567 17 20 13
289.216515984445 -228.025432119809 2723.77249144387 23 26 19
260.253541438753 -224.073091595016 2738.61505054211 22 25 18
236.060353283136 -221.04345795049 2749.50014164232 20 23 16
245.922319365131 -224.859278538583 2730.69242736107 17 20 13
233.375633954156 -224.160121116669 2731.48149070494 16 19 12
232.372884083382 -225.800216596932 2722.10042315849 15 18 11
241.285009245828 -229.475388637676 2703.83989796587 14 17 10
222.643339524542 -227.523097935735 2710.09810094156 11 14 7
164.513206247827 -217.415330757711 2751.99819940725 10 13 6
148.40025920884 -215.911820853456 2756.38184989311 19 22 15
159.571463486704 -220.058842576165 2736.05118498612 20 23 16
148.770815986741 -219.653220017256 2735.63442840363 20 23 16
137.243811128052 -219.087828605354 2735.9269657605 20 23 16
118.249309435797 -216.943119575729 2743.16540457659 22 25 18
91.8533035718241 -213.213477939633 2757.39761278185 16 19 12
99.8607835400849 -216.743234814656 2739.71706416757 13 16 9
101.83869081252 -219.014230748404 2727.55310196561 11 14 7
94.1350134452152 -219.229966506044 2724.43781682871 11 14 7
104.907888046844 -223.409735325349 2703.81822836814 13 16 9
98.63825721464 -223.945963912074 2699.27052307382 14 17 10
93.8364743780462 -224.800006776432 2693.31491458955 16 19 10
88.2926623660789 -225.495450405622 2688.05752776298 15 18 9
72.5244426832985 -223.960190136832 2692.69123928807 13 16 7
69.1842690105275 -225.132044871347 2685.32320496374 14 17 8
62.9233554148989 -225.666312644572 2680.78182891216 15 18 9
45.0881014292017 -223.641762992082 2687.62498587017 17 20 11
67.7060370378251 -230.576820644235 2654.58108375706 19 22 13
44.3212250929217 -229.245700738411 2656.16269872944 17 20 11
58.7574269431328 -234.440032847565 2630.78278667832 17 20 11
271.730972635096 -232.388055924635 2739.48265417105 19 22 15
235.828176953497 -226.929711806643 2760.4182301237 17 20 13
225.634674161477 -226.681238300917 2759.20577307697 20 23 16
236.302315930884 -230.710156246367 2739.74569980915 16 19 12
235.327734928355 -232.367207242647 2730.38496659342 18 21 14
222.809935589385 -231.643903234208 2731.19509237457 19 22 15
233.283983469351 -235.689270754944 2711.59488992147 16 19 12
202.455335973781 -231.143624410505 2728.79339245847 7 10 3
164.918365246003 -225.150936906118 2752.25272544136 4 7 0
157.907697901474 -225.527809145399 2748.40367076527 15 18 11
157.708784619035 -227.342546107564 2738.36940029369 15 18 11
149.931172427646 -227.560308805166 2735.2002134811 18 21 14
134.640658860854 -226.175268236919 2738.94442684282 19 22 15
105.904134703157 -221.898883836613 2755.18811711233 20 23 16
87.0185467283946 -219.698452686305 2762.50579205009 16 19 12
84.6074112641331 -221.028164253334 2754.57569562162 13 16 9
93.3228426388428 -224.773816787748 2736.17222590702 11 14 7
60.4485203423435 -219.503502874223 2756.83218117891 11 14 7
109.748239071143 -232.126052139837 2699.87214353157 12 15 8
104.938981812358 -232.986585281546 2693.91108380461 13 16 9
85.4301783543208 -230.613837210621 2702.01318046387 15 18 9
95.5635336226237 -236.706390025521 2671.03912569785 15 18 9
84.8769025472422 -236.272502459535 2670.7051652226 17 20 11
48.8168661893233 -230.150548045702 2695.23581421193 19 22 13
37.5349435183181 -229.54259959359 2695.70623243677 18 21 12
47.2001054608482 -233.653715357941 2675.51902380031 19 22 13
49.5767548984936 -236.142754953271 2662.40768276314 19 22 13
34.6945826930432 -234.71931698125 2666.44810598255 16 19 10
37.7312533311676 -237.375829406986 2652.57934348706 17 20 11
44.9845741723038 -241.018389853977 2634.35151745464 19 22 15
273.993873678363 -236.975705433752 2758.39153279769 20 23 16
261.374233473477 -236.239502360635 2759.12789729805 25 28 21
258.131672194196 -237.428143111878 2751.83083373345 24 27 20
236.237725158763 -234.758341963472 2760.67546680277 21 24 17
221.398375602099 -233.530211832303 2763.51090717225 20 23 16
211.238680854605 -233.26532852263 2762.32274694037 26 29 22
229.58255163643 -238.970317059872 2736.06759655146 22 25 18
237.038526195616 -242.42515513928 2719.22296048112 10 13 6
211.502548913619 -238.930444484618 2731.60706405222 7 10 3
195.997037422241 -237.531814105902 2735.19548966519 8 11 4
144.776016507408 -228.507461029149 2770.98245032989 9 12 5
186.388621649253 -239.266569667099 2723.28091614487 24 27 20
152.061951936837 -233.796334561817 2744.12408304977 22 25 18
140.529640018135 -233.193704605483 2744.41296182615 20 23 16
126.770530249463 -232.099612709249 2746.7954810351 19 22 15
122.804879217103 -233.122006538219 2740.21011297964 16 19 12
99.3816697690249 -229.89993374566 2751.65435281932 24 27 20
90.2254732459751 -229.775165389031 2749.95819800402 23 26 19
85.5468595262914 -230.630790609538 2744.09186942621 22 25 18
77.8935691314171 -230.831600958023 2741.01318648108 21 24 17
110.155870928216 -239.889657039866 2700.12832037468 19 22 15
116.399429082504 -243.219203476859 2683.64044903425 18 21 14
85.8358776363057 -238.334344148585 2702.26817464172 20 23 14
78.8544386439698 -238.704128803975 2698.44034412191 21 24 15
99.6251190587634 -245.335460460461 2667.76427009308 22 25 16
45.2451927267759 -234.987600521442 2709.91382198812 20 23 14
38.3337493574176 -235.350699105899 2706.13676665546 18 21 12
42.2801643765962 -238.193526454558 2691.69151692568 15 18 9
45.4426799121017 -240.875869560705 2677.91385124447 15 18 9
60.0546130751694 -246.214555431137 2652.66059939207 17 20 11
45.1401482106171 -244.761292632992 2656.67776404237 18 21 12
58.1556424202825 -249.781449664302 2632.73890619272 17 20 11
323.971176235319 -253.274444955622 2726.60656894546 9 13 12
290.852048702862 -248.290837664947 2744.61723971641 20 23 16
264.909446912159 -244.762981112315 2756.70703487088 24 27 20
258.543834516253 -245.309972466876 2752.08969597714 25 28 21
246.74188161705 -244.712159449754 2752.18308185359 24 27 20
210.191333193472 -238.87205284078 2773.88635282835 25 28 21
213.190112389445 -241.377665804328 2761.22592298252 21 24 17
223.834666238952 -245.529006789456 2741.74878716904 18 21 14
226.704493279386 -248.045604010054 2728.99482151626 9 12 5
203.492258221333 -244.973911132863 2739.35620286057 7 10 3
195.642945570464 -245.187684381618 2736.13505906208 11 14 7
165.727991890293 -240.619277763214 2752.76129087814 13 16 9
131.394748858654 -235.048906841497 2773.60019985131 26 29 22
122.953052048695 -235.08296649569 2771.1858655248 25 28 21
125.842248725764 -237.597397121553 2758.44595230921 21 24 17
135.449022388987 -241.606909230352 2739.45226251178 19 22 15
134.460402197514 -243.302915392523 2730.08115467277 17 20 13
122.220676287422 -242.51149980419 2731.09320681548 20 23 16
99.5742802161548 -239.390203798296 2741.86502816654 23 26 19
85.2033215272416 -238.090802092694 2745.04008159956 24 27 20
78.2933365258147 -238.452637042218 2741.26438434651 24 27 20
98.7364905115911 -244.984134543173 2711.58642172841 23 26 19
120.49441740309 -251.862903970421 2680.38943931212 22 25 18
115.632442099979 -252.739059186536 2674.39008402088 21 24 15
74.131954545861 -245.249669494689 2703.62960552081 20 23 14
72.2820977716601 -246.787692721502 2694.87000574719 18 21 12
94.4346083966168 -253.861771218639 2662.72303959198 17 20 11
74.3081883399932 -251.21290621309 2671.61384801423 16 19 10
39.0654934854036 -245.027147413047 2695.50199737783 15 18 9
69.0976608103147 -256.024514134032 2644.34479085018 17 20 11
300.042875832712 -256.184365527557 2747.53477428241 11 15 14
276.385911440507 -253.091118006726 2757.5735765429 18 21 14
271.569847493237 -253.970951765707 2751.60777921778 17 20 13
262.071312904039 -253.855286898336 2749.66311564448 16 19 12
249.482923260262 -253.073058683793 2750.42236746992 18 21 14
237.703364198568 -252.454373239043 2750.53209284005 24 27 20
239.082457269616 -254.666032935019 2739.16937462312 12 15 8
231.175771240392 -254.879425228414 2735.90693604488 12 15 8
214.830500872659 -253.254935577179 2740.12278317798 12 15 8
216.917961317633 -255.638575402282 2728.03766784526 12 15 8
206.740639143766 -255.347996418634 2726.83685926947 12 15 8
174.506836346423 -250.195524507488 2745.49017616726 12 15 8
125.72137853877 -241.339115797015 2779.3364734699 18 21 14
125.62281086656 -243.211262610931 2769.37465488044 19 22 15
108.884885638711 -241.387006074862 2774.54190661364 16 19 12
125.86177366273 -249.014074381264 2738.64022017934 14 17 10
119.632282434567 -249.548544807791 2734.12162184604 15 18 11
113.401818392739 -250.082914811629 2729.60231880801 20 23 16
78.9094539858599 -244.191446930745 2751.56283482607 23 26 19
55.7060773644995 -240.824788851737 2763.16716852629 25 28 21
93.22695174933 -251.346325739701 2717.44109573522 24 27 20
103.214172741664 -255.612404761256 2697.48656965759 23 26 19
91.790993456228 -254.960954873804 2697.85510276843 18 21 12
98.9860257747934 -260.628997972383 2669.69358620846 15 18 9
90.6914358151329 -262.734043809955 2656.25918972998 14 17 8
85.0750948402057 -263.446296212191 2650.94913997056 15 18 9
63.5758578419194 -260.397268456738 2661.31715873308 14 17 8
57.9976554541042 -261.105784384495 2656.03448089835 16 19 10
71.7812106454376 -266.441001025023 2631.41606885433 20 23 14
302.815564150504 -264.644922695817 2745.79649646144 18 23 17
295.599969142254 -265.029315301369 2741.7988472564 26 29 22
266.514533296521 -260.692456481326 2756.55487368278 20 23 16
260.92585371286 -261.408691717538 2751.26456160536 16 19 12
250.670979455686 -261.11142055125 2750.00786224358 16 19 12
242.761217095946 -261.319924093618 2746.74321833018 14 17 10
245.673477280563 -263.898742209207 2734.01969820809 20 23 16
226.195801120173 -261.565133557425 2740.9088303546 17 20 13
222.920458589277 -262.789647516882 2733.58782125625 14 17 10
241.51486530478 -270.85721702436 2696.38610968012 15 18 11
99.5458924132557 -242.981412064306 2803.58250767982 19 22 15
118.451622401306 -249.135990016143 2776.49734713196 16 19 12
131.17263180333 -253.935910839588 2754.81678871289 13 16 9
124.966844679339 -254.468759688397 2750.31538220418 12 15 8
120.261222314421 -255.344018104414 2744.42937503704 12 15 8
140.986513676203 -262.048798276705 2714.95506211302 13 16 9
105.598546506465 -255.895130331305 2737.5027012994 15 18 11
77.8197976224035 -251.444887574065 2753.20654730236 17 20 13
89.475757143413 -256.099702597954 2731.98938863691 17 20 13
107.680314932003 -262.313174351174 2704.39563508919 16 19 12
75.60520912569 -256.817084814803 2724.40106641977 16 19 12
113.513826267047 -267.701707906805 2677.71920089534 14 17 10
113.78186910192 -269.798086033865 2666.7866792043 14 17 10
96.7135517573672 -269.845519168604 2661.82406017636 14 17 8
91.8292302647634 -270.733820355308 2655.80844413373 14 17 6
68.109840576926 -267.111431609937 2668.27504090523 22 25 16
56.0448029780329 -266.259014810729 2669.41433179294 22 25 16
50.4909741418142 -266.968294066106 2664.14961347653 16 19 10
49.9542171658738 -268.896202612178 2653.86956518818 19 22 15
332.303789085703 -278.933045378223 2721.400878864 12 17 11
296.799538151783 -273.160960499047 2741.39221541624 20 23 16
276.302583768086 -270.630254671922 2748.77848599145 15 18 11
269.908396036883 -271.17997915403 2744.1404183835 12 15 8
273.613843677206 -273.962022580274 2730.75583077004 13 16 9
247.046111419227 -270.045323782759 2743.62946169967 11 14 7
228.317297944385 -267.839549918654 2749.82577625085 14 17 10
235.850582472946 -271.48493151398 2733.0359242097 11 14 7
217.186171207063 -269.27364163364 2739.27895323628 10 13 6
234.591843494825 -275.170518075258 2713.57804189303 9 12 5
254.91592602927 -281.770619557461 2685.04845097526 13 16 9
85.510476287685 -247.204146117069 2816.85400883623 29 32 25
134.594000687055 -262.301758152393 2752.31390189556 21 24 17
101.279091310174 -256.579477814433 2772.65675548932 21 24 17
89.8887588112771 -255.888634882987 2773.04900499322 18 21 14
127.174067806143 -266.515027675052 2728.38696581414 19 22 15
121.670437699422 -267.225687319067 2723.15833615907 18 21 14
98.3056269904252 -263.747899809735 2734.64620573646 17 20 13
84.6843918179356 -262.532590426003 2737.12928717305 16 19 12
88.1170316036992 -265.336365509639 2723.5471197257 14 17 10
102.552962879092 -270.771388218048 2699.40082901299 14 17 10
108.042311286 -274.113333566556 2683.60118875732 14 17 10
125.921453049532 -280.444217221303 2655.77093947388 14 17 10
85.9212397524063 -272.910148047475 2683.6279003751 13 16 7
78.9097514127635 -273.271792379827 2679.77832767448 14 17 8
65.3640986751793 -272.048507917678 2682.31624082648 14 17 8
69.2423662109483 -275.050696296617 2667.8207823366 10 13 4
42.0123399632333 -270.472060825958 2683.92305942338 14 17 8
44.4208599186755 -273.123172508588 2670.83400107764 14 17 10
51.7985530764622 -277.015891111494 2652.69536256844 16 18 13
347.656444968431 -290.295422404528 2709.00562573572 11 16 10
295.471515832208 -282.720869746298 2732.97027214111 13 16 9
296.038261324499 -284.843294175458 2722.2541544514 13 16 9
267.812297257549 -280.51585890356 2736.39814595092 14 17 10
250.557215467264 -278.622374320283 2741.19085050904 14 17 10
227.181196823655 -275.325332942208 2751.43464307146 15 18 11
230.8687693287 -278.144312279984 2738.03691030329 14 17 10
219.132315715335 -277.464900238239 2738.17819132501 15 18 11
214.320926908372 -278.361093885346 2732.21540576579 13 16 9
220.194856699383 -281.715795556935 2716.69449214954 9 12 5
219.903796480507 -283.6705092307 2706.59271338759 11 14 7
189.955499697918 -278.767201834167 2723.19617593858 29 32 25
89.7109390668529 -257.473450047919 2803.79034381053 24 27 20
71.5646468517161 -255.17358657039 2810.40941703694 25 28 21
71.5585112155024 -257.103555706942 2800.51401704448 23 26 19
135.328717938929 -274.054337368124 2731.78988989889 20 23 16
113.355976337289 -270.876923778014 2741.81530536892 19 22 15
101.923667107238 -270.170423152883 2742.17720435388 16 19 12
90.5212845882675 -269.461139667511 2742.5608119461 15 18 11
83.600527053644 -269.813701222157 2738.77705794839 13 16 9
73.7243189205787 -269.455284531062 2737.79517145525 13 16 9
74.9324317430742 -271.761987378844 2726.30802459495 14 17 10
113.59842558387 -283.150570129246 2678.93731384192 13 16 9
103.607500831256 -282.801267532245 2677.87222065841 13 16 9
89.2522277224579 -281.379733381589 2681.05926352812 14 17 8
78.5881917932834 -280.846692681822 2680.74218498673 14 17 8
62.8639270357199 -279.05993474084 2685.40903426044 15 18 9
50.8178475164187 -278.162737961936 2686.56200060703 21 24 15
44.1071394278483 -280.662427878034 2671.80372169016 15 18 11
415.326713556988 -311.411986921114 2662.84940013145 140 144 143
287.441905729132 -286.789720095577 2750.59628970477 18 21 14
243.519709948133 -278.856371156352 2778.0822174933 17 20 13
267.617529679882 -286.298961957722 2747.34358083708 15 18 11
296.206655775348 -294.819152177844 2712.44481550743 15 18 11
246.318989033596 -285.447068810573 2745.49471002523 14 17 10
229.135925479937 -283.509274929976 2750.33984657536 16 19 12
230.508943298487 -285.831056690036 2738.97216648827 15 18 11
242.595711482357 -290.646980506989 2718.06678864567 16 19 12
210.899767681176 -285.321719426345 2735.87584959026 13 16 9
196.921349137314 -284.084085685681 2738.10011425554 7 10 3
173.843891352095 -280.701272033344 2748.56047993226 8 11 4
160.737803975261 -279.632432230757 2750.18122447321 26 29 22
168.879737576597 -283.567502150573 2732.59609117645 24 27 20
87.0597443888394 -266.206248312622 2796.88376187048 23 26 19
90.023095189812 -268.878668400163 2784.19680431406 23 26 19
87.6766593009712 -270.299714457292 2776.31314736137 18 21 14
101.029816999332 -275.493893743098 2753.85351862997 16 19 12
97.0987234262695 -276.562955911449 2747.2929656299 14 17 10
89.4324195220122 -276.73328612328 2744.20470882497 14 17 10
84.7422262902042 -277.623295591538 2738.33010632574 13 16 9
86.7015622730638 -280.137051890981 2726.1511572935 14 17 10
110.004496969442 -287.89031053108 2693.5996812884 14 17 10
75.0271941013323 -281.381534264946 2716.44681848469 13 16 9
113.054702831272 -294.940631303477 2658.72138017844 13 16 9
77.8029688212811 -290.403861640759 2671.47870579347 15 18 9
80.2016174432354 -293.121969158724 2658.3821521603 14 17 8
91.93625200224 -298.208521303763 2635.98480324607 8 11 2
130.202924562009 -310.039544358598 2587.08733829792 14 17 10
262.769470713649 -288.978296614361 2772.22345188224 17 20 13
244.708535480989 -286.831043535716 2777.66859257589 18 21 14
254.777385273521 -291.145992080214 2759.00832453003 17 20 13
246.096556968746 -291.152595259623 2756.42048327504 17 20 13
251.381180731634 -294.398727832868 2741.7082501727 18 21 14
228.772019664302 -291.162594592562 2751.27231453976 18 21 14
233.231856123359 -294.233034710011 2737.19810206516 15 18 11
216.877543443292 -292.432555381578 2741.40828565549 11 14 7
229.702761395914 -297.497252975512 2719.8016346151 10 13 6
188.923197595443 -289.902838697842 2745.85889673494 11 14 7
168.914596397005 -287.182842457191 2753.6004382264 15 18 11
164.180680280754 -288.08333460764 2747.69379250127 21 24 17
124.587026229677 -280.633396652799 2773.37468299972 22 25 18
108.603838263146 -278.800581818691 2777.8540666008 19 22 15
109.247786877726 -280.965144424258 2767.19370166387 16 19 12
109.100246289085 -282.950888491446 2757.19580616967 12 15 8
108.168051959269 -284.75733037379 2747.86504326327 14 17 10
113.923834302797 -288.208769532609 2732.2579920465 14 17 10
112.164325994458 -289.83930544128 2723.56341920895 14 17 10
91.0797274006923 -286.717455302505 2732.99705595324 15 18 11
97.4632671183229 -290.361086233104 2716.60906933555 14 17 10
116.314217370967 -297.126033007944 2688.24606952081 14 17 10
113.681767294797 -298.584180071286 2680.15459237894 13 16 9
121.294217090868 -302.614708283292 2662.18543593395 13 16 9
115.660445452852 -303.343677538697 2656.8623711637 13 16 9
98.3567608404599 -301.12886535793 2662.85680119269 15 18 9
64.401477276411 -294.671916584117 2685.20922837078 15 18 9
90.0317476345247 -303.319240489412 2649.39991804403 13 16 7
136.387499083912 -319.554371703377 2581.64159189026 13 15 10
256.921998470239 -291.367864880749 2797.61562574434 3 8 4
287.597349327141 -300.452920187377 2761.75568590103 18 23 17
275.724457961566 -299.728043475986 2761.79829057196 17 20 13
257.626321064219 -297.543118608919 2767.2166538 17 20 13
246.610770789808 -296.994045348998 2766.64483621614 17 20 13
240.286012208576 -297.538205039477 2762.05712746746 17 20 13
220.780202575759 -294.975666947918 2768.92702463216 14 17 10
241.550937664322 -301.919615000469 2740.71948003223 13 16 9
263.709044581488 -309.243119596445 2711.04567509172 15 18 11
237.273663341287 -305.031617049226 2724.01674333776 9 12 5
203.286359744142 -298.975294111662 2743.87385600327 11 14 7
187.800657450276 -297.314038238452 2747.47797197618 10 13 6
178.464198708432 -297.119345991766 2745.65120093274 19 22 15
147.865837768322 -291.769103620867 2763.02101302287 16 19 12
138.624478274937 -291.566050092512 2761.26322380571 16 19 12
128.64452299435 -291.177035724444 2760.2059892975 15 18 11
146.559784134482 -297.617769991751 2733.63669841219 15 18 11
133.536256354873 -296.49248570138 2735.31728359252 14 17 10
137.028630568559 -299.434159963049 2721.77742594323 15 18 11
130.755080951908 -299.972976279995 2717.22686673107 15 18 11
122.247026469753 -299.955535533614 2714.76468917151 15 18 11
95.1921143433734 -295.297243924574 2729.75927706681 15 18 11
127.47319042942 -305.489986956951 2688.88227343026 14 17 10
95.3212814948503 -299.523722148152 2708.83441006455 14 17 10
116.298206852997 -306.946869073501 2678.30354221919 12 15 8
120.972733554871 -310.284306727134 2663.14857425897 12 15 6
108.759061768579 -309.337119371533 2664.18030260674 13 16 7
89.2879614034916 -306.51963090388 2672.31198374049 15 18 9
78.6189590775859 -305.938062352993 2671.99155075526 14 17 8
60.0031161045971 -303.295959059899 2679.50700675792 12 15 8
95.6539124343418 -314.693198373971 2633.65587549905 11 14 7
272.312021747064 -302.642030409312 2785.24761336911 4 9 5
269.135419518797 -303.923785549265 2777.99789328549 17 22 16
294.17352120913 -311.856833007161 2746.70307172178 15 18 11
275.240772023573 -309.450769904645 2752.75256342855 14 17 10
256.377573317242 -307.038713974772 2758.85250411684 16 19 12
242.249866714502 -305.732340849829 2760.9688948608 16 19 12
238.246508198994 -306.833425075494 2754.35579326371 14 17 10
254.334100579324 -312.762610977498 2730.16958174798 12 15 8
244.077380399268 -312.384248121264 2728.91166050568 14 17 10
227.690853011855 -310.515701610021 2733.09883574087 9 12 5
209.060667379506 -308.083693633846 2739.36779364028 11 14 7
