ply
format ascii 1.0
comment KinectMotionCapture
element vertex 784
property float x
property float y
property float z
property uchar red
property uchar green
property uchar blue
end_header
251.744002103806 -7.5649912469089 2448.99988174438 157 159 156
258.834332227707 -7.57697131484747 2453.00006866455 155 157 154
265.945464372635 -7.58893927559257 2457.00001716614 155 157 154
273.41029047966 -7.61016411706805 2463.99998664856 150 152 149
282.162725925446 -7.66535149887204 2482.00011253357 147 149 146
-40.5604839324951 -16.2566266953945 2792.00005531311 23 26 19
-24.7325338423252 -15.8841740339994 2727.9999256134 22 25 16
-17.4416545778513 -16.0298049449921 2753.00002098084 23 26 17
-9.99974645674229 -16.1521211266518 2773.9999294281 20 23 14
-2.42737354710698 -16.1696076393127 2776.99995040894 14 17 8
5.13911480084062 -16.117200255394 2767.99988746643 13 16 7
12.6701919361949 -16.0822365432978 2762.00008392334 13 16 7
20.27821354568 -16.1345899105072 2770.99990844727 12 15 6
27.7946256101131 -16.1054059863091 2766.00003242493 13 16 7
35.3602878749371 -16.1111354827881 2766.99995994568 13 16 7
50.2339154481888 -16.0351879894733 2753.99994850159 13 16 9
57.732529938221 -16.029205173254 2753.00002098084 13 16 9
65.3202384710312 -16.0464867949486 2756.00004196167 13 16 9
73.0562135577202 -16.092861071229 2763.99993896484 12 15 8
81.0688659548759 -16.1857884377241 2779.99997138977 11 14 7
88.8496190309525 -16.2204708904028 2786.00001335144 4 7 0
96.4550524950027 -16.2201952189207 2786.00001335144 12 15 8
102.603361010551 -15.9928426146507 2746.99997901917 10 13 6
109.099499881268 -15.8469844609499 2721.99988365173 4 7 0
117.684826254845 -16.0038396716118 2749.00007247925 3 6 0
124.458849430084 -15.9103348851204 2733.00004005432 11 12 7
131.482914090157 -15.8575642853975 2723.99997711182 11 12 7
138.151347637177 -15.7698504626751 2709.00011062622 11 12 7
146.349117159843 -15.8567503094673 2723.99997711182 12 13 7
154.684603214264 -15.9494485706091 2740.00000953674 13 14 8
161.390453577042 -15.8733129501343 2726.99999809265 13 14 8
167.839020490646 -15.7797019928694 2710.99996566772 13 14 8
175.750941038132 -15.8257689327002 2719.00010108948 14 15 7
182.493224740028 -15.7670453190804 2709.00011062622 16 17 9
188.619449734688 -15.661746263504 2690.99998474121 16 17 9
196.685746312141 -15.7193895429373 2700.99997520447 17 18 10
200.575172901154 -15.4511099681258 2654.99997138977 22 25 18
198.264271020889 -14.7405555471778 2532.99999237061 18 20 15
202.901288866997 -14.5770404487848 2505.00011444092 177 179 176
209.059327840805 -14.5298996940255 2496.99997901917 155 157 156
214.913606643677 -14.465288259089 2486.00006103516 165 167 166
220.528766512871 -14.3890306353569 2473.00004959106 158 160 159
226.164102554321 -14.3185770139098 2460.99996566772 157 159 158
232.39554464817 -14.2888408154249 2456.00008964539 156 158 157
238.696217536926 -14.2649067565799 2451.99990272522 155 157 154
245.374500751495 -14.2642287537456 2451.99990272522 155 157 152
252.154648303986 -14.2693510279059 2453.00006866455 156 158 155
259.255826473236 -14.2919085919857 2457.00001716614 154 156 153
266.486078500748 -14.3202617764473 2461.99989318848 158 160 157
273.964524269104 -14.3602313473821 2469.00010108948 154 156 153
282.730519771576 -14.4641548395157 2486.99998855591 148 150 147
-32.7478274703026 -23.7438585609198 2776.00002288818 23 26 17
-24.8140394687653 -23.4104059636593 2736.99998855591 22 25 16
-17.3148810863495 -23.3762860298157 2733.00004005432 18 21 12
-9.91679914295673 -23.5303044319153 2750.99992752075 16 19 10
-2.41250498220325 -23.6073117703199 2759.99999046326 13 16 7
5.1483791321516 -23.7185005098581 2773.00000190735 13 16 7
12.5783979892731 -23.4533082693815 2742.00010299683 12 15 6
20.2269144356251 -23.6414074897766 2763.99993896484 12 15 6
27.6839882135391 -23.5643237829208 2755.00011444092 12 15 6
35.1429097354412 -23.5214196145535 2750 12 15 6
42.8845770657063 -23.6495491117239 2765.00010490417 12 15 8
50.8539043366909 -23.8460674881935 2788.00010681152 12 15 8
58.4243461489677 -23.8287206739187 2786.00001335144 12 15 8
66.1732330918312 -23.8797664642334 2792.00005531311 10 13 6
73.4524205327034 -23.768275976181 2779.00004386902 10 13 6
81.3018605113029 -23.8449107855558 2788.00010681152 9 12 5
89.3276631832123 -23.955725133419 2801.00011825562 10 13 6
97.4240750074387 -24.0665003657341 2813.99989128113 9 12 5
103.125907480717 -23.612791672349 2760.99991798401 6 9 2
124.868266284466 -23.4488230198622 2742.00010299683 11 12 7
131.965115666389 -23.3798529952765 2733.99996757507 10 11 6
141.057670116425 -23.6529130488634 2766.00003242493 10 11 6
146.509766578674 -23.3187973499298 2726.99999809265 12 13 7
153.442040085793 -23.2411921024323 2717.99993515015 13 14 8
160.502150654793 -23.189214989543 2711.99989318848 14 15 9
168.209880590439 -23.2312642037869 2717.00000762939 14 15 9
175.039291381836 -23.1535788625479 2707.99994468689 14 15 7
182.088360190392 -23.110069334507 2703.00006866455 14 15 7
187.70757317543 -22.8955410420895 2677.99997329712 15 16 8
195.811212062836 -22.9887720197439 2688.99989128113 16 17 9
198.534727096558 -22.4664490669966 2628.00002098084 14 17 10
197.167754173279 -21.5338040143251 2519.00005340576 2 4 0
202.333569526672 -21.3534440845251 2497.99990653992 187 189 186
208.556234836578 -21.2927479296923 2490.9999370575 166 168 167
214.39416706562 -21.1978405714035 2480.00001907349 161 163 162
220.349624752998 -21.1200062185526 2470.99995613098 161 163 162
226.255223155022 -21.0421569645405 2461.99989318848 160 162 161
232.394739985466 -20.9899265319109 2456.00008964539 160 162 161
238.890096545219 -20.9718625992537 2453.9999961853 158 160 157
245.473742485046 -20.9623202681541 2453.00006866455 157 159 154
252.359360456467 -20.9783893078566 2454.99992370605 154 156 155
259.360462427139 -21.0029780864716 2457.99994468689 162 164 163
266.485154628754 -21.0360866039991 2461.99989318848 150 152 151
274.40744638443 -21.1289767175913 2473.00004959106 152 154 153
283.411681652069 -21.2987214326859 2493.00003051758 158 160 159
-40.7054014503956 -31.6172093153 2802.00004577637 18 21 14
-32.8656286001205 -31.4368829131126 2786.00001335144 22 25 16
-25.1221600919962 -31.2677882611752 2770.99990844727 21 24 15
-17.4478366971016 -31.0760829597712 2753.99994850159 16 19 10
-9.90954041481018 -31.0197453945875 2749.00007247925 16 19 10
-2.41598882712424 -31.1890374869108 2763.99993896484 15 18 9
5.12607302516699 -31.1551783233881 2760.99991798401 15 18 9
12.9866022616625 -31.9450087845325 2831.00008964539 14 17 8
20.1243609189987 -31.0309119522572 2750 13 16 7
27.5632664561272 -30.9517849236727 2743.00003051758 12 15 6
34.9766053259373 -30.8839026838541 2736.99998855591 12 15 6
42.8533405065537 -31.177056953311 2763.00001144409 14 17 10
51.1090122163296 -31.6168516874313 2802.00004577637 12 15 8
58.7805546820164 -31.62781894207 2802.99997329712 11 14 7
66.2676990032196 -31.5484739840031 2796.0000038147 10 13 6
73.3727589249611 -31.3224047422409 2776.00002288818 9 12 5
80.8057114481926 -31.2655419111252 2770.99990844727 9 12 5
88.7850672006607 -31.411737203598 2783.99991989136 12 15 8
97.0081463456154 -31.6142961382866 2802.00004577637 9 12 5
105.702593922615 -31.9296307861805 2829.99992370605 0 2 0
125.004231929779 -30.9686604887247 2744.99988555908 11 12 7
134.474396705627 -31.4304754137993 2786.00001335144 10 11 6
142.076909542084 -31.4296893775463 2786.00001335144 10 11 6
146.132960915565 -30.6843165308237 2720.00002861023 11 12 6
153.271928429604 -30.6270625442266 2714.99991416931 13 14 8
162.04009950161 -30.885623767972 2737.99991607666 15 16 10
167.218491435051 -30.4673258215189 2700.99997520447 15 16 10
173.681035637856 -30.3084496408701 2687.00003623962 14 15 7
180.942252278328 -30.2961729466915 2686.00010871887 13 14 6
189.108490943909 -30.4304845631123 2697.99995422363 14 15 7
196.247160434723 -30.3955730050802 2694.9999332428 15 16 8
196.775421500206 -28.3520445227623 2513.99993896484 37 39 34
202.251583337784 -28.1592234969139 2496.99997901917 186 188 185
208.220332860947 -28.0453190207481 2486.99998855591 166 168 167
214.133754372597 -27.9313884675503 2476.99999809265 158 160 159
220.08104622364 -27.8287101536989 2467.99993515015 161 163 162
226.254105567932 -27.7598332613707 2461.99989318848 161 163 162
232.67750442028 -27.7247559279203 2459.00011062622 161 163 162
239.181011915207 -27.7009215205908 2457.00001716614 159 161 158
245.672702789307 -27.6770573109388 2454.99992370605 158 160 155
252.563744783401 -27.6982560753822 2457.00001716614 154 156 155
259.570270776749 -27.7306977659464 2460.00003814697 158 160 159
266.916900873184 -27.7969185262918 2466.00008010864 157 159 158
274.849981069565 -27.9194600880146 2476.99999809265 155 157 156
284.660875797272 -28.2222907990217 2503.99994850159 164 166 165
-41.0828478634357 -39.6325811743736 2828.00006866455 12 15 8
-32.9715833067894 -39.1703695058823 2795.00007629395 20 23 14
-25.2942536026239 -39.1005054116249 2789.99996185303 18 21 12
-17.7898369729519 -39.3529199063778 2808.00008773804 15 18 9
-2.43083294481039 -38.9746688306332 2780.99989891052 14 17 8
5.17802499234676 -39.0867777168751 2789.00003433228 14 17 8
12.6562351360917 -38.6662781238556 2759.0000629425 13 16 7
20.4389020800591 -39.1426533460617 2792.99998283386 13 16 7
27.5027938187122 -38.3576676249504 2736.99998855591 14 17 8
34.9763743579388 -38.3574403822422 2736.99998855591 14 17 8
42.760007083416 -38.6374555528164 2756.99996948242 14 17 10
51.1633940041065 -39.3097996711731 2805.0000667572 9 12 5
59.0108409523964 -39.4355319440365 2813.99989128113 8 11 4
65.6984597444534 -38.8465039432049 2772.0000743866 11 14 7
73.0815455317497 -38.7479141354561 2765.00010490417 11 14 7
81.0384824872017 -38.9435514807701 2779.00004386902 10 13 6
87.7320840954781 -38.5505743324757 2750.99992752075 9 12 5
96.4189693331718 -39.0263684093952 2785.00008583069 16 19 12
105.552516877651 -39.6001785993576 2825.99997520447 0 2 0
117.297761142254 -38.3935198187828 2740.00000953674 0 2 0
125.276669859886 -38.5467931628227 2750.99992752075 5 6 1
134.425267577171 -39.0222743153572 2785.00008583069 14 15 10
141.922995448112 -38.9932729303837 2782.99999237061 13 14 9
145.863398909569 -38.0395092070103 2714.99991416931 12 13 7
154.964536428452 -38.4587720036507 2744.99988555908 12 13 7
162.039056420326 -38.3595861494541 2737.99991607666 13 14 8
167.712718248367 -37.952147424221 2709.00011062622 14 15 9
173.873841762543 -37.6847721636295 2690.00005722046 15 16 8
182.153686881065 -37.8796607255936 2703.9999961853 15 16 8
190.439060330391 -38.0604714155197 2717.00000762939 16 17 9
196.90129160881 -37.8770232200623 2703.9999961853 16 17 9
196.539402008057 -35.1708978414536 2510.99991798401 83 85 80
202.331304550171 -34.9874421954155 2497.99990653992 183 185 182
208.135306835175 -34.8179638385773 2486.00006103516 162 164 163
213.959529995918 -34.6624553203583 2474.99990463257 165 167 166
219.990521669388 -34.5489382743835 2467.00000762939 161 163 162
226.344630122185 -34.4914048910141 2463.00005912781 161 163 162
232.676059007645 -34.4338342547417 2459.00011062622 161 163 162
239.471569657326 -34.4462394714355 2460.00003814697 159 161 158
246.071502566338 -34.4306044280529 2459.00011062622 158 160 155
252.870589494705 -34.4429314136505 2460.00003814697 159 161 160
259.779751300812 -34.4692207872868 2461.99989318848 152 154 153
266.915261745453 -34.5234610140324 2466.00008010864 164 166 165
275.292187929153 -34.7316563129425 2480.99994659424 151 153 152
286.250710487366 -35.2477543056011 2517.99988746643 152 154 153
-41.1115773022175 -47.3878867924213 2829.99992370605 12 15 6
-32.9123437404633 -46.7184074223042 2789.99996185303 19 22 13
-25.5207028239965 -47.1372902393341 2815.00005722046 17 20 11
-17.94807985425 -47.438882291317 2832.99994468689 14 17 8
-10.1256808266044 -47.0371171832085 2809.00001525879 14 17 8
-2.44217668659985 -46.7859953641891 2793.99991035461 12 15 6
5.14827901497483 -46.4343391358852 2773.00000190735 13 16 7
12.7754043787718 -46.635203063488 2785.00008583069 15 18 9
20.2704295516014 -46.3838838040829 2769.99998092651 17 20 11
27.5528207421303 -45.914813876152 2742.00010299683 16 19 10
34.8738692700863 -45.6968657672405 2729.00009155273 16 19 10
42.0307256281376 -45.3783869743347 2710.00003814697 10 13 6
50.9258806705475 -46.7510595917702 2792.00005531311 8 11 4
58.6958341300488 -46.8678027391434 2799.00002479553 9 12 5
66.0060495138168 -46.6328486800194 2785.00008583069 11 14 7
73.8474577665329 -46.7829443514347 2793.99991035461 11 14 7
80.8920338749886 -46.4474037289619 2773.9999294281 14 17 10
87.8908559679985 -46.1453013122082 2756.00004196167 8 11 4
96.2451174855232 -46.5463660657406 2779.99997138977 8 11 4
118.195839226246 -46.2255217134953 2760.99991798401 1 4 0
126.869544386864 -46.643041074276 2786.00001335144 5 6 1
133.458882570267 -46.29036039114 2765.00010490417 13 14 9
140.749007463455 -46.205498278141 2759.99999046326 12 13 8
147.044211626053 -45.8192490041256 2736.99998855591 12 13 7
155.132710933685 -46.0021235048771 2747.99990653992 12 13 7
160.499110817909 -45.398160815239 2711.99989318848 13 14 8
167.154252529144 -45.1959185302258 2700.00004768372 14 15 9
174.906715750694 -45.2949218451977 2706.00008964539 15 16 8
182.01756477356 -45.2264845371246 2701.99990272522 15 16 8
189.876869320869 -45.3421026468277 2709.00011062622 16 17 9
195.880353450775 -45.0224950909615 2690.00005722046 16 17 9
196.381390094757 -41.9899709522724 2509.0000629425 157 159 154
202.32979953289 -41.804239153862 2497.99990653992 182 184 181
208.217471837997 -41.6184738278389 2486.99998855591 168 170 169
214.130818843842 -41.4494089782238 2476.99999809265 166 168 167
220.256388187408 -41.3305051624775 2470.00002861023 161 163 162
226.618647575378 -41.2617623806 2466.00008010864 159 161 160
232.958182692528 -41.1929674446583 2461.99989318848 159 161 160
239.66446518898 -41.1910600960255 2461.99989318848 159 161 158
246.369868516922 -41.1891043186188 2461.99989318848 159 161 156
253.2799243927 -41.2205643951893 2463.99998664856 163 163 161
260.199904441834 -41.2519723176956 2466.00008010864 154 154 154
267.346262931824 -41.316781193018 2470.00002861023 148 148 148
276.066899299622 -41.6157133877277 2487.99991607666 154 154 154
-40.210522711277 -53.9075098931789 2767.99988746643 15 18 9
-33.0889858305454 -54.6284690499306 2805.0000667572 19 22 13
-25.4932697862387 -54.7650828957558 2812.00003623962 18 21 12
-17.840214073658 -54.8431985080242 2815.99998474121 18 21 12
-10.0643085315824 -54.3759278953075 2792.00005531311 19 22 13
-2.42729485034943 -54.0838465094566 2776.99995040894 19 22 13
5.16122719272971 -54.1422665119171 2779.99997138977 19 22 13
12.6330815255642 -53.6358058452606 2753.99994850159 18 21 12
20.0653448700905 -53.4019432961941 2742.00010299683 16 19 10
27.4118892848492 -53.1290471553802 2727.9999256134 11 14 5
34.3623906373978 -52.369199693203 2688.99989128113 10 13 4
42.6662154495716 -53.5762831568718 2750.99992752075 11 14 7
50.8889220654964 -54.3353483080864 2789.99996185303 11 14 7
58.6743168532848 -54.4906072318554 2798.00009727478 12 15 8
66.6927546262741 -54.8015795648098 2813.99989128113 12 15 8
74.3225291371346 -54.7619350254536 2812.00003623962 12 15 8
80.5413722991943 -53.7874549627304 2762.00008392334 14 17 10
87.6987129449844 -53.5529367625713 2750 2 5 0
94.6516916155815 -53.2404519617558 2733.99996757507 2 5 0
103.048279881477 -53.7263117730618 2759.0000629425 91 94 87
126.230850815773 -53.9760701358318 2772.0000743866 5 6 1
133.168071508408 -53.7216700613499 2759.0000629425 13 14 9
140.645727515221 -53.7008494138718 2757.99989700317 12 13 8
143.658250570297 -52.0639233291149 2674.00002479553 11 12 6
152.760311961174 -52.6855252683163 2706.00008964539 12 13 7
159.965038299561 -52.6255890727043 2703.00006866455 13 14 8
167.771816253662 -52.7602806687355 2710.00003814697 14 15 9
174.517303705215 -52.5639317929745 2700.00004768372 15 16 8
182.689547538757 -52.7958162128925 2711.99989318848 15 16 8
188.963994383812 -52.4825528264046 2696.00009918213 16 17 9
191.881358623505 -49.4421683251858 2539.99996185303 17 20 13
196.066558361053 -48.7590320408344 2505.00011444092 178 180 175
202.16603577137 -48.5819540917873 2496.00005149841 181 183 180
208.299353718758 -48.4242811799049 2487.99991607666 168 170 169
214.301839470863 -48.2471100986004 2479.00009155273 166 168 167
220.61114013195 -48.1477417051792 2473.99997711182 161 163 162
226.7085313797 -48.0093955993652 2467.00000762939 160 162 161
232.861548662186 -47.8904768824577 2460.99996566772 159 161 160
239.467725157738 -47.8688031435013 2460.00003814697 159 161 158
246.567875146866 -47.944363206625 2463.99998664856 158 160 155
253.688901662827 -48.0198599398136 2467.99993515015 150 150 148
260.725229978561 -48.0758436024189 2470.99995613098 151 151 149
267.885148525238 -48.1512174010277 2474.99990463257 159 159 157
276.508361101151 -48.4794415533543 2492.00010299683 158 158 156
-40.3263159096241 -61.6427324712276 2776.00002288818 18 21 12
-33.053245395422 -62.220498919487 2802.00004577637 22 25 16
-25.4295375198126 -62.2874461114407 2805.0000667572 21 24 15
-17.9793983697891 -63.0204901099205 2838.00005912781 23 26 17
-9.95605997741222 -61.3329857587814 2762.00008392334 23 26 17
-2.41852831095457 -61.4440925419331 2766.99995994568 25 28 19
5.14075066894293 -61.4884905517101 2769.00005340576 23 26 17
12.7476267516613 -61.7104470729828 2779.00004386902 18 21 12
19.8529176414013 -60.2446682751179 2713.00005912781 15 18 9
27.3814499378204 -60.5108626186848 2724.99990463257 12 15 6
34.8731800913811 -60.5993457138538 2729.00009155273 12 15 6
42.9914593696594 -61.5537390112877 2772.0000743866 13 16 9
51.2896589934826 -62.4414272606373 2812.00003623962 14 17 10
59.1560043394566 -62.6406520605087 2821.00009918213 14 17 10
66.6683465242386 -62.4623000621796 2812.99996376038 12 15 8
74.4803249835968 -62.5725314021111 2818.00007820129 11 14 7
81.2986791133881 -61.9055144488811 2788.00010681152 11 14 7
86.549736559391 -60.261458158493 2713.99998664856 13 16 9
95.3430905938149 -61.1485913395882 2753.99994850159 0 2 0
104.503832757473 -62.1244125068188 2798.00009727478 46 49 42
125.683084130287 -61.2768419086933 2759.99999046326 6 7 2
133.021876215935 -61.1865930259228 2756.00004196167 13 14 9
140.593260526657 -61.2072609364986 2756.99996948242 11 12 7
146.181762218475 -60.4064501821995 2720.99995613098 11 12 6
151.403859257698 -59.5390014350414 2681.99992179871 12 13 7
161.679580807686 -60.64722687006 2732.00011253357 13 14 8
167.831987142563 -60.1792335510254 2710.99996566772 14 15 9
174.903303384781 -60.0663460791111 2706.00008964539 15 16 8
181.407779455185 -59.775821864605 2693.00007820129 15 16 8
189.172312617302 -59.9069558084011 2698.99988174438 16 17 9
195.512488484383 -59.5941096544266 2684.99994277954 16 17 9
191.577196121216 -56.2849603593349 2536.00001335144 5 8 1
195.8297342062 -55.5282570421696 2502.00009346008 193 195 190
202.001973986626 -55.3485415875912 2493.99995803833 172 174 171
208.380952477455 -55.2353523671627 2489.00008201599 173 175 174
214.213207364082 -54.9889579415321 2477.9999256134 169 171 170
220.60889005661 -54.8978485167027 2473.99997711182 163 165 164
226.798161864281 -54.7623112797737 2467.99993515015 161 163 162
233.332291245461 -54.7154620289803 2466.00008010864 160 162 161
239.757344126701 -54.6463765203953 2463.00005912781 159 161 158
246.665462851524 -54.6881519258022 2464.99991416931 158 160 155
253.789156675339 -54.7742359340191 2469.00010108948 155 156 151
261.039167642593 -54.8824369907379 2473.99997711182 154 155 150
268.531918525696 -55.0349280238152 2480.99994659424 154 155 150
276.949495077133 -55.364802479744 2496.00005149841 166 167 162
-40.4710955917835 -69.4712474942207 2786.00001335144 22 25 16
-33.1354215741158 -70.0452476739883 2809.00001525879 27 30 21
-25.7102660834789 -70.7188919186592 2835.99996566772 26 29 20
-17.7384465932846 -69.8214694857597 2799.99995231628 25 28 19
-9.98477824032307 -69.0735578536987 2769.99998092651 22 25 16
5.09984511882067 -68.5000792145729 2746.99997901917 18 21 12
12.6098608598113 -68.5498416423798 2749.00007247925 13 16 7
20.255146548152 -69.023422896862 2767.99988746643 12 15 6
27.6323277503252 -68.5742720961571 2750 12 15 6
35.128328949213 -68.5489401221275 2749.00007247925 13 16 7
43.3476492762566 -69.6954876184464 2795.00007629395 14 17 10
51.471434533596 -70.3681483864784 2822.00002670288 15 18 11
59.3440160155296 -70.5669298768044 2829.99992370605 14 17 10
66.7149424552917 -70.1920986175537 2815.00005722046 11 14 7
74.5058506727219 -70.2909380197525 2819.00000572205 11 14 7
81.3268646597862 -69.5419237017632 2789.00003433228 11 14 7
87.7924039959908 -68.6432272195816 2753.00002098084 6 9 2
97.0036908984184 -69.8638185858727 2802.00004577637 3 6 0
105.398952960968 -70.3612044453621 2822.00002670288 50 53 46
126.228019595146 -69.110207259655 2772.0000743866 7 8 3
134.564802050591 -69.507472217083 2788.00010681152 13 14 9
139.826685190201 -68.358950316906 2742.00010299683 11 12 7
154.337540268898 -68.1558325886726 2733.99996757507 13 14 8
162.506207823753 -68.4530064463615 2746.00005149841 13 14 8
168.387174606323 -67.8028166294098 2720.00002861023 14 15 9
173.091500997543 -66.7537599802017 2677.99997329712 15 16 8
181.001484394073 -66.9759064912796 2687.00003623962 15 16 8
189.450457692146 -67.3724263906479 2703.00006866455 16 17 9
196.45681977272 -67.2454237937927 2697.99995422363 16 17 9
191.499456763268 -63.1804764270782 2535.00008583069 4 7 0
195.827469229698 -62.3556524515152 2502.00009346008 191 193 188
201.91864669323 -62.1289275586605 2493.00003051758 172 174 171
208.378568291664 -62.0267428457737 2489.00008201599 175 177 176
214.383661746979 -61.7998950183392 2480.00001907349 168 170 169
220.517203211784 -61.6228245198727 2473.00004959106 164 166 165
226.703673601151 -61.4706240594387 2467.00000762939 162 164 163
233.235031366348 -61.4180229604244 2464.99991416931 160 162 161
239.949300885201 -61.4151805639267 2464.99991416931 159 161 158
246.962875127792 -61.4870116114616 2467.99993515015 157 159 154
254.094660282135 -61.5836791694164 2471.99988365173 154 155 150
261.247247457504 -61.6802722215652 2476.0000705719 157 158 153
269.070118665695 -61.9262456893921 2486.00006103516 158 159 154
277.501165866852 -62.2966624796391 2500.99992752075 157 158 152
-41.4583534002304 -78.9587199687958 2854.00009155273 24 27 18
-33.6657986044884 -78.9592489600182 2854.00009155273 27 30 21
-25.6827250123024 -78.3786773681641 2832.99994468689 26 29 20
-18.0106181651354 -78.6556452512741 2842.99993515015 24 27 18
-10.143244639039 -77.8535082936287 2813.99989128113 19 22 13
-2.42283730767667 -76.6916200518608 2772.0000743866 13 16 7
5.11091528460383 -76.1659294366837 2753.00002098084 14 17 8
12.7106057479978 -76.6637995839119 2770.99990844727 14 17 8
20.3573200851679 -76.9678950309753 2782.00006484985 14 17 8
27.8027690947056 -76.5525624155998 2766.99995994568 14 17 8
35.4728773236275 -76.8011063337326 2776.00002288818 13 16 7
43.3315597474575 -77.2985443472862 2793.99991035461 12 15 8
51.1424392461777 -77.5745362043381 2803.99990081787 12 15 8
59.4271011650562 -78.4037262201309 2834.00011062622 10 13 6
66.5955543518066 -77.7388736605644 2809.99994277954 8 11 4
74.42557066679 -77.9038667678833 2815.99998474121 11 14 7
81.1508223414421 -76.9898518919945 2782.99999237061 10 13 6
89.5132422447205 -77.6525884866714 2806.99992179871 13 16 9
96.9331562519073 -77.4576440453529 2799.99995231628 7 10 3
127.046003937721 -77.1747678518295 2789.99996185303 8 9 4
133.501172065735 -76.5090882778168 2766.00003242493 14 15 10
140.028804540634 -75.953982770443 2746.00005149841 12 13 8
145.909503102303 -75.1222223043442 2716.00008010864 13 14 8
156.254827976227 -76.558381319046 2767.99988746643 14 15 9
162.385702133179 -75.8923962712288 2743.99995803833 13 14 8
168.508768081665 -75.2816498279572 2721.99988365173 14 15 9
173.541650176048 -74.2560178041458 2684.99994277954 15 16 8
181.807458400726 -74.6407583355904 2698.99988174438 15 16 8
190.289050340652 -75.0806853175163 2714.99991416931 16 17 9
190.89263677597 -69.8767006397247 2526.99995040894 9 12 5
195.981457829475 -69.2380964756012 2503.99994850159 193 195 190
201.997026801109 -68.9588934183121 2493.99995803833 180 182 179
208.543300628662 -68.8731744885445 2490.9999370575 174 176 173
214.294463396072 -68.5385465621948 2479.00009155273 164 166 165
220.603555440903 -68.3973878622055 2473.99997711182 165 167 166
226.884573698044 -68.2561695575714 2469.00010108948 163 165 164
233.705163002014 -68.2807415723801 2470.00002861023 161 163 162
240.432992577553 -68.2775974273682 2470.00002861023 159 161 158
247.15992808342 -68.2743638753891 2470.00002861023 157 159 154
253.988713026047 -68.2986974716187 2470.99995613098 158 159 154
261.138498783112 -68.4058666229248 2474.99990463257 158 159 153
269.28323507309 -68.7616840004921 2487.99991607666 154 155 149
278.82918715477 -69.4490149617195 2513.00001144409 159 160 154
-41.5013171732426 -86.8414044380188 2857.00011253357 25 28 19
-25.6914123892784 -86.1433297395706 2834.00011062622 24 27 18
-17.9216619580984 -85.9916806221008 2828.9999961853 10 13 4
-10.1430946961045 -85.5359509587288 2813.99989128113 7 10 1
-2.46475427411497 -85.7184231281281 2819.9999332428 14 17 8
5.14239957556129 -84.198571741581 2769.99998092651 13 16 7
12.7929840236902 -84.7759768366814 2789.00003433228 14 17 8
20.33506706357 -84.4717547297478 2779.00004386902 14 17 8
28.0937477946281 -84.9881172180176 2796.0000038147 14 17 8
35.6384702026844 -84.7748517990112 2789.00003433228 12 15 6
43.1448183953762 -84.5614671707153 2782.00006484985 12 15 8
50.6674759089947 -84.4391658902168 2778.00011634827 9 12 5
58.7761886417866 -85.1982086896896 2802.99997329712 9 12 5
66.9737607240677 -85.8963206410408 2825.99997520447 11 14 7
73.2351690530777 -84.2235311865807 2770.99990844727 12 15 8
81.1496376991272 -84.587074816227 2782.99999237061 13 16 9
89.3843844532967 -85.1936340332031 2802.99997329712 5 8 1
96.6201722621918 -84.8274827003479 2790.99988937378 8 11 2
125.86022913456 -84.0000808238983 2763.99993896484 8 10 5
132.43742287159 -83.3903029561043 2743.99995803833 10 12 7
139.006912708282 -82.8412175178528 2726.0000705719 14 16 11
145.585045218468 -82.3528245091438 2710.00003814697 15 18 11
152.809143066406 -82.2593942284584 2707.00001716614 8 11 4
162.087455391884 -83.2294076681137 2739.00008201599 13 16 9
168.50633919239 -82.7103331685066 2721.99988365173 13 16 9
175.284251570702 -82.4038907885551 2711.99989318848 13 16 7
183.488830924034 -82.7657952904701 2723.99997711182 13 16 7
190.146163105965 -82.4287757277489 2713.00005912781 13 16 7
190.512239933014 -76.6201540827751 2522.0000743866 0 2 0
196.135222911835 -76.1311873793602 2506.00004196167 195 197 192
201.99416577816 -75.7636725902557 2493.99995803833 170 172 167
208.372920751572 -75.6087452173233 2489.00008201599 166 168 163
214.291453361511 -75.301855802536 2479.00009155273 166 168 165
220.600455999374 -75.146771967411 2473.99997711182 164 166 163
227.065190672874 -75.0523656606674 2470.99995613098 162 164 161
233.796507120132 -75.048990547657 2470.99995613098 162 164 161
240.526974201202 -75.04553347826 2470.99995613098 159 161 158
247.056424617767 -74.9812498688698 2469.00010108948 157 159 156
253.985196352005 -75.0383511185646 2470.99995613098 154 154 152
261.34592294693 -75.2168372273445 2476.99999809265 157 158 153
269.820719957352 -75.6988599896431 2493.00003051758 154 155 150
279.158234596252 -76.3932913541794 2516.00003242493 170 171 166
-41.0793945193291 -93.6800763010979 2828.00006866455 15 18 9
-33.2519076764584 -93.3825746178627 2819.00000572205 16 19 10
-25.5822148174047 -93.4824347496033 2822.00002670288 10 13 4
-17.7313257008791 -92.7208960056305 2799.00002479553 15 18 9
-10.1357223466039 -93.1517779827118 2812.00003623962 13 16 7
-2.44636065326631 -92.721238732338 2799.00002479553 13 16 7
5.18130185082555 -92.4561992287636 2790.99988937378 14 17 8
12.6689309254289 -91.4953872561455 2762.00008392334 14 17 8
20.3274227678776 -92.025138437748 2778.00011634827 14 17 8
28.1435344368219 -92.7866399288177 2801.00011825562 14 17 8
35.6506705284119 -92.4217030405998 2789.99996185303 13 16 7
42.8959913551807 -91.6260257363319 2766.00003242493 8 11 4
50.8125685155392 -92.2877490520477 2786.00001335144 13 16 9
58.7542653083801 -92.8168296813965 2802.00004577637 14 17 10
66.3091167807579 -92.6832780241966 2798.00009727478 12 15 8
73.1547027826309 -91.688372194767 2767.99988746643 11 14 7
81.3524425029755 -92.4158096313477 2789.99996185303 3 6 0
89.4467234611511 -92.9112359881401 2805.0000667572 8 11 4
96.307061612606 -92.1478420495987 2782.00006484985 8 11 4
132.676631212234 -91.0452902317047 2749.00007247925 14 16 11
139.514625072479 -90.61249345541 2736.00006103516 9 11 6
146.603435277939 -90.3782993555069 2729.00009155273 17 20 13
153.145402669907 -89.8459404706955 2713.00005912781 14 17 10
160.842195153236 -90.0089368224144 2717.99993515015 13 16 9
169.92749273777 -90.9003242850304 2744.99988555908 13 16 9
177.802130579948 -91.0961404442787 2750.99992752075 13 16 7
184.56369638443 -90.7289311289787 2740.00000953674 13 16 7
190.844029188156 -90.162955224514 2723.00004959106 13 16 7
190.509274601936 -83.5015475749969 2522.0000743866 5 7 2
195.975616574287 -82.9024389386177 2503.99994850159 193 195 190
201.829075813293 -82.5019478797913 2492.00010299683 178 180 175
208.034858107567 -82.2668895125389 2484.99989509583 172 174 169
214.02882039547 -81.9655507802963 2476.0000705719 165 167 162
220.507904887199 -81.8627551198006 2473.00004959106 162 164 161
227.153584361076 -81.8260759115219 2471.99988365173 161 163 160
233.982175588608 -81.8555057048798 2473.00004959106 160 162 159
240.717992186546 -81.8517282605171 2473.00004959106 157 159 156
247.252807021141 -81.7816704511642 2470.99995613098 155 157 154
254.084140062332 -81.8108171224594 2471.99988365173 153 153 151
261.55298948288 -82.0384249091148 2479.00009155273 154 154 152
270.033091306686 -82.5637355446815 2494.99988555908 164 164 162
280.374556779861 -83.6183503270149 2526.99995040894 148 149 144
-40.7300554215908 -100.539304316044 2803.99990081787 14 17 8
-33.1215783953667 -100.68341344595 2808.00008773804 20 23 14
-25.2735521644354 -99.9668166041374 2788.00010681152 12 15 6
-17.5663102418184 -99.4293615221977 2773.00000190735 17 20 11
-10.0418301299214 -99.8957455158234 2786.00001335144 13 16 7
-2.44282186031342 -100.218564271927 2795.00007629395 13 16 7
5.18492422997952 -100.14683008194 2792.99998283386 13 16 7
12.7329248934984 -99.5371043682098 2776.00002288818 14 17 8
20.3343834728003 -99.6443778276443 2779.00004386902 14 17 8
28.1128976494074 -100.325211882591 2798.00009727478 14 17 8
35.5350486934185 -99.715068936348 2780.99989891052 13 16 7
42.9417639970779 -99.2840901017189 2769.00005340576 10 13 6
50.9028658270836 -100.072048604488 2790.99988937378 14 17 10
58.6903393268585 -100.357905030251 2799.00002479553 14 17 10
65.9287869930267 -99.7472405433655 2782.00006484985 11 14 7
74.0784108638763 -100.498899817467 2802.99997329712 11 14 7
80.942802131176 -99.5294451713562 2776.00002288818 10 13 6
89.7640436887741 -100.92618316412 2815.00005722046 15 18 11
96.6515615582466 -100.099876523018 2792.00005531311 11 14 7
130.936875939369 -97.2574129700661 2713.00005912781 15 17 12
140.634015202522 -98.8681390881538 2757.99989700317 12 14 9
148.212492465973 -98.9014059305191 2759.0000629425 12 15 8
154.215291142464 -97.9308560490608 2732.00011253357 13 16 9
161.135315895081 -97.605437040329 2723.00004959106 13 16 9
169.676959514618 -98.2476845383644 2740.9999370575 13 16 9
177.540585398674 -98.4596535563469 2746.99997901917 13 16 7
184.425830841064 -98.1338694691658 2737.99991607666 13 16 7
191.471561789513 -97.9155153036118 2732.00011253357 13 16 7
190.052807331085 -90.1675671339035 2516.00003242493 5 7 2
195.972323417664 -89.7341370582581 2503.99994850159 190 192 187
201.663687825203 -89.2289578914642 2490.00000953674 182 184 179
207.780227065086 -88.9387130737305 2482.00011253357 176 178 173
213.938787579536 -88.6842161417007 2474.99990463257 166 168 163
220.504224300385 -88.6087864637375 2473.00004959106 164 166 163
227.333605289459 -88.6407420039177 2473.99997711182 162 164 161
233.978301286697 -88.6009335517883 2473.00004959106 161 163 160
240.71404337883 -88.5968655347824 2473.00004959106 158 160 157
247.348785400391 -88.5568633675575 2471.99988365173 156 158 155
254.593878984451 -88.7316912412643 2476.99999809265 154 154 152
262.287259101868 -89.0496969223022 2486.00006103516 153 153 151
270.786315202713 -89.6182954311371 2502.00009346008 173 173 171
282.145202159882 -91.0821706056595 2542.99998283386 78 79 74
-40.6130813062191 -107.884474098682 2796.0000038147 7 10 1
-32.696321606636 -106.959141790867 2772.0000743866 25 28 19
-25.0645820051432 -106.689609587193 2765.00010490417 20 23 14
-17.5406392663717 -106.844365596771 2769.00005340576 17 20 11
-10.1101230829954 -108.233734965324 2805.0000667572 15 18 9
-2.46986886486411 -109.044156968594 2825.99997520447 16 19 10
5.21452771499753 -108.388170599937 2809.00001525879 14 17 8
12.838177382946 -108.002126216888 2799.00002479553 13 16 7
20.2827788889408 -106.959983706474 2772.0000743866 13 16 7
28.1023178249598 -107.924155890942 2796.99993133545 13 16 7
35.6110408902168 -107.537679374218 2786.99994087219 14 17 8
43.5147322714329 -108.270019292831 2805.99999427795 16 19 12
51.2849055230618 -108.500622212887 2812.00003623962 13 16 9
58.7521307170391 -108.113691210747 2802.00004577637 10 13 6
66.0223364830017 -107.495129108429 2786.00001335144 9 12 5
73.5220387578011 -107.339426875114 2782.00006484985 10 13 6
81.145390868187 -107.376508414745 2782.99999237061 15 18 11
89.0608355402946 -107.760675251484 2792.99998283386 14 17 10
96.9959124922752 -108.10611397028 2802.00004577637 15 18 11
131.030946969986 -104.738600552082 2714.99991416931 4 6 1
139.764562249184 -105.738997459412 2740.9999370575 6 8 3
148.854374885559 -106.893509626389 2770.99990844727 11 14 7
155.397817492485 -106.196239590645 2753.00002098084 10 13 6
161.960765719414 -105.575993657112 2736.99998855591 13 16 9
168.497681617737 -104.994229972363 2721.99988365173 13 16 9
176.180109381676 -105.145253241062 2726.0000705719 13 16 7
182.671174407005 -104.601830244064 2711.99989318848 13 16 7
189.295455813408 -104.174040257931 2700.99997520447 14 17 8
190.20040333271 -97.1090272068977 2517.99988746643 3 5 0
196.125283837318 -96.6425985097885 2506.00004196167 188 190 185
201.821997761726 -96.098966896534 2492.00010299683 183 185 180
207.776457071304 -95.7095101475716 2482.00011253357 178 180 177
214.021399617195 -95.4741984605789 2476.0000705719 169 171 168
220.678597688675 -95.4315885901451 2474.99990463257 166 168 165
227.513298392296 -95.4659804701805 2476.0000705719 163 165 162
234.257966279984 -95.4617038369179 2476.0000705719 162 164 161
240.904405713081 -95.4187586903572 2474.99990463257 159 161 160
247.844710946083 -95.4913794994354 2476.99999809265 157 159 158
255.000531673431 -95.6409722566605 2480.99994659424 157 157 155
263.021200895309 -96.0988253355026 2493.00003051758 152 152 150
271.430909633636 -96.6721475124359 2507.99989700317 173 173 171
-42.1374030411243 -119.854085147381 2901.00002288818 10 13 4
-32.4951484799385 -113.822892308235 2755.00011444092 20 23 14
-25.009686127305 -113.988749682903 2759.0000629425 20 23 14
-17.6289696246386 -114.980764687061 2782.99999237061 18 21 12
-10.1207308471203 -116.013936698437 2808.00008773804 15 18 9
-2.48205428943038 -117.33615398407 2839.99991416931 19 22 13
5.30352583155036 -118.038505315781 2857.00011253357 15 18 9
12.704904191196 -114.443853497505 2769.99998092651 14 17 8
20.4140711575747 -115.2698174119 2789.99996185303 14 17 8
28.141938149929 -115.72378128767 2801.00011825562 14 17 8
35.7380919158459 -115.557856857777 2796.99993133545 15 18 9
43.2037115097046 -115.10256677866 2786.00001335144 14 17 10
51.1379614472389 -115.845233201981 2803.99990081787 11 14 7
58.5832037031651 -115.430951118469 2793.99991035461 10 13 6
65.9736022353172 -115.016505122185 2783.99991989136 11 14 7
73.8905370235443 -115.510813891888 2796.0000038147 11 14 7
81.3769996166229 -115.302622318268 2790.99988937378 9 12 5
88.8358429074287 -115.094289183617 2786.00001335144 5 8 1
96.8208760023117 -115.54679274559 2796.99993133545 8 10 5
132.862254977226 -113.717310130596 2753.00002098084 6 8 3
140.883564949036 -114.127553999424 2763.00001144409 7 9 4
148.475393652916 -114.165872335434 2763.99993896484 11 14 7
155.281826853752 -113.625794649124 2750.99992752075 13 16 9
162.135094404221 -113.168209791183 2740.00000953674 13 16 9
167.689651250839 -111.884489655495 2709.00011062622 13 16 9
173.591494560242 -110.931098461151 2686.00010871887 13 16 7
180.377498269081 -110.597096383572 2677.99997329712 13 16 7
187.469616532326 -110.469460487366 2674.99995231628 14 17 8
190.540134906769 -108.070462942123 2617.00010299683 14 17 8
190.649896860123 -104.226179420948 2523.9999294281 0 3 0
196.434512734413 -103.644177317619 2509.99999046326 188 193 187
202.223002910614 -103.103369474411 2496.99997901917 180 185 181
208.191007375717 -102.686367928982 2486.99998855591 172 177 173
214.190125465393 -102.310545742512 2477.9999256134 174 179 175
220.674350857735 -102.18234360218 2474.99990463257 167 172 168
227.417051792145 -102.177895605564 2474.99990463257 164 168 167
234.253481030464 -102.214612066746 2476.0000705719 162 166 165
241.09448492527 -102.251201868057 2476.99999809265 159 163 162
248.040109872818 -102.328941226006 2479.00009155273 157 161 160
255.40679693222 -102.571673691273 2484.99989509583 158 158 158
263.43822479248 -103.06191444397 2496.99997901917 159 159 159
271.966934204102 -103.71708124876 2513.00001144409 161 161 161
-42.1074405312538 -127.683639526367 2898.9999294281 13 16 9
-25.2357590943575 -122.620053589344 2783.99991989136 18 21 12
-17.7299361675978 -123.281195759773 2799.00002479553 23 26 17
-2.47588311322033 -124.779172241688 2832.99994468689 18 21 12
5.21802250295877 -123.810164630413 2811.00010871887 16 19 10
12.8238806501031 -123.149283230305 2796.0000038147 15 18 9
20.3770473599434 -122.664429247379 2785.00008583069 14 17 8
28.1312838196754 -123.324550688267 2799.99995231628 13 16 7
35.5328880250454 -122.487001121044 2780.99989891052 9 12 3
43.0477075278759 -122.26590514183 2776.00002288818 8 11 4
50.7356487214565 -122.529126703739 2782.00006484985 13 16 9
58.6658120155334 -123.23260307312 2798.00009727478 13 16 9
66.8726712465286 -124.288246035576 2822.00002670288 9 12 5
74.3646249175072 -123.934328556061 2813.99989128113 8 11 4
88.6107310652733 -122.389256954193 2779.00004386902 10 12 7
96.7149585485458 -123.047813773155 2793.99991035461 12 14 9
125.711888074875 -121.584720909595 2760.99991798401 80 82 77
132.907688617706 -121.273636817932 2753.99994850159 14 16 11
139.299929141998 -120.301879942417 2732.00011253357 12 14 9
145.249247550964 -119.065821170807 2703.9999961853 10 13 6
155.222102999687 -121.088027954102 2750 17 20 13
161.303266882896 -120.027832686901 2726.0000705719 13 16 9
167.067110538483 -118.835426867008 2698.99988174438 13 16 9
172.941565513611 -117.819093167782 2676.00011825562 13 16 7
178.891941905022 -116.934731602669 2655.99989891052 13 16 7
186.414465308189 -117.106877267361 2660.00008583069 14 17 8
190.172091126442 -114.989638328552 2611.99998855591 14 17 10
190.645933151245 -111.111536622047 2523.9999294281 0 4 0
196.352168917656 -110.447064042091 2509.0000629425 190 195 189
202.299803495407 -109.958581626415 2497.99990653992 180 185 181
208.186700940132 -109.470002353191 2486.99998855591 170 175 171
214.272171258926 -109.113395214081 2479.00009155273 176 181 177
220.669806003571 -108.932711184025 2474.99990463257 170 175 171
227.228626608849 -108.839951455593 2473.00004959106 166 170 169
234.343305230141 -109.011135995388 2476.99999809265 164 168 167
241.478890180588 -109.18215662241 2480.99994659424 161 165 164
248.635396361351 -109.353058040142 2484.99989509583 159 163 162
255.812764167786 -109.523817896843 2489.00008201599 159 161 160
263.538420200348 -109.914436936378 2497.99990653992 161 161 161
271.961480379105 -110.568888485432 2513.00001144409 145 145 145
-42.0338548719883 -135.361462831497 2894.00005340576 16 19 12
-33.449050039053 -132.649496197701 2835.99996566772 17 20 11
-17.9068893194199 -132.229745388031 2826.99990272522 23 26 17
-10.2536315098405 -133.072018623352 2845.00002861023 23 26 17
-2.48718727380037 -133.11892747879 2845.99995613098 21 24 15
5.23275183513761 -131.855994462967 2819.00000572205 16 19 10
12.814411893487 -130.686432123184 2793.99991035461 14 17 8
20.4643756151199 -130.826368927956 2796.99993133545 14 17 8
27.9799364507198 -130.26450574398 2785.00008583069 13 16 7
35.5448536574841 -130.123436450958 2782.00006484985 9 12 3
43.0157035589218 -129.748329520226 2773.9999294281 12 15 8
50.7344864308834 -130.121409893036 2782.00006484985 13 16 9
58.4967359900475 -130.494296550751 2789.99996185303 12 15 8
75.3142610192299 -133.297443389893 2849.99990463257 11 14 7
82.1314379572868 -131.752148270607 2816.99991226196 12 15 8
134.44896042347 -130.284607410431 2786.00001335144 10 12 7
142.254039645195 -130.468457937241 2789.99996185303 10 12 7
148.898601531982 -129.623338580132 2772.0000743866 9 12 5
155.049264431 -128.45079600811 2746.99997901917 9 12 5
161.240443587303 -127.418413758278 2724.99990463257 14 17 10
167.187169194221 -126.292422413826 2700.99997520447 13 16 9
173.51932823658 -125.540390610695 2684.99994277954 12 15 6
179.561451077461 -124.647974967957 2665.99988937378 12 15 6
187.811896204948 -125.298321247101 2680.0000667572 14 17 8
190.112978219986 -117.669187486172 2516.99995994568 0 2 0
195.80003619194 -116.96358025074 2502.00009346008 187 192 188
201.890423893929 -116.53833091259 2493.00003051758 177 182 178
208.182111382484 -116.253226995468 2486.99998855591 180 185 181
214.353874325752 -115.921251475811 2480.00001907349 170 175 171
220.754161477089 -115.72939157486 2476.0000705719 172 176 175
227.315574884415 -115.630894899368 2473.99997711182 170 174 173
234.338223934174 -115.765944123268 2476.99999809265 169 173 172
241.668373346329 -116.04105681181 2483.00004005432 167 171 170
248.93020093441 -116.269260644913 2487.99991607666 164 168 167
256.115615367889 -116.450607776642 2492.00010299683 164 166 165
263.638317584991 -116.77198857069 2499.00007247925 157 159 158
272.063910961151 -117.466993629932 2513.99993896484 98 100 99
-32.5400866568089 -136.577054858208 2759.0000629425 20 23 14
-25.3523979336023 -138.458877801895 2796.99993133545 17 20 11
-17.9571267217398 -140.340521931648 2835.00003814697 20 23 14
-10.1416576653719 -139.301300048828 2813.99989128113 21 24 15
-2.46440526098013 -139.598473906517 2819.9999332428 19 22 13
5.22705586627126 -139.400437474251 2815.99998474121 17 20 11
12.8462072461843 -138.657689094543 2801.00011825562 15 18 9
20.2956013381481 -137.320667505264 2773.9999294281 14 17 8
27.4769365787506 -135.389477014542 2734.99989509583 11 14 5
35.03293171525 -135.735213756561 2742.00010299683 9 12 3
43.1852340698242 -137.862831354141 2785.00008583069 15 18 9
50.3320544958115 -136.624112725258 2759.99999046326 12 15 8
58.2856647670269 -137.61280477047 2779.99997138977 10 13 6
66.6325613856316 -139.195263385773 2812.00003623962 10 13 6
82.2460874915123 -139.63708281517 2821.00009918213 15 17 12
135.603919625282 -139.073744416237 2809.99994277954 13 15 10
142.352595925331 -138.17948102951 2792.00005531311 12 14 9
149.70076084137 -137.928426265717 2786.99994087219 10 13 6
155.553549528122 -136.390537023544 2756.00004196167 5 8 1
162.77502477169 -136.139199137688 2750.99992752075 13 16 9
169.535294175148 -135.541304945946 2739.00008201599 13 16 9
173.967570066452 -133.211329579353 2691.99991226196 12 15 6
181.847155094147 -133.602887392044 2700.00004768372 12 15 6
187.87756562233 -132.658258080482 2680.99999427795 14 17 8
189.216986298561 -128.59633564949 2598.99997711182 15 18 11
189.277693629265 -123.990289866924 2506.00004196167 0 2 0
195.404171943665 -123.540386557579 2496.99997901917 187 192 188
201.480835676193 -123.090349137783 2487.99991607666 177 182 178
207.92618393898 -122.887566685677 2483.99996757507 179 183 182
214.348912239075 -122.684642672539 2480.00001907349 171 175 174
220.927372574806 -122.580528259277 2477.9999256134 171 175 174
227.677837014198 -122.575215995312 2477.9999256134 169 173 172
234.616652131081 -122.6686835289 2480.00001907349 169 173 172
241.662830114365 -122.811481356621 2483.00004005432 166 170 171
248.924523591995 -123.053014278412 2487.99991607666 163 167 168
256.212592124939 -123.294413089752 2493.00003051758 164 165 167
264.159798622131 -123.832352459431 2503.99994850159 158 159 161
274.438560009003 -125.408589839935 2536.00001335144 167 168 170
-32.6689854264259 -144.680172204971 2769.99998092651 24 27 18
-17.4119509756565 -143.584638834 2749.00007247925 20 23 14
-9.97201353311539 -144.525155425072 2766.99995994568 19 22 13
-2.46871146373451 -147.554770112038 2825.00004768372 20 23 14
5.21021662279963 -146.614551544189 2806.99992179871 19 22 13
19.9731718748808 -142.592042684555 2730.00001907349 16 19 10
27.3054484277964 -141.964644193649 2717.99993515015 14 17 8
34.6870794892311 -141.807124018669 2714.99991416931 13 16 7
41.9591553509235 -141.336068511009 2706.00008964539 12 15 6
49.4189821183681 -141.543790698051 2710.00003814697 11 14 5
57.4874803423882 -143.213734030724 2742.00010299683 11 14 5
66.3702115416527 -146.29365503788 2801.00011825562 11 14 7
74.5706185698509 -147.388592362404 2822.00002670288 11 13 8
82.2731405496597 -147.38655090332 2822.00002670288 11 13 8
90.6767398118973 -148.533284664154 2844.00010108948 0 1 0
135.938286781311 -147.105529904366 2816.99991226196 12 14 9
141.533240675926 -144.960910081863 2776.00002288818 11 13 8
147.548481822014 -143.44285428524 2746.99997901917 17 20 13
156.847789883614 -145.109876990318 2779.00004386902 9 12 5
164.900988340378 -145.523443818092 2786.99994087219 15 18 11
168.664500117302 -142.281875014305 2724.99990463257 11 14 7
174.157112836838 -140.711113810539 2694.9999332428 13 16 7
182.24672973156 -141.280874609947 2706.00008964539 14 17 8
189.273029565811 -130.825161933899 2506.00004196167 0 2 0
195.32111287117 -130.298256874084 2496.00005149841 176 182 178
201.475873589516 -129.875615239143 2487.99991607666 184 190 188
207.921072840691 -129.661679267883 2483.99996757507 170 176 174
214.343681931496 -129.447564482689 2480.00001907349 176 182 180
220.921993255615 -129.337728023529 2477.9999256134 172 178 176
227.672308683395 -129.33212518692 2477.9999256134 172 178 178
234.610974788666 -129.430770874023 2480.00001907349 171 177 177
241.754308342934 -129.633620381355 2483.99996757507 167 173 173
249.018609523773 -129.888489842415 2489.00008201599 165 171 171
256.41193985939 -130.195364356041 2494.99988555908 164 165 167
264.575451612473 -130.867332220078 2507.99989700317 173 174 176
-32.6563119888306 -152.183189988136 2769.00005340576 28 31 22
-25.2241771668196 -152.953431010246 2782.99999237061 26 29 20
-17.259469255805 -149.766325950623 2724.99990463257 23 26 17
-9.97174438089132 -152.075037360191 2766.99995994568 20 23 14
-2.41883518174291 -152.130156755447 2767.99988746643 20 23 14
5.13583235442638 -152.075171470642 2766.99995994568 18 21 12
12.6712592318654 -151.855081319809 2763.00001144409 16 19 10
19.9799500405788 -150.095909833908 2730.99994659424 17 20 11
27.2544845938683 -149.105995893478 2713.00005912781 16 19 10
34.3923009932041 -147.95096218586 2691.99991226196 15 18 9
41.4463430643082 -146.905705332756 2673.00009727478 13 16 7
49.1076521575451 -148.00363779068 2693.00007820129 13 16 7
58.0310150980949 -152.124017477036 2767.99988746643 13 16 7
66.8186172842979 -154.980108141899 2819.9999332428 12 15 8
75.0706791877747 -156.132280826569 2841.00008010864 11 13 8
133.570179343224 -152.097791433334 2767.99988746643 9 11 6
142.090320587158 -153.138071298599 2786.99994087219 12 14 9
147.383451461792 -150.77143907547 2743.99995803833 18 21 14
161.405831575394 -149.883955717087 2727.9999256134 16 19 12
174.927979707718 -148.721128702164 2707.00001716614 15 18 9
