ply
format ascii 1.0
comment KinectMotionCapture
element vertex 760
property float x
property float y
property float z
property uchar red
property uchar green
property uchar blue
end_header
11.5027222782373 711.209416389465 2522.0000743866 154 151 146
18.3645058423281 711.772203445435 2523.9999294281 154 151 146
25.2271145582199 712.052464485168 2525.00009536743 155 152 147
32.0442765951157 711.204171180725 2522.0000743866 155 154 149
38.814228028059 709.791362285614 2516.99995994568 153 154 149
45.5569513142109 708.37813615799 2512.00008392334 149 148 143
52.3558147251606 708.092272281647 2510.99991798401 163 159 150
59.2669658362865 709.215879440308 2515.00010490417 139 127 115
66.1734119057655 710.056841373444 2517.99988746643 124 108 93
73.0380117893219 710.333406925201 2519.00005340576 132 111 94
79.7810330986977 709.481477737427 2516.00003242493 132 109 91
86.5420252084732 708.911001682281 2513.99993896484 134 108 91
93.3662205934525 708.903968334198 2513.99993896484 137 111 94
100.190229713917 708.896398544312 2513.99993896484 137 111 94
106.928884983063 708.324491977692 2512.00008392334 138 112 97
113.520585000515 706.906020641327 2506.99996948242 142 119 103
120.32487988472 706.896960735321 2506.99996948242 137 118 101
127.128899097443 706.887423992157 2506.99996948242 139 122 106
133.772373199463 706.031501293182 2503.99994850159 124 112 100
140.287011861801 704.611241817474 2499.00007247925 159 150 141
146.715357899666 702.908575534821 2493.00003051758 161 156 150
153.480187058449 702.897012233734 2493.00003051758 152 149 144
160.051867365837 702.039301395416 2490.00000953674 146 145 141
166.740924119949 701.74503326416 2489.00008201599 152 153 148
173.493906855583 701.732158660889 2489.00008201599 151 152 147
180.246502161026 701.718866825104 2489.00008201599 151 152 147
186.998724937439 701.705157756805 2489.00008201599 154 153 148
193.594887852669 701.127052307129 2486.99998855591 155 155 147
200.582563877106 701.958179473877 2490.00000953674 153 153 145
207.169741392136 701.379299163818 2487.99991607666 151 151 143
213.831663131714 701.081871986389 2486.99998855591 153 152 147
220.044285058975 699.374616146088 2480.99994659424 156 155 150
226.315304636955 697.94899225235 2476.0000705719 151 150 145
232.747003436089 697.08663225174 2473.00004959106 156 155 150
239.452451467514 697.069704532623 2473.00004959106 151 150 146
245.958358049393 696.488499641418 2470.99995613098 151 150 146
252.350658178329 695.625066757202 2467.99993515015 157 156 152
258.936166763306 695.325136184692 2467.00000762939 164 163 161
265.623480081558 695.306718349457 2467.00000762939 155 154 152
272.641390562058 696.133315563202 2470.00002861023 157 156 154
279.335796833038 696.114122867584 2470.00002861023 158 158 156
286.145478487015 696.376383304596 2470.99995613098 156 156 154
292.723059654236 696.074724197388 2470.00002861023 162 162 160
299.537181854248 696.336328983307 2470.99995613098 173 173 171
306.975811719894 698.006629943848 2476.99999809265 181 183 180
314.826399087906 700.52182674408 2486.00006103516 192 194 191
-114.847168326378 723.896622657776 2592.00000762939 205 207 202
-107.353769242764 720.8331823349 2581.00008964539 154 155 150
-100.036472082138 718.606948852539 2572.99995422363 170 171 166
-92.9070562124252 717.4973487854 2569.00000572205 158 159 154
-85.7656821608543 716.107845306396 2563.99989128113 153 154 149
-78.7742286920547 715.835154056549 2562.99996376038 158 159 153
-71.6198831796646 713.885843753815 2555.99999427795 145 146 140
-64.5540058612823 712.494850158691 2551.00011825562 152 153 147
-57.4699342250824 710.544466972351 2543.99991035461 147 148 142
-50.5032502114773 709.710896015167 2540.99988937378 157 156 151
-43.5870625078678 709.435224533081 2539.99996185303 156 156 148
-36.6473123431206 708.600580692291 2536.99994087219 155 152 145
-29.7472290694714 708.323836326599 2536.00001335144 156 153 146
-22.8525083512068 708.046674728394 2535.00008583069 155 152 145
-15.9820597618818 708.606779575348 2536.99994087219 155 152 145
-9.07204113900661 706.931889057159 2530.99989891052 155 152 145
-2.1954532712698 705.535888671875 2526.00002288818 156 153 146
4.65398747473955 704.139173030853 2520.99990844727 155 152 145
11.5127563476563 704.976499080658 2523.9999294281 154 151 146
18.3732360601425 705.25461435318 2525.00009536743 154 151 146
25.2391044050455 705.532193183899 2526.00002288818 155 152 147
32.0595167577267 704.692006111145 2523.00000190735 154 153 149
38.8635620474815 703.851222991943 2519.99998092651 152 154 151
45.6330925226212 702.730715274811 2516.00003242493 145 144 139
52.4016469717026 701.888918876648 2513.00001144409 157 154 147
59.2244938015938 701.884508132935 2513.00001144409 154 144 134
66.0734847187996 702.158868312836 2513.99993896484 131 117 104
73.0437487363815 703.549921512604 2519.00005340576 131 110 93
79.8507183790207 703.264534473419 2517.99988746643 133 110 94
86.6864994168282 703.257918357849 2517.99988746643 136 110 95
93.4106782078743 702.413141727448 2515.00010490417 137 111 96
100.237913429737 702.405571937561 2515.00010490417 138 112 97
106.937199831009 701.559543609619 2512.00008392334 136 113 97
113.619975745678 700.713098049164 2509.0000629425 139 118 101
120.28618901968 699.86617565155 2506.00004196167 135 118 102
126.986593008041 699.298083782196 2503.99994850159 131 115 100
133.515551686287 697.891652584076 2499.00007247925 147 137 127
140.12935757637 697.043240070343 2496.00005149841 174 167 157
146.78543806076 696.473717689514 2493.99995803833 154 151 144
153.615027666092 696.7414021492 2494.99988555908 146 145 140
160.128310322762 695.612490177155 2490.9999370575 145 144 140
166.954562067986 695.879280567169 2492.00010299683 153 154 149
173.646405339241 695.58709859848 2490.9999370575 150 151 146
180.404901504517 695.573687553406 2490.9999370575 153 154 149
187.012732028961 695.001423358917 2489.00008201599 154 153 148
193.687155842781 694.707930088043 2487.99991607666 155 155 147
200.5974650383 695.251703262329 2490.00000953674 153 153 145
207.268357276917 694.957256317139 2489.00008201599 151 151 143
213.847428560257 694.383263587952 2486.99998855591 153 152 147
220.060393214226 692.692041397095 2480.99994659424 156 155 150
226.423218846321 691.558957099915 2476.99999809265 152 151 146
232.85798728466 690.704643726349 2473.99997711182 156 155 150
239.663377404213 690.966665744781 2474.99990463257 151 150 146
246.175065636635 690.390765666962 2473.00004959106 152 151 147
252.573221921921 689.535439014435 2470.00002861023 157 156 152
259.16451215744 689.237952232361 2469.00010108948 161 160 158
265.857547521591 689.219355583191 2469.00010108948 153 152 150
272.881269454956 690.037786960602 2471.99988365173 157 156 154
279.581427574158 690.01841545105 2471.99988365173 159 158 156
286.16526722908 689.719617366791 2470.99995613098 154 154 152
292.624682188034 689.141392707825 2469.00010108948 159 159 157
299.43636059761 689.400196075439 2470.00002861023 170 170 168
306.748688220978 690.774977207184 2474.99990463257 178 178 176
314.594209194183 693.265914916992 2483.99996757507 189 189 187
322.876006364822 696.593582630157 2496.00005149841 205 207 204
-122.221454977989 718.842267990112 2598.99997711182 207 212 208
-114.545956254005 714.979350566864 2585.00003814697 197 199 194
-107.237368822098 713.051855564117 2578.00006866455 153 154 149
-99.9665632843971 711.123943328857 2571.00009918213 164 165 160
-92.9143652319908 710.578262805939 2569.00000572205 154 155 150
-85.7724472880363 709.202289581299 2563.99989128113 155 156 151
-78.8111761212349 709.208786487579 2563.99989128113 157 158 152
-71.709617972374 707.831740379334 2559.00001525879 141 142 136
-64.6603405475616 706.730663776398 2555.0000667572 149 150 144
-57.5648583471775 704.799294471741 2548.00009727478 147 148 142
-50.5668856203556 703.697144985199 2543.99991035461 156 157 151
-43.5905158519745 702.594399452209 2539.99996185303 156 156 148
-36.6646721959114 702.044486999512 2538.00010681152 156 153 146
-29.7495927661657 701.493918895721 2536.00001335144 156 153 146
-22.8362902998924 700.666069984436 2532.99999237061 156 153 146
-15.9644298255444 700.944185256958 2533.99991989136 157 154 147
-9.06559359282255 699.562132358551 2529.00004386902 157 154 147
-2.19475873745978 698.456168174744 2525.00009536743 156 153 146
4.64881910011172 696.519732475281 2517.99988746643 156 153 146
11.4954253658652 697.072327136993 2519.99998092651 154 151 146
18.3528643101454 697.624385356903 2522.0000743866 155 152 147
25.2211224287748 698.17578792572 2523.9999294281 155 152 147
32.0747680962086 698.173582553864 2523.9999294281 155 154 150
38.8974957168102 697.617530822754 2522.0000743866 151 153 150
45.6911250948906 696.784317493439 2519.00005340576 151 152 147
52.4475127458572 695.674061775208 2515.00010490417 151 150 145
59.2527538537979 695.392906665802 2513.99993896484 169 160 151
66.1312863230705 695.941209793091 2516.00003242493 165 151 140
73.0785131454468 697.042047977448 2519.99998092651 129 110 95
80.0155848264694 697.865843772888 2523.00000190735 135 113 99
86.8998989462852 698.135852813721 2523.9999294281 140 114 99
93.6408713459969 697.298884391785 2520.99990844727 138 112 97
100.365340709686 696.461498737335 2517.99988746643 140 114 99
107.0307046175 695.347011089325 2513.99993896484 137 114 100
113.674126565456 694.232046604156 2509.99999046326 130 111 97
120.343558490276 693.393170833588 2506.99996948242 130 114 101
126.945734024048 692.277252674103 2503.00002098084 137 125 113
133.525893092155 691.160798072815 2499.00007247925 171 164 154
140.252470970154 690.873622894287 2497.99990653992 153 149 140
147.032171487808 690.862417221069 2497.99990653992 148 147 142
153.749987483025 690.57434797287 2496.99997901917 148 147 143
160.333424806595 689.732551574707 2493.99995803833 148 149 144
167.1012789011 689.720034599304 2493.99995803833 153 154 148
173.729330301285 689.154028892517 2492.00010299683 152 153 147
180.490985512733 689.140558242798 2492.00010299683 151 150 145
187.026828527451 688.297033309937 2489.00008201599 155 155 147
193.701684474945 688.006103038788 2487.99991607666 158 158 150
200.451284646988 687.991261482239 2487.99991607666 157 157 149
207.117214798927 687.699615955353 2486.99998855591 155 155 147
213.949218392372 687.9603266716 2487.99991607666 155 154 149
220.25403380394 686.561822891235 2483.00004005432 157 156 151
226.805478334427 685.992300510406 2480.99994659424 154 153 148
233.157381415367 684.869527816772 2476.99999809265 156 155 150
239.874452352524 684.852242469788 2476.99999809265 152 151 147
246.591076254845 684.834599494934 2476.99999809265 154 153 149
253.102630376816 684.263527393341 2474.99990463257 159 158 154
259.602874517441 683.692276477814 2473.00004959106 151 150 148
266.199469566345 683.397054672241 2471.99988365173 152 151 149
272.900491952896 683.377981185913 2471.99988365173 153 152 150
279.487907886505 683.082044124603 2470.99995613098 154 153 151
286.069363355637 682.78580904007 2470.00002861023 155 155 153
292.644888162613 682.489216327667 2469.00010108948 156 156 154
299.578160047531 683.021664619446 2470.99995613098 165 165 163
306.769609451294 684.106469154358 2474.99990463257 172 172 170
314.362198114395 686.020195484161 2482.00011253357 189 189 187
322.509586811066 689.038991928101 2493.00003051758 197 197 195
-122.231021523476 711.841285228729 2598.99997711182 209 211 208
-114.643566310406 708.563923835754 2586.99989318848 194 195 190
-107.370615005493 706.929326057434 2581.00008964539 154 155 150
-100.091084837914 705.020129680634 2573.99988174438 160 161 156
-92.9217040538788 703.658282756805 2569.00000572205 152 153 148
-85.7792273163795 702.29583978653 2563.99989128113 157 158 153
-78.8174122571945 702.30233669281 2563.99989128113 157 158 152
-71.7713534832001 701.486647129059 2561.00010871887 139 140 134
-64.7667124867439 700.944185256958 2559.00001525879 148 149 143
-57.6146207749844 698.483824729919 2549.99995231628 147 148 142
-50.6106689572334 697.392523288727 2546.0000038147 156 157 151
-43.6283200979233 696.300625801086 2542.00005531311 154 155 149
-36.7253869771957 696.303904056549 2542.00005531311 156 153 146
-29.7871623188257 695.484697818756 2539.00003433228 156 153 146
-22.8651631623507 694.66507434845 2536.00001335144 157 154 147
-15.953104943037 693.570911884308 2532.00006484985 157 154 147
-9.05914884060621 692.202389240265 2526.99995040894 158 155 150
-2.19493429176509 691.654920578003 2525.00009536743 157 154 149
4.65472973883152 690.559148788452 2520.99990844727 156 153 148
11.5009052678943 690.558433532715 2520.99990844727 155 152 147
18.3470528572798 690.557241439819 2520.99990844727 155 152 147
25.2131447196007 691.103398799896 2523.00000190735 157 154 149
32.0646204054356 691.10107421875 2523.00000190735 156 155 151
38.9314442873001 691.372096538544 2523.9999294281 154 154 152
45.7491874694824 690.82099199295 2522.0000743866 152 153 148
52.5351092219353 689.995288848877 2519.00005340576 148 147 142
59.3046061694622 689.169108867645 2516.00003242493 168 159 152
66.1102533340454 688.890218734741 2515.00010490417 182 169 160
73.0263069272041 689.706385135651 2517.99988746643 128 110 98
80.0219252705574 691.069841384888 2523.00000190735 134 115 101
87.010070681572 692.158818244934 2526.99995040894 138 116 103
93.7597006559372 691.329956054688 2523.9999294281 134 112 98
100.413113832474 689.952850341797 2519.00005340576 137 114 100
107.039116322994 688.575148582459 2513.99993896484 133 114 100
113.683044910431 687.47091293335 2509.99999046326 128 114 101
120.256975293159 686.09231710434 2505.00011444092 138 128 118
126.854181289673 684.98706817627 2500.99992752075 165 155 146
133.536294102669 684.429228305817 2499.00007247925 156 152 143
140.319496393204 684.418499469757 2499.00007247925 151 148 141
147.102430462837 684.407413005829 2499.00007247925 152 151 147
153.884992003441 684.395670890808 2499.00007247925 150 149 145
160.410046577454 683.288037776947 2494.99988555908 148 149 144
167.315080761909 683.82316827774 2496.99997901917 152 153 147
173.882007598877 682.988584041595 2493.99995803833 154 155 149
180.64957857132 682.975053787231 2493.99995803833 149 148 143
187.116131186485 681.865692138672 2490.00000953674 156 156 148
193.716302514076 681.303560733795 2487.99991607666 160 160 152
200.546950101852 681.562602519989 2489.00008201599 159 159 151
207.132682204247 680.999577045441 2486.99998855591 156 156 148
213.965147733688 681.257545948029 2487.99991607666 156 155 150
220.359042286873 680.146276950836 2483.99996757507 158 157 152
227.005049586296 679.855823516846 2483.00004005432 152 151 146
233.551010489464 679.291307926178 2480.99994659424 154 153 148
240.182489156723 679.000198841095 2480.00001907349 150 149 145
246.808081865311 678.708612918854 2479.00009155273 152 153 148
253.325432538986 678.142845630646 2476.99999809265 158 157 153
259.831458330154 677.576839923859 2474.99990463257 148 147 145
266.433835029602 677.284181118011 2473.99997711182 152 151 149
272.919833660126 676.717400550842 2471.99988365173 151 150 148
279.507607221603 676.424086093903 2470.99995613098 150 149 147
285.973578691483 675.856709480286 2469.00010108948 157 156 154
292.546689510345 675.562679767609 2467.99993515015 157 157 155
299.477607011795 676.089584827423 2470.00002861023 163 163 161
306.666702032089 677.163600921631 2473.99997711182 170 170 168
314.38359618187 679.33201789856 2482.00011253357 185 185 183
322.401970624924 682.047307491302 2492.00010299683 193 193 191
-131.982982158661 719.474077224731 2653.00011634827 209 211 208
-122.522830963135 706.466674804688 2605.00001907349 193 195 192
-114.962831139565 703.492879867554 2594.00010108948 190 191 186
-107.628710567951 701.60323381424 2586.99989318848 147 148 143
-100.371226668358 699.984312057495 2581.00008964539 158 159 154
-93.1099206209183 698.093473911285 2573.99988174438 149 150 145
-85.9867930412292 697.015762329102 2569.9999332428 151 152 147
-78.9159163832664 696.208715438843 2566.99991226196 153 154 149
-71.8891769647598 695.672273635864 2565.00005722046 148 149 144
-64.8225024342537 694.592893123627 2561.00010871887 151 152 147
-57.7096045017242 692.699193954468 2553.99990081787 147 148 143
-50.6942383944988 691.618740558624 2549.99995231628 154 155 150
-43.7004715204239 690.537571907043 2546.0000038147 152 153 148
-36.7716699838638 690.269529819489 2545.00007629395 155 151 148
-29.801283031702 688.916146755219 2539.99996185303 156 152 149
-22.8760149329901 688.104569911957 2536.99994087219 157 153 150
-15.9543845802546 686.749935150146 2532.00006484985 157 153 150
-9.06704552471638 685.937225818634 2529.00004386902 157 153 150
-2.1968490909785 685.395300388336 2526.99995040894 156 152 149
4.66433679684997 685.123980045319 2526.00002288818 156 152 149
11.5109533071518 684.309661388397 2523.00000190735 155 151 148
18.355805426836 684.037208557129 2522.0000743866 155 151 148
25.2151656895876 684.306621551514 2523.00000190735 154 150 147
32.1053229272366 685.118079185486 2526.00002288818 154 150 147
38.9499925076962 684.844017028809 2525.00009536743 153 152 150
45.7891337573528 684.569358825684 2523.9999294281 150 149 145
52.5601580739021 683.480501174927 2519.99998092651 150 149 145
59.3329109251499 682.66236782074 2516.99995994568 151 148 143
66.1418065428734 682.386159896851 2516.00003242493 158 153 147
73.0031132698059 682.651698589325 2516.99995994568 171 162 155
79.9648314714432 683.730483055115 2520.99990844727 147 137 128
86.9481042027473 684.808790683746 2525.00009536743 122 112 103
93.7671214342117 684.530377388 2523.9999294281 133 121 109
100.460909307003 683.437883853912 2519.99998092651 133 119 106
107.090137898922 682.073593139648 2515.00010490417 122 109 100
113.691993057728 680.708944797516 2509.99999046326 132 127 121
120.170377194881 678.801298141479 2503.00002098084 163 162 157
126.813411712646 677.978098392487 2500 153 152 147
133.653581142426 678.239047527313 2500.99992752075 150 149 144
140.498891472816 678.499460220337 2502.00009346008 152 151 146
147.172704339027 677.945911884308 2500 151 150 146
153.835311532021 677.391827106476 2497.99990653992 152 151 147
160.486742854118 676.837384700775 2496.00005149841 154 153 149
167.327955365181 677.095830440521 2496.99997901917 155 154 150
174.034789204597 676.811516284943 2496.00005149841 154 153 149
180.735796689987 676.526784896851 2494.99988555908 152 151 147
187.130346894264 675.156950950623 2490.00000953674 156 155 150
193.575233221054 674.057960510254 2486.00006103516 157 156 151
200.481489300728 674.585342407227 2487.99991607666 157 156 151
207.148239016533 674.298822879791 2486.99998855591 154 155 149
213.981136679649 674.554049968719 2487.99991607666 154 155 149
220.552891492844 673.995614051819 2486.00006103516 155 156 150
227.204710245132 673.707783222198 2484.99989509583 157 158 152
233.756482601166 673.148512840271 2483.00004005432 158 159 154
240.393802523613 672.859966754913 2482.00011253357 156 158 153
247.124776244164 672.842144966125 2482.00011253357 153 155 150
253.650635480881 672.281682491302 2480.00001907349 152 154 149
260.270148515701 671.992003917694 2479.00009155273 150 151 146
266.77605509758 671.430885791779 2476.99999809265 149 150 145
273.270517587662 670.869290828705 2474.99990463257 151 150 146
279.527395963669 669.765532016754 2470.99995613098 154 150 147
286.109536886215 669.474363327026 2470.00002861023 157 153 152
292.804270982742 669.454038143158 2470.00002861023 155 154 152
299.983441829681 670.517444610596 2473.99997711182 163 162 160
307.059735059738 671.309530735016 2476.99999809265 165 164 162
314.785122871399 673.456132411957 2484.99989509583 184 184 182
322.423905134201 675.33141374588 2492.00010299683 187 189 186
332.213491201401 681.542098522186 2515.00010490417 192 194 193
-130.252033472061 702.928423881531 2618.00003051758 209 211 208
-122.485473752022 699.179470539093 2604.00009155273 189 191 188
-115.104876458645 697.309195995331 2596.99988365173 186 187 182
-107.845269143581 695.975542068481 2592.00000762939 146 147 142
-100.573666393757 694.372773170471 2585.99996566772 155 156 151
-93.2982191443443 692.500948905945 2578.9999961853 149 150 145
-86.1609503626823 691.434025764465 2575.00004768372 150 151 146
-79.0451988577843 690.366446971893 2571.00009918213 152 153 148
-71.9790086150169 689.566969871521 2568.00007820129 148 149 144
-64.8276880383492 687.692821025848 2561.00010871887 146 147 142
-57.736836373806 686.086595058441 2555.0000667572 147 148 143
-50.7181882858276 685.016810894012 2551.00011825562 152 153 148
-43.7383092939854 684.215009212494 2548.00009727478 151 152 147
-36.803524941206 683.949708938599 2546.99993133545 155 151 148
-29.8506133258343 683.146774768829 2543.99991035461 156 152 149
-22.9139234870672 682.343304157257 2540.99988937378 156 152 149
-15.9808769822121 681.002259254456 2536.00001335144 156 152 149
-9.07853245735168 679.929077625275 2532.00006484985 156 152 149
-2.19876482151449 679.123938083649 2529.00004386902 155 151 148
4.66840574517846 678.855359554291 2528.00011634827 155 151 148
11.5210069343448 678.049147129059 2525.00009536743 155 151 148
18.3645617216825 677.510857582092 2523.00000190735 154 150 147
25.2171959728003 677.509009838104 2523.00000190735 154 150 147
32.095193862915 678.043782711029 2525.00009536743 154 150 147
38.9531180262566 678.04092168808 2525.00009536743 156 155 153
45.7746610045433 677.500486373901 2523.00000190735 151 150 146
52.6060983538628 677.227973937988 2522.0000743866 151 150 146
59.3848191201687 676.417946815491 2519.00005340576 151 148 143
66.1733895540237 675.875782966614 2516.99995994568 154 149 143
72.9509368538857 675.333201885223 2515.00010490417 170 163 155
79.7808915376663 675.327062606812 2515.00010490417 171 162 153
86.6795256733894 675.857484340668 2516.99995994568 121 111 101
93.4773683547974 675.581872463226 2516.00003242493 121 111 101
100.229665637016 675.037026405334 2513.99993896484 123 111 99
106.970876455307 674.491763114929 2512.00008392334 141 131 122
113.655671477318 673.677563667297 2509.0000629425 158 153 147
120.227865874767 672.325789928436 2503.99994850159 161 160 155
126.924842596054 671.779036521912 2502.00009346008 143 142 137
133.717507123947 671.768844127655 2502.00009346008 153 152 147
140.509888529778 671.757996082306 2502.00009346008 156 155 150
147.301942110062 671.746850013733 2502.00009346008 151 150 146
153.908878564835 670.929610729218 2499.00007247925 152 151 147
160.499170422554 670.111894607544 2496.00005149841 154 153 149
167.273849248886 670.099198818207 2496.00005149841 155 154 150
174.117907881737 670.354425907135 2496.99997901917 154 153 149
180.677220225334 669.535517692566 2493.99995803833 152 151 147
187.144666910172 668.447554111481 2490.00000953674 155 154 149
193.745717406273 667.896091938019 2487.99991607666 157 156 151
200.577288866043 668.149590492249 2489.00008201599 157 156 151
207.247167825699 667.865693569183 2487.99991607666 154 155 149
213.825225830078 667.312920093536 2486.00006103516 154 155 149
220.569387078285 667.296707630157 2486.00006103516 154 155 149
227.313071489334 667.279839515686 2486.00006103516 156 157 152
233.962088823318 666.994273662567 2484.99989509583 158 159 154
240.508392453194 666.440010070801 2483.00004005432 156 158 153
247.043311595917 665.885210037231 2480.99994659424 152 154 149
253.566861152649 665.330111980438 2479.00009155273 151 153 148
260.394036769867 665.579795837402 2480.00001907349 148 149 144
267.010688781738 665.292382240295 2479.00009155273 148 149 144
273.400545120239 664.467751979828 2476.0000705719 150 149 145
279.547274112701 663.106083869934 2470.99995613098 152 148 145
286.129772663116 662.817656993866 2470.00002861023 155 151 150
293.061941862106 663.33395242691 2471.99988365173 155 151 150
300.125598907471 664.118051528931 2474.99990463257 161 157 156
307.081013917923 664.633572101593 2476.99999809265 163 162 160
314.806789159775 666.758596897125 2484.99989509583 177 177 175
322.316527366638 668.346464633942 2490.9999370575 184 186 183
330.782920122147 671.812117099762 2503.99994850159 191 193 192
-129.864245653152 693.747162818909 2609.99989509583 197 199 196
-122.448101639748 691.896438598633 2602.9999256134 185 187 184
-115.114003419876 690.310955047607 2596.99988365173 181 182 177
-107.853852212429 688.990831375122 2592.00000762939 146 147 142
-100.620560348034 687.670052051544 2586.99989318848 149 150 145
-93.3780297636986 686.08295917511 2581.00008964539 151 152 147
-86.3351449370384 685.824275016785 2579.99992370605 148 149 144
-79.0822803974152 683.704376220703 2572.00002670288 146 147 142
-72.0128193497658 682.912945747375 2569.00000572205 145 146 141
-64.832903444767 680.791854858398 2561.00010871887 132 133 128
-57.8092746436596 679.999232292175 2558.00008773804 146 147 142
-50.7620349526405 678.674459457397 2552.99997329712 149 150 145
-43.7761731445789 677.880704402924 2549.99995231628 147 148 143
-36.7920435965061 676.820635795593 2546.0000038147 153 149 146
-29.8412889242172 676.025867462158 2542.99998283386 153 149 146
-22.8977389633656 674.964547157288 2539.00003433228 154 150 147
-15.9821677953005 674.168646335602 2536.00001335144 154 150 147
-9.07926633954048 673.106372356415 2532.00006484985 154 150 147
-2.19981162808836 672.574996948242 2529.99997138977 153 149 146
4.67247609049082 672.574937343597 2529.99997138977 153 149 146
11.5310624241829 671.776831150055 2526.99995040894 155 151 148
18.3878820389509 671.509802341461 2526.00002288818 155 151 148
25.2192299813032 670.710444450378 2523.00000190735 157 153 150
32.0850647985935 670.97395658493 2523.9999294281 157 153 150
38.925401866436 670.705258846283 2523.00000190735 155 154 150
45.7783527672291 670.701801776886 2523.00000190735 153 149 146
52.6103265583515 670.432031154633 2522.0000743866 153 149 146
59.4367422163486 670.161724090576 2520.99990844727 153 150 145
66.257581114769 669.890820980072 2519.99998092651 150 147 142
73.0148032307625 669.087767601013 2516.99995994568 155 150 146
79.818993806839 668.815791606903 2516.00003242493 163 158 152
86.5831300616264 668.277442455292 2513.99993896484 162 155 147
93.3733358979225 668.00445318222 2513.00001144409 149 142 134
100.157909095287 667.730927467346 2512.00008392334 127 118 109
107.02196508646 667.988479137421 2513.00001144409 168 159 152
113.664694130421 666.916489601135 2509.0000629425 167 164 157
120.285399258137 665.843963623047 2505.00011444092 149 148 143
126.98557972908 665.302574634552 2503.00002098084 143 142 137
133.834928274155 665.558099746704 2503.99994850159 148 147 142
140.577077865601 665.281534194946 2503.00002098084 151 150 145
147.313475608826 665.004432201386 2502.00009346008 151 150 146
153.920873999596 664.195239543915 2499.00007247925 152 151 147
160.575941205025 663.651406764984 2496.99997901917 154 153 149
167.353853583336 663.638651371002 2496.99997901917 155 154 150
174.270838499069 664.156973361969 2499.00007247925 154 153 149
180.836036801338 663.345992565155 2496.00005149841 152 151 147
187.158986926079 661.737203598022 2490.00000953674 154 153 148
193.838402628899 661.456882953644 2489.00008201599 158 157 152
200.592502951622 661.441802978516 2489.00008201599 157 156 151
207.262873649597 661.160588264465 2487.99991607666 155 156 150
213.841333985329 660.613179206848 2486.00006103516 154 155 149
220.58592736721 660.596787929535 2486.00006103516 154 155 149
227.330043911934 660.579979419708 2486.00006103516 155 156 151
233.885332942009 660.031318664551 2483.99996757507 156 157 152
240.332424640656 659.216582775116 2480.99994659424 154 156 151
246.862351894379 658.667266368866 2479.00009155273 148 150 145
253.585427999496 658.64884853363 2479.00009155273 147 149 144
260.412991046906 658.895671367645 2480.00001907349 146 147 142
267.137706279755 658.876478672028 2480.00001907349 149 148 144
273.641049861908 658.325612545013 2477.9999256134 149 148 144
279.906690120697 657.243072986603 2473.99997711182 151 147 144
286.613523960114 657.222807407379 2473.99997711182 153 149 148
293.319761753082 657.202243804932 2473.99997711182 154 150 149
300.631791353226 658.509492874146 2479.00009155273 159 155 154
307.474344968796 658.753871917725 2480.00001907349 162 161 159
315.081983804703 660.59148311615 2486.99998855591 173 173 171
322.209268808365 661.366403102875 2490.00000953674 183 185 182
330.277055501938 664.000034332275 2500 191 193 192
-130.123347043991 688.028573989868 2615.00000953674 212 214 211
-122.598975896835 685.670554637909 2605.99994659424 182 184 181
-115.167513489723 683.57515335083 2598.00004959106 179 180 175
-107.862442731857 682.005226612091 2592.00000762939 146 147 142
-100.667513906956 680.961191654205 2588.00005912781 146 147 142
-93.457855284214 679.653227329254 2582.99994468689 152 153 148
-86.3755345344543 679.134249687195 2581.00008964539 146 147 142
-79.1193768382072 677.035868167877 2572.99995422363 142 143 138
-72.0466375350952 676.252543926239 2569.9999332428 142 143 138
-64.9393945932388 674.942374229431 2565.00005722046 125 126 121
-57.9269416630268 674.421072006226 2562.99996376038 145 146 141
-50.8059039711952 672.320425510406 2555.0000667572 147 148 143
-43.7968783080578 671.271681785584 2551.00011825562 146 147 142
-36.8094705045223 670.222342014313 2546.99993133545 150 149 145
-29.8789106309414 669.961929321289 2546.0000038147 152 148 145
-22.9086112231016 668.385207653046 2539.99996185303 153 149 146
-15.989763662219 667.597353458405 2536.99994087219 153 149 146
-9.09434631466866 667.335271835327 2536.00001335144 153 149 146
-2.20259861089289 666.546225547791 2532.99999237061 152 148 145
4.67470102012157 666.019797325134 2530.99989891052 153 149 146
11.5365609526634 665.229737758636 2528.00011634827 155 151 148
18.3966495096684 664.965391159058 2526.99995040894 156 152 149
25.2312682569027 664.174199104309 2523.9999294281 157 153 150
32.0622362196445 663.645565509796 2522.0000743866 158 154 151
38.8976894319057 663.379490375519 2520.99990844727 152 151 147
45.7639023661613 663.63924741745 2522.0000743866 154 150 147
52.6562966406345 664.161562919617 2523.9999294281 153 149 146
59.5122650265694 664.156973361969 2523.9999294281 154 151 146
66.3680881261826 664.151906967163 2523.9999294281 152 149 144
73.1367170810699 663.356959819794 2520.99990844727 146 143 138
79.8888579010963 662.561357021332 2517.99988746643 147 144 139
86.6245180368423 661.765336990356 2515.00010490417 171 168 161
93.3808162808418 661.231875419617 2513.00001144409 166 161 157
100.205771625042 661.224067211151 2513.00001144409 171 168 161
107.030496001244 661.215841770172 2513.00001144409 151 148 143
113.809645175934 660.943925380707 2512.00008392334 146 145 140
120.535045862198 660.408318042755 2509.99999046326 149 148 143
127.24931538105 659.872353076935 2507.99989700317 150 149 144
133.952409029007 659.335792064667 2506.00004196167 150 149 144
140.644311904907 658.79875421524 2503.99994850159 150 149 144
147.383913397789 658.524334430695 2503.00002098084 151 150 146
153.994515538216 657.723188400269 2500 152 151 147
160.588473081589 656.921625137329 2496.99997901917 154 153 149
167.366847395897 656.908810138702 2496.99997901917 155 154 150
174.284353852272 657.421767711639 2499.00007247925 154 153 149
180.994883179665 657.144844532013 2497.99990653992 152 151 147
187.3988956213 655.815303325653 2493.00003051758 152 151 146
194.009006023407 655.274569988251 2490.9999370575 159 158 153
200.527220964432 654.470264911652 2487.99991607666 156 155 150
207.195326685905 654.191672801971 2486.99998855591 156 157 151
213.857501745224 653.912663459778 2486.00006103516 155 156 150
220.691278576851 654.159247875214 2486.99998855591 151 152 146
227.438554167747 654.142379760742 2486.99998855591 155 156 151
233.996957540512 653.599083423615 2484.99989509583 155 156 151
240.544021129608 653.055310249329 2483.00004005432 151 153 148
246.880576014519 651.985228061676 2479.00009155273 142 144 139
253.399461507797 651.440739631653 2476.99999809265 143 145 140
260.011970996857 651.1589884758 2476.0000705719 143 144 139
266.833961009979 651.402771472931 2476.99999809265 149 148 144
273.550391197205 651.38304233551 2476.99999809265 149 148 144
280.039936304092 650.837182998657 2474.99990463257 150 146 143
286.749809980392 650.816798210144 2474.99990463257 151 147 146
293.577700853348 651.059150695801 2476.0000705719 153 149 148
300.895482301712 652.352750301361 2480.99994659424 157 153 152
307.867825031281 652.857184410095 2483.00004005432 159 158 156
315.103858709335 653.887152671814 2486.99998855591 162 162 160
322.102099657059 654.390871524811 2489.00008201599 180 182 179
329.903304576874 656.471729278564 2496.99997901917 193 195 194
338.151723146439 659.340739250183 2507.99989700317 198 203 199
-139.806389808655 693.729281425476 2664.00003433228 213 215 212
-130.332738161087 682.02155828476 2618.99995803833 206 208 205
-122.749879956245 679.4273853302 2608.99996757507 175 177 174
-115.354031324387 677.613914012909 2601.99999809265 176 177 172
-108.037546277046 676.060378551483 2595.99995613098 145 146 141
-100.831173360348 675.027012825012 2592.00000762939 141 142 137
-93.6101004481316 673.732697963715 2586.99989318848 150 151 146
-86.5163505077362 673.21902513504 2585.00003814697 142 143 138
-79.3102607131004 671.663105487823 2578.9999961853 136 137 132
-72.2487047314644 671.148359775543 2576.99990272522 138 139 134
-65.1218667626381 669.851720333099 2572.00002670288 115 116 111
-58.0672435462475 669.075489044189 2569.00000572205 144 145 140
-50.9094446897507 666.735827922821 2559.99994277954 145 146 141
-43.8691042363644 665.437459945679 2555.0000667572 144 145 140
-36.8413589894772 663.87802362442 2549.00002479553 148 147 143
-29.8813339322805 663.099408149719 2546.0000038147 149 148 144
-22.9104701429605 661.53883934021 2539.99996185303 150 149 145
-15.9973651170731 661.019563674927 2538.00010681152 150 149 145
-9.09508392214775 660.499632358551 2536.00001335144 150 149 145
-2.20364704728127 659.979224205017 2533.99991989136 151 150 146
4.67692827805877 659.45827960968 2532.00006484985 151 150 146
11.5511873736978 659.19703245163 2530.99989891052 152 151 147
18.4272676706314 659.195899963379 2530.99989891052 153 152 148
25.2833031117916 658.673226833344 2529.00004386902 153 152 148
32.1156941354275 657.889544963837 2526.00002288818 154 153 149
38.931705057621 657.105267047882 2523.00000190735 153 150 145
45.8039008080959 657.362341880798 2523.9999294281 155 152 147
52.660558372736 657.358348369598 2523.9999294281 153 150 145
59.493500739336 657.093405723572 2523.00000190735 152 151 146
66.3471519947052 657.088220119476 2523.00000190735 151 150 146
73.1716305017471 656.822264194489 2522.0000743866 139 138 134
79.9904838204384 656.555593013763 2520.99990844727 142 141 137
86.7348238825798 655.767619609833 2517.99988746643 162 161 156
93.4626236557961 654.979050159454 2515.00010490417 163 159 156
100.213795900345 654.450416564941 2513.00001144409 156 155 150
107.039034366608 654.442131519318 2513.00001144409 145 144 139
113.864026963711 654.433369636536 2513.00001144409 144 143 138
120.640687644482 654.163539409637 2512.00008392334 152 151 146
127.36089527607 653.632879257202 2509.99999046326 149 148 143
134.016469120979 652.841210365295 2506.99996948242 151 150 145
140.767753124237 652.570009231567 2506.00004196167 151 150 145
147.395521402359 651.777446269989 2503.00002098084 151 150 146
154.006600379944 650.984346866608 2500 152 151 147
160.536736249924 649.930417537689 2496.00005149841 154 153 149
167.379915714264 650.178015232086 2496.99997901917 155 154 150
174.297884106636 650.685489177704 2499.00007247925 154 153 149
181.081369519234 650.671660900116 2499.00007247925 152 151 147
187.488526105881 649.355530738831 2493.99995803833 150 149 144
194.023907184601 648.559749126434 2490.9999370575 158 157 152
200.623199343681 648.023903369904 2489.00008201599 154 153 148
207.294419407845 647.747933864594 2487.99991607666 155 156 150
213.959768414497 647.471606731415 2486.99998855591 154 155 150
220.619216561317 647.194743156433 2486.00006103516 149 150 145
227.547094225883 647.698402404785 2487.99991607666 153 154 149
234.10864174366 647.160470485687 2486.00006103516 151 152 147
240.658834576607 646.622061729431 2483.99996757507 148 150 147
247.098043560982 645.822942256927 2480.99994659424 140 142 139
253.622770309448 645.283877849579 2479.00009155273 144 146 143
260.031014680862 644.484043121338 2476.0000705719 143 144 139
266.853421926498 644.725024700165 2476.99999809265 149 148 144
273.680657148361 644.965589046478 2477.9999256134 150 149 145
280.399590730667 644.945561885834 2477.9999256134 150 146 143
287.002116441727 644.664943218231 2476.99999809265 151 147 146
294.072896242142 645.424902439117 2480.00001907349 153 149 148
301.280617713928 646.444737911224 2483.99996757507 155 151 150
308.385461568832 647.203862667084 2486.99998855591 157 156 154
315.125823020935 647.181987762451 2486.99998855591 156 156 154
321.994990110397 647.420048713684 2487.99991607666 177 179 176
329.52955365181 648.958742618561 2493.99995803833 192 194 193
337.365806102753 651.017487049103 2502.00009346008 194 199 195
-138.295456767082 679.073810577393 2634.99999046326 209 211 208
-130.392879247665 675.21870136261 2619.99988555908 204 206 203
-122.8067278862 672.651588916779 2609.99989509583 178 180 177
-115.407593548298 670.857071876526 2602.9999256134 176 177 172
-108.171060681343 669.835090637207 2598.99997711182 146 147 142
-100.878164172173 668.297111988068 2592.99993515015 143 144 139
-93.7623828649521 667.78951883316 2591.00008010864 146 147 142
-86.6572186350822 667.281329631805 2588.99998664856 143 144 139
-79.5627012848854 666.772544384003 2586.99989318848 133 134 129
-72.4508091807365 666.005492210388 2584.00011062622 133 134 129
-65.3550326824188 665.237843990326 2581.00008964539 114 115 110
-58.2075789570808 663.696348667145 2575.00004768372 148 149 144
-51.072683185339 661.896586418152 2568.00007820129 137 138 133
-43.9756885170937 660.096168518066 2561.00010871887 142 143 138
-36.9021706283093 658.037424087524 2552.99997329712 145 144 140
-29.9189742654562 657.009184360504 2549.00002479553 148 147 143
-22.9484159499407 655.722558498383 2543.99991035461 146 145 141
-16.0175766795874 654.950857162476 2540.99988937378 149 148 144
-9.11017041653395 654.694139957428 2539.99996185303 151 150 146
-2.207305515185 654.179155826569 2538.00010681152 151 150 146
4.6846978366375 653.663516044617 2536.00001335144 151 150 146
11.5658193826675 653.147339820862 2533.99991989136 151 150 146
18.4360481798649 652.630627155304 2532.00006484985 152 151 147
25.2953581511974 652.113378047943 2529.99997138977 152 151 147
32.1564488112926 651.853263378143 2529.00004386902 153 152 148
38.9965921640396 651.334822177887 2526.99995040894 154 151 146
45.8620637655258 651.33136510849 2526.99995040894 154 153 148
52.6857003569603 650.811910629272 2525.00009536743 152 151 146
59.5219023525715 650.549650192261 2523.9999294281 151 150 145
66.352516412735 650.286734104156 2523.00000190735 149 148 144
73.1775388121605 650.023341178894 2522.0000743866 146 147 142
80.0286680459976 650.017201900482 2522.0000743866 142 143 138
86.8107005953789 649.495005607605 2519.99998092651 143 143 141
93.6188101768494 649.230003356934 2519.00005340576 141 141 139
100.341491401196 648.449003696442 2516.00003242493 145 147 144
107.175409793854 648.440659046173 2516.00003242493 143 144 139
113.963760435581 648.174107074738 2515.00010490417 146 145 140
120.746366679668 647.907018661499 2513.99993896484 149 148 143
127.421766519547 647.12393283844 2510.99991798401 150 149 144
134.134024381638 646.598100662231 2509.0000629425 149 148 143
140.947431325912 646.587252616882 2509.0000629425 150 149 144
147.583812475204 645.802676677704 2506.00004196167 153 152 148
154.203549027443 645.017743110657 2503.00002098084 154 153 149
160.74226796627 643.974483013153 2499.00007247925 156 155 151
167.460024356842 643.703997135162 2497.99990653992 154 153 149
174.241706728935 643.690586090088 2497.99990653992 151 150 146
181.022942066193 643.676817417145 2497.99990653992 153 152 148
187.653392553329 643.147110939026 2496.00005149841 149 148 143
194.116786122322 642.101764678955 2492.00010299683 154 153 149
200.719192624092 641.571164131165 2490.00000953674 156 155 151
207.310259342194 641.040205955505 2487.99991607666 149 150 145
214.062094688416 641.024172306061 2487.99991607666 148 149 144
220.813438296318 641.007542610168 2487.99991607666 141 142 137
227.655753493309 641.248345375061 2489.00008201599 145 146 141
234.408766031265 641.230881214142 2489.00008201599 140 140 138
241.064354777336 640.95538854599 2487.99991607666 140 142 139
247.614428400993 640.42192697525 2486.00006103516 141 143 140
254.153072834015 639.888107776642 2483.99996757507 139 141 138
260.575294494629 639.096319675446 2480.99994659424 144 145 140
267.196148633957 638.819336891174 2480.00001907349 149 148 144
273.811042308807 638.541996479034 2479.00009155273 147 146 142
280.419856309891 638.264298439026 2477.9999256134 147 143 140
287.254482507706 638.501346111298 2479.00009155273 151 147 146
294.331073760986 639.253199100494 2482.00011253357 151 147 146
301.544636487961 640.262126922607 2486.00006103516 156 152 151
308.407217264175 640.498042106628 2486.99998855591 153 152 150
315.021216869354 640.218555927277 2486.00006103516 155 155 153
321.758538484573 640.196323394775 2486.00006103516 171 173 170
329.023808240891 641.203761100769 2490.00000953674 192 194 193
337.793469429016 645.0434923172 2505.00011444092 188 193 189
-137.886554002762 669.929027557373 2627.00009346008 213 215 212
-130.35349547863 667.899429798126 2618.99995803833 167 169 166
-122.769482433796 665.359377861023 2608.99996757507 177 179 176
-115.549854934216 664.60382938385 2605.99994659424 175 176 171
-108.346238732338 663.847744464874 2602.9999256134 146 147 142
-101.236455142498 663.601160049438 2601.99999809265 142 143 138
-93.9508974552155 662.078857421875 2595.99995613098 144 145 140
-86.7981016635895 661.320924758911 2592.99993515015 141 142 137
-79.7536745667458 661.327660083771 2592.99993515015 134 135 130
-72.6810023188591 661.078870296478 2592.00000762939 134 135 130
-65.5376017093658 660.064339637756 2588.00005912781 117 118 113
-58.3479441702366 658.28400850296 2581.00008964539 141 142 137
-51.1563867330551 655.992925167084 2572.00002670288 137 138 133
-44.0136082470417 653.701305389404 2562.99996376038 139 140 135
-36.9196273386478 651.409089565277 2553.99990081787 144 143 139
-29.9214124679565 650.136590003967 2549.00002479553 147 146 142
-22.9773465543985 649.628579616547 2546.99993133545 145 144 140
-16.0504020750523 649.375140666962 2546.0000038147 148 147 143
-9.11808665841818 648.355901241302 2542.00005531311 150 149 145
-2.20835488289595 647.591173648834 2539.00003433228 150 149 145
4.68692695721984 647.080957889557 2536.99994087219 150 149 145
11.5667637437582 646.315217018127 2533.99991989136 152 151 147
18.4375513345003 645.803928375244 2532.00006484985 152 151 147
25.2874176949263 645.036935806274 2529.00004386902 152 151 147
32.1590676903725 645.034611225128 2529.00004386902 152 151 147
39.0152037143707 644.776701927185 2528.00011634827 153 150 145
45.8657965064049 644.518136978149 2526.99995040894 154 153 148
52.6691004633904 643.748879432678 2523.9999294281 153 152 147
59.5267303287983 643.74440908432 2523.9999294281 153 152 147
66.3316026329994 643.229186534882 2522.0000743866 151 150 146
73.2124820351601 643.478631973267 2523.00000190735 147 148 143
80.0985991954803 643.727362155914 2523.9999294281 143 144 139
86.8866071105003 643.210649490356 2522.0000743866 142 142 140
93.7006771564484 642.94821023941 2520.99990844727 139 141 138
100.429326295853 642.175376415253 2517.99988746643 144 146 143
107.269205152988 642.166972160339 2517.99988746643 145 146 141
113.972879946232 641.393065452576 2515.00010490417 146 145 141
120.659947395325 640.618562698364 2512.00008392334 150 149 144
127.381175756454 640.098631381989 2509.99999046326 150 149 144
134.198129177094 640.088140964508 2509.99999046326 150 149 144
141.014769673347 640.077233314514 2509.99999046326 150 149 144
147.713273763657 639.555811882019 2507.99989700317 153 152 148
154.338926076889 638.778924942017 2505.00011444092 153 152 148
160.883560776711 637.746393680573 2500.99992752075 155 154 150
167.540222406387 637.223660945892 2499.00007247925 153 152 148
174.325093626976 637.210249900818 2499.00007247925 150 149 145
181.037038564682 636.941373348236 2497.99990653992 153 152 148
187.818318605423 636.927008628845 2497.99990653992 153 152 147
194.521263241768 636.657238006592 2496.99997901917 153 152 148
201.2989372015 636.641979217529 2496.99997901917 159 158 154
207.909435033798 636.11626625061 2494.99988555908 145 146 141
214.508652687073 635.590255260468 2493.00003051758 145 146 141
221.274003386497 635.57368516922 2493.00003051758 146 147 142
228.038862347603 635.556697845459 2493.00003051758 143 144 139
234.897330403328 635.794043540955 2493.99995803833 140 140 138
241.470038890839 635.266304016113 2492.00010299683 135 137 134
248.031333088875 634.738206863403 2490.00000953674 141 143 140
254.581212997437 634.20957326889 2487.99991607666 139 141 138
261.119693517685 633.680701255798 2486.00006103516 147 148 143
267.646759748459 633.151471614838 2483.99996757507 147 146 142
274.272829294205 632.876694202423 2483.00004005432 145 144 140
281.006097793579 632.856547832489 2483.00004005432 147 143 140
287.854582071304 633.090794086456 2483.99996757507 151 147 146
294.707953929901 633.324682712555 2484.99989509583 150 146 145
301.566123962402 633.558213710785 2486.00006103516 155 151 150
308.305025100708 633.536517620087 2486.00006103516 152 151 149
314.789891242981 633.00484418869 2483.99996757507 155 155 153
321.651548147202 633.237361907959 2484.99989509583 171 173 170
329.046636819839 634.488761425018 2490.00000953674 192 194 193
337.546944618225 637.778282165527 2503.00002098084 186 191 187
-137.845039367676 662.592530250549 2625.99992752075 212 214 211
-130.612805485725 662.09864616394 2624.00007247925 178 180 177
-123.014621436596 659.585416316986 2614.00008201599 173 175 172
-115.780852735043 658.838093280792 2611.00006103516 172 173 168
-108.479827642441 657.585322856903 2605.99994659424 147 148 143
-101.283513009548 656.836867332459 2602.9999256134 141 142 137
-94.0308645367622 655.583024024963 2598.00004959106 141 142 137
-86.9390293955803 655.337989330292 2596.99988365173 138 139 134
-79.9139365553856 655.59709072113 2598.00004959106 127 128 123
-72.8551521897316 655.603289604187 2598.00004959106 128 129 124
-65.7202005386353 654.851913452148 2595.00002861023 117 118 113
-58.4883317351341 652.838051319122 2586.99989318848 117 118 113
-51.3196811079979 651.076078414917 2579.99992370605 142 143 138
-44.1374145448208 648.556411266327 2569.9999332428 129 130 125
-37.0093770325184 646.036148071289 2559.99994277954 142 141 137
-29.9708098173141 644.27238702774 2552.99997329712 145 144 140
-23.0153128504753 643.769800662994 2551.00011825562 144 143 139
-16.0769317299128 643.519043922424 2549.99995231628 147 146 142
-9.13676898926497 642.763018608093 2546.99993133545 149 148 144
-2.21114512532949 641.501665115356 2542.00005531311 148 147 143
4.69285249710083 640.996754169464 2539.99996185303 150 149 145
11.5722734481096 639.734387397766 2535.00008583069 153 152 148
18.4463337063789 639.228343963623 2532.99999237061 154 153 149
25.2894815057516 638.217210769653 2529.00004386902 152 151 147
32.1744047105312 638.467192649841 2529.99997138977 150 149 145
39.0492491424084 638.464331626892 2529.99997138977 150 149 144
45.9058359265327 638.208568096161 2529.00004386902 152 151 146
52.7986027300358 638.45682144165 2529.99997138977 151 150 145
59.6730783581734 638.452231884003 2529.99997138977 152 151 146
66.4948001503944 637.942492961884 2528.00011634827 151 150 146
73.3344927430153 637.684404850006 2526.99995040894 148 149 144
80.1685526967049 637.425780296326 2526.00002288818 144 145 140
86.962528526783 636.914372444153 2523.9999294281 142 143 138
93.8197523355484 636.907041072845 2523.9999294281 140 141 136
