ply
format ascii 1.0
comment KinectMotionCapture
element vertex 802
property float x
property float y
property float z
property uchar red
property uchar green
property uchar blue
end_header
248.67495343428 203.907540382027 2712.79919078957 14 17 10
244.183355384469 204.615530927885 2718.57202051728 19 22 15
246.706335975492 205.768201631833 2730.0664059704 18 21 14
257.07745248972 207.408185819449 2747.86555841812 21 24 17
262.047646931628 208.695256446072 2761.16102588612 24 27 20
260.791249624086 209.585712117118 2769.36192245676 25 28 21
258.768406247705 210.425024134341 2776.91456099589 28 31 24
256.762163907597 211.262171320425 2784.45137226369 30 33 26
242.122933763892 211.328674702801 2781.9742518525 29 32 25
232.985601752052 211.735319487099 2783.90277126273 32 35 28
236.540852795247 212.904841120625 2795.78651565478 31 34 27
246.511067772297 214.447237773876 2812.58128333257 25 28 21
232.605338287997 214.568448414152 2810.78460953235 22 25 18
228.261498725032 215.256565938498 2816.41365012225 20 23 16
215.097683422433 215.431675500312 2815.28952549475 18 21 14
216.371011369489 216.445377368005 2825.21121755247 17 20 13
215.258094767873 217.316744250502 2833.2727948177 18 21 14
205.276648509652 217.681150452157 2834.62852783724 16 19 12
192.842847392499 217.911414168414 2834.18824588978 15 18 11
195.801960011171 219.007754588519 2845.25787138358 17 20 13
200.428614817079 220.189320789081 2857.49316297896 19 22 15
195.312810935587 220.826288363546 2862.47908832943 19 22 15
175.477962255317 220.659558811345 2856.69363406598 22 25 18
151.475808460689 220.279313929108 2847.99304842713 32 35 28
138.066702351373 220.484041609333 2847.10812365179 36 39 32
123.796316737773 220.64946295946 2845.66736229697 35 38 31
152.411297549594 223.091059262865 2874.98873260673 31 37 27
141.468069716038 223.427900258373 2875.88669375603 50 56 46
134.645760080799 223.983899705147 2879.74535296524 59 65 55
131.141767041167 224.712453778095 2885.95100851376 57 62 55
117.647270747329 224.927341817402 2885.14937575732 38 43 36
105.785452843529 225.231821288353 2885.54738412711 36 41 34
95.5677956142984 225.624435591137 2887.13350898767 45 50 43
90.3623749283082 226.271676204401 2892.20690679914 37 42 36
87.6810358769644 227.043980147777 2899.0064357242 46 51 45
101.028362460752 228.603273900991 2916.69591222278 37 42 36
82.3560288479794 228.583743172777 2912.5688017097 37 42 36
15.353029248327 226.233336141782 2876.00900937189 37 42 38
292.411033078315 181.827902738255 2584.77751911168 127 109 99
295.192820823931 183.127725748894 2597.41006550547 137 115 102
294.289354004456 184.140275414261 2606.65969860486 130 101 87
286.680463243198 184.64480785872 2609.88980414076 126 94 81
273.812893668245 184.759639437015 2608.48041218603 78 48 37
248.129731824647 183.933838918939 2595.8469702052 189 169 162
241.18038015878 184.505056248835 2599.82919699037 36 21 16
231.957286155762 184.911690210866 2601.84254308317 45 37 34
228.017530417016 185.704689523588 2608.47173029736 31 28 23
219.529799912369 186.168709193173 2611.1636151428 143 143 135
241.480767280533 188.809899925081 2639.98806491438 2 4 0
248.30687595086 190.35046413556 2655.65418167227 21 22 14
273.561743621062 193.176547165232 2686.8384577153 21 22 14
291.301237903733 195.446373725912 2711.39771838981 22 23 15
288.39162264085 196.259271391518 2718.41792923305 21 22 14
272.385963350284 196.166671228075 2714.48738996338 23 26 17
268.694816344639 196.927413738652 2720.87413472977 23 26 17
258.037507709723 197.212863439011 2721.49576949915 24 27 20
256.676831391936 198.130774152046 2729.79649666726 25 28 21
244.432006629709 198.31529273481 2729.17531951653 25 28 21
251.673440290284 199.802754149591 2744.43686098948 22 25 18
253.498439302953 200.920238459179 2755.21230584199 27 30 23
261.637224934652 202.444870751524 2770.99451686256 37 40 33
259.616171389794 203.295146466869 2778.54375764273 36 39 32
254.457132531191 203.939348304175 2783.57154674372 31 34 27
236.650085541167 203.771577443246 2778.60676580784 27 30 23
237.801396064158 204.823195008838 2788.64401904782 32 35 28
244.545864257713 206.222459336882 2802.99518074921 32 35 28
248.163850546002 207.414205266274 2814.81334337426 31 34 27
240.648919954407 207.903700850648 2817.95236751405 29 32 25
229.922131301393 208.196346937379 2818.64193334573 27 30 23
218.366867900896 208.442919649289 2818.74408715573 26 29 22
226.081035204561 209.870055737702 2833.5451131897 26 29 22
224.991080713498 210.752464933373 2841.58191884865 27 30 23
220.689267891761 211.438054149758 2847.16926210406 31 34 27
207.482544516115 211.591543120123 2846.09094134137 33 36 29
207.228632932943 212.518778463906 2854.70816590839 34 37 30
204.557325187543 213.299429720493 2861.49649986911 33 36 29
193.740556718696 213.60257151585 2862.27386572691 32 35 28
173.084496312608 213.340778633755 2855.90102784786 31 34 27
153.995079544102 213.182172251967 2850.7913952352 33 36 29
138.948633869402 213.265912898501 2848.71609820593 35 38 31
141.975143903438 214.380845608162 2859.71604913769 36 39 32
145.866967684691 215.537157657954 2871.26786203808 44 47 38
142.355138876113 216.272736487693 2877.48026036501 61 64 55
133.046600254223 216.685905421487 2879.57782620347 33 36 27
121.225473628311 216.964326843708 2879.93894105902 43 46 37
116.873795157622 217.655157425103 2885.57536481152 30 35 28
99.1637011660647 217.622569273263 2881.9112374873 29 34 27
107.347539935329 218.989869266884 2896.25471656159 37 42 35
100.490948614714 219.54489630834 2900.14722387024 40 45 38
102.037891932779 220.545187670711 2909.79953172859 42 45 38
119.632377622117 222.381399380532 2930.31581037034 41 44 37
84.1052760669654 221.434558263592 2914.72223840545 38 40 35
36.584509355599 219.892717339926 2891.28841213517 41 46 42
275.415331019523 172.958318687604 2570.37414394638 110 93 83
284.845840409724 174.827470011797 2589.07346237028 117 95 82
289.880510647513 176.332319865189 2603.68962606295 126 97 83
285.25053472061 177.06565525964 2609.59578326867 128 96 85
272.379181666306 177.154132989576 2608.19404345214 66 36 26
248.195889015934 176.372565067266 2596.89882810939 191 170 165
242.753590368861 177.054790828162 2602.20227844837 23 8 3
234.289808542899 177.505499621752 2604.87201140151 23 16 10
231.870676137234 178.418632133601 2612.80759801008 11 8 1
226.430124193783 179.100254397378 2618.10940304315 24 24 16
243.068304634565 181.437382953993 2642.33509027775 9 11 0
239.212141897859 182.225195461573 2648.88203501272 25 26 18
265.973077692367 185.276080867989 2681.37169392887 23 24 16
283.692280832298 187.629923512304 2705.9386864676 31 32 24
281.532075169811 188.50983017254 2713.62172791692 42 43 35
267.051135987668 188.493569292766 2710.99965476273 28 31 22
263.346413167651 189.261803899748 2717.3991110269 25 28 19
261.199975597572 190.139628431314 2725.06878829463 20 23 16
256.739316346435 190.849873521266 2730.81056211727 20 23 16
241.379250577216 190.79079201697 2727.65089421181 20 23 16
246.270054280423 192.158935914685 2741.01321526289 20 23 16
257.474091486125 193.955854592874 2759.37897961969 22 25 18
266.406596684545 195.579825155668 2775.77490469992 29 32 25
262.823904155315 196.332012506216 2782.05555485888 29 32 25
250.575264215333 196.492488392044 2781.44171973616 27 30 23
239.083092479798 196.710571503279 2781.48543334073 22 25 18
236.277727356823 197.517520979113 2788.40300139379 25 28 21
241.428995454768 198.852357450651 2801.51160027357 26 29 22
252.206158821355 200.549685105846 2818.89906685495 25 28 21
244.700907179928 201.030287186213 2822.02979411016 23 26 19
229.982654475244 201.042056444265 2819.63923394986 22 25 18
215.218757895015 201.059485718035 2817.29350012687 23 26 19
218.903988871969 202.272599983249 2829.04172955131 24 27 20
218.602559165803 203.222690825841 2837.70276228417 23 26 19
218.325279741735 204.169678172816 2846.3402721252 25 28 21
214.022354730165 204.858473977378 2851.92824586922 23 26 19
208.912365534466 205.495821554908 2856.90834098645 23 26 19
194.037082990572 205.526590840136 2854.6709055821 29 32 25
190.537289567952 206.267022755797 2860.87097315088 27 30 23
178.051079050415 206.455774947316 2860.48886989798 25 28 21
163.89159866849 206.549101152282 2858.94863363959 29 32 25
148.868701344442 206.597956277716 2856.85510881479 32 35 28
149.447514172262 207.589577169875 2866.05281889356 31 32 26
145.927103430152 208.332224928882 2872.27303226469 30 30 22
151.516943512857 209.610946869547 2884.95441638347 24 24 16
152.181981869858 210.591616581549 2894.06812181676 21 21 13
124.611079860315 209.924622685693 2883.28576217722 29 30 22
101.102498281 209.51106250143 2875.51688533703 25 28 19
99.2241963007379 210.352629703998 2882.9256588177 26 29 20
99.8735905663346 211.335028355886 2892.05464352845 30 35 28
97.1949421123086 212.124300457291 2898.84899276425 32 37 30
102.097702564387 213.336322902722 2910.8056059517 34 37 30
98.6188139967958 214.073279123465 2916.98542839658 34 37 30
91.7689860923869 214.622448549694 2920.87208528593 33 36 29
62.0491663056715 213.918876903531 2909.39488246406 28 33 29
29.6718689485367 213.090584188636 2896.32396207869 54 59 55
273.256759434218 165.208613995332 2569.41197461406 94 77 69
278.962024067433 166.822893204549 2584.76296386559 100 80 71
283.235011476342 168.30611725016 2598.72177683431 119 91 79
281.578095047807 169.290673871874 2607.30682457543 111 81 70
273.194582434091 169.721135559887 2609.89984152759 175 150 143
252.771361100179 169.176978640894 2601.9206149715 169 148 143
246.587230090671 169.797218140702 2606.55296803727 20 5 0
239.644159717352 170.357235615992 2610.53061273971 27 20 14
238.753154355495 171.400374440363 2619.76335036313 15 10 4
237.886172330094 172.440359432703 2628.97269859331 14 14 4
240.84957588785 173.776233597636 2641.41956945602 18 20 9
236.98741921091 174.570514341687 2647.97151025973 21 22 14
254.559045343065 177.024434217621 2672.67025757765 20 21 13
268.412617559749 179.168156307307 2694.02205006332 23 24 16
263.136959587068 179.828792046222 2699.16321474504 28 29 21
254.006675834847 180.196305297134 2701.09018091083 28 31 22
260.317543623371 181.732854542861 2715.85162357333 24 27 18
264.362547377349 183.087594361715 2728.6385704345 14 17 10
261.463198708223 183.91563532043 2735.64634822627 15 18 11
247.672758152606 183.93549680889 2733.75050801796 18 21 14
251.798033727553 185.279897660442 2746.45960971112 23 26 19
261.449630804732 187.018092933593 2763.54149288102 18 21 14
267.252909786224 188.462477139006 2777.40369136743 21 24 17
259.738901062045 188.937040589691 2780.54400704209 21 24 17
269.56232950745 190.653479668543 2797.45881252121 22 25 18
244.678233401048 189.88995924061 2786.85650011629 17 20 13
237.13161711601 190.368294321702 2790.02863813558 21 24 17
231.957331414936 191.014904758583 2795.07121158657 21 24 17
248.28497472022 193.15761760263 2816.80018270927 21 24 17
235.980517796861 193.300689231829 2816.24468485969 20 23 16
222.041217791222 193.338025171868 2814.49374372749 19 22 15
216.081855008866 193.927459745614 2818.90745157564 21 24 17
203.686566607989 194.081560268621 2818.4401828183 20 23 16
213.826688182631 195.757625509185 2835.04647457417 20 23 16
211.921509846131 196.614824306103 2842.47962633106 24 27 20
207.602994947899 197.308718182498 2848.08232757021 24 27 20
202.477355467957 197.948473622125 2853.07760777008 24 27 20
194.097474561675 198.375088472485 2855.66792478598 28 31 24
197.939445510874 199.598371557437 2867.25934399582 25 28 21
187.106117107027 199.866581610607 2868.05797916812 23 26 19
170.509225586591 199.770455679979 2864.71506334959 28 31 24
153.859018968361 199.6808961714 2861.42411969699 30 33 26
150.33179354214 200.430366252198 2867.650091814 28 29 23
145.16219623863 201.075125183404 2872.68828326862 27 22 16
135.856533411216 201.461961476351 2874.78654751148 33 28 22
137.313787794717 202.517961376066 2884.51934626822 34 31 24
128.827833320033 202.957211374832 2887.21312843618 35 35 27
111.162109404568 202.839224438648 2883.51790071551 28 29 21
92.603932708808 202.677729027882 2879.29807517237 29 32 23
96.5858987530708 203.882838454039 2890.75282540014 31 36 29
86.348178523175 204.230865924487 2892.3654630313 32 37 30
72.7243938439006 204.382216399135 2891.70160637714 31 36 29
63.2774065934569 204.7863030105 2893.93799611369 35 38 31
69.0188162395668 206.081283753038 2906.46646637159 34 37 30
57.8762052512651 206.387276633631 2907.56697727889 30 35 31
27.187240833261 205.572048001642 2895.65140509651 40 45 41
13.3959851223708 205.744068594631 2895.15079461796 89 94 90
280.741532497736 158.286697077607 2577.17264731738 110 95 88
278.284958329158 159.227538485523 2585.14098094528 116 96 87
278.081540800463 160.359647181153 2595.09469329555 114 86 74
277.905866791904 161.488140427591 2605.02139028202 133 103 92
277.75806358569 162.613031663305 2614.92094352537 147 122 115
264.862169743195 162.650816208676 2613.55106550483 161 141 134
251.927831110277 162.693299908677 2612.2186691965 23 8 3
243.487644639381 163.11998396609 2614.86886030077 22 15 9
242.606161147946 164.178433678812 2624.08987962349 57 53 44
241.748690161739 165.233753038262 2633.2875168384 1 1 0
240.153807431875 166.223446021906 2641.80986720567 21 21 11
239.342426858292 167.272755932708 2650.96262415339 16 17 9
258.449520804529 169.931577573376 2676.94050131963 15 16 8
261.572346241273 171.277199674655 2689.22762315907 19 20 12
244.74299383823 171.017323009769 2684.72249956067 22 23 15
247.90246782259 172.35817926153 2696.97427108304 29 32 23
246.467497090898 173.327167335262 2705.34088664884 24 27 18
257.451522113677 175.266392808004 2723.90443131557 14 17 10
256.865083525626 176.286799745704 2732.8380893932 14 17 10
258.63902139278 177.484999732067 2743.65230897624 20 23 16
269.037102572276 179.339444924608 2761.39298786987 22 25 18
259.163892912217 179.628393815195 2762.65273074702 24 27 20
259.468274248023 180.694680475053 2772.11191978634 23 26 19
252.721322155356 181.223288534173 2775.89945843492 22 25 18
260.161073757762 182.816475338448 2790.94844109356 25 28 21
243.158985533149 182.577129052071 2786.6118123385 23 26 19
234.816116936531 182.989642900459 2789.1674597057 25 28 21
235.196479792578 184.045982327228 2798.55266816891 25 28 21
244.36450538784 185.738122273576 2814.70498045031 25 28 21
240.831055698765 186.495149361251 2820.93567858804 24 27 20
226.903776065884 186.501737850877 2819.17768334974 26 29 22
225.768962493821 187.431804497447 2827.25232883082 27 30 23
223.850223276772 188.302123326756 2834.69700760751 25 28 21
193.736843083585 187.178371547339 2820.83856204992 26 29 22
197.438932029351 188.449613700476 2832.56179782766 29 32 25
194.705250000579 189.263912345947 2839.40709730445 28 31 24
195.23149439585 190.301293511779 2848.65024526538 27 30 23
194.972088346557 191.279175487453 2857.2654403684 28 31 24
200.446865152713 192.643819898082 2870.04804687622 27 30 23
184.713725097362 192.560147028893 2867.26281968693 28 31 24
167.291582130826 192.372141045505 2863.33572342579 30 33 26
148.99069862223 192.136238678029 2858.87139926002 31 34 27
146.275175524426 192.947798464416 2865.69907145209 33 33 25
137.794139100818 193.376315310958 2868.38955627784 37 28 23
136.744816257349 194.294791967136 2876.38068335517 80 69 63
132.398852187869 194.994668869346 2882.01009558053 46 37 30
127.226233204619 195.640133059842 2887.05118337079 41 34 28
112.889424882256 195.696681574275 2885.69213426325 35 32 25
101.016578534194 195.918225933993 2886.11335181444 31 32 24
99.1582441566421 196.779919932336 2893.49932243882 33 36 27
85.5704571843177 196.900365887503 2892.80428720399 32 35 28
71.9449157195049 197.025490314205 2892.14605126228 28 31 24
54.0671913610922 196.893694001004 2888.66304629329 29 32 25
43.7358206966372 197.23765194454 2890.36961950667 29 32 25
42.6960470604096 198.154475134112 2898.35150846169 24 29 25
15.3677601200664 197.469468707108 2888.74780003388 23 28 24
10.9064314742882 198.183262603446 2894.48971406326 25 30 26
278.583240896383 150.538888317976 2576.20991973884 156 143 135
278.351766921048 151.69378729635 2586.18812416154 110 93 85
275.911100433221 152.643576747863 2594.13933871036 75 48 37
275.729352087195 153.792008000766 2604.06912077508 97 67 57
274.825923800575 154.87017037012 2613.30901808178 125 98 89
264.928346871417 155.147882126335 2614.59428101892 122 99 91
253.501163946446 155.2959361797 2614.58381003805 37 18 12
245.820212095017 155.777525625697 2617.88886426691 18 8 0
244.186883018969 156.786055736247 2626.44660830516 158 149 140
237.258765390586 157.333722918045 2630.41156792081 5 1 0
240.219525969883 158.730048991004 2642.85212853459 13 13 3
247.803020992845 160.510685204415 2659.14757622861 16 17 9
252.392887906542 162.023891210542 2672.78729184407 17 18 10
253.198685296915 163.208132942071 2683.14838078054 23 24 16
264.033719573283 165.223457060805 2701.84829027231 27 28 20
247.195761737085 164.92433964559 2697.35784960399 27 30 21
250.39633373421 166.289991412687 2709.56480758382 22 25 16
245.11680346945 166.951469128506 2714.709693065 13 16 9
256.151394230435 168.941392735123 2733.21519420216 13 16 9
259.480940640912 170.290654252535 2745.29683899667 18 21 14
265.976695884863 171.885477163904 2759.86573501846 19 22 15
247.486243987332 171.471624759857 2754.19904668521 21 24 17
244.622755825211 172.311737285415 2761.16943029109 25 28 21
248.850835039061 173.70867035771 2773.76868221183 24 27 20
253.126303149243 175.099524406901 2786.32143689293 25 28 21
239.268908821277 175.068452245055 2784.4996107416 22 25 18
241.217559068661 176.268923820632 2795.14034045045 24 27 20
249.556719416343 177.953426622643 2810.69960978246 25 28 21
257.962844281903 179.629487483154 2826.19363007357 23 26 19
248.076523108665 179.903524714876 2827.46825897181 22 25 18
237.367629191778 180.119967977376 2828.15131781013 25 28 21
233.851492737428 180.880556250493 2834.36463515017 26 29 22
225.519440538549 181.280810325092 2836.91101582173 24 27 20
206.694836645439 180.907815259775 2831.57010666295 25 28 21
195.884521692117 181.136646215853 2832.35204719402 28 31 24
198.006178817287 182.314806290493 2842.82427614582 25 28 21
198.5399842329 183.370627642381 2852.05719045033 24 27 20
197.474266980124 184.305581581319 2860.06216208325 24 27 20
200.50750792486 185.529959571566 2871.03925315651 26 29 22
184.77464179295 185.411600613313 2868.25888054601 28 31 24
169.811589086673 185.357278679441 2866.12117865541 27 30 23
156.446061886865 185.423950623754 2865.2133839562 28 31 24
147.983592463222 185.839910455745 2867.88728739778 32 32 24
149.411339300747 186.943930581379 2877.64229021546 32 21 17
140.115711035192 187.303557279006 2879.73494939835 123 110 104
136.606430573178 188.062387637555 2885.94138061366 59 48 42
123.962416812962 188.198958787038 2885.72369064873 43 36 30
125.448410441248 189.295541859147 2895.42229057739 35 32 25
115.274835578299 189.604317762069 2896.97703227547 36 37 29
103.4049668896 189.804375900631 2897.398468621 35 38 29
104.089671003259 190.840591756787 2906.48443597136 32 35 26
86.3022337167618 190.657631479004 2902.9193366169 26 29 22
71.8292336601274 190.701822189976 2901.69769223472 27 30 23
42.108396594247 189.765245532525 2890.25593762501 27 30 23
9.73608588684316 188.678925243609 2877.2182017855 21 26 22
17.9764071538324 190.213866209301 2891.48081564213 27 32 28
34.7854347913255 192.281425582522 2911.32596333922 25 30 26
273.213006246015 143.668744354753 2582.55804641075 93 80 71
273.740992488432 144.91084994058 2593.18611582956 63 39 29
274.300832526941 146.148897326951 2603.78349160007 65 37 26
272.643627907223 147.174641445226 2612.3624001833 111 81 71
262.740287231161 147.437077148035 2613.65564440034 120 92 81
255.82792364695 147.977944951782 2617.60596496235 126 99 92
249.6634849436 148.588248033757 2622.21989403323 80 61 54
260.15710996894 150.704145378985 2641.24430112126 154 139 132
250.991914931351 151.037000275694 2643.21105719911 14 5 0
254.748756297258 152.526982081891 2656.26450270679 19 19 9
254.737088376487 153.672466092928 2666.02582799605 21 24 15
262.404557423936 155.488784461738 2682.23261443541 20 23 14
259.399966752647 156.35585485312 2689.33913055798 17 20 11
253.331746899514 156.953469520617 2693.85972607233 18 21 12
263.450556526942 158.952272627553 2711.85638970885 21 24 15
253.552167826628 159.213059471775 2713.14496024135 20 23 14
256.028960048177 160.536120206099 2724.66002785607 15 18 9
240.678774477009 160.336670941974 2721.5112950615 13 16 7
269.667986727142 163.890140785879 2754.54811723429 16 19 10
288.679937945516 166.570605898014 2779.20002648042 19 22 13
254.593259183988 164.79914581003 2760.88106239417 19 22 15
253.316245050151 165.775567738056 2769.08972600286 24 27 20
247.340357457531 166.360856944407 2773.52045591537 24 27 20
244.515313436341 167.204489177405 2780.45214370978 24 27 20
233.798443210172 167.403790324079 2781.14565673836 26 29 22
240.487301799844 169.014891640776 2795.52039234206 31 34 27
241.675316453315 170.172044910782 2805.50593754885 24 27 20
257.227995508735 172.468830659244 2826.56477840204 24 27 20
245.743301358094 172.600715216908 2826.61346892085 23 26 19
229.4276128363 172.35799768446 2823.01298054245 21 24 17
221.079346490859 172.750029567251 2825.57701517959 27 30 23
217.540541260802 173.51919387161 2831.81123757335 21 24 17
205.144778058571 173.601686717685 2831.35536172614 27 30 23
197.562366156708 174.060836307905 2834.56588092927 29 32 25
205.356704036069 175.696197701439 2849.25652078727 25 28 21
200.225142084075 176.33807815909 2854.25736801271 23 26 19
195.0944733962 176.979801779986 2859.25735139407 22 25 18
188.333315520593 177.499114564388 2863.06037043266 24 27 20
182.38299043079 178.080119772212 2867.4663495751 25 28 21
171.512115034611 178.297669378987 2868.30975705769 26 29 22
167.187433859799 179.001511969338 2873.91744892705 27 30 23
159.573584897774 179.464145578791 2877.15867065913 32 33 27
156.901420997675 180.287443404483 2883.94155164983 33 30 23
145.141098839147 180.452903246664 2884.25898244261 109 104 98
139.155742710697 181.037985602776 2888.69914532355 44 41 34
139.816989897867 182.096736227623 2897.8050751197 25 25 17
139.673248226236 183.09301518687 2906.30269471974 29 29 21
115.336403868221 182.384336922629 2897.98300406839 35 36 28
104.303646870326 182.621743149041 2898.98456541681 34 37 28
90.7279077399927 182.687760502733 2898.28561102032 31 34 25
82.1596906098012 183.10623810484 2901.06415137242 23 26 19
68.5200494756497 183.180171270512 2900.42748265682 24 27 20
43.0158080070244 182.45411726668 2891.85235556062 24 27 20
13.1862855374307 181.453359053732 2880.52801316933 22 27 21
5.31008895770224 181.948293487378 2884.02531375828 15 20 16
265.843802442106 135.386857379515 2576.92972729979 64 54 45
270.080100891922 137.016342401485 2590.90335563882 95 72 64
269.882238944393 138.205171622621 2600.84316794597 58 31 20
267.463725794776 139.174075212888 2608.7695588411 63 33 23
259.801144868055 139.637832539456 2612.05900604961 102 72 62
255.894536516241 140.460995067686 2618.65081930849 114 85 77
255.017659142662 141.568515857962 2627.86001200426 128 105 99
254.92203346198 142.744043791408 2637.70026811162 137 118 111
254.09492675313 143.845096845588 2646.86065588814 14 5 0
258.62035779861 145.437549792586 2660.55264461002 19 19 11
257.091994654391 146.460313714819 2669.00439001712 20 23 14
250.227942659092 146.989391507989 2672.90814117358 19 22 13
266.368296086101 149.616497182594 2696.16874802496 15 18 9
251.858487876757 149.443237247973 2693.5985466333 16 19 10
259.660017300678 151.288798282917 2709.66788708376 20 23 14
258.253872745334 152.2958229104 2718.00059388628 20 23 14
256.093001109702 153.231281079541 2725.67608616802 15 18 9
259.385881563002 154.645414617613 2737.78421490171 13 16 7
275.960953517984 157.217510723481 2760.62127021873 16 19 10
276.251432846007 158.343626875293 2770.0854213845 18 21 12
285.178930642033 160.213651289729 2786.4502900795 23 26 19
278.485644292846 160.720530589451 2790.18774935263 26 29 22
262.347248330304 160.418651222916 2786.41995093527 27 30 23
250.097406038535 160.459527739916 2785.82498650013 25 28 21
249.669594719309 161.509286726558 2794.59678713486 27 30 23
250.058164353135 162.622683223774 2803.96541313633 28 31 24
256.034902981907 164.197927640774 2817.63568470467 23 26 19
238.976069841391 163.84503484028 2813.37252445713 24 27 20
232.235976750051 164.357306267451 2817.15566656307 23 26 19
229.48972733197 165.199187113406 2824.00936900603 22 25 18
221.943522930468 165.646334729652 2827.18570751257 27 30 23
199.914350205524 164.919871428263 2819.41124991408 22 25 18
189.087665769319 165.113842456982 2820.21426002369 25 28 21
200.856144490013 167.125103591302 2837.98818373271 26 29 22
208.657863839752 168.803245075836 2852.66517080275 24 27 20
207.592826105891 169.7661309143 2860.6653393408 23 26 19
195.156211784292 169.829633329729 2860.25283603636 22 25 18
186.763616751016 170.216394208503 2862.86133092592 23 26 19
182.444708944007 170.922818599494 2868.4629081667 25 28 21
169.934991317298 170.995277155182 2868.1213359693 25 28 21
165.606117169476 171.702808835428 2873.73230843497 26 29 22
171.163292830492 173.163800841365 2886.41918937132 29 32 25
164.391443705353 173.679325472938 2890.23372270806 34 34 26
150.994028483347 173.696774225623 2889.36453061051 52 52 44
149.168542364083 174.588552916038 2896.71377376646 27 27 19
145.696866647055 175.354465848676 2902.88181611275 42 42 34
140.567728374791 175.996018649676 2907.88030501589 29 30 22
112.893160786953 174.979899543797 2897.25248738164 30 31 23
82.6038953004882 173.79328003678 2884.99523750273 27 28 20
74.0115795425815 174.204542449117 2887.79877455029 23 24 16
54.4734472757633 173.828984255161 2883.16678844378 21 22 14
50.883619416298 174.609460443064 2889.45000517135 21 22 14
34.6314989518994 174.486166003126 2887.18565140904 18 21 12
12.403393443885 173.949457010076 2880.99760071873 14 19 13
-11.5984549696471 173.302883002591 2873.75298447805 13 18 14
242.858984224233 125.463786351959 2557.29304986324 71 62 55
259.709195262372 128.416613147107 2582.63443480921 85 68 60
263.221523619121 130.003420562298 2595.91637456683 93 70 62
263.783146617027 131.284893147812 2606.50522376484 73 46 39
259.868056667576 132.114881747877 2613.10445048512 61 36 29
256.714657007308 133.018056082887 2620.35339998645 65 40 33
252.818276086604 133.845523948331 2626.93442092809 57 40 33
251.959129922178 134.967215809627 2636.12357395095 72 57 52
232.143606658701 134.245965567976 2628.98431570295 22 15 9
241.179058279322 136.32112169611 2646.62823775231 18 18 10
232.737538464309 136.705420463325 2649.28601741437 18 21 12
254.118997960708 139.933066664717 2677.17240974149 17 20 11
271.802284133733 142.780362495965 2701.70213619379 15 18 9
289.603204845102 145.612806511208 2726.11724490247 16 19 10
258.18290453899 143.814339011141 2709.40558507254 17 20 11
260.636959274774 145.195129288766 2720.93469894547 18 21 12
262.355908783686 146.499249682062 2731.78820563323 15 18 9
269.547785545925 148.298540656934 2747.05253172402 13 16 7
273.688100549876 149.805273731241 2759.72270641023 14 17 8
286.462996824658 152.08594089985 2779.29124315168 15 18 9
285.241486066671 153.083322359038 2787.4420311201 26 29 22
287.17814943697 154.359755195621 2798.0830990919 28 31 24
270.275036831158 153.947497415038 2793.67408016956 26 29 22
261.198507261309 154.241684090907 2795.55850527339 24 27 20
254.474695982316 154.747212933964 2799.32681369196 24 27 20
258.836361040384 156.225693170689 2811.78102241734 22 25 18
242.594504528319 155.899068689223 2808.11961917226 20 23 16
232.668734753442 156.130719705227 2809.43968577925 25 28 21
225.91329316866 156.639967005643 2813.23885397267 25 28 21
230.352170960635 158.108540129472 2825.61785357883 23 26 19
217.193593639662 158.070233520084 2824.52007037504 25 28 21
197.565232290385 157.492784152511 2818.59061319081 22 25 18
183.509117526216 157.398065668759 2816.97518842684 22 25 18
190.416190772041 159.063360574145 2831.12556170443 21 24 17
216.81807441074 162.335157287617 2859.68804832921 20 23 16
208.466598637306 162.706575068714 2862.25831673101 22 25 18
192.777094230724 162.478907553817 2859.4507032012 21 24 17
181.931830773027 162.656490789892 2860.2745846624 23 26 19
173.513222163248 163.036180083021 2862.91029443724 24 27 20
163.440902489164 163.285568932071 2864.37326561657 23 26 19
159.918084022914 164.064041569814 2870.59057499193 24 27 20
160.520897059434 165.169111343272 2879.74768481356 27 30 23
158.675709522238 166.074716134157 2887.11411043515 36 36 28
146.09250509674 166.132429203755 2886.84802893367 24 24 16
145.913426440778 167.166607628331 2895.37479931511 30 30 22
139.109501547074 167.681145142185 2899.22133025977 39 39 31
124.800924538182 167.617466532084 2897.85235439912 25 26 18
82.8944002706788 165.443927109716 2877.43866089887 31 32 24
80.156052476442 166.292514633394 2884.28352566851 23 24 16
53.9408576243847 165.358481452914 2875.02821570564 19 20 12
27.629954813075 164.436434403594 2865.86651145818 18 19 11
11.3364829684461 164.283811972069 2863.64755489208 18 21 12
25.4034171016304 166.401014921828 2881.95723888046 16 19 10
7.38761214528161 166.126672920179 2878.63241817694 6 11 5
11.3781025787598 167.481772807162 2890.05687287759 20 25 21
244.120471565384 119.194587135258 2569.72015657706 75 60 53
252.076370755009 121.285941783188 2587.01678669724 85 66 59
253.358054574592 122.670576229842 2598.29260473655 87 64 58
253.172481696213 123.896090131415 2608.21479183663 66 46 39
251.508201588579 124.963950826925 2616.79483951423 86 66 59
252.129724244835 126.259591064641 2627.32211349321 70 55 50
254.297586481927 127.704275312478 2639.12597724714 82 71 67
242.080344742941 127.694145071285 2638.50651659974 12 7 1
210.79956133031 125.786763261205 2621.67207407761 17 18 10
229.75177230703 128.899659014608 2647.73664036661 17 20 11
254.184696023768 132.525718789499 2678.2019733747 18 21 12
293.343094693622 137.563694940147 2720.75897769473 17 20 11
282.746783295761 137.692934608975 2721.34312908044 18 21 12
255.164284007829 136.179081494442 2707.86363249703 17 20 11
256.837283369209 137.513689811297 2718.75792441678 17 20 11
264.74449393126 139.438523859356 2734.7106054181 15 18 9
268.835018783319 140.984405208653 2747.42443636323 13 16 7
271.415589219929 142.376533996391 2758.82624244815 13 16 7
275.597207815326 143.910850449784 2771.45132524609 15 18 9
276.695821651785 145.145667622064 2781.51383025293 24 27 20
272.334905142493 145.864563646541 2787.1552794541 26 29 22
264.832629383023 146.291283730776 2790.29101535002 22 25 18
259.684765152675 146.937213233091 2795.30745253182 20 23 16
256.118266493551 147.727780515258 2801.56601155926 20 23 16
247.014495309744 148.012179374377 2803.47927246549 21 24 17
233.126353026217 147.867423735458 2801.70444401483 21 24 17
225.56595914411 148.30116094617 2804.89685493745 25 28 21
228.370535010873 149.6646338228 2816.08045564996 26 29 22
223.214085243511 150.311325025481 2821.10530581795 24 27 20
210.038233923924 150.248579024039 2820.02828808162 24 27 20
199.23633053022 150.402605366307 2820.8129318989 19 22 15
194.049439894028 151.05297933102 2825.86746598902 21 24 17
200.173608637901 152.685971004068 2839.38314009642 21 24 17
200.68434155619 153.822281873188 2848.62706941635 20 23 16
207.716936519312 155.512723345103 2862.64874327957 20 23 16
197.721502205355 155.736881287073 2864.03909527677 21 24 17
178.731981268879 155.202333967364 2858.88582853261 21 24 17
172.758375180102 155.779603266532 2863.31547821686 21 24 17
157.767216090115 155.601068626348 2861.22404496452 21 24 17
164.088028018468 157.209122879394 2874.54813522259 21 24 17
155.643029728884 157.581633484464 2877.21077350455 23 26 19
152.960872309173 158.432015812541 2883.99957513034 28 28 20
137.88250956585 158.264299376286 2881.99347531105 18 18 10
117.783190398143 157.697102673735 2876.52983302114 28 28 20
114.237913223691 158.484119193566 2882.76818144371 26 27 19
89.8744819345114 157.594061728842 2874.50169977465 24 25 17
62.0829332766033 156.447825652244 2864.00927730372 16 17 9
23.3071814787715 154.449356209737 2846.12878030608 19 20 12
7.86655559742711 154.326840733094 2844.47573245598 15 18 9
10.8782604112889 155.663475661123 2855.45761769918 14 17 8
-0.397018880343047 155.876072891462 2856.70367402921 12 15 6
2.66119970022194 157.206844020124 2867.64023708145 11 14 5
5.75917192094133 158.532592514131 2878.53806652457 6 11 5
13.1395391106377 160.178845329157 2892.22092848997 13 18 14
244.669567155458 112.889346130487 2581.44275863161 82 71 67
246.680874221292 114.381305087187 2593.39509680359 58 45 39
246.477701665254 115.628277991712 2603.33192685448 52 37 32
246.302253788071 116.87165454575 2613.24141958646 52 39 33
249.175734084637 118.429483187007 2625.74478080217 65 56 51
258.150628079709 120.615865070727 2643.43273619279 55 47 44
259.608450550291 122.002659623686 2654.53332668508 13 10 5
238.267951534664 121.021820119473 2646.11226476247 18 19 11
242.790976090961 122.720963576744 2659.79087435286 17 20 11
267.25605384754 126.448840980849 2690.20922932293 18 21 12
295.708538550739 130.547652820455 2723.69809073332 19 22 13
272.046503704694 129.33510595266 2713.36586650291 19 22 13
235.95768188664 126.893455777483 2692.88304807595 19 22 13
246.855626364335 129.186516174519 2711.47943750718 18 21 12
258.610967287443 131.546230742131 2730.63181529587 14 17 8
268.899239067764 133.741394416074 2748.4311785034 12 15 6
257.463739065992 133.782794093107 2748.44472997299 14 17 8
264.732346349248 135.659680162992 2763.62173084297 17 20 11
263.455822882626 136.691721549023 2771.82168668026 22 25 16
260.630637033116 137.569525668922 2778.74846472232 22 25 16
250.739847573891 137.765413872394 2780.03908108684 20 23 14
248.710411958788 138.717524005334 2787.58159430424 15 18 9
238.794216520166 138.91655040056 2788.89731320049 17 20 11
239.154960384028 140.091465361264 2798.28447820084 21 24 15
218.893869566366 139.322901365928 2791.59433023098 22 25 16
216.075574087406 140.199553057658 2798.51443636161 22 25 16
220.452669022779 141.741690932639 2810.9439144196 25 28 21
227.277699328514 143.499472229519 2825.16208810125 23 26 19
202.08161866822 142.304353678009 2814.9333709845 22 25 18
198.495998062069 143.10285424611 2821.2100836938 17 20 13
218.289613314667 146.021512299115 2845.0505841862 21 24 17
215.585393076939 146.883595030972 2851.85956520185 22 25 18
205.605957679496 147.090122077238 2853.23697371912 20 23 16
198.03904684188 147.516664778893 2856.4369194202 18 21 14
191.27504980699 148.016673066356 2860.24561098214 20 23 16
178.795023260192 148.014006825195 2859.88565851563 21 24 17
168.73364082128 148.230623332968 2861.34261259649 21 24 17
163.566795104864 148.878680393488 2866.37758422238 20 23 16
160.865170769513 149.740177881987 2873.18407396731 20 23 16
153.235974623298 150.1743183334 2876.44474695647 23 26 19
143.945616141698 150.468356013071 2878.5418671942 23 24 16
114.783001384994 149.073376943312 2866.61354125578 20 20 12
83.8508063237815 147.551878141822 2853.6273156446 21 21 13
63.6035427198864 146.955103057235 2848.31495603881 24 25 17
53.2842550940757 147.203808773321 2850.02327101182 19 20 12
18.7282300055531 145.439843219697 2835.00342355501 7 8 0
2.4498014629124 145.216338185049 2832.78000518544 15 16 8
-7.16723078037074 145.55109588476 2835.19516105448 13 16 7
-1.66823537034722 147.126015960747 2847.92297732112 12 15 6
-3.70244487604099 148.077710706193 2855.47029247653 10 13 4
-15.0114850779213 148.276191560707 2856.7519602837 9 12 3
-18.7271585908793 149.090313398319 2863.15550863519 13 18 12
13.204320878522 152.750900167204 2893.25444628782 4 9 5
237.006914048494 105.711248212865 2585.86207822591 72 63 58
236.026522989872 106.897902470335 2595.16202780725 47 36 32
236.576967732721 108.246436688442 2605.75240333976 49 39 37
233.768377585103 113.02964772254 2643.25951620994 19 20 14
253.54041661949 116.390462587606 2669.89024809967 17 20 11
278.031780914003 120.220912054978 2700.26734004284 17 20 11
301.908904958647 123.951379643528 2729.85224959457 18 21 12
238.280201477791 118.486252061061 2686.15135771362 18 21 12
222.14846774791 118.033919826059 2682.398842627 20 23 14
228.374160082524 119.908601715754 2697.19488991724 19 22 13
246.28005561644 122.972245143499 2721.47158590313 14 17 8
257.313487801638 125.305397143764 2739.92784635847 12 15 6
249.741985081487 125.725538290339 2743.13329801383 15 18 9
246.843123954425 126.621180829465 2750.13060018505 17 20 11
249.434397589442 128.066720235468 2761.51388376967 22 25 16
251.280800377973 129.428659353002 2772.23194404248 22 25 16
248.444610411288 130.316305372216 2779.16819470715 19 22 13
247.986046690117 131.436491193993 2787.96012387614 15 18 9
243.599971593685 132.16455723193 2793.62486276027 17 20 11
241.59558007422 133.124704883354 2801.14165672075 21 24 15
219.752245582263 132.149753803737 2793.21904755282 22 25 16
217.731892634959 133.111782948151 2800.75107552126 21 24 15
217.324159753509 134.225387513985 2809.49350162174 20 23 14
209.740288714918 134.64663087522 2812.7110722933 19 22 13
200.541797055212 134.916515865593 2814.72053717578 17 20 11
203.383478465384 136.330159378624 2825.85987633702 18 21 12
213.517710068233 138.421481138361 2842.41064218977 20 23 14
218.879811148788 140.049710986028 2855.26651738827 20 23 14
204.859214118493 139.862640319457 2853.6294726018 19 22 13
189.98536440694 139.605683937573 2851.43347794369 19 22 13
189.710885127358 140.702241133322 2860.04576299953 19 22 13
173.964953849751 140.377655055537 2857.30850670806 20 23 14
162.257163818249 140.431216309676 2857.59064872657 20 23 14
157.894158922604 141.155865376105 2863.23298358718 20 23 14
158.46436065334 142.323314894495 2872.41325721848 20 23 14
147.536118307714 142.455937316383 2873.32652097273 23 26 17
141.53330194925 143.032341063434 2877.78530481481 23 24 18
138.009238214448 143.828609737286 2884.00122051389 11 12 6
63.1869340790967 138.351608161981 2840.0812064579 17 18 12
27.9321970722952 136.404389108416 2824.36502789236 9 10 4
9.19939567594286 135.923445240545 2820.36582160079 17 18 12
0.425269083849322 136.316544953089 2823.35258393346 18 19 13
-0.831222746493054 137.359083791371 2831.53143438293 11 14 7
0.448948996437437 138.614185256791 2841.41065169506 13 16 9
-6.64656811895048 139.150517559382 2845.54317892413 13 16 9
-13.7486356299497 139.687695775476 2849.68242360922 13 16 9
-21.7022068082482 140.154694351182 2853.26034938397 13 16 9
-53.3707320352059 138.64215154913 2841.00364897753 14 17 10
229.333121326542 98.5185539366827 2590.29427911599 71 67 64
223.839438060906 99.2098742868909 2595.64741096448 69 65 62
230.13580214346 103.81615344715 2631.2245424144 20 21 16
236.880298147768 105.846662351096 2646.89928814438 19 22 15
251.318126102383 108.708634685659 2668.9816582906 16 19 10
243.673551806469 109.130480196698 2672.25941919656 16 19 10
263.627298755055 112.557987338245 2698.69985535203 21 24 15
232.964592615803 110.477474080924 2682.69448887257 22 25 16
223.756992021356 110.735945332919 2684.71434816546 14 17 8
246.987010489449 114.470907993245 2713.52393159132 14 17 8
243.246877669607 115.301060658096 2719.94939904686 11 14 5
244.175095549934 116.623466688163 2730.16816416212 9 12 3
239.685160585319 117.367955670191 2735.93394796872 13 16 7
251.591367670023 119.828308262256 2754.92130133068 17 20 11
252.629150041387 121.136863110548 2765.0336523273 24 27 18
259.974384071038 123.091363024692 2780.12309041307 25 28 19
254.80031813332 123.741815586148 2785.16487777145 23 26 17
246.473518266807 124.069082255118 2787.71683030601 20 23 14
243.664143258928 124.961795107095 2794.62570444452 19 22 13
241.659670412321 125.933186572541 2802.14091733325 21 24 15
228.552850054665 125.782111777983 2801.0084057883 19 22 13
222.573054654976 126.35379468613 2805.44468937394 16 19 10
215.792412075486 126.846316993419 2809.27135447433 17 20 11
220.204705984944 128.449771405504 2821.6568168733 20 23 14
213.43745681388 128.940549977573 2825.47043984444 20 23 14
215.50593679323 130.298994283947 2835.96849071542 20 23 14
218.41622365542 131.731483205001 2847.03691830556 21 24 15
217.327435919386 132.767375552147 2855.05021845875 21 24 15
208.161593127612 133.019930226968 2857.02948610381 19 22 13
187.614123928159 132.185207479547 2850.63383217718 16 19 10
178.384080940324 132.445778212596 2852.67566679608 15 18 9
160.980272054464 131.935250846875 2848.77837088325 17 20 11
154.146339971487 132.434142996661 2852.65667394643 20 23 14
157.138835097607 133.856120837745 2863.64502104825 21 24 15
151.13601700147 134.430387183899 2868.10412252278 19 22 13
134.427104128993 134.012204026131 2864.91970763833 17 20 11
118.490458613442 133.676848491727 2862.37376296739 17 18 12
123.183665548437 135.244649792561 2874.48554409362 14 15 9
50.8160625093255 129.772325412053 2832.37868791171 12 13 7
16.3640946504198 127.807346978012 2817.2848818616 11 12 6
-1.56254065246264 127.362241992412 2813.89675306846 11 12 6
6.33701525151587 129.246370648114 2828.44614217991 12 15 8
15.973291163105 131.271921427677 2844.08419699964 10 13 6
9.74265054448864 131.874571333243 2848.76499668716 14 17 10
13.598361623429 133.367710557979 2860.30288712543 10 13 6
-26.3220584689829 131.0108007897 2842.19513067151 7 12 5
-41.9060716960127 130.810725186415 2840.69593192818 6 11 4
-26.2132492826357 133.333868143084 2860.16490569898 9 14 8
236.124778628336 99.5372424029611 2657.083853457 17 20 11
229.97126156494 100.129004886146 2661.69001531235 18 21 12
217.679159066275 100.031841014332 2661.15741819656 21 24 15
236.106872556719 103.375678028743 2686.29177590769 21 24 15
244.63550915812 105.590433308483 2703.00143075187 12 15 6
259.417081333456 108.479671649657 2724.73842790157 13 16 7
267.328317266697 110.589409125603 2740.65978300391 12 15 6
235.697896495672 108.358909324637 2724.22063008718 12 15 6
225.736217588265 108.516310433518 2725.58732909746 13 16 7
229.801649350743 110.196590288802 2738.30621381099 17 20 11
258.953874060675 114.565323050347 2771.06032885626 22 25 16
254.54796799555 115.302231792908 2776.74379107957 24 27 18
250.146550681594 116.038506612834 2782.42255175811 22 25 16
242.596576878694 116.440297744414 2785.60933700458 21 24 15
235.825994539023 116.926637253969 2789.42658811093 21 24 15
233.801903783401 117.91172990168 2796.95925684456 16 19 10
223.058202576838 117.984623271154 2797.69775860558 16 19 10
217.861026193008 118.638249102944 2802.76202597062 17 20 11
215.058802178884 119.538483786841 2809.66268734315 19 22 13
221.869082476917 121.421126157495 2823.87705358831 21 24 15
217.511332013654 122.151706271144 2829.5132941137 20 23 14
212.354526408193 122.800161642718 2834.53823689079 21 24 15
200.752223124945 122.798337458999 2834.72381495243 21 24 15
208.505841116973 124.744850966364 2849.40890211397 21 24 15
200.938203910271 125.148597962606 2852.61293830559 18 21 12
182.808433370235 124.506726577277 2848.03869847607 16 19 10
167.058245282316 124.113397980835 2845.3158293744 18 21 12
159.41380162747 124.526741039806 2848.59471721055 18 21 12
154.211015234286 125.180827170453 2853.66448736584 18 21 12
152.286781562692 126.153005213215 2861.09956746985 18 21 12
153.664524541538 127.440371826139 2870.87746416963 17 20 11
127.082454600453 126.035259557026 2860.63918255943 16 19 10
105.351896267202 125.115651907971 2854.01365242361 14 15 9
82.7174387818474 124.127057669311 2846.87865653602 13 14 8
13.9384734277375 119.993469638766 2816.59738145611 9 12 5
10.167108030934 120.832623614182 2823.0525329325 9 12 5
7.23925263562508 121.748231888849 2830.07533807172 9 12 5
25.2455559494846 124.596424138557 2851.45035260241 14 17 10
12.325984437016 124.577292053249 2851.52930842905 12 17 10
-12.3974841738717 123.486090935151 2843.65007808691 9 14 7
4.9239465524491 126.237745628205 2864.3022022703 11 16 9
-20.7233433016358 125.080095077017 2855.93325195871 13 18 11
340.33886550998 101.73932233913 2727.56494223852 20 21 16
224.684420366251 92.0101541820503 2658.22084845691 22 25 16
239.219661209168 95.0011814518589 2680.18741190195 19 22 13
243.862202172049 96.8271848757261 2693.72859008616 15 18 9
249.326796965486 98.7350801881881 2707.85826239679 12 15 6
246.346771110094 99.6665049178229 2714.93087375095 13 16 7
228.660373364145 98.9264089433622 2709.93087573403 13 16 7
245.860242953393 102.138119431148 2733.46987235542 14 17 8
213.345598264574 99.7418264983826 2716.51602385305 16 19 10
224.404207422769 102.243322744077 2734.92240199607 19 22 13
242.587355992299 105.516589071917 2758.89279944595 21 24 15
241.277926725538 106.6083771464 2767.11660069475 22 25 16
232.911730626847 106.919825529378 2769.71035004799 20 23 14
229.260588285576 107.750171841105 2776.04742002186 20 23 14
229.569158359724 109.009058878989 2785.47398333033 20 23 14
227.529215419036 110.00733573426 2793.02010705596 15 18 9
220.740843158756 110.49087795409 2796.85543725465 15 18 9
219.518274323656 111.57166599758 2804.99494845254 18 21 12
222.3059706657 113.074636530568 2816.17469308994 21 24 15
225.13342063107 114.572586273797 2827.31570386224 22 25 16
219.981542741093 115.220888493597 2832.33577598077 21 24 15
196.342117132513 113.932021436554 2823.40928985169 22 25 16
187.924221924456 114.249795665047 2826.05344222758 21 24 15
192.415483430737 115.909072701494 2838.35257591805 20 23 14
183.999249633579 116.22656391019 2840.99478247658 18 21 12
165.829074588256 115.547002428367 2836.46623549789 16 19 10
158.174216932934 115.95409728987 2839.75672591332 19 22 13
153.770371433596 116.693521624248 2845.43743231898 18 21 12
155.093429475967 118.009877162973 2855.2650095765 16 19 10
171.197448614955 120.802959937997 2875.70300909262 16 19 10
156.19320371206 120.466459120124 2873.64825542001 16 19 10
124.67798797224 118.500138541065 2859.88947526607 15 18 9
85.6127679441743 115.815496663297 2840.98093116872 12 13 7
48.0438629933908 113.313312411603 2823.39371340001 11 12 6
40.1717654195406 113.747631652365 2826.89590251456 10 11 5
30.6266763125511 114.021655713515 2829.248594191 8 11 4
14.399722000177 113.653525215444 2826.99543673018 8 11 4
25.6747001366131 115.941943599741 2843.80120293443 8 11 4
18.6181301952595 116.458957189525 2847.89824818324 16 19 12
-5.2206480783239 115.380269260383 2840.55556713189 12 17 10
1.12158937988038 117.177133101308 2853.83013770547 15 20 13
2.46343836122076 118.49101825245 2863.63975824701 4 9 2
5.52622294598937 119.95906260951 2874.55149826638 14 19 12
19.6333037043668 122.447182305796 2892.76649472932 8 13 7
319.150056441305 91.9874984164443 2710.37055671476 26 27 21
277.417053177475 88.2119113166606 2684.35369896897 22 25 16
230.919615196606 83.9073403509615 2654.64370948054 16 19 10
240.050545871993 86.332588173468 2672.14141385953 13 16 7
259.225269507127 89.9389778495642 2697.91208360313 13 16 7
243.160508041379 89.328087274971 2694.11683676353 14 17 8
253.247311920453 91.8210538302101 2712.07224543945 16 19 10
245.640739012512 92.2146455192541 2715.31644630794 16 19 10
238.797755394213 92.7002055975411 2719.20570815385 16 19 10
236.607304660691 93.7287746807014 2726.89681116462 18 21 12
224.312375689358 93.5838631719973 2726.37441569985 17 20 11
219.787835685226 94.3418780103892 2732.17222586459 16 19 10
232.481562128666 97.0709255206035 2751.7550950298 17 20 11
232.715507732355 98.3585951037736 2761.25150749296 19 22 13
225.900522341651 98.8405509281777 2765.11349939213 17 20 11
233.267540640336 100.923299230159 2780.162350321 16 19 10
230.424853818147 101.845777316076 2787.09990429498 16 19 10
228.386721530022 102.855063156817 2794.6426028926 18 21 12
221.600517675551 103.333391394168 2798.4768882986 18 21 12
222.76773888472 104.691599011972 2808.45302811617 21 24 15
221.573061497169 105.782817022784 2816.56330114973 23 26 17
224.398325953771 107.308525442812 2827.70237944423 23 26 17
213.631363222918 107.347331634956 2828.46935615466 22 25 16
206.05336354227 107.737135094331 2831.68574328475 20 23 14
174.291627870317 105.527858910928 2816.79076048215 18 21 12
169.05696538727 106.187001933371 2821.89143665949 17 20 11
161.394293172656 106.587438248588 2825.19033333605 16 19 10
156.967161466539 107.333009216213 2830.89325481956 17 20 11
