ply
format ascii 1.0
comment KinectMotionCapture
element vertex 793
property float x
property float y
property float z
property uchar red
property uchar green
property uchar blue
end_header
51.4436036150117 -50.545148956701 2810.22774121616 11 14 7
57.0287173502417 -46.3841099796748 2832.40685437666 13 16 9
43.3877102935609 -47.077623945372 2831.88497039317 13 14 8
-3.35486648866912 -53.2893990782585 2808.36860425618 14 15 9
27.5918727925837 -46.5202578536014 2838.98596048178 14 17 8
32.9655924177761 -44.03806879786 2851.70408349569 15 18 9
10.9211367410431 -46.094440648641 2845.55827131477 16 19 8
-21.2118862375523 -49.7859980816622 2832.66830997736 16 19 8
-67.4063355591041 -54.1167291126524 2819.66557789807 18 24 14
238.499632607119 -72.6192779009752 2681.58749402577 10 13 6
245.343967376762 -69.5547286152241 2697.01026766904 21 24 17
226.196347369015 -71.5461635662069 2690.81207583572 20 23 16
217.735148530349 -71.4534025142049 2693.53248620618 15 18 11
208.488708024798 -71.5065758492704 2695.63697503882 17 20 13
199.995809416625 -71.4094647246745 2698.38822081017 16 19 12
200.777407463573 -69.5404852761771 2708.67213611687 16 19 12
162.787972008556 -75.0371481292264 2687.69402818983 16 19 12
179.095884374738 -70.223905481611 2710.46479860576 16 19 12
222.031982521935 -60.4353573751752 2754.23667199459 16 19 12
219.860175040745 -59.1739635190928 2761.87485058044 14 17 10
205.947252062595 -60.1081086824461 2760.24163899484 12 15 8
215.565830970331 -56.6569579574536 2777.10347346938 14 17 10
223.683632717817 -53.5066682639498 2792.66591250124 14 17 10
245.292838368846 -47.8913596656592 2818.55600691087 11 14 7
176.224278408112 -57.3013950747393 2783.67418506169 12 13 7
194.774590885834 -52.2803719707636 2807.02166563481 12 13 7
197.493247417106 -50.1643245272558 2818.17935532527 12 13 7
171.473402267165 -53.246479418715 2807.63064235344 12 13 7
166.188206455666 -52.5714691220515 2812.77915369675 13 14 8
172.149808208867 -49.8838228921927 2826.30004390416 12 15 8
164.4779094211 -49.6428102775389 2829.63166545758 12 15 8
153.566653802874 -49.9733770723862 2830.59652030437 12 15 8
103.792018380296 -57.1652165674411 2803.15100187343 12 15 8
80.5691459247813 -59.618445083749 2795.39987373847 12 15 8
83.2776105776154 -57.5001250641784 2806.56734822912 9 12 5
70.5420786268687 -58.0899598582954 2806.5478996615 9 12 5
53.6883221464968 -59.3854299846258 2803.63731709369 9 12 5
44.150391545851 -59.3980233878966 2806.02526220358 10 13 6
53.4714925402264 -56.1530131450776 2821.79605479914 11 14 7
44.7642090999945 -56.0250866588645 2824.75563338093 13 16 9
22.8481600932691 -58.1517206245806 2818.4926961884 16 17 11
-4.10383896635924 -61.1131783877776 2808.8517868458 17 18 12
-12.9283891605843 -60.9699820711133 2811.92555617356 17 20 11
-12.6326966923855 -59.2816951541104 2821.30144202049 17 20 9
-64.7489921356557 -66.4193805719246 2794.75597549752 17 20 9
-32.8149510402387 -59.4104856206948 2825.77440024828 16 19 8
-38.3370516396981 -58.7033688958404 2831.15341623207 16 19 8
-63.1366284167778 -61.2000705698681 2823.5574947924 17 23 13
-86.3439108015633 -63.4073452182086 2817.17178077217 12 18 8
225.611619440648 -82.6827516300539 2671.78371103098 13 16 9
240.830255338452 -77.9046553020289 2694.22443437544 22 25 18
226.269337594393 -79.0359588225143 2691.84658393087 18 21 14
236.246053183375 -75.3313261861752 2709.73222818863 18 21 14
219.344921217623 -76.910506090965 2705.49371304177 16 19 12
204.702311736712 -78.0308918973138 2703.19537006614 16 19 12
183.047099029371 -80.4969262342025 2695.30667248137 16 19 12
188.471710944692 -77.7045367376252 2709.34532052689 17 20 13
220.544868182881 -68.1053273920678 2754.01319810029 19 22 15
218.369195886332 -66.832271721982 2761.65349089391 18 21 14
214.642135975242 -65.8590335102509 2768.04449093447 17 20 13
218.781448742139 -63.3997243449316 2780.57487052665 16 19 12
218.241980936206 -61.8370130119664 2789.38173357049 15 18 11
218.516260006333 -60.1290730582786 2798.77597852802 16 19 12
206.944753827814 -60.6438704848318 2799.00679183067 16 17 11
172.330102591356 -65.4382234878577 2781.65855662759 15 16 10
181.324317318804 -62.1038707324689 2797.74074733413 12 13 7
191.186680294256 -58.6312212247262 2814.35732311494 12 13 7
173.145735392612 -60.3116951430461 2809.84838311421 13 14 8
158.248679028075 -61.3973502795278 2807.7975764776 13 14 8
156.961462130969 -59.9870819712354 2815.9525871175 12 15 8
148.447486657325 -59.8952910109276 2818.7252110038 12 15 8
111.669263282012 -64.9103807325592 2800.72457891524 12 15 8
103.867327565684 -64.6601543514825 2804.18396727036 12 15 8
66.8577865441526 -69.645465339941 2786.40829789825 12 15 8
65.468141676793 -68.2215489524506 2794.66266600463 12 15 8
24.9835371186546 -73.7589558662693 2774.75141051904 9 12 5
28.4427797570079 -71.4597077174262 2786.56385743275 9 12 5
35.2205774878325 -68.5880452830548 2800.66396477185 10 13 6
24.8223958653231 -68.7526977604491 2802.51171681033 11 14 7
10.2887446393338 -69.6343006735419 2801.48713182923 12 15 8
34.4697091475403 -63.7549179811491 2827.61855811775 16 17 9
25.729566997617 -63.6329328018042 2830.61164400656 17 20 11
-28.5915106975212 -71.3870605751699 2802.09560296816 17 20 11
-25.011116612228 -69.1026744137423 2813.78960345737 18 21 10
-18.0574952760573 -66.252792336878 2827.71867232653 17 20 9
-46.9195448579827 -69.5376542782844 2817.18811390719 16 19 8
-35.7499061120752 -65.9808729011059 2833.911020187 17 20 9
-86.5261173404388 -72.9418393022092 2808.84286771248 19 25 15
-69.4622015743356 -68.3944238505997 2829.48529540227 13 19 9
221.110720026089 -91.1395234225212 2669.00094627254 11 14 7
214.1518313377 -90.7565485255721 2673.02046561144 21 24 17
227.875100422444 -86.2174276600735 2694.14761214041 20 23 16
227.100394673449 -84.6098026627564 2703.1814317192 20 23 16
225.579442917412 -83.1584974337019 2711.56214144829 17 20 13
209.408746471455 -84.619302749124 2707.99770663756 17 20 13
215.631704417009 -81.6391135890531 2722.63273788281 17 20 13
218.033883146936 -79.4294779735501 2734.09086241745 17 20 13
190.913806183876 -83.015952433501 2721.875415477 18 21 14
205.799751127527 -78.3722445089182 2743.24945908663 19 22 15
230.951600400413 -71.7666416284451 2772.56051322002 18 21 14
229.607128869996 -70.3366557769682 2780.76912647091 19 22 15
218.854199807049 -70.725954153225 2781.58544120989 15 18 11
210.437927172971 -70.6582280226581 2784.26493934551 14 17 10
213.061549634616 -68.4757570555964 2795.5071819042 18 21 14
192.769357291739 -70.667379470394 2789.05824562156 18 19 13
204.14483083482 -66.8329462814765 2806.95296524818 17 18 12
229.920643459113 -60.3060350845281 2835.65570730421 15 16 10
172.122178706712 -69.5396439600517 2800.89238877165 14 15 9
143.64367045987 -73.2027121051631 2788.61995753081 14 15 9
146.303698200898 -71.0239443653298 2799.82693428625 14 15 9
142.577379879289 -70.0435464770792 2806.21613972043 12 15 8
147.716671324008 -67.4259697229527 2819.14704314034 12 15 8
107.709093986459 -73.140566618141 2798.78828117481 13 16 9
91.8070585886874 -74.3810284655065 2796.34140462106 12 15 8
57.2025664964784 -79.0230930683571 2780.37782023824 12 15 8
33.8402906093345 -81.5762724382547 2772.77989446415 11 14 7
11.2086750957956 -83.9708281523971 2765.85021479059 10 13 6
23.6196096720946 -80.0153871568847 2784.11573072105 9 12 5
21.3791625508715 -78.7202047212498 2791.81707554683 9 12 5
17.5139250420751 -77.72086216378 2798.34176761564 9 12 5
14.4798878509582 -76.5758983451594 2805.43611419853 10 13 6
-1.7344320458057 -77.7753831646119 2803.29362222386 12 13 5
48.1227029211428 -67.273325203381 2847.1722317246 14 17 8
-32.4059552471758 -78.1301401320958 2809.71384564293 17 20 9
-2.99728605754224 -71.3099926443737 2839.01717086752 16 19 8
-0.121451714989451 -69.1570024659431 2850.01332054777 15 18 7
-41.5246313863786 -74.6912241075499 2831.01375294682 11 14 3
-75.5500581556197 -78.9018576049693 2817.24553928659 14 20 10
-28.2189753871722 -69.0839612076172 2858.06569962985 18 23 17
-41.2676969277568 -69.6799700914599 2858.35816548249 16 21 15
223.471444628983 -98.2143485279473 2671.95343369996 7 9 4
218.811505154669 -97.3667060581092 2677.87245061538 18 21 14
209.558616383386 -97.4590473511744 2679.9891316783 17 20 13
214.882702644874 -94.5781198990804 2694.11485515495 21 24 15
209.480021313249 -93.88946332016 2699.37801444194 19 22 13
218.747446075097 -90.2395768987997 2716.55883928324 19 22 11
208.739151089602 -90.4890552175572 2718.03230319188 17 23 11
199.483925753376 -90.5801437060544 2720.15111933436 16 22 12
176.207512521717 -93.4606014863562 2711.0993929625 15 21 11
217.57137341872 -83.4762777632438 2753.56942915464 18 21 12
238.060568645122 -77.696184375175 2779.13044603503 17 20 13
224.193582829823 -78.724293785612 2777.46550604232 18 21 14
209.498741631116 -79.9010146918596 2775.22735623776 13 16 9
188.456840681105 -82.3026225531585 2768.13701812431 12 15 8
157.073246203735 -86.6912298654474 2753.18863971462 14 17 10
237.960849248338 -69.28517934299 2824.74771190431 20 21 15
247.066140324856 -65.8670886964405 2840.70722573048 18 19 13
226.015900223662 -68.2670113603446 2833.62491944599 16 17 11
195.320188492877 -72.4884048627443 2819.38565848981 15 16 10
162.90245451437 -76.9985698791171 2804.06525275001 14 15 9
150.384786772173 -77.6887259035583 2803.8442892367 14 15 9
162.732404916302 -73.6661866171673 2822.1627622222 12 15 8
163.894234077654 -71.7773731227285 2832.06583310613 12 15 8
140.875449622575 -74.4338705686425 2824.14208562878 13 16 9
70.0397838179598 -85.9960773183344 2781.41407508142 12 15 8
48.5509078322495 -86.5553449183274 2784.4143336079 11 14 7
38.177506615475 -86.7549350414953 2786.24264210595 10 13 6
31.865830840212 -86.2008264125785 2791.01142312342 10 13 6
28.8260803993534 -85.0466933593578 2798.11042568087 9 12 5
13.4887708053295 -86.1386763954915 2796.49773227009 9 12 5
-12.5879449117372 -89.1667395535851 2787.41440719526 9 12 5
15.6596801531861 -82.3390787009379 2816.4526466093 10 11 5
11.8342677302339 -81.3386239703794 2822.93762740045 12 13 5
29.5564824028829 -76.4744942567164 2844.29645363269 15 18 9
-36.4783031784319 -86.6121613057454 2807.92650193364 16 19 10
-32.8819224290657 -84.2692885013729 2819.59598312883 15 18 7
9.13305387692365 -75.1286553572812 2857.29308339856 14 17 6
-10.5069638514901 -76.9424078120128 2852.9748355452 11 14 5
-20.9925207838944 -77.1263092891526 2854.9125353938 9 14 7
-18.8999798234351 -75.1000541395125 2865.28799120387 12 17 11
208.298977785632 -108.947700705234 2660.26608892368 9 11 6
218.121238982369 -105.060621544388 2678.27814315955 18 21 14
198.139740901475 -107.396184770086 2671.54195727085 18 21 12
184.230327975054 -108.449756780863 2669.92291138788 19 22 13
198.772471757448 -103.62193563041 2691.61080493659 20 23 12
177.90227205685 -106.100590374896 2684.36135243995 20 23 12
182.496986331008 -103.344939964471 2697.81262181445 16 22 10
167.744406310771 -104.547196422472 2695.63591949859 15 21 9
185.617360384449 -99.1152736067125 2719.59529618218 15 21 9
206.727168866881 -93.067892690871 2745.91743926283 15 21 9
220.934141428652 -88.4531785322547 2766.55308843296 18 21 10
224.266773054998 -86.0497828778773 2778.47553115543 18 21 12
211.143785913596 -86.9449521539224 2777.46905030513 16 19 10
186.9560179557 -90.0271059283902 2767.93521391086 15 18 9
195.837435799392 -86.5317174021022 2784.10527473182 12 15 6
218.245587884495 -80.3919858694683 2810.54174120085 14 17 8
216.193348353778 -79.1001710037697 2818.05669083241 17 20 13
206.203530539993 -79.3660444330239 2819.51389198457 19 22 15
194.596588938995 -79.9395155324818 2819.78856512881 18 21 14
177.364262052326 -81.5945580837315 2815.88980605841 15 18 11
177.701652948619 -79.8358414273629 2825.21387526511 13 16 9
166.822771580812 -80.2447017790069 2826.15815375615 12 15 8
195.830606172443 -71.3446221917871 2865.47114151404 12 15 8
171.242176453125 -74.373789494262 2856.32733679431 11 14 7
74.3875085040857 -91.0601484413062 2794.84911303592 11 14 7
70.5766971983488 -90.0564925789107 2801.31912157594 8 11 4
34.996495589275 -95.0242746299493 2784.95566274587 8 11 4
44.1954822575084 -91.5674907059136 2800.81607877288 9 12 5
32.9978338986292 -91.9344258329528 2802.07070106842 10 13 6
-2.02467694520969 -96.7157655447232 2786.54280028569 10 13 6
-14.1534364388454 -97.2205932193849 2787.32550084299 10 13 6
-27.1369187791963 -97.8733431430121 2787.56156950629 8 10 5
-7.92243143970506 -92.6093920193777 2810.21360996816 8 10 5
-33.3239013764208 -95.533084758035 2801.86157710878 10 12 7
-22.2827970345487 -91.7965937632764 2818.68555894889 12 15 8
-30.3054172543584 -91.5395837228504 2822.3630876564 14 17 8
10.4754019638738 -80.7973244987855 2868.13422679589 11 14 5
-14.6211014003064 -81.9553382495724 2869.13743194646 17 19 14
-21.7446748817247 -81.555685808962 2873.31802078566 10 12 7
206.731759994407 -115.03099520261 2669.80635205871 20 22 17
202.811726549722 -114.011727378304 2676.38251235616 21 24 15
208.117644286682 -111.052235022252 2690.51432774576 19 22 13
207.318206203616 -109.391663462868 2699.56488141914 22 25 14
196.506484966613 -109.83041084235 2700.44688619715 20 23 12
164.77073120628 -114.613055661691 2684.48919857307 15 21 9
193.425481203935 -106.83872095669 2717.23430472369 14 20 8
212.139785115417 -101.172954747372 2741.74055594718 15 21 11
219.278411824303 -97.9265543839473 2756.84421583448 16 22 12
217.098887449416 -96.6083147277077 2764.48165562541 18 21 10
214.152035300113 -95.4517404618752 2771.48804799591 18 21 12
214.360177582721 -93.6584938544867 2780.93535947496 16 19 10
212.233604149965 -92.3464724974533 2788.5211372595 15 18 9
210.123565419839 -91.0363275072224 2796.09111100809 12 15 6
213.570055130406 -88.6167101369613 2807.89809340728 11 14 5
190.876918811884 -91.4339969069929 2799.67473710825 13 16 7
194.346701837077 -89.016931027487 2811.45930385288 19 22 15
232.144467344305 -79.8099844629651 2849.08328989788 19 22 15
200.617373573212 -84.3569951068263 2834.3008203514 16 19 12
180.981050125983 -86.5244786327105 2828.61427600234 14 17 10
184.56673467196 -84.1217160994566 2840.28552700983 12 15 8
180.950394919837 -83.1377115382354 2846.56532687603 12 15 8
188.640822330032 -79.9596967487298 2861.13081002578 12 15 8
186.687001574381 -78.6680071710267 2868.54838471831 12 15 8
62.5257508224197 -99.1846216506097 2796.49285712929 11 14 7
31.8160591954628 -103.314709046587 2783.67123057373 9 12 5
36.1064530244892 -100.741075010733 2796.0343494299 9 12 5
55.1805926860025 -95.3781128205397 2818.81112341832 10 13 6
14.4672309543932 -101.348303973737 2799.19099250921 11 14 7
-15.7186826007374 -105.284769581886 2787.2375386875 10 13 6
19.9393141597639 -96.8425986254635 2821.43140511761 9 11 6
-2.05788399756379 -99.2261459775025 2815.28702191753 9 11 6
-22.4747914692842 -101.291627385715 2810.3605331755 10 12 7
-31.3363314477897 -101.194997087003 2813.47791634297 11 14 7
-6.09039359590513 -94.8008477087883 2839.89263538438 12 15 6
-21.5750268117674 -95.9369273818555 2838.4327539716 12 15 6
-17.874268147176 -93.5467830629611 2849.99193748677 9 12 3
-40.1097218136335 -95.8991298880272 2844.07953410506 17 20 13
-44.7818885324711 -95.0379163391321 2850.00868705548 16 19 12
-41.8718607501085 -92.8064887813421 2860.95928913411 10 12 7
193.96527091809 -127.267874225198 2650.28408129113 17 19 14
209.863367817023 -121.947507352707 2673.38685178526 20 23 16
212.846689864857 -119.441075660467 2685.64127324353 24 27 20
223.554422106206 -115.2953463396 2704.15272257945 22 25 16
212.783200847065 -115.75808415149 2704.99805605618 22 25 14
215.109425056346 -113.429721963976 2716.51405681715 21 24 13
205.092086983782 -113.72576774284 2718.0030454532 15 21 9
210.570036857536 -110.749234994317 2731.9615118253 14 20 8
221.548233466214 -106.636951643066 2750.20966718796 16 22 12
236.50776924744 -101.720148787268 2771.47027069644 17 23 13
232.025837739221 -100.884391630047 2777.2142797141 16 19 8
211.091407565784 -103.46112247493 2770.04310463129 16 19 10
227.789775387548 -98.2407431934398 2792.36597239116 16 19 10
212.307590782736 -99.6754674392796 2789.53088969112 16 19 10
214.934694459596 -97.3837368709528 2800.75386467228 15 18 9
207.312292485598 -97.1962718571905 2804.04424946995 12 15 6
198.885514597141 -97.1684570286011 2806.73974050948 12 15 6
184.380130032638 -96.6244201832893 2813.97850897228 15 18 11
227.865249562121 -86.1595268856499 2855.68798532887 20 23 16
205.892047843829 -88.8644699153569 2848.15036613318 22 25 18
179.019351902823 -92.5188851538929 2837.11621711599 14 17 10
175.389271304241 -91.5273563577377 2843.40821192522 12 15 8
170.961016720675 -90.6962119632965 2849.09993856952 13 16 9
95.3502965067696 -103.878900810542 2802.85066475289 13 16 9
128.872362252054 -95.5541308506858 2836.34907543656 12 15 8
47.9731244304125 -109.636141957958 2786.98250347204 11 14 7
65.3005656995584 -104.493932230166 2808.69224542514 9 12 5
50.8861752040755 -105.537240066978 2807.57313269276 10 13 6
59.3520405216479 -102.151140172989 2822.75508680955 11 14 7
26.0350108460079 -106.81861633327 2808.3509455094 11 14 7
15.6177530303392 -107.059218781594 2810.22886586221 11 14 7
16.7206098638206 -105.095348386429 2820.17940376234 10 12 7
3.80661036150842 -105.804489795418 2820.35480957723 10 12 7
-24.0513089752521 -109.330633121336 2810.28004342364 10 12 7
-14.6503542723129 -105.800757121663 2825.92943707168 11 14 7
-24.3197682220777 -105.873699793736 2828.4568666865 11 14 5
-8.14872013290513 -101.108094125004 2848.53676744196 11 14 5
-75.4849177641508 -111.930831716738 2812.14348095621 13 16 7
-77.7407753146679 -110.587371796221 2819.85299317491 20 23 16
-70.7406406090199 -107.538173141205 2833.70607683538 14 17 10
-51.8947051687157 -102.326353923576 2855.31489053657 10 12 7
263.404119353669 -119.627985237242 2709.1489756901 13 15 12
226.750344688762 -125.823587074345 2688.3650868901 16 19 12
213.687515051575 -126.80851321936 2687.31213477486 21 24 17
214.411722356732 -124.779187902299 2697.62900304521 18 21 12
195.917231739977 -126.926863317234 2692.22258350366 21 24 13
213.639956197328 -121.232091862755 2716.29229150305 20 23 12
222.28274357292 -115.703237935249 2742.31814935821 15 21 9
220.066751336744 -114.358420295573 2749.98787406015 16 22 12
242.819384972532 -107.713619745409 2777.42452559448 17 23 13
234.444751312012 -107.703964195395 2780.07125842027 16 19 8
222.136904365111 -108.518194357237 2779.66027785883 16 19 10
213.722895780987 -108.503132706263 2782.34531154647 16 19 10
196.631051336478 -110.297567474963 2778.32765344315 15 18 9
200.008514768238 -107.809039369343 2790.19333282299 15 18 9
213.717970094609 -103.19148765664 2809.90535741355 13 16 7
208.480650201794 -102.520360518077 2815.00690119095 10 13 6
179.384624686815 -106.75986726488 2802.01596178181 10 13 6
229.101724260163 -94.80367759771 2848.65286494485 16 19 12
211.954532834671 -96.5899408812941 2844.6889594699 20 23 16
243.619984233988 -88.4291669101307 2877.22109770299 19 22 15
182.306612121025 -99.1637137588549 2840.50199700343 17 20 13
163.388845585527 -101.253768020941 2835.50738032514 14 17 10
141.177864855428 -103.984123402626 2828.20929729572 13 16 9
161.758988647142 -98.1208245334029 2852.24982070032 14 17 10
91.6492295616851 -110.383428125981 2810.32140171518 13 16 9
83.8152267367516 -110.174712594795 2813.81876846867 9 12 5
93.8948575641807 -106.418083006015 2830.1776219287 9 12 5
77.9153157985264 -107.821301988259 2827.83176577747 11 14 7
41.4207282289865 -113.235503529787 2811.02503916928 11 14 7
9.93993729239095 -115.836745921205 2807.24529459343 11 14 7
9.38008454758021 -114.168978626664 2816.0565351157 12 14 9
3.8863996526306 -113.46234828948 2821.40740577273 12 14 9
-22.3139842816904 -116.742036636681 2812.48441300084 12 15 8
-26.1937366866203 -115.710836075333 2819.01847213503 11 14 7
-28.9219079140852 -112.699156963169 2835.45290618133 11 14 5
-61.7369044363296 -115.393020215753 2831.59448963834 17 19 14
-58.8999142891304 -113.097263992977 2842.60811141979 12 14 9
223.768260217603 -134.009693523836 2686.8682686986 16 18 13
207.633672271302 -135.700945721421 2683.30203756248 21 24 17
194.517228135311 -136.705562129936 2682.30489780747 23 26 17
199.07266185606 -133.803537793505 2695.77353934985 17 20 9
219.890473570601 -127.350700722393 2722.32605113684 18 21 10
229.232873363301 -123.451715570976 2739.39594582264 16 22 10
228.563849415806 -121.757625151638 2748.31170441666 16 22 12
220.141227535415 -121.75272596146 2751.00679324208 17 23 13
215.602332292383 -120.903817026668 2756.80542426351 17 23 13
227.483493140567 -116.524326999736 2775.53433907583 19 22 11
226.912972391699 -114.841945143522 2784.35435089998 18 21 12
215.368636954181 -115.509403231319 2784.58074643422 15 18 9
203.793796563202 -116.172855225053 2784.83650389724 13 16 7
202.451809116906 -114.659312414091 2793.03063857575 12 15 6
213.000994343884 -110.644789645022 2810.30201039403 13 16 7
206.1750659602 -110.306350824406 2814.19608059748 9 12 5
185.822331362802 -112.795534087494 2807.85124303199 9 12 5
179.74685378902 -112.284528949693 2812.3918464209 10 13 6
209.631189927341 -104.307662082182 2843.88568335006 18 21 14
217.256050985901 -100.990763957295 2858.49608580191 21 24 17
196.836726985906 -103.470727004553 2852.2160097537 20 23 16
173.929586326401 -106.43653939253 2844.22745279229 16 19 12
156.586258230218 -108.237099153214 2840.46042694384 15 18 11
148.083505490391 -108.218972847174 2843.23313193529 15 18 11
138.755313487664 -108.363205815466 2845.43259762915 13 16 9
53.8208655418568 -123.770909487843 2793.18376347888 11 14 7
67.9016972253317 -119.133791509471 2812.52411397137 10 13 6
48.5940000474585 -121.218281523318 2807.91588179173 10 13 6
27.5840035083648 -123.621127314431 2802.21095440981 11 14 7
40.1431042720937 -119.325200641222 2820.27901549138 12 15 8
17.4222176179715 -122.045068591068 2813.48572654447 11 14 7
12.7579613008963 -121.176064214564 2819.40621071008 12 15 8
3.14031993199482 -121.282010646178 2821.88710732801 12 15 8
-25.5460527078242 -125.114975458818 2811.26344631516 12 15 8
-30.2637548102207 -124.23876334554 2817.23559979333 12 15 6
-55.5322169014305 -125.55455584766 2818.4328821324 12 15 6
-46.0595795806498 -121.935520446955 2833.99757831874 13 16 9
-48.247826903137 -120.578175715902 2841.63790041261 15 17 12
-66.3776364280868 -122.275310051597 2838.6369138586 14 16 11
-77.829840122106 -122.681757331478 2840.15015324389 5 7 4
207.796231207502 -145.159227442607 2674.61916529353 20 22 17
167.106712313676 -152.4136205726 2650.91409679022 22 25 18
202.273453768871 -142.558752693634 2689.63839464953 22 25 16
222.247647401949 -136.176941944236 2715.621882162 19 22 13
225.36873062867 -133.597420762005 2727.72836429646 15 21 11
223.116313586866 -132.226089535569 2735.4303406723 14 20 10
231.104553601517 -126.747531607696 2760.69636029993 15 21 11
207.100502116561 -130.176407713611 2751.03133614136 16 22 12
218.178174627154 -125.905168790791 2769.15721689884 18 21 10
219.151375331239 -123.862092411336 2779.22479864224 16 19 10
217.014340018189 -122.504230704067 2786.81419004483 15 18 9
209.381289910496 -122.338966627833 2790.11842988554 14 17 8
220.683832418647 -118.095722328284 2808.02514900435 11 14 5
213.075651884373 -117.933269128395 2811.30510843731 12 15 6
214.183136154049 -115.906369473523 2821.24173552783 11 14 7
200.212665598243 -117.096246074216 2819.7034665323 9 12 5
183.011296715598 -118.955994970148 2815.8042212146 8 11 4
187.32964673188 -116.25593100025 2828.12123071651 16 19 12
206.916089364277 -110.363178602114 2851.72788683797 20 23 16
208.154220474295 -108.352113438179 2861.53745785756 22 25 18
185.274833233044 -111.380542538354 2853.53025822227 19 22 15
154.241600350233 -116.07399234304 2839.69593047486 15 18 11
124.702892324571 -120.41665713942 2827.15982805756 16 19 12
68.292124286105 -130.258721305689 2795.35950139554 13 16 9
71.7805678166474 -127.722179988174 2807.10754172295 10 13 6
53.3164273874931 -129.689345419554 2803.06155185944 9 12 5
34.7909137431612 -131.648524868765 2799.07498833919 9 12 5
27.664131565496 -131.274222555974 2803.26251019901 9 12 5
9.04354471778701 -133.22088579781 2799.36850588517 10 13 6
21.6147466725478 -128.866513375479 2817.41591204897 12 15 8
17.7846332243536 -127.830232132171 2823.90026588474 12 15 8
-11.6527366130272 -131.913208903557 2812.64206068946 14 17 10
-21.3234927374502 -132.025240869419 2815.1766004841 14 17 8
-37.6540576511695 -133.451550206161 2813.18272825229 13 16 7
-56.5305050716427 -135.364469194474 2809.53780988358 14 17 8
-61.2885913879322 -134.479567206645 2815.54911896546 16 19 10
-66.8779561697073 -133.759091092434 2820.99295476472 13 16 9
-50.6798482589845 -128.784800617528 2841.01514119416 19 21 16
-52.8574425388193 -127.417432630467 2848.64340322633 10 12 9
167.37436009576 -162.046900199342 2642.15307219982 11 13 10
178.674566316375 -157.475423136292 2661.43050794531 22 24 19
208.49307887489 -148.707714942403 2695.70697913704 23 26 19
236.181565088431 -140.487901743138 2727.92851082267 22 25 16
242.425303666366 -137.183584340144 2742.49533842201 19 25 15
225.512787411851 -139.123001333754 2738.3210330846 18 24 14
240.511964606518 -132.013999582826 2769.13730695222 17 22 15
224.328843183225 -133.772446357992 2765.62920160543 17 23 13
209.655167448382 -135.176757353669 2763.40367189819 18 21 10
197.286240822833 -136.055037771121 2763.06281096038 15 18 9
213.94726239374 -130.525831716639 2785.37745747924 14 17 8
214.18122404669 -128.639322824393 2794.78534581689 15 18 9
208.128054149726 -128.136599282366 2799.30502136919 15 18 9
217.898753838027 -124.187218573117 2815.94215948579 16 19 10
215.844625836279 -122.828044368897 2823.44902871618 12 15 8
220.964109630844 -119.924551623466 2836.35734316685 10 13 6
187.073093320158 -125.433578669568 2819.81340345636 9 12 5
177.016662798868 -125.785448857598 2821.34946229518 14 17 10
175.749437607375 -124.252659129198 2829.46617442149 17 20 13
191.365763818201 -119.135383642816 2850.04494555698 22 25 18
157.177007941737 -124.605431149516 2833.7909044778 21 24 17
133.339007020572 -127.843441433849 2825.34968908736 18 21 14
116.692051005961 -129.53944883517 2822.2929498343 16 19 12
89.4516426959493 -133.435865648374 2811.65971236236 13 16 9
62.1072547811416 -137.318746656233 2801.12772758898 10 13 6
61.5426544872206 -135.601022245631 2809.93663669974 9 12 5
47.1200230467148 -136.76021332538 2808.8424969983 9 12 5
15.4666702175761 -141.458778920637 2795.62505147825 10 13 6
4.20164247653121 -141.927478473549 2796.96128539204 11 14 7
14.2934353358575 -138.016645431401 2813.28527057154 12 15 8
-9.33867947745748 -141.005626699867 2806.01971017038 13 16 9
-10.7451100454061 -139.452780042461 2814.27202872999 14 17 10
-14.615926840214 -138.405131542162 2820.79512151504 14 17 8
-16.817769679804 -137.02388585919 2828.44541160811 13 16 7
-38.1415457807135 -139.486950005189 2823.06097221614 15 18 9
-49.5293777651131 -139.938839629054 2824.51700590078 16 19 10
-59.2715357333091 -140.054135773887 2827.12293122603 14 17 10
-53.9495679084876 -137.173412565171 2839.83354136898 19 21 16
-43.5371335462276 -133.302824572772 2855.84507299689 13 15 14
253.028092702968 -149.768663879298 2713.98826177235 22 24 19
217.052523120653 -156.216633428959 2693.98511445505 23 25 20
209.336725710689 -156.058584161797 2697.37258993577 24 27 20
230.097038759185 -149.3221115805 2723.94027754359 24 27 18
271.830557841344 -137.809997338186 2767.23434023951 21 27 17
260.409438946989 -138.558370515439 2767.3503391398 20 26 16
217.927356433376 -146.382755886974 2742.67540093684 20 26 16
239.030974540443 -139.689313449988 2768.90820354107 18 23 16
222.844496750267 -141.484856017626 2765.40891385813 17 23 13
216.765080062166 -140.981978482748 2769.95463010195 17 20 9
208.331896869971 -141.006470630002 2772.66455049296 14 17 8
208.524165776085 -139.095570320354 2782.11023530371 14 17 8
210.319409575785 -136.837016174961 2792.74691574114 15 18 9
214.518398956644 -134.057129348813 2805.17031649321 15 18 9
210.851815588253 -133.033149065916 2811.4941006189 16 19 10
211.953286001446 -130.96151526653 2821.43008787078 15 18 11
197.977866413295 -132.209427203201 2819.90531093484 14 17 10
195.917658934615 -130.837899209911 2827.41639129107 13 16 9
173.097391624885 -133.992485564537 2819.36913067695 12 15 8
171.019638657199 -132.61824274425 2826.89757055488 12 15 8
165.746219668581 -131.940014339325 2832.03391170398 19 22 15
174.962127406998 -128.143079031745 2847.82725063222 23 26 19
112.438260273178 -139.752759792502 2811.02262447507 22 25 18
93.3148151779557 -141.997979974456 2806.25484526027 16 19 12
66.8295973713118 -145.78722168654 2796.2727613393 13 16 9
71.1265880793395 -143.017564902809 2808.60069516256 9 12 5
59.1785676527761 -143.694014926737 2809.22928486272 10 13 6
45.5671720031305 -144.709988387924 2808.72565568692 10 13 6
14.7291924077932 -149.322618859124 2796.1024027942 11 14 7
14.1285502568413 -147.583117160223 2804.94388332809 12 15 8
3.68348045372047 -147.898730458073 2806.86050796638 13 16 9
-0.18921600620514 -146.84521347319 2813.38459992722 14 17 8
1.73059456134972 -144.599104920507 2823.8994231759 14 17 8
2.02982490242887 -142.698076958661 2833.24035282925 14 17 8
-10.0950574465637 -143.350655015236 2834.04070292453 14 17 8
-14.7610213656906 -142.471366441239 2839.96136276432 16 19 10
-27.7624618750969 -143.287717018996 2840.2394442602 17 20 11
-36.61795655418 -143.253235374699 2843.36000989996 19 22 15
-52.1911969195337 -144.568879377914 2842.01465622606 16 18 13
-73.6886682450599 -147.059875139323 2836.80682704038 16 18 15
233.214214288533 -159.934126463226 2708.24322062465 27 29 24
236.290728562595 -157.259324555677 2720.37987793836 28 31 24
245.56995671603 -153.146161629172 2737.48084761418 27 30 21
237.943428416819 -153.006825708398 2740.78244337271 22 28 18
233.400942431272 -152.146038893327 2746.58288450902 20 26 16
231.190290106549 -150.746463737445 2754.23921346296 18 23 16
230.551334013683 -148.989836957061 2763.116209228 18 23 16
221.360663776449 -149.207279692114 2765.18993414734 18 24 14
216.840554725722 -148.348399828421 2770.96843650315 16 19 8
210.758202481681 -147.847275097827 2775.51732686112 14 17 8
206.243489070731 -146.988633174062 2781.2905064343 14 17 8
207.245272653136 -144.882893901825 2791.3204434088 15 18 9
214.593843126873 -141.357354342593 2806.17436938283 15 18 9
206.179561956054 -141.393885535318 2808.86729915285 15 18 9
188.231658416952 -143.557839407597 2804.33742582976 15 18 11
184.535744636817 -142.523881380238 2810.68886078162 15 18 11
184.833887472075 -140.606057627524 2820.02838793376 15 18 11
212.328290662234 -132.683479018613 2849.65242159591 13 16 9
186.315287323064 -136.604163351394 2839.22084889007 12 15 8
174.655424476007 -137.339952801389 2839.57206419528 17 20 13
125.940264307525 -146.16584940973 2812.73289342054 21 24 17
124.619271312863 -144.597814194422 2820.89778850266 21 24 17
68.322019404242 -154.963487884661 2789.06212790459 16 19 12
49.0740237462211 -157.237894804008 2784.42268086888 13 16 9
31.3861841714047 -159.15387069508 2781.0148184652 10 13 6
44.5958615077418 -154.423262085184 2799.78951091019 10 13 6
44.8310817694599 -152.495486259969 2809.19005019606 10 13 6
22.1771308065457 -155.449051730115 2802.36517135172 12 15 8
7.64681836056136 -156.652455653797 2801.38483296155 13 16 9
16.9229811134812 -152.812801297013 2817.11202391285 14 17 10
18.8513260609668 -150.543222864503 2827.61490355811 14 17 8
10.9007587532335 -150.356653302471 2831.23129373073 14 17 6
-18.3143010700801 -152.742328007818 2829.42051180904 15 18 7
-19.6714561561833 -151.167550435415 2837.62065770709 17 20 11
-0.158832062720382 -145.290079889232 2859.88596606228 17 20 11
-9.78633565599507 -145.446189105244 2862.38407005243 20 23 16
-49.5947928294314 -151.781254868922 2844.75344032561 15 17 12
220.267826301415 -170.516200528508 2698.57371575091 30 32 27
244.045012127933 -162.855094200626 2727.67691874152 27 30 23
247.954405632886 -159.97486375387 2740.37339957806 28 31 22
214.864175535835 -165.880143766978 2723.0928333351 21 27 17
217.227341551644 -163.364937417163 2734.5445348505 19 25 15
235.919815625882 -157.023953455021 2758.97266653609 17 22 15
247.734964033237 -152.337670795798 2777.72178886092 17 22 15
218.317755279982 -157.303605920185 2763.7399077926 18 24 14
222.387066694214 -154.442400516974 2776.28039967434 17 20 9
205.349553873732 -156.485206221235 2772.24549858101 17 20 11
213.388472552376 -152.723149258353 2787.79618857309 17 20 11
211.258213776405 -151.321369759751 2795.3723597438 17 20 11
206.776313499006 -150.463429518708 2801.11305909869 14 17 8
201.507894314815 -149.786273684772 2806.24459389361 15 18 9
175.616882623906 -153.793261759234 2795.704637333 14 17 8
165.528617908448 -154.18889823292 2797.27877663514 14 17 10
206.432000331595 -143.082943087009 2837.20647948904 17 20 13
219.59522223672 -138.285356843216 2856.01740359893 16 19 12
213.625206641561 -137.799086815879 2860.45693752258 13 16 9
167.505839507492 -146.257946607673 2835.23658596375 16 19 12
146.945019912979 -148.973976911588 2829.13190777003 17 20 13
148.09509684935 -146.863225200361 2839.01418425757 17 20 13
80.533488939361 -159.900289841971 2798.92060644458 18 21 14
57.2618917291483 -163.113526602496 2791.33052943989 16 19 12
20.9035399424033 -169.158326046607 2774.48172078005 12 15 8
27.5709785079963 -165.781199986291 2788.61704694045 10 13 6
36.746907615604 -161.880083397543 2804.43468729222 11 14 7
45.9937737401734 -157.987878358215 2820.18354110261 14 17 10
45.4666820525067 -156.224596836637 2828.94847029178 15 18 11
44.9636362664969 -154.464333645127 2837.68962981102 15 18 11
23.8784201363833 -157.110980959245 2832.09576819555 15 18 9
9.32989922961314 -158.340853166537 2831.13708523488 14 17 6
-16.0260242013965 -161.848771953717 2822.82617237686 15 18 7
-19.8918586459937 -160.783987198851 2829.34178488355 17 20 9
-14.5969251699904 -157.793490860144 2842.06301611385 19 22 13
-25.9298693352088 -158.307688140317 2843.47341658505 18 21 12
-31.4376169322559 -157.595776330911 2848.83747111386 18 21 14
-1.75568068486864 -149.558686288904 2877.68957453241 14 16 13
193.535901843817 -184.543849342495 2677.59698773623 32 34 29
211.868723938435 -178.073789800085 2702.36318183982 25 28 21
215.712024194972 -173.160898038845 2724.74390870253 23 26 17
198.733713505274 -175.252740135043 2720.65746657547 17 23 13
243.751911092618 -162.527708105397 2766.17883919487 16 21 14
247.809873617664 -159.632830788499 2778.7256239972 19 22 15
235.544210240455 -160.620705374759 2778.29841909756 20 23 16
215.429150874658 -163.447609682696 2771.76748153655 18 21 10
221.095250136003 -160.188996857832 2785.49775931531 18 21 12
212.678958291075 -160.246917836753 2788.19550927351 19 22 13
211.334300161741 -158.650098689314 2796.37998777359 18 21 12
206.852563343761 -157.789127418157 2802.12007682593 14 17 8
188.133301699282 -160.224613494551 2796.97939652771 16 19 10
179.660130074122 -160.274212276977 2799.7327367735 14 17 8
185.484345005301 -157.034634874343 2813.30847893984 14 17 10
196.943231410164 -152.525397947176 2831.02029482183 17 20 13
227.660865846745 -143.655755760274 2862.97194957981 16 19 12
205.691416527694 -146.811649447219 2855.4972545064 15 18 11
169.189029183569 -153.226038290285 2837.42919111831 16 19 12
158.290830678489 -153.817124289963 2838.41958468343 16 19 12
185.284746328371 -145.89226072756 2867.12336283879 18 21 14
108.110237786196 -161.31884896717 2819.92478266397 19 22 15
63.0174416609863 -169.47624172464 2796.47463069926 17 20 13
30.7370389954587 -174.723200335936 2782.54366002481 13 16 9
56.9763443367499 -166.985414066271 2810.60751799624 10 13 6
49.0756703236879 -166.821365516293 2814.17769198544 11 14 7
45.2562880268061 -165.757735733126 2820.64700968508 14 17 10
57.0326770295266 -161.287108097195 2838.04958507223 15 18 11
48.3339199947128 -161.304774351361 2841.02221535084 15 18 11
27.2569304283516 -164.003335813898 2835.42751968242 16 19 10
11.064325326597 -165.620715113221 2833.32489137494 13 16 5
4.75973228258564 -165.091175358951 2838.09027040451 15 18 7
-17.3188537799658 -167.945235314631 2832.09624815479 17 20 9
-26.1623677084661 -167.943578185469 2835.20943033912 19 22 13
-48.3629416792777 -170.781581485501 2829.33417071892 18 21 12
-38.0415127611777 -166.692613940935 2845.40379569575 11 14 7
-36.0235314262289 -164.384241581233 2855.8119313577 14 16 13
192.846930554446 -192.331719692156 2678.0149430883 24 26 23
220.391745868196 -183.511505111756 2710.29074088134 25 28 21
210.383818849047 -183.952355880331 2711.79178631647 24 25 17
204.211878595979 -183.448489341841 2716.42889581176 23 24 16
206.547610394067 -180.875116144203 2727.8992428762 20 21 13
253.91059175456 -167.413127214852 2775.2343544338 21 22 14
241.664113027933 -168.427730229865 2774.79204934263 20 21 15
220.808463005235 -171.498143332547 2767.61561042766 17 20 13
214.723988037336 -171.004077875571 2772.16765203936 15 21 11
213.33696620091 -169.388458475078 2780.39141965764 14 20 10
216.682244370308 -166.655842001842 2792.25264548266 13 19 9
203.537442789031 -167.841233093285 2791.31072135121 13 19 9
191.143752711544 -168.835420260397 2791.01158185423 16 19 10
181.880830828586 -169.081686225109 2793.1613137866 14 17 8
180.530579357618 -167.469657321065 2801.34876072023 14 17 8
203.848659243706 -160.115127633002 2828.11901811256 14 17 8
210.569705592932 -156.664915894552 2842.19030892003 16 19 10
217.349662179519 -153.222147174069 2856.20386322377 18 19 11
175.332571827951 -161.045389883974 2833.9011685226 18 19 11
170.872201201275 -160.1826010455 2839.61977199547 15 18 9
168.831218468931 -158.767985740821 2847.10573145057 15 18 9
157.125336417457 -159.561160540755 2847.51078819373 19 22 13
114.659224541855 -167.325703559557 2825.64530271497 21 24 15
88.2279798556076 -171.40083415459 2815.65187693962 22 25 18
94.1997472342586 -168.140199842367 2829.07832298435 12 15 8
64.3879552146647 -172.930436211928 2816.879210051 10 13 6
57.3215422800653 -172.593728345422 2821.01267864478 14 17 10
49.4297804948118 -172.438321848745 2824.57527995172 16 18 13
5.43288640198236 -180.292093358337 2802.82616245804 15 17 12
22.9246370648566 -174.486396888947 2824.27467970357 13 16 9
51.2407865869702 -166.334369568139 2853.04913253303 11 17 7
42.5400197580483 -166.361882571655 2856.02487607016 15 21 9
23.0598293553412 -168.741098023222 2851.63149250368 17 23 11
10.1549234514615 -169.665278796339 2851.829988807 16 22 10
-14.4314953507418 -173.112834962164 2844.16293422585 16 19 10
-39.1060140045245 -176.548812991236 2836.58165285612 14 17 8
-43.808828496378 -175.651922121693 2842.53596640579 18 21 14
-63.5865262360378 -177.992010403512 2838.43222904427 13 15 12
218.198517693925 -193.60387123677 2699.78985164085 33 35 32
198.968595719512 -196.358143007852 2693.78647166794 23 26 19
213.539548651241 -190.687292335733 2715.32149575233 17 18 10
190.397779178526 -194.389294769751 2706.25749007848 17 18 10
209.719266744399 -187.587159102781 2731.41009120748 19 20 12
219.858493460718 -183.087076666434 2749.01679238038 21 22 14
213.74730457916 -182.59257889959 2753.59495956604 19 20 14
211.530753670698 -181.147220987982 2761.25071707153 16 19 12
206.204511829918 -180.462849400453 2766.43860413399 14 20 10
209.496412511792 -177.693547682929 2778.3474125301 13 19 9
204.193062119745 -177.011619660044 2783.51292920335 13 19 9
213.849091922137 -172.738049228558 2800.21602111242 13 19 9
178.593232470689 -179.233913121357 2782.33908839433 17 20 11
157.431758178552 -182.317163547806 2775.46823485067 14 17 8
186.953258011032 -173.340954059191 2807.17500903427 14 17 8
193.589516623447 -169.839263497873 2821.32254892826 14 17 8
185.141829971098 -169.91258147547 2824.054087906 15 18 9
156.705553290735 -174.671749448392 2811.9017231712 17 18 10
182.618272746674 -166.682007768388 2840.252646855 17 18 10
171.752940336066 -167.314520102037 2841.21652669652 14 17 8
159.251584293969 -168.317041182605 2841.02553284276 13 16 7
164.46399329694 -165.211530624636 2853.81171304333 18 21 12
169.727805000841 -162.112441225048 2866.54779864642 21 24 15
101.278158801003 -175.947293951474 2826.03705939567 23 26 19
75.5914920304495 -179.897398584373 2816.70302512027 12 15 8
73.4285864771254 -178.454957510539 2824.30560526044 10 13 6
90.0597546042503 -172.75333666675 2845.20716670001 14 17 10
77.3355688370128 -173.725732095332 2845.23299349914 17 19 14
27.6640232224912 -183.007879440287 2819.41096126991 16 18 13
36.1628804457044 -179.162532177326 2834.49227737612 14 17 10
60.3879798739682 -171.82469433785 2860.36431800279 14 19 12
42.6214873741362 -173.889469374452 2857.05655156508 15 21 11
28.1102642733742 -175.211581081443 2856.07480213144 15 21 11
25.1770824806128 -173.959077804614 2863.05344136988 15 18 9
-3.53319019677611 -178.389037447202 2852.54174902279 14 17 8
-45.6930564082874 -185.733119581712 2833.14383177281 13 16 7
-62.9482315141448 -187.572375540738 2830.71223514275 14 16 11
-56.8000786746681 -184.29445526685 2843.96063511784 15 17 14
233.592436907183 -197.224822885347 2713.37918861879 26 28 27
180.618588372682 -208.578353537792 2679.80625348661 9 11 8
179.747250163344 -206.710449888212 2688.89756145587 10 11 5
178.128164473844 -205.039114595109 2697.3431992842 11 12 6
189.681373236699 -200.080971792194 2716.31225073769 14 15 7
210.627880366554 -192.814905014091 2742.61643323727 15 16 8
213.046593246246 -190.197092922851 2753.99781081192 19 20 12
225.638174716755 -185.07865284036 2773.32896026654 19 22 13
216.440111017496 -185.360840042541 2775.41959620693 16 22 12
197.822621946058 -187.947071216094 2770.19979645675 14 20 10
190.134502605128 -187.836957257984 2773.5672098655 12 18 8
211.564001375734 -180.631425437659 2799.40072156621 12 18 8
189.720050722729 -183.97381245589 2791.82863025313 15 18 9
162.257415587071 -188.644084742442 2780.11353348747 15 18 9
160.065580560699 -187.189062871648 2787.74298158573 15 18 9
183.331368145563 -179.632813061301 2814.53535186022 14 17 8
164.497931715221 -182.189474923853 2809.52595854045 14 17 8
156.784140375209 -182.074430952882 2812.91779812806 15 16 8
170.682857050557 -176.82851393517 2832.34901128363 15 16 8
183.070174332779 -171.973961090658 2850.50509119761 14 17 8
163.353794986381 -174.709099375859 2844.98194266539 12 15 6
146.794928144562 -176.678285728473 2841.87776744925 16 19 10
143.12091080589 -175.616837087496 2848.20339581036 20 23 14
128.918036540105 -177.009664230897 2846.92590313598 22 25 18
76.4850989457271 -187.254831425337 2818.31999492194 13 16 9
92.2421681458272 -181.660683054755 2838.68852458449 10 13 6
83.6092203013048 -181.718429800495 2841.60172924346 11 14 7
77.4165020715376 -181.211029851083 2846.25894934017 14 16 11
50.7140646073854 -185.389635012804 2836.55011549802 15 17 12
44.4671716871281 -184.874828832499 2841.26037506754 15 18 11
40.6897362049374 -183.798544142078 2847.68650641233 12 17 10
29.4861064510794 -184.403652161932 2848.98227017105 13 19 9
23.2243096804172 -183.886511810363 2853.70664665285 13 19 9
40.1986029591384 -178.154937545893 2874.26305264207 15 18 9
-32.5666259468034 -192.520339720803 2833.86543783815 15 18 9
-57.2821988289771 -196.074092215273 2826.34233093866 14 17 8
-79.5786344021043 -199.059904610157 2820.58410942632 15 17 12
-81.0090055860551 -197.405607848397 2828.84486924842 14 16 13
204.566944795689 -212.172985037086 2690.56465502175 0 1 0
173.786665263135 -217.973485352918 2675.22585312256 21 23 22
176.746416508576 -215.103519001294 2687.44961263016 10 11 6
198.269906649974 -207.524534419127 2714.55184051483 11 12 6
210.646868728256 -202.316973462214 2734.08293817227 12 13 5
203.724842035281 -202.018916920546 2738.07840390063 13 14 6
209.236109018085 -198.588807618741 2751.93708531643 18 19 11
231.170890493902 -191.06157135328 2778.63820536264 19 22 13
210.265708308998 -194.286400707628 2771.53377527152 16 22 12
193.200242312791 -196.526366424353 2767.55611010063 15 21 11
168.224122461171 -200.705465538813 2757.54999967329 12 18 8
190.385746646487 -193.206279235324 2784.03034516974 12 18 8
178.749386684353 -194.074116062871 2784.37740046553 14 17 8
173.411816971292 -193.386311476948 2789.57602887696 16 19 10
156.179157638763 -195.603460236657 2785.76101682433 15 18 9
163.534243808924 -191.816846783883 2800.56988600804 14 17 8
155.013087654069 -191.901587783492 2803.37573176352 13 16 7
144.080706429424 -192.562974815932 2804.41045973642 14 15 7
182.773807254201 -181.275023718731 2842.2550401742 15 16 8
183.950737522738 -179.058375023327 2852.09466153593 14 17 8
177.917174717926 -178.575150515455 2856.59774890461 13 16 7
126.707552451974 -188.838819735212 2828.19705223649 15 18 9
119.271060531327 -186.69281678694 2840.93239545956 17 20 13
66.8166515330562 -197.091220231382 2812.37045691783 16 19 12
96.394977339056 -188.177899656049 2842.61284986388 10 13 6
81.2411275000917 -189.772646697453 2840.89262434669 6 9 2
46.4022631684897 -195.931283359205 2825.38592375023 9 11 6
26.1889110336933 -198.648838957791 2820.35333998809 11 13 8
31.3944507061703 -195.469989723819 2833.13550211111 15 18 11
36.6512878637066 -192.297666321749 2845.86768958825 16 19 12
28.7424671312531 -192.162340521305 2849.45019860008 17 20 11
6.74715233240919 -195.241220342745 2843.40671503249 17 20 11
14.5527314207841 -191.509334771423 2857.77632684589 15 18 9
1.62445710080927 -192.501879342101 2858.00779462927 14 17 8
-62.1997851812042 -204.982591175806 2824.04010754725 13 16 9
-105.400849141395 -212.724317788126 2804.31797741588 11 13 8
-77.5722401456238 -204.471597076527 2832.14477343826 3 5 4
199.201024025877 -219.031856954892 2696.90683194311 3 5 4
169.89775031607 -224.514066864151 2682.88845472211 11 11 9
213.044916173918 -209.179218321632 2736.96694419757 14 15 9
199.924807414035 -210.476077554223 2736.01697467203 13 14 6
209.313485296201 -206.014717621552 2752.9577957838 15 16 8
200.849782264747 -206.119704126497 2755.70958201528 16 19 10
207.217560245339 -202.462734055329 2770.1011147438 14 20 10
205.811094885938 -200.789396661497 2778.33532153162 13 19 9
183.222963658924 -204.447590993753 2770.13231723691 13 19 9
149.529035718347 -210.85443866773 2753.5253633581 13 19 9
177.249663820895 -201.886586902427 2784.18750858171 17 20 11
187.730228943199 -197.265425351703 2801.43736023133 16 19 10
179.512738125862 -195.30942369095 2813.5594196937 14 17 8
171.030730639282 -195.409684906595 2816.32868412401 13 16 7
170.522818376047 -193.551507950315 2825.06054235738 14 15 7
171.640744375238 -191.305467979267 2834.9547496551 14 15 7
176.804204532817 -188.087760691559 2847.77295415509 13 16 7
172.362597897482 -187.214894929954 2853.47143534234 13 16 7
163.892694578744 -187.315515729663 2856.22907114341 15 18 9
152.173702357975 -188.191540112791 2856.65939161069 16 19 10
173.655606128366 -181.104579685723 2881.04147985435 16 19 12
94.8472407041923 -196.022588365197 2842.47539815189 10 13 6
81.3225655803453 -197.262076946056 2841.91868964908 8 11 4
31.7558351895384 -206.993617286971 2816.0586565998 10 12 7
6.58714000313898 -210.912004155444 2807.6224903303 11 13 8
26.5444934763717 -204.224673230516 2830.74338814449 13 16 9
43.3268191053124 -198.322226475589 2851.46550381028 15 18 11
19.7391480514573 -201.846704460872 2844.23495627985 18 21 12
1.86292560581114 -204.017117136716 2841.05176649739 20 23 14
-21.0498236976342 -207.3295362607 2834.53691664425 20 23 14
-17.4242591202889 -204.508007025359 2846.10667265538 19 22 15
-63.7816383923555 -213.158292142295 2823.98511972494 18 21 14
-66.8708456358584 -211.859553921928 2831.11186103798 15 17 12
266.498125114174 -202.719908201016 2780.70627192581 12 13 7
214.737382482131 -214.127378804032 2748.77083347805 7 8 0
184.512502403888 -219.87434376126 2734.28950852551 19 20 12
193.913228239688 -215.362669066101 2751.21092934131 16 19 10
205.73246778809 -210.258637978283 2769.8939082253 14 20 10
222.337960580446 -203.963384904492 2792.15047422722 12 18 8
211.569884417817 -204.684787923548 2793.03091518128 12 18 8
154.3318827485 -217.192459863607 2758.19495361314 12 18 8
183.641254711024 -207.713263005845 2790.03769475193 16 19 10
198.092390474252 -202.043123714595 2810.27489487994 15 18 9
217.399389003586 -195.190954014069 2834.01724166839 13 16 7
188.335744435555 -200.482551620165 2821.14964606979 13 16 7
