ply
format ascii 1.0
comment KinectMotionCapture
element vertex 762
property float x
property float y
property float z
property uchar red
property uchar green
property uchar blue
end_header
289.496924487783 782.955884513192 2697.20631268294 248 246 249
287.538547782249 782.901298739657 2704.82705256802 247 245 248
281.664437086084 783.691256496412 2709.12646659544 247 246 251
277.363300683229 784.142064510057 2714.74783871614 247 246 251
270.695994823184 785.101381351647 2718.39296675038 248 247 252
267.189831508801 785.381131924149 2724.66711037518 248 247 252
261.309675580854 786.170377557763 2728.97263265862 249 248 253
254.629902003125 787.130335689958 2732.62970869636 250 249 254
248.741015800589 787.919915318657 2736.9438509072 250 249 254
241.248700138292 789.05184842893 2739.96546610213 250 249 254
236.952601222926 789.499780571828 2745.58226097572 250 249 254
231.053390352518 790.289895194221 2749.90657666254 251 250 255
224.345099314564 791.251902178002 2753.59200598248 251 251 253
217.629309680891 792.214513703873 2757.28445432577 253 253 255
210.096680499029 793.349995784354 2760.34557690532 254 254 254
202.55291505381 794.48652795482 2763.41760275617 254 254 254
190.117036669114 796.66018694274 2762.69215059365 254 254 254
177.646955090967 798.837672998139 2762.00043491094 254 254 254
169.229024628155 800.15360792149 2764.49675673855 254 254 254
155.880439128655 802.511279592841 2763.23352992135 254 254 254
143.314936414013 804.699851497451 2762.63493035409 254 254 254
129.891803546702 807.066213423106 2761.44444575935 254 254 254
119.730720393043 808.740805809326 2762.78491592569 254 254 254
108.719910672415 810.592414681427 2763.52610485727 254 254 254
97.6824246685686 812.447032709937 2764.29333898043 253 255 254
90.7727417584479 813.431080153991 2768.17515799415 249 251 250
78.8588948830595 815.465777501542 2768.36910645532 254 255 255
68.5839822806562 817.153599490749 2769.82065561743 251 253 252
57.4496072214785 819.019606360617 2770.68241873904 254 255 253
49.6431366397583 820.186013402296 2774.01089918101 254 255 253
44.3471543131864 820.826058713463 2779.17528950283 251 253 250
313.458677991651 774.544716469759 2643.48073431352 169 169 167
314.467616818535 773.85909157615 2653.91646627115 234 234 232
311.65380165775 773.993151595671 2660.94187810445 237 237 237
304.988174726934 774.950264879364 2664.58532678005 235 235 235
303.738188041364 774.751209506154 2672.94122460683 243 243 245
300.954677661614 774.880210781146 2679.93729102481 247 247 249
299.740223509938 774.675922410616 2688.25834011289 245 244 249
294.64312966197 775.298619585116 2693.22779528237 243 242 247
292.676191341807 775.256140309695 2700.85524764221 248 247 252
290.725410858843 775.211198262463 2708.46735686944 249 248 253
286.431347356847 775.664122034721 2714.08139278682 247 246 251
279.776781091441 776.616833535643 2717.71450863974 247 246 251
271.534585063665 777.904468545288 2720.04084413241 247 246 251
268.822336408637 778.021832550385 2726.9678665877 247 246 251
264.533941150843 778.472567529734 2732.57659735744 247 246 251
260.250009897319 778.9224908372 2738.18135311169 248 247 252
251.98036370157 780.212125193931 2740.53431368232 248 247 252
243.695794764788 781.503273948413 2742.90220677007 247 246 251
237.801772345941 782.290257793334 2747.22183297534 248 247 252
232.708031454525 782.908522394184 2752.18861374184 250 249 254
226.003279893894 783.86455313883 2755.87107375202 250 250 252
220.098997121413 784.652004900785 2760.20081948219 252 252 254
213.381602092481 785.609039867242 2763.89568621975 253 253 253
207.468565632803 786.397064451121 2768.23403982788 254 254 254
195.85792940396 788.374962098515 2768.13529060563 254 254 254
183.401272102802 790.526650598376 2767.43371944286 254 254 254
171.727484477413 792.511932832384 2767.39625121026 254 254 254
158.384756263278 794.842035283798 2766.13128274078 254 254 254
145.825130195322 797.005571187207 2765.53054788653 254 254 254
131.584514288801 799.515531352063 2763.71336511759 254 254 254
123.077574736884 800.830703575706 2766.29852485516 254 254 254
114.5555857279 802.147596116059 2768.89837466401 254 254 254
104.360619989981 803.809771762503 2770.27432592611 254 255 255
93.3120403397529 805.646800359284 2771.05517591445 253 254 255
83.9023464968154 807.142266901974 2773.09288942683 248 250 249
73.6392924705576 808.812423432868 2774.53561163654 253 255 254
61.6798366758404 810.830888175029 2774.77691175882 254 255 255
48.0126864448254 813.198999704027 2773.82848142287 254 255 255
41.0316323359607 814.18573495729 2777.78077583497 254 255 253
38.2558466654941 814.305919556015 2784.77047460335 253 255 252
312.534059809422 768.110180772604 2634.01396517706 212 214 213
317.345582382869 766.642159421955 2647.87419754708 223 224 226
319.132536266058 765.814858514444 2658.97519802332 223 224 226
317.100748722439 765.793350749398 2666.66394704062 222 223 225
312.766639818943 766.25651213754 2672.31623551852 238 239 243
310.760857977215 766.231018314639 2679.97974962702 249 250 254
307.21790000214 766.528662386813 2686.28812408436 248 249 253
303.683087293141 766.824925805815 2692.58861423202 242 243 248
297.034338363709 767.773070965382 2696.21662828757 242 243 248
293.508120581953 768.06754323132 2702.50884827706 246 247 252
291.558753900513 768.033168316271 2710.11765391897 244 245 250
286.480102547556 768.65230217588 2715.06932207465 246 245 250
280.61369878992 769.435391467927 2719.36209815427 246 245 250
274.743686756175 770.218594865461 2723.65810259868 246 245 250
271.246821427547 770.507656692324 2729.92197482883 245 244 249
266.169924048067 771.125390059177 2734.87210825515 245 244 249
260.297559554449 771.907815544871 2739.170901544 246 245 250
252.027757341195 773.186619306015 2741.52561779963 246 245 250
246.142771176363 773.969987296825 2745.83680529274 245 244 249
239.452391515824 774.919429760159 2749.50596753876 246 245 250
235.166216264535 775.370933273381 2755.11271806225 248 247 252
228.467147231037 776.32088148198 2758.79043423515 249 249 251
223.376069046837 776.938220718012 2763.75470766254 250 250 252
217.475937902208 777.72214169116 2768.08085261392 251 251 251
210.760848517698 778.673166018333 2771.77431818235 253 253 253
199.971345887708 780.461376381693 2772.30511617331 254 254 254
186.709022326749 782.755219358866 2770.96566382908 254 254 254
175.043166389281 784.718023986833 2770.92397933547 254 254 254
161.708251788112 787.020251623304 2769.65537171828 254 254 254
150.798440986852 788.822226529345 2770.30326526641 254 254 254
135.746721199394 791.469588500111 2767.85464123893 254 254 254
127.249383855369 792.772640979977 2770.43205713495 254 254 254
117.08298623212 794.415293578489 2771.78252533482 254 254 254
105.235899887973 796.399012245487 2771.9173763863 247 248 250
92.5277192897234 798.555624368356 2771.46518170841 254 255 255
84.7818109812151 799.698474990051 2774.73700454639 249 251 250
77.8593487668502 800.672811453775 2778.63294887679 251 253 252
67.5830747131832 802.328313252156 2780.09062689022 254 255 255
54.7681876634565 804.497387986588 2779.74221348552 254 255 255
46.9623331016398 805.647193059845 2783.07287381629 254 255 253
38.3025547020481 806.969144695443 2785.80846495285 254 255 253
33.0055137546825 807.60885171197 2790.97395650057 253 255 252
308.589610824101 762.261647887827 2621.79100875476 126 127 122
314.116720373146 760.67608293299 2636.37527273277 216 217 219
318.164539499931 759.401254247494 2649.54807296369 225 226 228
319.18413120102 758.757097757848 2659.96709744775 222 223 225
321.776648000439 757.789660341225 2671.70578347234 225 226 228
317.453867482777 758.253988234697 2677.34665028666 219 220 224
315.459361509903 758.237746266954 2684.99759987054 224 225 229
310.374421105946 758.859618932645 2689.9551083525 236 237 241
307.625524718201 759.000001240621 2696.91512045302 250 251 255
301.766827874139 759.780880608398 2701.20057007938 247 248 253
299.034307591364 759.918431853393 2708.14473889546 245 246 251
294.745083480884 760.376229644318 2713.7532488477 246 247 252
289.673913531544 760.994597260606 2718.69760110943 246 245 250
282.238498050299 762.09706698254 2721.66706825936 245 244 249
275.582182154198 763.03878193727 2725.30388464813 244 243 248
269.710454919532 763.819135184158 2729.60201356343 244 243 248
263.835498238255 764.599410765582 2733.90369868786 243 242 247
258.753035958144 765.217314957144 2738.85933289495 244 243 248
251.27726659421 766.323102862394 2741.86838162089 243 242 247
246.989746144168 766.778032282659 2747.47562375706 243 242 247
241.904805226658 767.395305444626 2752.43381255362 243 242 247
236.01668169027 768.175766696688 2756.74854511779 247 246 251
230.930810780445 768.792567410697 2761.70772723807 248 247 252
222.614967370473 770.064719935956 2764.1094839744 246 246 248
218.331731741598 770.517811872247 2769.71274279913 249 249 249
210.807002540803 771.627590096293 2772.76981959946 251 251 251
201.644381632405 773.067718912991 2774.57070276916 254 254 254
189.201282988153 775.16928472217 2773.86307577145 254 254 254
175.906575763395 777.440025545713 2772.55919537231 254 254 254
165.031327980359 779.219113984698 2773.17648778423 254 254 254
153.308173060186 781.166923850205 2773.19358040483 254 254 254
141.554704727664 783.118129383305 2773.24061065582 254 254 254
131.420722483034 784.740832893959 2774.56183837201 254 254 254
120.437066726923 786.532408503953 2775.28493590534 254 254 254
107.768923990165 788.66010388139 2774.79691907947 254 255 255
95.0664524209399 790.791714171836 2774.34241266929 254 255 255
87.3265051399086 791.925603606511 2777.60997842039 247 248 250
79.5751869710797 793.060939560178 2780.88828399429 254 255 255
67.6294762889378 795.034447362688 2781.12257963264 249 251 250
55.6534064462473 797.011710413037 2781.38680518421 254 255 255
48.6898005757501 797.985159899234 2785.32373686825 245 247 246
39.1917319880628 799.463862189882 2787.45202339971 251 253 252
31.3634222535639 800.608137559003 2790.80546149478 249 251 250
20.9849650384486 802.259479177655 2792.36522377081 232 234 233
312.457897698076 754.332955930701 2626.20682218634 169 169 167
317.993925856004 752.783724886228 2640.77652187581 219 220 224
321.284038875442 751.69613051133 2653.25715300522 225 226 230
323.079715783068 750.915848490393 2664.34254201835 228 229 233
324.910705879803 750.130819836734 2675.3935660629 230 231 235
320.595351722061 750.596924085557 2681.0267958475 230 231 236
317.059074532139 750.90475310916 2687.32703085505 230 231 236
313.530752655037 751.211356401781 2693.61920943988 228 229 234
310.7892671264 751.358706275962 2700.57083264452 246 247 252
306.499095212704 751.820030706568 2706.18010038555 248 249 254
302.212989369234 752.280501769367 2711.78511874414 250 251 255
296.362678917929 753.05684473832 2716.06291103628 248 249 254
290.50871767336 753.833307172724 2720.34397312116 246 245 250
283.863374459047 754.768626496315 2723.97083874621 245 244 249
278.790937072697 755.38626936078 2728.91655670962 243 242 247
272.134697659881 756.322208766491 2732.553812931 242 241 246
264.677150434258 757.418328378359 2735.54619577376 242 241 246
258.004567186791 758.355607520293 2739.19982149411 241 240 245
252.122394476614 759.133444611619 2743.5086948077 241 240 245
246.236991242811 759.911322110911 2747.82110794871 242 241 246
242.753585236116 760.207709406835 2754.07053217209 243 242 247
238.474571166231 760.663571402821 2759.66918951273 245 244 249
233.394270003607 761.279669961696 2764.62294456993 245 244 249
225.084136327887 762.540429326635 2767.02071535986 246 246 248
217.568449868155 763.641224715565 2770.07014024374 248 248 250
211.664507041232 764.41962442944 2774.40054844971 249 249 251
205.757309739568 765.198362414831 2778.73447624281 252 252 254
194.954633453507 766.950257602606 2779.28372323609 253 253 255
181.673542894758 769.192451012989 2777.97054058151 255 255 255
172.4501505483 770.625806710494 2779.83243390963 255 255 255
160.744601045645 772.549801504984 2779.83590178947 254 254 255
146.539293658889 774.966785223436 2777.99773685862 253 253 255
130.641833586231 777.715253054767 2774.95675487494 253 253 255
119.65622375637 779.488263951158 2775.68453668894 252 252 254
109.472925739011 781.10043735184 2777.05629204214 251 252 255
98.436131179068 782.879252239659 2777.83404322237 251 252 255
90.7037011650402 784.004069343239 2781.09514726079 251 252 255
82.1255116534809 785.294670494143 2783.75469085537 251 252 254
71.8589725872905 786.916512188105 2785.20767683105 252 253 255
60.7311558007897 788.706035279121 2786.07423176006 252 253 255
52.0981051992471 790.003034860596 2788.78696970075 248 249 251
44.2925734006518 791.136359979742 2792.1194074109 253 255 254
31.409890828872 793.265024253067 2791.8446264523 253 255 254
317.851813444746 746.123742035068 2631.98294324984 213 213 213
321.106067659716 745.070447489619 2644.49411320236 223 224 229
323.636589045494 744.164958962661 2656.28520557031 226 227 232
323.899925456926 743.715709776823 2666.00914836242 229 230 235
325.732375270104 742.954556383916 2677.05519413386 232 233 238
322.191431656687 743.268811598168 2683.35911318075 232 233 238
320.2078070012 743.272485613831 2690.99631388197 234 235 240
315.910442164526 743.738150056516 2696.61174500797 231 232 237
314.731488444945 743.582799011323 2704.89064656887 229 230 235
309.670109545019 744.200934780309 2709.82531044072 238 239 244
305.391484284928 744.663057425076 2715.42265636633 247 248 253
299.548659827033 745.43580306842 2719.6935466395 246 247 252
292.129841727518 746.520494718823 2722.64915993523 244 243 248
287.064415902058 747.137666446413 2727.58798494886 244 243 248
281.209400329567 747.910710628106 2731.87093705521 242 241 246
274.558758409578 748.840578217696 2735.50353229523 242 241 246
267.900828567197 749.770951783919 2739.1432897668 241 240 245
261.235819860225 750.70190987146 2742.79032810554 239 238 243
255.36136561387 751.475989355025 2747.09243008523 239 238 243
248.68354689795 752.407867759729 2750.75171508776 239 238 243
244.403803831127 752.866829067513 2756.35063825621 240 239 244
240.932235595879 753.166736374502 2762.58778714146 241 240 245
234.246262740982 754.098640267938 2766.25516555731 242 241 246
224.32266791078 755.665513595324 2767.37572713759 244 244 246
217.614609789889 756.59965793011 2771.06504325479 245 245 247
211.710457351465 757.375430471654 2775.396047903 246 246 248
209.056683353211 757.514199604463 2782.26184049118 249 249 251
197.446473026834 759.405831135769 2782.17541843576 250 250 252
187.440196871406 760.981535599638 2783.37677855613 252 252 254
176.592035407781 762.719646235209 2783.97323035391 252 252 254
167.359414759694 764.140425570197 2785.84614630287 252 252 254
150.700439360655 767.007201615943 2782.1269650754 251 251 253
134.812693298628 769.719653234261 2779.08166011611 251 251 253
121.356035301909 771.955261891356 2777.94379174646 250 250 252
113.663195527228 773.067363099934 2781.16746149569 248 249 253
105.959323089538 774.18079618216 2784.40188999203 248 249 253
96.5789047206198 775.618484634389 2786.41940994447 248 249 253
86.3448240887101 777.220312843818 2787.84312219936 248 249 253
73.578153763437 779.310895375082 2787.45842998785 248 249 253
64.131477256256 780.756405999 2789.5405891375 249 250 254
53.8253365100569 782.366610904904 2791.03462007905 250 251 253
45.1813716770566 783.654005159039 2793.7599535181 249 250 252
33.1447756990468 785.595274596779 2794.08926441501 252 253 255
60.7220772350878 779.517013797956 2831.36860969912 247 248 250
316.216109771738 739.72179806772 2621.80022831435 154 154 152
322.482525728723 738.1015119778 2637.07239118664 222 222 222
326.512699853318 736.9255576318 2650.24809958138 221 222 227
328.289534270613 736.196182350357 2661.34467547208 224 225 230
329.332934831044 735.613123490069 2671.73102720392 227 228 233
328.866144368468 735.328538952381 2680.73841225238 232 233 238
325.33261404992 735.647166797407 2687.03432351496 234 235 240
322.581833319921 735.812553563787 2693.99251114717 230 231 236
320.619607385544 735.82379050645 2701.60734480469 233 234 239
315.559415196382 736.442189453473 2706.54079135761 226 227 232
312.840979532312 736.602319233821 2713.46763684144 234 235 240
306.222703680053 737.524627405536 2717.06920937641 248 249 254
301.950240674637 737.988318915337 2722.66054205646 251 252 255
292.17828576059 739.524163918884 2723.63510893106 247 246 251
287.90073068673 739.98768483916 2729.23118548141 246 245 250
281.257359466651 740.911669422166 2732.85776815674 244 243 248
275.398505286482 741.682144180282 2737.14457397495 243 242 247
268.742492752134 742.606896838243 2740.78359614107 242 241 246
262.874907758867 743.377764628159 2745.07901369582 238 237 242
258.599937600101 743.839295513765 2750.67315535553 238 237 242
252.72946790244 744.609819340588 2754.97148830198 238 237 242
247.657474535402 745.225342320436 2759.91707866568 239 238 243
242.585994066753 745.84050579716 2764.8622128481 240 239 244
235.9038725119 746.766603940737 2768.52696279536 241 240 245
227.599314888518 748.005018796361 2770.92249899161 243 243 245
220.089176196991 749.088898373676 2773.96891500922 244 244 246
215.002293491588 749.704883139371 2778.92922245427 245 245 247
209.91590188749 750.320570118638 2783.88908624117 248 248 250
199.93808701534 751.876823971195 2785.06505867836 249 249 251
189.120387577001 753.592637141769 2785.63455679031 251 251 253
178.276118148329 755.311446068846 2786.22999652394 251 251 253
167.405004280266 757.033357357825 2786.85129681299 251 251 253
152.392300322392 759.547071815129 2784.3836825341 250 250 252
136.508593307925 762.224104702047 2781.33960161391 250 250 252
124.70954884791 764.115908314841 2781.44033136912 250 250 252
117.853414555755 765.060523336968 2785.27514175034 248 249 253
107.666778577968 766.640566748382 2786.65496054596 247 248 252
97.4573768181339 768.223244273051 2788.05699677891 246 247 251
86.3906579203788 769.967737737223 2788.86953596038 246 247 251
78.6436890117321 771.077876428068 2792.14724679907 247 248 252
69.2087010272697 772.508350697884 2794.22002143944 247 248 252
58.0737899992432 774.26085117534 2795.09909298127 248 249 251
46.9120552518945 776.016510371432 2796.00399617368 245 246 248
36.568520189737 777.61490511571 2797.53724360249 250 251 253
18.5854062331026 780.661200155422 2793.68917154846 254 255 255
323.118537492835 731.249479978732 2628.95141784964 216 216 216
327.875884608506 729.962659125251 2642.83866589575 215 215 217
330.389427233181 729.113267517141 2654.63832732436 221 220 226
332.175460027493 728.406732946498 2665.72239324362 226 225 231
331.690499687709 728.140937244044 2674.7453821091 225 224 229
329.687805566143 728.169187547664 2682.39788670741 232 231 236
328.473629762538 728.046123129827 2690.706654527 245 244 249
324.955722319175 728.367675875796 2696.98661974449 227 226 231
321.445813244295 728.687938494106 2703.25849530216 236 235 240
316.387280301162 729.30601032915 2708.19034254625 230 229 234
313.670429569058 729.473960064042 2715.11445838334 220 219 224
308.618621875398 730.09035851096 2720.03987468132 239 238 243
303.567284562973 730.706402814716 2724.96487622599 241 240 245
293.799236978726 732.225643709718 2725.93835498632 245 244 249
288.737171085464 732.842273926815 2730.87392357262 242 241 246
282.095318700868 733.760654942348 2734.49948838469 237 236 241
277.030347921651 734.376825802906 2739.43800945839 236 235 240
270.377830731949 735.295784691835 2743.07407917015 237 236 241
264.514094602963 736.063441667325 2747.36648714473 237 236 241
261.040550603925 736.375096971898 2753.60386164371 237 236 241
255.175674347805 737.142321028174 2757.89712792468 237 236 241
249.307631882298 737.909518415756 2762.19388008198 237 236 241
241.828765402886 738.982379374662 2765.21087087766 238 237 242
235.950119753974 739.750382742553 2769.51803302929 238 237 242
229.260400336072 740.671672810407 2773.19070055638 240 240 242
224.182487134684 741.286703734081 2778.14224212878 241 241 243
218.293730480686 742.055097222423 2782.4593869983 242 242 244
210.774827381718 743.131413275064 2785.5156240877 245 245 247
198.353040305698 745.133701484666 2784.80150757356 246 246 248
188.348589331541 746.67691990735 2786.00585668464 248 248 250
177.502344570542 748.377166800805 2786.60600141293 248 248 250
168.271753290005 749.770728510156 2788.48126276508 248 248 250
156.552978906148 751.631714746316 2788.50683794286 248 248 250
143.979079156652 753.651397072677 2787.94153856125 248 248 250
129.716746010243 755.986186091201 2786.17181155149 248 247 252
119.556679302371 757.547017409651 2787.52808620827 247 248 252
110.204820763642 758.954451531919 2789.5217174039 246 247 252
99.1685867652747 760.67646774097 2790.30730675811 246 247 252
91.4443314782929 761.775723258498 2793.56407116299 245 246 251
80.3626711317009 763.503112367579 2794.39397544024 246 247 251
70.9313803574108 764.919629721952 2796.46480368027 246 247 251
59.8003826229148 766.652825810932 2797.34284244396 247 248 252
50.327722899167 768.074250496667 2799.45436320291 243 244 248
38.3030002019322 769.970916906549 2799.77847606453 249 250 254
19.4778421449646 773.13417317102 2795.33237011417 250 251 253
7.37693110300652 775.03990057499 2795.73113775939 254 255 255
13.098050517208 773.624150837432 2808.68040129865 200 202 199
322.261218749742 724.649897883624 2619.44221316078 125 125 123
326.976622533291 723.403582080928 2633.36478708492 218 218 218
330.980184042613 722.295540505025 2646.55722256426 216 216 218
333.500975833215 721.472006871588 2658.34586366658 221 220 225
334.527506270236 720.934298908221 2668.74226483759 227 226 231
334.047770236533 720.683838188861 2677.75746154411 223 222 227
330.509249205801 721.014181331835 2684.05659714174 228 227 232
330.069345127442 720.757978497772 2693.03342665182 248 247 252
325.780279702051 721.230970241153 2698.63953336788 232 231 236
323.048615999857 721.409632710265 2705.57677536581 234 233 238
315.65832003499 722.468202600681 2708.50792654491 234 233 238
312.939207509411 722.644339293327 2715.43307834758 216 216 218
308.667417511321 723.113678973939 2721.02257008224 239 239 241
303.615804375902 723.72969908074 2725.94784909952 237 237 239
296.992358954572 724.641146999704 2729.5564980756 239 238 243
290.361458531694 725.553076027366 2733.17214102878 235 234 239
283.723436727072 726.465594936309 2736.79510627709 230 229 234
277.869946733888 727.229968321386 2741.0774871586 231 230 235
273.601235444734 727.696724997328 2746.66464129873 234 233 238
266.948983614559 728.609871488478 2750.30130657441 236 235 240
261.885298043107 729.224818889299 2755.23873224461 236 235 240
254.422719171488 730.288255433132 2758.2409421294 235 234 239
249.354192029534 730.90322350258 2763.18317249587 235 234 239
242.678758938908 731.817995045762 2766.84261692388 236 235 240
239.21863338513 732.132145528779 2773.06629792207 237 236 241
232.536509766301 733.047111862258 2776.73235735357 238 237 242
225.847306744376 733.962721753769 2780.4056894614 239 238 243
219.962317448319 734.72780980311 2784.71958183123 240 239 244
210.007114876293 736.249369849642 2785.8782276495 243 242 247
201.659655173474 737.470444264953 2788.31859131235 244 243 248
186.759816838639 739.906656666298 2785.75035457134 245 244 249
180.005281402849 740.828982595087 2789.48723226256 245 244 249
168.317161433298 742.664921508629 2789.48640697912 245 244 249
159.890692457094 743.89470491499 2792.00427867533 246 245 250
143.199504490719 746.652393726579 2788.33287020699 246 245 250
130.589349042122 748.652115628074 2787.80652341262 246 245 250
117.115912271945 750.808993255063 2786.69695302491 245 246 251
107.758057570737 752.203633496706 2788.6980915865 244 245 250
98.3815370034025 753.600436922973 2790.71778375333 243 244 249
90.6553146685751 754.69186168891 2793.97765884745 242 243 248
81.2448301925506 756.092429124003 2796.03018351684 242 243 248
70.9770121915523 757.649625307717 2797.49399407188 242 243 248
61.5270938350938 759.054797159149 2799.58533447874 248 249 253
52.0580882658561 760.462329326119 2801.69494207445 242 243 247
42.5705024033083 761.871954921073 2803.82302861034 245 246 250
23.7553027396533 764.991026466156 2799.37356431044 248 249 253
9.96768735571418 767.184975639964 2798.57049877219 251 252 254
-3.85802124436463 769.383491193636 2797.80458545173 242 244 241
329.145985205474 716.228468597517 2626.60308140883 126 128 125
332.356637953288 715.299126044291 2639.13956605447 212 214 213
337.898880413407 713.936927300626 2653.67545155762 216 218 217
337.37732164293 713.708532079409 2662.72925543101 220 220 222
337.646177346018 713.333949259402 2672.43668182865 228 228 230
334.867774458119 713.528056895417 2679.41805374 217 217 219
332.872059628024 713.576833032463 2687.06059408948 216 216 218
330.119717203983 713.766770800529 2694.01670387963 251 251 253
325.83032884865 714.242574789204 2699.62271562127 236 236 238
321.545260831038 714.717303411223 2705.22459614241 221 221 223
316.486153906324 715.335447605766 2710.157002664 224 224 226
312.207999475919 715.808525027612 2715.7525997795 217 217 219
309.498659127028 715.991154698382 2722.66708800693 235 235 237
303.664332804953 716.752050759341 2726.93095302671 235 235 237
297.826798294845 717.512866474856 2731.19835354166 234 233 238
290.409510987567 718.564755383529 2734.15729496897 229 228 233
285.351297204823 719.180428230276 2739.0891798515 229 228 233
279.501633740328 719.941711554336 2743.36855548511 229 228 233
274.442448525129 720.556799239661 2748.30149150104 230 229 234
268.587966364231 721.317923442224 2752.5856756895 233 232 237
262.729960961532 722.079151030349 2756.87300538681 235 234 239
253.669756762751 723.427999023072 2758.58567851579 234 233 238
249.400674681569 723.896112795334 2764.17266243765 234 233 238
242.725078547882 724.805479760648 2767.83306756407 235 234 239
240.875972825175 724.829745631974 2775.3339833512 235 234 239
234.197533427234 725.738881347661 2778.99724605966 236 235 240
229.130866551641 726.352435524445 2783.93783812685 237 236 241
221.630602734821 727.410598153909 2786.97824920156 238 237 242
211.679204189171 728.915521184018 2788.13557650917 241 240 245
202.52051143843 730.274190595269 2789.9445986248 242 241 246
190.074062251714 732.230938573942 2789.26170277739 243 242 247
181.689012034218 733.445416818322 2791.74070713018 243 242 247
170.004598736158 735.259377863271 2791.73911154454 244 243 248
160.758992587824 736.62758883745 2793.63302970997 244 243 248
146.544875255574 738.89767143505 2791.82532510673 244 243 248
131.461655802903 741.322872027482 2789.44047822516 244 243 248
117.161490751137 743.603035712625 2787.71673029909 244 245 250
109.465165283005 744.682907618378 2790.94862487032 242 243 248
102.590372537256 745.61314072624 2794.80375117044 241 242 247
95.7083327707462 746.544051560913 2798.66597370158 241 242 247
81.2903203991633 748.837951365533 2797.05721971373 241 242 247
71.0225659919859 750.378864136127 2798.52337380051 241 242 247
62.4130510486442 751.618809222127 2801.2215109562 247 248 252
54.6308081049975 752.708450951964 2804.53727887498 240 241 245
43.4604052458081 754.4084618523 2805.45935226639 242 243 247
27.1860374729815 757.026771813868 2802.811882477 248 249 253
12.5583450365547 759.345512964025 2801.40767235316 251 252 254
-7.21208688113162 762.587323388113 2796.471717732 248 250 247
330.717660692868 708.828896081802 2628.97019447993 141 143 140
338.497043153286 707.091789650212 2645.59104387948 211 213 212
341.76559525769 706.184350570122 2658.06645844235 215 217 216
339.72376617574 706.250779837553 2665.75251964265 219 219 221
339.231083493894 706.034561009949 2674.77551162551 225 225 227
337.225018339232 706.095715071335 2682.42683839048 220 220 222
335.234733269289 706.154480058432 2690.06251056019 211 211 213
328.62487120768 707.056444731887 2693.65873483683 250 250 252
325.105902632896 707.394229739961 2699.93735465226 235 235 237
321.594997817849 707.730539470291 2706.20784723848 219 219 221
317.314094287174 708.207029838884 2711.80566981914 223 223 225
313.037384378187 708.682650759781 2717.39911873348 210 210 212
308.765014449976 709.157370744182 2722.98839114077 227 227 229
303.712849130059 709.773401493786 2727.91421691242 231 231 233
297.875041232718 710.531598076914 2732.18227601155 230 229 234
291.245598828671 711.432669940543 2735.79807581458 226 225 230
286.979257705043 711.904965733282 2741.38205766625 223 222 227
280.34112754356 712.806366232033 2745.00643596871 224 223 228
274.489770136721 713.564796725464 2749.28791535924 229 228 233
267.839061359685 714.467075332655 2752.92465462884 230 229 234
261.979079971141 715.225826421265 2757.21465037686 230 229 234
254.516160241871 716.27308950834 2760.21958916819 230 229 234
250.248775872588 716.743642854232 2765.80452666911 231 230 235
246.789571106583 717.068586490219 2772.02569808814 232 231 236
243.338658801171 717.392307823307 2778.23881562705 232 231 236
237.473337241858 718.150153004889 2782.53391029425 233 232 237
230.795499812709 719.053538787592 2786.19776291837 233 232 237
223.298966246708 720.103152430441 2789.23573333537 234 233 238
214.16463027353 721.445673241299 2791.02261772491 240 239 244
205.011672566903 722.790174766675 2792.8280388643 239 238 243
192.57103463562 724.722071894234 2792.14304529928 237 238 242
183.372443138488 726.071690664813 2793.99268729863 237 238 242
171.692092467316 727.863661860342 2793.99064539657 239 240 244
160.804212684879 729.512134654596 2794.63978650588 240 241 245
145.765119212362 731.899929299797 2792.21665045638 240 241 245
133.160657582572 733.850709942809 2791.6915452704 241 242 246
119.693196644323 735.953054651481 2790.58410073476 240 241 245
111.171972929666 737.172080400019 2793.19765526412 240 241 245
101.80316022092 738.540963374537 2795.213820044 240 241 245
93.2500949273152 739.763590478259 2797.85846145324 239 240 244
82.1722910571787 741.43395535052 2798.69262650767 238 239 243
71.0680412202032 743.107405243895 2799.55293467533 237 238 242
63.2988812242847 744.187436868717 2802.85713140294 238 239 243
51.307058240734 746.015430812855 2803.15906196496 238 239 243
43.5060555888533 747.099181866287 2806.49432919074 240 241 245
29.7705024779718 749.233024068896 2805.6484488298 244 245 249
15.996770578135 751.371502408009 2804.83979535174 246 247 251
-7.16576966589555 755.167687626747 2797.52234297781 246 247 249
-16.7772080905051 756.565283463375 2799.77485708974 244 246 245
313.974598291325 705.030848278673 2605.06424196744 127 129 124
336.084012636831 700.756072776358 2634.75352833732 208 210 207
340.832717392254 699.610097548467 2648.62854145296 207 209 208
343.343737609035 698.868465131798 2660.41478090846 216 216 218
341.305181915596 698.945286069751 2668.09571785922 222 222 224
340.816134335424 698.744635462714 2677.11313699818 219 219 221
338.044716687538 698.953960987864 2684.08532326556 222 222 224
336.826541022661 698.885298323499 2692.39002245112 207 207 209
329.447983787406 699.919554386769 2695.31344831322 243 243 245
326.70487506526 700.124085814572 2702.25789412236 240 240 242
321.644723239221 700.742715548488 2707.1912664839 217 217 219
318.141847920858 701.083071314345 2713.45352550092 219 219 221
313.086486813775 701.700271538445 2718.38235188865 205 205 207
306.467010399283 702.595900244057 2721.9890598131 224 224 226
302.193065680697 703.073046533304 2727.57987524571 234 234 236
295.564860068631 703.968891160574 2731.19521947926 228 227 232
290.505600307546 704.585167620123 2736.12805382004 224 223 228
284.656897812038 705.341199510869 2740.40725135679 217 216 221
278.804839692392 706.097300618397 2744.68977084771 218 217 222
272.949194016708 706.853572188145 2748.97548979857 226 225 230
267.090382131636 707.609817089201 2753.26469462577 225 224 229
262.02597430707 708.224796572677 2758.20283276219 226 225 230
254.562850914839 709.264124543129 2761.20914660062 227 226 231
251.097046810345 709.595561137933 2767.43591160384 228 227 232
246.032264947515 710.209644273652 2772.37455364559 230 229 234
244.190130337945 710.254450047323 2779.86517338374 230 229 234
237.519123157508 711.15191648748 2783.52278050417 232 231 236
231.650488476022 711.907217861522 2787.8218789663 232 231 236
224.155749553308 712.948644469494 2790.85927731616 234 233 238
215.023468439453 714.277448302336 2792.64648640537 237 236 241
205.056997737322 715.751661656212 2793.82331946391 236 235 240
195.884970920312 717.084899416114 2795.64900344943 234 235 239
182.598712037711 719.139456912888 2794.36868552293 234 235 239
170.095205899839 721.054394732047 2793.74862759479 237 238 242
156.73452720089 723.117626403236 2792.54092760685 238 239 243
147.460363932637 724.462252827127 2794.46668920074 238 239 243
135.686556131644 726.243492725037 2794.55869984925 239 240 244
123.882561392749 728.028230284076 2794.68050746254 238 239 243
112.878857186188 729.671196217536 2795.44547784883 238 239 243
101.848518675054 731.317224984157 2796.23644380788 237 238 242
92.4607000931483 732.67489518997 2798.27280110109 237 238 242
83.8907493588725 733.888682770061 2800.93551648026 236 237 241
73.6288598011234 735.396541266285 2802.40073209217 236 237 241
63.3443096771966 736.907138549284 2803.8880451898 235 236 240
52.1948706672117 738.566943480857 2804.79524359368 235 236 240
42.7073991180302 739.93610204983 2806.92919762347 236 237 241
32.3547418981405 741.454695626187 2808.48296022553 241 242 246
19.435092676324 743.418143981944 2808.26896869535 244 245 249
-2.01943020146578 746.861870168551 2802.14134175407 246 247 249
-14.1749511045406 748.687974744782 2802.60610601783 238 240 239
-16.9678231716519 748.888859832167 2809.60084433367 185 187 186
328.41231469351 695.29578554637 2619.08951826036 143 145 140
337.655454105191 693.389139523504 2637.11604972398 206 208 205
340.885592854232 692.545806727834 2649.62013443574 206 208 207
341.107519808036 692.234221846375 2659.36485070736 213 213 215
341.357108478713 691.918678015365 2669.08268361621 223 223 225
341.634251496364 691.59930670814 2678.77372035051 218 218 220
338.09580757928 691.951458595511 2685.06955605025 222 222 224
336.10665461509 692.031604484355 2692.70094393428 214 214 216
331.043348442024 692.651516406232 2697.63725910223 205 205 207
327.529510930296 692.999445857525 2703.90928435191 248 248 250
322.470996014694 693.617869232871 2708.8410617369 220 220 222
318.191236411088 694.0995945924 2714.43663680971 213 213 215
311.574930242077 694.989870256772 2718.04098781069 207 207 209
303.386924028234 696.154092409379 2720.33175238342 216 216 218
300.673178721044 696.361041832206 2727.24702035083 220 220 222
297.185511876478 696.703195364356 2733.49391141947 221 220 225
292.917886894068 697.181503959625 2739.07794163032 216 215 220
286.284613431214 698.071913680885 2742.69912159136 211 210 215
280.436193502523 698.824902539443 2746.97848829391 214 213 218
273.790572817512 699.716148160417 2750.61214352546 213 212 217
267.137496592444 700.607933926803 2754.25278454325 217 216 221
261.275119471735 701.361620872309 2758.54590776686 218 217 222
256.209034912116 701.976516890748 2763.48572326206 222 221 226
251.143485047972 702.590991689368 2768.42507005286 224 223 228
247.685524014873 702.926523897389 2774.64310359841 226 225 230
243.430614877427 703.40026797912 2780.21551926234 226 225 230
237.564960206435 704.152730022686 2784.51174033981 227 226 231
230.077243921452 705.185487430492 2787.54344641058 229 228 233
222.578518924575 706.219278848394 2790.58593146877 226 225 230
213.442257146589 707.535198583588 2792.37899768031 228 227 232
203.471851271753 708.993868507708 2793.56203573565 229 228 233
193.478787523277 710.454982035034 2794.76721223097 229 230 234
181.005938235475 712.342277596143 2794.12113495319 229 230 234
170.140488363968 713.950726452128 2794.75358050797 233 234 238
156.779842638766 715.987064181578 2793.54982268946 234 235 239
146.680772300999 717.46017220294 2794.85883035603 236 237 241
134.905098434834 719.220182695175 2794.95583173172 237 238 242
125.585441886444 720.556568658011 2796.92798676185 236 237 241
114.585376524356 722.180336808395 2797.69184330374 234 235 239
101.061076630755 724.23559565016 2796.64779996157 234 235 239
91.6715294199557 725.579966877939 2798.68817723396 234 235 239
84.7725267425292 726.496563854475 2802.56935976838 235 236 240
76.1895383700382 727.701026834297 2805.24639988687 235 236 240
65.9108756130431 729.194724462692 2806.73036450367 231 232 236
53.0827231349358 731.123096600406 2806.43103744612 230 231 235
42.7529165494906 732.622769970407 2807.96490542862 232 233 237
34.0925558693868 733.836292370992 2810.71710057192 235 236 240
20.3288394696353 735.919669558603 2809.90664548035 239 240 244
0.576706807190241 739.022306424543 2804.97308921934 238 239 241
-20.944694741154 742.423160851193 2798.91821021396 232 234 233
-24.6068845039167 742.779237041009 2805.33634735758 220 222 221
319.298293995542 689.995908184511 2601.99989101433 128 130 125
337.550212817137 686.578337798471 2628.30781064931 168 170 165
339.226661976214 686.031801707106 2639.47704703294 205 207 204
340.938466841553 685.480513623055 2650.61187702005 206 208 207
341.159957356198 685.187676879681 2660.35425571557 210 210 212
340.644315659891 685.022929675764 2669.39277669768 220 220 222
339.385602969792 684.986974758327 2677.73289555783 215 215 217
336.609553826547 685.212864709035 2684.7072327537 218 218 220
336.927879993303 684.906346072395 2694.35547439304 215 215 217
332.638834377687 685.393179954751 2699.9598534176 194 194 196
328.353983460774 685.879026315983 2705.55987515753 229 229 231
322.520714973974 686.630753751636 2709.82438269207 226 226 228
318.240654776018 687.115170603051 2715.41985845819 213 213 215
309.283389985426 688.401566602315 2717.03954161046 204 204 206
302.653679372357 689.287812133679 2720.65779907445 198 198 200
299.153566542091 689.637254656254 2726.91597188128 185 185 187
297.233784714007 689.716321158572 2734.47863273451 208 207 212
290.60172624605 690.601565360168 2738.09936964921 208 207 212
283.962631969165 691.487329686406 2741.72735419398 206 205 210
278.107946185452 692.238467896268 2746.01287866627 210 209 214
274.631722892505 692.58312969828 2752.24803539781 208 207 212
268.776318328309 693.333637858016 2756.53470459287 212 211 216
263.715311337573 693.948247581177 2761.46952030143 215 214 219
256.255693274622 694.971094128373 2764.47478924323 217 216 221
250.388184004077 695.722020908887 2768.77307887668 219 218 223
243.71399317514 696.609733022459 2772.43562693434 221 220 225
240.254456289842 696.950417273114 2778.65446385477 221 220 225
233.573638169926 697.838375173753 2782.32355658312 225 224 229
227.69472381363 698.589560370015 2786.63313344159 228 227 232
221.001518405356 699.47837225926 2790.31440071125 223 222 227
212.674462349304 700.643553613647 2792.74310206323 223 222 227
201.0716267384 702.362492291261 2792.6745428927 225 224 229
191.072672028125 703.808308947122 2793.88783007109 226 227 231
178.594006092587 705.672160570244 2793.25099381429 227 228 232
169.364812957446 706.984889704436 2795.13647596471 231 232 236
155.179363042657 709.133774478557 2793.31821717753 232 233 237
145.901026539344 710.451991289246 2795.25168834283 234 235 239
134.123611170011 712.190802603705 2795.35389012813 235 236 240
123.144440099576 713.793348478378 2796.10047281461 234 235 239
113.799995883562 715.119191590744 2798.09846275182 233 234 238
101.939150292236 716.86745917146 2798.28211434885 232 233 237
95.0549904346447 717.777054686809 2802.14959255666 232 233 237
87.3272269367087 718.827926281746 2805.4169917895 234 235 239
77.9117214626082 720.161771255677 2807.48470177682 234 235 239
67.6369477662968 721.638821147723 2808.96726502703 231 232 236
57.3394709866544 723.118615186506 2810.47196719092 229 230 234
46.1751979975542 724.742550127902 2811.39919752422 228 229 233
35.8304459119867 726.227891188386 2812.95002491837 231 232 236
19.5264029911941 728.710068117462 2810.35214339234 235 236 240
1.47277958598035 731.482719307939 2806.61487054647 239 240 242
-21.7503291752412 735.11719471892 2799.38112640245 234 236 235
-38.2229439963435 737.619679313304 2796.94763780131 220 222 221
337.473727567755 679.724801547982 2619.47767038933 130 132 129
341.389100193756 678.82200295886 2632.72734390967 211 213 210
342.31568787527 678.427051605802 2643.20155250768 202 204 203
343.27395215527 678.02768109449 2653.64529676678 207 208 210
344.263482854899 677.624028179131 2664.05828810444 210 210 212
342.990515378557 677.603655971486 2672.41059690234 206 206 208
339.437143738431 677.968906850479 2678.71898218451 209 209 211
337.429453552682 678.073195078532 2686.36554741837 209 209 211
336.978580500773 677.915214908867 2695.33841417243 205 205 207
334.234086716013 678.144438939726 2702.28092365527 201 201 203
326.85504325008 679.15429727502 2705.20810048316 189 189 191
320.241311275919 680.034446558123 2708.81172978733 234 234 236
317.511826725967 680.260540091092 2715.73979756434 207 207 209
310.112812044726 681.271618801222 2718.6866257334 197 197 199
304.267187503014 682.020776096073 2722.9637828788 182 182 184
298.417954685193 682.770047496411 2727.24416838899 153 153 155
296.495905935333 682.860191075484 2734.80744314195 195 195 197
289.073860122282 683.872450091851 2737.77730495861 206 206 208
283.220343303533 684.621141150873 2742.06203031924 195 195 197
277.363682072482 685.369743824506 2746.35022903308 195 195 197
273.885262659046 685.720048645611 2752.58673250896 201 201 203
268.027482559437 686.468215720049 2756.8757688152 201 201 203
262.964328452413 687.083096121335 2761.81267663587 205 205 207
257.102024825529 687.831053825608 2766.10657365837 207 207 209
251.236407014649 688.579193460128 2770.40373482537 209 209 211
244.56384131408 689.461288606321 2774.06516144987 210 210 212
238.689662758719 690.20979983279 2778.37076864156 210 210 212
232.004624196975 691.092818724229 2782.04444447244 215 214 219
228.549950357388 691.437830254215 2788.25815058859 218 217 222
222.669510511841 692.186318290139 2792.56964091955 211 210 215
215.159645541729 693.20498976935 2795.62576069816 210 209 214
201.932108955325 695.172608478617 2794.29964233629 213 212 217
191.935232798713 696.60211054105 2795.51361461195 221 222 226
181.915489172151 698.034036698717 2796.7495985011 222 223 227
173.515073329202 699.196436579279 2799.25155830654 226 227 231
160.98508396838 701.042004466441 2798.66805145594 229 230 234
149.245662124359 702.754869322546 2798.73602214218 230 231 235
138.302692356522 704.33445317395 2799.45005017704 232 233 237
127.333258352729 705.917078418663 2800.18990807281 231 232 236
117.167888908168 707.365534990967 2801.56805736392 229 230 234
106.147312691448 708.953958867145 2802.35784319795 228 229 233
97.6038449338525 710.132387774449 2804.99948658618 228 229 233
89.8818726916986 711.174568498001 2808.26241952341 231 232 236
79.6336044895711 712.632414337026 2809.72150077673 233 234 238
67.6821463512809 714.369755883825 2809.99674683544 231 232 236
54.0157250915869 716.387913466896 2809.09931566057 227 228 232
43.6879126790139 717.855197429289 2810.63599054023 225 226 230
35.0297454865363 719.046788708677 2813.38958677002 227 228 232
21.2682617936188 721.076281764844 2812.58487861865 230 231 235
2.36860076485801 723.94771754705 2808.25588616047 237 238 240
-26.8158360246615 728.50439523755 2796.88648687098 232 234 233
-45.00743490979 731.253339157554 2793.28972964055 216 218 217
-57.2660581885085 733.02735287994 2793.86423725091 212 214 213
336.773269092131 672.715280591644 2619.79233082874 153 155 152
340.686094822255 671.844941089647 2633.03973601543 208 210 207
344.645747711941 670.968416473912 2646.24121745557 196 198 197
347.891826930202 670.211632268277 2658.71701904393 210 211 213
345.078756015975 670.459644174107 2665.72484979037 207 207 209
343.042454981771 670.579110182116 2673.39724490845 207 207 209
338.722112025189 671.076507138071 2679.0308035956 206 206 208
338.249157517886 670.937808920222 2688.02308553922 207 207 209
337.029290701382 670.923021084487 2696.32150138721 208 208 210
333.512007866552 671.28783717609 2702.5944520556 197 197 199
326.130784228494 672.28995059632 2705.52493852171 185 185 187
319.514826590785 673.165014296467 2709.13152958962 231 231 233
315.226384026401 673.655854041571 2714.73437986864 210 210 212
308.601507237861 674.531288585566 2718.34943513262 190 190 192
301.96955427727 675.407012467309 2721.97181221805 181 181 183
295.330187755269 676.283330171216 2725.60112547091 149 149 151
291.827981841398 676.643415073697 2731.8598038016 194 194 196
284.393894865907 677.649126378598 2734.84225257746 204 204 206
280.108492021273 678.137283134495 2740.44248091446 192 192 194
275.827492394639 678.624589950666 2746.03846241161 193 193 195
274.726360242013 678.590456992864 2754.22217002573 198 198 200
270.461948229105 679.075024019668 2759.80208471692 196 196 198
265.404342072197 679.689263982514 2764.73357799763 197 197 199
257.148697984519 680.826336823819 2767.09552063531 202 202 204
250.481173284218 681.702843090406 2770.75276750599 205 205 207
243.00295863096 682.711227917751 2773.77864057275 204 204 206
237.124744458727 683.457535331832 2778.08858091416 201 201 203
231.24317412385 684.203970999409 2782.40183501887 212 211 216
229.404926378247 684.290567420704 2789.88241840417 212 211 216
225.148934120619 684.771596312858 2795.45449508865 206 205 210
218.457868621165 685.649288168521 2799.13528093333 204 203 208
203.607895530086 687.854497103757 2796.55133163755 205 204 209
191.980600917748 689.53328203942 2796.51333316453 215 216 220
181.960748123851 690.949241407387 2797.751785343 218 219 223
175.202073927261 691.834113168484 2801.4983085945 222 223 227
164.321832396693 693.387803636793 2802.15387359317 224 225 229
153.415127707185 694.944417424984 2802.83528483446 229 230 234
143.308573562959 696.369950592779 2804.15841773206 231 232 236
130.69322711351 698.201099408324 2803.66180286477 228 229 233
118.874414800284 699.901610471388 2803.81077318774 227 228 232
107.025226672914 701.605656044345 2803.98938474417 226 227 231
99.3180800433042 702.638065941117 2807.23903975292 226 227 231
92.4363800502062 703.536383149736 2811.10574220773 226 227 231
83.032471677289 704.841935308744 2813.16611776782 232 233 237
69.4078758968182 706.828415129226 2812.23149739127 237 238 242
55.7454406291966 708.819298367439 2811.33413920361 224 225 229
42.8891685562096 710.678447895012 2811.072966391 225 226 230
36.7672740986049 711.450357830991 2815.62076297449 220 221 225
24.705986198156 713.17913701037 2816.00633712478 217 218 222
7.51436196385846 715.73294884975 2812.86234003774 229 230 232
-24.2138093702668 720.624402989893 2799.71836114615 217 219 218
-49.2302680185848 724.431271830646 2791.40614164153 214 216 215
-61.4982635526364 726.184930415161 2791.99330236247 205 207 206
344.25826913919 664.571755854676 2617.81429032822 134 136 131
334.56286341526 665.944631667643 2618.73692950062 200 202 199
336.955323285324 665.353102216818 2630.61871598025 193 195 192
345.458083196867 663.771085422683 2647.91556585638 201 203 202
348.70537362184 663.043587007521 2660.38549842954 201 202 204
348.182121900662 662.928625356483 2669.42421799587 202 202 204
345.388529319095 663.181729718772 2676.41195380719 203 203 205
341.840235595581 663.557131740937 2682.71379630856 202 202 204
339.837546038111 663.682372150831 2690.3522991213 203 203 205
335.53913586865 664.178832164093 2695.96421670632 204 204 206
332.790008434499 664.424856767366 2702.90884435424 195 195 197
326.180921947133 665.294172875147 2706.50912391793 188 188 190
318.788254243904 666.289178521791 2709.45202503576 203 203 205
311.384385963079 667.285301335079 2712.40588337598 221 221 223
304.749757139267 668.156409170474 2716.03159988278 181 181 183
297.325553554785 669.154093101852 2719.00542074757 172 172 174
292.242584018137 669.77406618126 2723.96125288717 165 165 167
288.732125740254 670.14057062647 2730.22683928971 188 188 190
284.442186162429 670.632293681912 2735.83138341432 184 184 186
279.366625380768 671.250153393505 2740.78017090554 186 186 188
274.291556238919 671.867656281955 2745.72852292946 187 187 189
