ply
format ascii 1.0
comment KinectMotionCapture
element vertex 761
property float x
property float y
property float z
property uchar red
property uchar green
property uchar blue
end_header
-40.4137595249661 570.457157448581 2592.61138058023 213 213 215
-49.4590832763677 569.484740639527 2590.98974786704 219 219 221
-60.5320937223566 568.155522962768 2591.60209337088 249 249 251
-70.8955875743027 566.947560440925 2591.49377119359 252 252 254
-79.2026273051991 566.098033060127 2589.17292215261 251 252 254
-84.7981882865558 565.724150339635 2583.87965016315 254 255 255
-91.0715637531774 565.230992405591 2579.32944846477 250 251 253
-102.708645676503 563.790329501294 2580.76706417693 248 248 250
-109.634292538915 563.179587652389 2576.97875254409 243 243 245
-115.890282799326 562.686882212891 2572.44115604469 241 241 243
-114.845866015451 563.490514283826 2559.61576578587 239 239 241
-119.143164499175 563.348283914916 2552.79443761665 233 233 235
-119.49878027585 563.9097592176 2541.42356951719 230 230 232
-124.494505447103 563.646255225898 2535.3303592914 221 221 223
-124.260761456507 564.319082767433 2523.15196357962 216 216 218
-123.419326254617 565.105056676678 2510.17963267513 208 208 210
-120.025325585324 566.354089858823 2494.11932096807 205 205 207
-117.994942707996 567.364174763873 2479.53965103786 202 202 204
-115.376809602599 568.485730850788 2464.15158178551 193 195 194
-105.095327877456 570.997630419691 2439.50426239693 196 195 191
-68.6236606127293 578.261152892334 2383.22679981757 199 191 188
-15.8246891851219 588.51544037162 2306.68689462981 149 129 118
-2.94368422054414 591.558548484159 2277.75123816705 160 134 121
2.81483896071721 593.318707013447 2257.23213061796 168 135 118
0.258366815597988 593.570918650482 2246.73432154537 141 103 84
-1.06855680578888 594.050709636273 2234.65862343635 142 104 85
-7.46261117006264 593.606255280916 2228.78614909368 141 110 92
-13.8614543985636 593.16107402479 2222.90990504221 130 104 89
-21.5132423037214 592.485592015563 2218.59487034919 38 20 8
-9.88889236091439 595.360769933131 2189.98242387246 29 17 5
-16.3623055201105 594.908322932779 2184.0520856844 25 19 7
-49.9068699228673 590.928012994432 2184.41725346396 16 18 7
18.1449469578938 604.342117316965 2081.89701186014 15 18 9
173.040726627364 579.693738213975 2738.7500326805 221 225 226
175.825711341855 580.674182836036 2725.95227622137 253 254 255
164.979974947438 579.450642967879 2725.49458170817 254 255 255
145.886948724121 576.886727032331 2732.63774787535 250 251 253
123.118214882778 573.719097081539 2743.28902931626 252 253 255
108.669721693655 571.897473822851 2746.39206772868 254 255 255
97.2502077725248 570.565457134115 2746.75321129108 252 253 255
89.5770014145656 569.842445278451 2743.65715130867 253 253 255
77.4649986817644 568.392832295201 2744.75073593384 253 253 255
73.5148595568114 568.276873647713 2738.18120406399 252 252 254
68.0773026130894 567.918050922981 2733.00225437821 248 248 250
60.4306603037967 567.196633843642 2729.92575379646 246 246 248
53.5241894808016 566.596247322151 2726.15110125859 244 244 246
46.6209106694158 565.99595051613 2722.3790576095 243 243 245
41.1769302840646 565.636099598561 2717.1954462258 243 243 245
32.8247200851788 564.795727954458 2714.8418985242 243 243 245
30.27241879539 564.91459973692 2706.81680533643 239 239 241
28.4184198546895 565.151229697808 2698.06319178618 236 236 238
26.5370310610935 565.385551159428 2689.28971105403 237 237 239
18.8930787039112 564.663157119905 2686.21515552748 241 241 243
11.9717055947346 564.060278855012 2682.42968738316 235 235 237
5.05370927449178 563.457554660051 2678.64666792559 235 235 237
2.4004880791324 563.56750400698 2670.54837055062 235 235 237
-0.275674011673388 563.675494911435 2662.43313843405 228 228 230
-4.38658742979658 563.544629823015 2655.74698234393 227 227 229
-8.51176444280499 563.412400120985 2649.05047935743 226 226 228
-14.0541147144613 563.042648829956 2643.79580187351 222 222 224
-17.5041296686125 563.026074067891 2636.35428745802 220 220 222
-21.669862000351 562.889991366513 2629.62836553929 217 217 219
-23.76528724339 563.105330533808 2620.69962906811 218 216 219
-26.5808821225115 563.200871181391 2612.48355056167 211 209 212
-30.1096986166329 563.177155459702 2604.98458058076 216 214 217
-35.0337693985858 562.917554828937 2598.94362839927 207 207 209
-44.769352069189 561.838774977338 2598.05611014412 215 215 217
-54.4838982085962 560.761410958674 2597.18414336787 230 230 232
-66.9035628733052 559.219283080733 2599.28926531578 251 251 253
-75.8875178010632 558.261725432213 2597.71219543711 253 253 255
-85.5317455813045 557.189061853526 2596.89093327172 253 254 255
-92.4552165210017 556.58181206037 2593.10421669964 253 254 255
-100.720526692476 555.742864368997 2590.81367189505 249 250 252
-108.302717826317 555.020325350862 2587.78359318599 247 247 249
-114.540435208975 554.529070346339 2583.25925043237 242 242 244
-119.446872365177 554.268060404694 2577.23107410407 239 239 241
-119.715538121327 554.812104178036 2565.92285515894 233 233 235
-122.009890246789 555.007653804724 2556.84981210746 229 229 231
-122.353105364283 555.545150425969 2545.48751757671 227 227 229
-126.02329217741 555.505989654593 2537.88628147936 217 217 219
-126.436580772826 556.037331592124 2526.47315801434 212 212 212
-125.584866410308 556.793639010359 2513.50812842613 204 204 204
-124.782561876875 557.545734578052 2500.50725926451 202 202 202
-120.787490617285 558.863167360528 2483.6479862841 200 200 200
-119.448661921185 559.719646422176 2469.80125255475 191 191 189
-101.420306770065 563.52432369901 2435.95503223162 193 192 187
-47.6218230924601 573.665346394404 2358.90408446688 192 185 179
-10.8684833445865 580.829282635856 2301.59497675163 147 129 117
2.00152803628395 583.786185977415 2272.65091416126 163 137 122
4.57178442344919 584.925978961541 2255.99289932138 167 136 118
0.74577674495524 584.933033340444 2247.04390281299 138 101 82
-1.84152158722184 585.162942637807 2236.52363421379 134 97 78
-7.60272333490342 584.828255830944 2229.87515312668 128 99 83
-10.2420410553588 585.053263923845 2219.31714973721 111 85 70
-17.9052398118764 584.379386262169 2214.99355672384 39 23 10
-20.5898917772664 584.599945106051 2204.4026670364 31 19 7
14.0777617158165 592.276670382099 2131.9979118696 18 15 6
193.481177802793 574.53617946039 2731.30949619583 251 255 255
176.526579452778 572.367201003235 2736.29945043624 254 255 255
156.606023944059 569.724276611582 2744.07735939987 252 253 255
136.009052370062 566.967906186719 2752.59967640204 252 253 255
119.25574853463 564.814398416733 2757.73563169399 253 254 255
100.312783387852 562.308104145276 2764.9878722031 254 254 255
93.4087518746915 561.710912784222 2761.21529863412 253 253 255
86.5081889377839 561.11387257052 2757.44494579867 252 252 254
81.8414018184983 560.872953650016 2751.59030418448 252 252 254
73.4584726257999 560.038845893753 2749.21451935651 250 250 252
70.2609323436372 560.033583592072 2741.95608651867 249 249 251
64.8342962630428 559.672399899496 2736.78533611789 247 247 249
57.9330392021347 559.074795631579 2733.01447724008 246 246 248
51.0351091341112 558.477371271468 2729.24603108169 242 242 244
45.6009323616429 558.115248107769 2724.06980951384 240 240 242
37.9771490254477 557.400223390137 2721.0099122681 242 242 244
29.6353905794748 556.568465150556 2718.66398489383 241 241 243
27.09493730395 556.674186855544 2710.64711949968 237 237 239
26.6955294640341 557.128647504635 2700.47900017788 238 238 240
23.3830190352369 557.113175181666 2693.13717131139 240 240 242
15.7498342847102 556.396661560465 2690.07015676115 236 236 238
7.40954069588939 555.564215449146 2687.72528780889 228 228 230
1.93181009752097 555.197369063519 2682.51746921911 234 234 236
-0.709587156338287 555.294166382812 2674.42738217704 234 234 236
-2.66588279174362 555.504854873194 2665.59948017102 218 218 220
-6.76781371849056 555.366035100018 2658.92008986556 232 232 234
-9.47618236487147 555.456988782924 2650.78142423265 216 216 218
-13.6109108157705 555.315173095163 2644.07794865008 222 222 224
-16.3611209883032 555.402448787122 2635.90922704919 214 214 216
-19.8314433471289 555.372628240279 2628.45262979314 208 208 210
-22.6256146516581 555.455984127387 2620.2520199749 209 207 210
-27.5209147643634 555.193326939946 2614.23161430646 191 189 192
-31.045077753967 555.158617365603 2606.73625654128 207 205 208
-38.0294941287869 554.550572149299 2602.90506081665 200 200 202
-47.7551441949262 553.485930178598 2602.02510900662 231 231 233
-59.5113285235001 552.080755103587 2603.3765645963 252 252 254
-71.9148806597607 550.564188509111 2605.49349633288 253 253 255
-82.2410709247698 549.391310909059 2605.41268851093 254 254 255
-91.1869344254115 548.447144899065 2603.86329975197 251 252 254
-100.116025127146 547.504009081853 2602.32607517102 249 250 252
-107.009806221641 546.901195786987 2598.56090387309 246 247 249
-115.241092005673 546.072581556599 2596.29478193706 243 242 247
-119.449421680826 545.921169334499 2589.53819712499 239 239 241
-124.337899454397 545.655838666593 2583.52272357408 236 236 238
-123.923749416792 546.28873500661 2571.47490579642 229 229 231
-126.86367537368 546.356598538363 2563.16826237127 224 224 226
-125.868913679317 547.094741965821 2550.30683884251 221 221 223
-128.210553619724 547.26919478954 2541.19940898534 206 206 206
-129.924288826922 547.552905198765 2531.31267745144 206 206 206
-128.404753935332 548.391492970169 2517.59685087674 198 198 196
-126.288320029469 549.336826518059 2503.07923319515 198 198 196
-121.6358873556 550.722051245367 2485.46180228311 200 200 198
-117.059387744237 552.100825828706 2467.78929320231 191 190 185
-95.8112910537503 556.355151033649 2430.10363768912 190 186 177
-3.99112272188762 573.435146666909 2294.19181975771 147 129 115
5.03625607550529 575.643475711547 2269.86916785458 150 127 111
5.05862363012266 576.300772849237 2256.30213108258 157 128 110
0.600068459370107 576.183974499357 2248.12899668853 147 114 95
-3.87681200114742 576.065363005652 2239.94256871692 127 94 75
-7.74322799752158 576.054496267061 2230.96389410554 106 80 63
-9.75320822104653 576.369700250632 2219.62753112908 80 59 42
-10.550669128357 576.900170909055 2206.70087191412 66 49 33
-12.636830261715 577.208505977084 2195.30895450091 32 20 8
-9.18104984843637 578.49365197554 2176.82353790885 28 22 10
-40.0325910567112 574.42340415427 2187.78632547938 14 11 2
203.318216465184 567.642658210588 2733.46492294 235 239 240
187.083893967552 565.625639408801 2737.74275359367 251 255 255
163.316121534689 562.442056869349 2748.90476646524 250 251 253
144.188963442336 559.967680066233 2756.0236432455 252 253 255
120.60803856512 556.798457592974 2767.32117863425 252 253 255
100.136648715099 554.103341650271 2775.93484277421 253 254 255
88.7499660407145 552.811433672415 2776.31969508954 254 254 255
84.8729461105226 552.684222148283 2769.80311188637 253 253 255
82.4731750463603 552.787908681282 2761.88851419803 253 253 255
74.845309555521 552.078467901302 2758.82568599501 251 251 253
67.2254366698835 551.369574637379 2755.76836009833 250 250 252
64.0482715049342 551.354462262998 2748.52464772522 248 248 250
61.5895757159861 551.453185646319 2740.56701463001 247 247 249
55.4338178708371 550.973947221741 2736.10214696058 245 245 247
50.0095381490935 550.609519151136 2730.9330883012 241 241 243
43.8495085562893 550.129695692097 2726.46512098742 239 239 241
35.5037980982495 549.305533350978 2724.11636718999 241 241 243
25.7182738086512 548.253127631586 2723.19307325662 240 240 242
23.9154426286161 548.460117624235 2714.47640217577 236 236 238
22.0851477268735 548.664823005327 2705.73981048494 236 236 238
19.5080776285472 548.753239823659 2697.69631312184 237 237 239
12.6045974533318 548.156571077649 2693.92414187666 234 234 236
7.13475145947395 547.787425627598 2688.72173288271 226 226 228
3.08485785430213 547.64459632484 2682.07975075612 229 229 231
-0.268708813232266 547.613819353715 2674.70808182492 229 229 231
-2.22421633961067 547.807694061925 2665.88066597083 218 218 220
-5.61958254202777 547.773262015144 2658.47867715107 231 231 233
-6.92170233813583 548.075591012688 2648.8904287198 217 217 219
-10.36100725031 548.037270849415 2641.45656809756 216 216 218
-14.518411746586 547.884895552069 2634.73660067926 210 210 212
-20.084875951693 547.50652932811 2629.46439885403 208 208 210
-24.2663782493207 547.351783633403 2622.72695041873 205 203 206
-27.7691507991737 547.307664701699 2615.24705137957 206 204 207
-31.9812986897299 547.150018165489 2608.48737260661 197 195 198
-39.6501036865651 546.433098275419 2605.39453412182 220 220 222
-52.1152657136186 544.936513507446 2607.46690474564 246 246 248
-66.5938639994383 543.109035769015 2611.78342078311 253 253 255
-78.2927441567438 541.729652281529 2613.17654802895 253 253 255
-89.9572078302762 540.352758193976 2614.59463712765 253 253 255
-99.5549712009964 539.310455106784 2613.80750626322 251 252 254
-106.430370969211 538.711838889555 2610.05538676299 248 249 251
-112.629249081768 538.223551067612 2605.5592144545 245 246 248
-118.15820642734 537.845146511081 2600.31420195803 242 241 246
-122.355068954357 537.686139403824 2593.56559697974 237 237 239
-127.23238883144 537.415827884173 2587.55818679713 234 234 236
-128.13431769098 537.802604393841 2577.02543643037 225 225 227
-130.396267942456 537.967232781448 2567.97572556666 220 220 222
-128.727024769532 538.785368700423 2554.36861660439 216 216 218
-130.399233578147 539.053165472272 2544.51161336031 203 203 203
-130.137208582556 539.64515057177 2532.35330966968 201 201 201
-129.26708167575 540.342010919938 2519.40132661664 200 200 198
-123.889872328718 541.795052292701 2501.07460865796 200 200 198
-119.890365818155 543.024513149207 2484.21810529049 195 195 193
-111.436889635491 545.006001663296 2461.94834340065 186 183 176
2.24941264707734 565.877470120488 2287.56122281076 143 124 110
7.43451856949617 567.370172850777 2267.86040924328 147 124 108
4.27440443121885 567.459590450521 2258.1592192528 145 116 98
1.08708380409706 567.546445558362 2248.43829371841 137 104 85
-5.28247719396524 567.095491817069 2242.58354221895 118 87 67
-7.25540230910227 567.391910698654 2231.27365165409 99 73 56
-4.25178045138663 568.538632630233 2213.69479115958 80 58 44
3.05092526979989 570.424864613468 2190.59032871045 74 56 42
1.54110778419048 570.81370602248 2178.38188073559 42 30 18
-8.68785163104202 569.712701065385 2177.13659057453 29 21 10
-4.07005357357582 571.156686957939 2157.02398219138 21 17 8
-58.869668275334 563.03732056489 2198.77604736551 10 12 1
195.560954036738 558.086475654615 2751.26057672576 254 255 255
188.5011557202 557.482091774132 2747.37475356823 254 255 255
161.650132410997 553.899877905 2761.24036840428 253 254 255
139.471682241315 551.012989011875 2771.08564997864 254 255 255
124.953780526027 549.275179379846 2774.13879720173 253 254 255
109.728345912362 547.426899335099 2777.91381027909 253 254 255
93.0496854313669 545.354924819765 2783.10428911365 254 254 255
81.6838773944508 544.083377862593 2783.50437703175 254 254 255
78.5772915769836 544.06269162141 2776.31180090113 253 253 255
76.1981388176518 544.153889182841 2768.41208660287 252 252 254
67.1022767176455 543.224605689841 2766.75403604099 249 249 251
62.4723170010286 542.97454220518 2760.92604507791 247 247 249
60.0504690630079 543.062101749542 2752.99536170618 245 245 247
57.605747496261 543.147797916505 2745.04779283744 244 244 246
50.7279831050735 542.556587961351 2741.29429116275 242 242 244
44.5865591422225 542.077883431035 2736.83981713478 238 238 240
39.9051068197895 541.823230264334 2730.9744748352 236 236 238
34.4854479471568 541.45571139276 2725.80875027244 239 239 241
28.3342702487452 540.975858238196 2721.3471997354 238 238 240
25.0779163855417 540.94228195898 2714.04569378461 233 233 235
21.0810449868757 540.795652759311 2707.44212933984 233 233 235
16.3502087958936 540.536411868739 2701.54125885933 229 229 231
10.8922864685992 540.165136048643 2696.34777727202 228 228 230
8.28950946074869 540.237042189243 2688.28556079176 222 222 224
4.95067002914196 540.196226451214 2680.92451709984 216 216 218
-0.53900523818573 539.821960082151 2675.70800198094 218 218 220
-3.19997038105435 539.88879387199 2667.60357798735 211 211 213
-7.29666685728736 539.733121826714 2660.92760240968 220 220 222
-6.47890232011794 540.3466785794 2649.17227543748 219 219 221
-9.91774689229619 540.297014512006 2641.73869106642 204 204 206
-13.3751466132934 540.245757654902 2634.2916476042 202 202 204
-18.2462249182507 539.973651635316 2628.28875298093 207 207 209
-23.8223998209377 539.591182954813 2623.00949088403 206 204 207
-29.4038894048754 539.208094136036 2617.72607844314 208 206 209
-36.3727080108498 538.606221864182 2613.90651561822 201 199 202
-44.7152892584348 537.786674322517 2611.56005362709 246 246 248
-55.7913651172077 536.533072600054 2612.17026548047 248 248 250
-71.6271658492549 534.521970891141 2617.97205966733 254 254 255
-85.3559250187592 532.840443397744 2621.59755824312 254 254 255
-99.7169715460422 531.054212628596 2625.99949898306 252 252 254
-107.927235278439 530.243830942114 2623.74900320936 249 250 252
-114.098928639307 529.757625900601 2619.27254825722 247 248 250
-118.251868464288 529.594081735089 2612.5557608019 243 244 246
-123.089850176937 529.321669717824 2606.57685705477 240 239 244
-127.268805371706 529.155450450984 2599.84119695278 234 233 238
-130.128795101324 529.20216855247 2591.59268837595 230 229 234
-131.018611781617 529.567641840669 2581.0686104814 219 219 221
-129.958002883145 530.250319935673 2568.25434557628 213 213 213
-131.586699018085 530.50232495352 2558.42910008662 209 209 209
-131.273947512229 531.070877567263 2546.30745043568 203 203 203
-129.039653239656 531.954305516303 2531.87495868512 199 199 197
-125.55714335283 533.044939306721 2515.87830135161 204 204 202
-120.188282497933 534.447676761621 2497.54498211653 200 200 198
-116.846416114171 535.52657791043 2481.446015401 188 189 184
-99.9921024851676 538.81635385936 2449.21646698189 183 179 170
11.692557025734 558.794590188528 2277.07919279744 124 108 95
13.0226463937473 559.603602451922 2261.99084668476 141 118 102
6.0319020709394 559.046892953019 2256.92028709192 132 105 86
3.47415339303048 559.221244601188 2246.42115825728 130 99 79
-1.63982941952701 558.97545406541 2239.00727363651 117 86 66
-3.62305124469797 559.248794585868 2227.69009634738 99 73 56
-3.13522092522955 559.9348584183 2213.22559254687 90 68 54
4.16850441052796 561.757844557582 2190.12154888544 91 73 59
-0.453845906832395 561.6036703447 2181.82948657794 57 45 33
-12.5352633058535 560.206530329524 2182.94521447319 35 27 16
11.8722043030224 564.903762743159 2137.67121578775 16 12 3
-35.3620285009124 557.625568006931 2183.6765173469 20 17 8
203.979075109245 550.576680774775 2764.73582248047 218 222 223
189.249191851943 548.852137747597 2767.63536695781 251 252 254
183.757017003379 548.477161062149 2762.41703624123 252 253 255
168.331629817719 546.645870318476 2766.04718548611 254 255 255
144.581701697367 543.588657684911 2777.22277416913 254 255 255
120.172526978845 540.427474865034 2789.15497092382 250 251 253
110.252601632984 539.392459499318 2788.13404040505 254 254 255
101.86330334356 538.581613813637 2785.75375630992 254 254 255
91.2280414135527 537.438184321311 2785.44904500257 254 254 255
79.8677495912159 536.185754181286 2785.85322857279 254 254 255
73.7752365315161 535.711101595318 2781.43423162622 252 252 254
70.6661069102204 535.678738465138 2774.23975229218 252 252 254
64.5628175052453 535.203063515484 2769.81293816447 248 248 250
57.7167806542627 534.61695259869 2766.08216781139 246 246 248
53.0924100104784 534.361258380487 2760.25849444273 244 244 246
49.9329798678616 534.32461124376 2753.02752948797 243 243 245
46.019826749764 534.176609127696 2746.48464725733 241 241 243
42.825445053412 534.137000679318 2739.22803569872 237 237 239
38.8813471182532 533.986352686804 2732.66300198492 236 236 238
34.1947877570341 533.725251667673 2726.79392482429 237 237 239
28.045730797388 533.245092366078 2722.33391010534 236 236 238
23.3438486397044 532.982540926195 2716.45371777588 232 232 234
19.3539106943357 532.827750816549 2709.85513820275 233 233 235
16.0693899414222 532.780253019555 2702.53343743429 228 228 230
12.0487226311736 532.622764385297 2695.9125678202 226 226 228
9.44432519873706 532.68039032761 2687.84939880457 222 222 224
6.81700764257087 532.736119254003 2679.76931041633 211 211 213
0.612061699152733 532.250416676573 2675.26875250254 214 214 216
-2.05059608659131 532.302964417639 2667.16332359137 204 204 206
-6.85562041158683 532.031011795163 2661.20831368482 211 211 213
-8.14921621074371 532.294779644941 2651.62604916103 211 211 213
-12.9849151529999 532.020013445391 2645.64878831847 203 203 205
-16.4308483296727 531.958214693738 2638.21000380216 204 204 206
-18.500125730788 532.108490207654 2629.29989289939 204 204 206
-22.6831775933756 531.936353018312 2622.56123306004 209 207 210
-26.1873645212631 531.869357112626 2615.08019283167 196 194 197
-35.9293593360623 530.843897341703 2614.18859083009 206 204 207
-46.3390469878524 529.713723401113 2614.04747027299 246 246 248
-62.9025713292817 527.631698608916 2620.55639947481 246 246 248
-78.032124059368 525.766073071583 2625.63586814666 255 255 255
-93.1051357858228 523.904699395125 2630.75634613519 255 255 255
-103.361745982534 522.785641943537 2630.72625099932 252 252 254
-112.91488843277 521.773618903638 2629.97132568979 248 249 251
-119.06906108855 521.288474771742 2625.5075772444 244 245 247
-125.224109581857 520.802990840071 2621.04319216453 239 240 242
-128.024389174898 520.840864794847 2612.83792394264 236 235 240
-130.84746192576 520.876732531728 2604.6158278353 227 226 231
-131.693424355348 521.223653291689 2594.12344685077 221 220 225
-131.910962093815 521.671678498488 2582.85180534381 209 209 211
-128.857684210782 522.636469543233 2567.77838778136 204 204 204
-131.147736660122 522.765006340009 2558.70812222368 200 200 200
-132.807313729738 522.994824070646 2548.86037810246 202 202 200
-130.564580726713 523.842969874218 2534.43382505667 200 200 198
-123.806021050242 525.409559937716 2514.63868484235 196 197 192
-117.136668431912 526.968803747009 2494.77883931759 177 178 173
-110.556533257582 528.520670588819 2474.85428079789 171 172 167
16.6587243956458 550.918059239121 2271.99353196664 123 106 90
16.0611881217809 551.383683537166 2259.21147392546 125 99 82
11.6042188698557 551.233736359336 2251.03932129247 128 101 82
7.76258037642164 551.183803001864 2242.07841054162 125 96 78
2.004068691706 550.826880803967 2235.43206138894 122 93 75
-2.50547365693321 550.671678487662 2227.22147630085 112 86 71
-2.6452666078034 551.22324626077 2213.53664485468 114 92 78
2.16305828304364 552.578921816562 2193.56170612983 115 96 82
5.64174005660734 553.725704346346 2175.09219038434 69 55 44
20.8291071142401 556.779342138994 2141.6527462579 46 38 27
-1.84271706775374 553.688007817632 2156.08007039606 25 21 12
-6.54587697386622 553.515039644733 2147.729332298 17 14 5
220.086427689765 544.197587571291 2771.43963375551 202 206 207
219.206703383365 544.477229330219 2762.15747391376 242 246 247
206.739087070701 543.107829785435 2762.99337848557 252 255 255
190.46436808778 541.193016123548 2767.24244255413 254 255 255
179.607952673825 540.048608104256 2766.77740741018 254 255 255
164.194109778594 538.250593494403 2770.41579943071 248 249 251
139.691956918054 535.14748747556 2782.28118299347 251 252 254
114.535021427476 531.943540630636 2794.90613202748 251 252 254
100.088152979691 530.27049286134 2798.01139529073 254 254 255
93.2393162766276 529.686903340801 2794.27860803649 253 253 255
86.3938082169717 529.103463989871 2790.54823454753 253 253 255
76.5489171648333 528.087263029766 2789.58208776529 252 252 254
69.7190165083148 527.50493869301 2785.86303406371 250 250 252
65.8774381295801 527.354340923024 2779.37202474161 250 250 252
62.7656219184001 527.310259464678 2772.17553848558 247 247 249
56.6678541138872 526.834434388087 2767.75272632346 245 245 247
52.7879601488337 526.680583268764 2761.23392473629 243 243 245
47.4188537668634 526.311065843561 2756.10483662978 242 242 244
43.5149434368025 526.155119771296 2749.56861445573 240 240 242
38.1305350300845 525.784213351897 2744.4284265494 239 239 241
34.9334202488456 525.732852936831 2737.1697741932 236 236 238
31.7174916726497 525.679859265302 2729.89776951979 233 233 235
28.4829565010627 525.625328380133 2722.612268742 234 234 236
24.5054804919 525.462974588819 2716.02268478084 232 232 234
19.7917525722713 525.193399512868 2710.13386962964 234 234 236
17.227579542447 525.240363771448 2702.09980613837 227 227 229
13.2050558258996 525.074061894373 2695.47754613492 222 222 224
9.88371990704762 525.011961486309 2688.1290833019 221 221 223
6.54366363108139 524.948195161005 2680.76704124429 208 208 210
1.762999945357 524.672570231453 2674.82967228407 209 209 211
-2.31878692793441 524.500959555331 2668.16442426345 200 200 202
-7.12136274513364 524.223230907774 2662.21116007574 202 202 204
-10.5250858429771 524.153769165529 2654.80293573183 210 210 212
-13.2452697795606 524.187138899735 2646.65570774586 202 202 204
-16.6883896397059 524.114206374833 2639.21861179097 206 206 208
-18.0569013743488 524.35189102026 2629.58190699019 200 200 202
-22.2396928906012 524.17114194058 2622.84339226052 205 203 206
-27.8235017871205 523.781572617492 2617.55856015243 193 191 194
-38.9421084849131 522.562761464474 2618.13811671405 211 209 212
-50.7198842177932 521.242595622957 2619.47464529951 248 248 250
-67.2704458865512 519.202366233772 2625.99318312134 252 252 254
-82.386709825458 517.373095959597 2631.08246926808 254 254 255
-96.76415198525 515.650926567096 2635.47284894762 254 254 255
-109.049077086443 514.240755066039 2637.67631486568 250 250 252
-117.227331753835 513.448698607723 2635.44882149017 246 247 249
-124.042088786158 512.861995513163 2631.7410180227 241 242 244
-128.832542955283 512.581962944449 2625.79652940656 235 236 238
-132.290225790423 512.504873823779 2618.34914986335 232 231 236
-132.420919465308 512.935290044473 2607.14037427844 222 221 226
-130.59172163424 513.667209341403 2593.64878315727 215 214 219
-128.816274534403 514.394614511743 2580.11790964198 206 206 208
-126.432252508278 515.218808091383 2565.79365870156 202 202 202
-128.06806272426 515.431253949913 2555.96305568779 199 199 199
-129.735613361174 515.640919377015 2546.10942928208 201 201 199
-128.155714548328 516.351706285695 2532.43671446557 201 201 199
-120.747339507769 517.963461383905 2511.87783141703 188 189 184
-110.175595744844 520.069645974709 2487.43887414779 176 177 172
-99.0704973556618 522.266614907354 2462.15198024086 175 176 171
15.1258697250265 541.464368470763 2288.12613881255 111 93 79
19.7059188654727 542.703441566718 2269.22045861636 124 105 90
17.8246583111217 542.942016181902 2257.97672465522 116 90 73
14.6353255522746 542.978952044954 2248.25438210981 125 98 79
10.7853255406041 542.914331386592 2239.28733552187 121 92 74
5.64956592266697 542.649839315109 2231.85756970318 121 94 75
-0.758618641274467 542.186585958605 2225.97475685657 115 92 76
-0.274308229587739 542.80601913248 2211.50736390237 119 96 82
2.65553537777707 543.814013445623 2193.87431729693 112 93 79
10.4947470762209 545.601150373423 2169.92324091513 66 52 41
10.1620692704976 546.105756691106 2156.09834525228 51 43 32
-3.20134826919682 544.552543318908 2158.75430107942 12 8 0
-12.8251169398061 543.588170586559 2156.71338204451 13 10 1
218.985534086476 536.174084351053 2773.07100512105 217 221 222
209.610735265306 535.25507332958 2771.2110938863 252 255 255
197.170397786169 533.909152472743 2772.06689239088 247 251 252
181.690532541782 532.138389925871 2775.65785591562 253 254 255
165.496313364578 530.264943226218 2779.96548554311 252 253 255
149.358098988124 528.395824436656 2784.31373616758 254 255 255
130.228892111074 526.105621200908 2791.43206061552 254 255 255
108.894462161715 523.502519340216 2800.65559126794 249 250 252
93.7062186639173 521.754340467887 2804.45777753404 253 253 255
84.6111566238581 520.856915856724 2802.80076280123 253 253 255
80.0509241780061 520.594846761226 2797.02325781399 253 253 255
72.4774621526647 519.909872254627 2793.99999177064 252 252 254
67.9063554199617 519.646802732991 2788.21459871345 250 250 252
62.5789612037231 519.277722075501 2783.11575085838 249 249 251
60.2231539877716 519.328113571971 2775.23245907495 247 247 249
55.6179746293215 519.062114914591 2769.42264568457 245 245 247
50.2633819396054 518.690671159509 2764.30377462906 243 243 245
44.1656504466033 518.214191842588 2759.88098547607 242 242 244
40.2731037835204 518.050428821108 2753.35296147233 240 240 242
37.0994923056069 517.989586661356 2746.11159361242 240 240 242
34.6380772897037 518.031089579698 2738.15199393564 236 236 238
30.6961456955617 517.863101788738 2731.58814834216 232 232 234
27.4665292767224 517.79749856488 2724.30615718963 232 232 234
22.7694935133207 517.523435781805 2718.42941980759 233 233 235
20.2292754471012 517.558260632735 2710.41236581514 236 236 238
18.3857065163693 517.694196349252 2701.66609764253 224 224 226
13.643671191109 517.416189380741 2695.75671913968 214 214 216
9.60721644430063 517.239916850203 2689.12430973177 216 216 218
5.55658696630523 517.062421328589 2682.48161856403 202 202 204
2.91394778274778 517.08845146273 2674.3905672479 202 202 204
-1.87860898518655 516.805784127687 2668.4445410674 200 200 202
-8.09463707279989 516.318033704543 2663.93593909803 192 192 194
-12.1980010371563 516.13566866327 2657.25499491063 203 203 205
-14.208445495608 516.257179085388 2648.3873875627 197 197 199
-15.5463421582187 516.477837537419 2638.77279003996 208 208 210
-17.6139951957539 516.594489387316 2629.86368636253 192 192 194
-23.1879842114071 516.202698521424 2624.58596164309 185 183 186
-30.8480619852383 515.507256967904 2621.49985297753 196 194 197
-43.3394295458081 514.10630965465 2623.5534165964 243 241 244
-57.1705480701417 512.506803047009 2627.10542262039 246 246 248
-74.3885489477001 510.408356145512 2634.37515573895 248 248 250
-89.4827109883298 508.616110286595 2639.4806515594 251 251 253
-102.472827780172 507.128566520551 2642.40755369479 250 250 252
-113.378763479132 505.944190308989 2643.14145442185 246 246 248
-120.864185216566 505.260915937958 2640.18172479657 240 241 243
-126.99000621454 504.777306872887 2635.73853684839 231 232 234
-130.422065104661 504.691211099812 2628.3096870293 229 230 232
-133.201266893936 504.702653254803 2620.1195646749 226 226 228
-132.657125597944 505.207564300929 2608.16533206385 213 212 217
-130.82387971882 505.906538807411 2594.67621411023 206 205 210
-130.374255658485 506.403494184286 2582.65342364091 200 201 203
-128.644383316074 507.093750754502 2569.08932384636 200 200 202
-129.610071699411 507.385880732471 2558.50987343677 200 200 200
-128.637280108799 507.969513850544 2545.63144620873 202 202 200
-126.402007208414 508.745123749112 2531.19911776667 196 195 191
-119.648736916226 510.200938486833 2511.39958206594 167 164 159
-105.16622918631 512.821803795437 2482.38771376329 184 181 176
-79.7873335105774 517.089032689449 2440.28581922061 177 174 167
18.180481862577 533.277087069469 2285.35858115151 108 89 72
20.1923120409426 534.078647399527 2269.52936912661 111 90 73
17.6736720375148 534.198395017189 2259.05831442454 114 89 69
18.3036795598945 534.797668340762 2244.69643830159 114 87 68
13.809161061924 534.62194673356 2236.49693486623 120 93 74
11.8228967632197 534.828894017936 2225.17692125125 121 95 78
5.39466816693324 534.361029680515 2219.27955470231 114 92 78
7.1148874166056 535.137323318292 2203.23881971114 109 90 76
10.0225511453642 536.099459750207 2185.58946215914 90 72 60
22.8229378454423 538.582012847752 2155.35719336808 50 37 28
20.5879444967136 538.767327068168 2143.85705565789 45 38 28
-20.6374372572939 532.961087406354 2181.87450759795 59 56 47
230.380155245124 529.489690740219 2773.88683714856 242 243 245
216.333145869906 527.951417276193 2776.04731833913 249 250 252
202.329086430455 526.416548556185 2778.23895210044 249 250 252
189.138821673944 524.989347569808 2779.78573724673 253 254 255
175.986892687456 523.565128143129 2781.36062239004 253 254 255
156.742844704766 521.312057377439 2788.39588415295 253 254 255
136.80813408247 518.960860804176 2796.1653039086 253 254 255
119.999412819755 517.030323244941 2801.26221531292 253 254 255
104.010899050281 515.207893671142 2805.71922359224 253 254 255
91.8663966952806 513.906326335541 2806.78970395107 252 253 255
79.7558513431951 512.607341022807 2807.88510802147 251 252 254
72.9516992166146 512.031628198133 2804.18475346735 250 251 253
65.3999665352028 511.353357811432 2801.17727344683 249 250 252
63.0974684364389 511.393908656714 2793.33257673528 247 248 250
60.0252909862733 511.330111690993 2786.16472560012 247 248 250
55.4458057947804 511.060284487559 2780.37322459035 246 245 250
51.5986501321084 510.891670213708 2773.87808091895 245 244 249
46.2571489805108 510.517966659894 2768.7689832295 242 241 246
42.3858790112552 510.347279370649 2762.25634808241 241 240 245
37.02917047544 509.972224361485 2757.13621939021 240 239 244
33.1337870248625 509.799449187748 2750.60609329035 238 237 242
29.9552294183751 509.726645908181 2743.36107929085 236 235 240
26.7580419689946 509.652288595712 2736.10255224917 231 230 235
25.7226713591763 509.878998770568 2726.70699849448 231 230 235
21.7567773720586 509.700193224408 2720.12602173391 232 231 236
19.9439360881932 509.821775044698 2711.40166150593 233 232 237
18.1036061845958 509.941085172366 2702.65736268431 218 218 220
14.7997770795456 509.857640617873 2695.32148280192 205 205 207
11.4774339916841 509.77264105806 2687.97187938484 211 211 213
6.70905143517242 509.486266799674 2682.04365330683 207 207 209
4.77635254866859 509.597690738847 2673.23235429314 197 197 199
-1.43874674449784 509.109761647196 2668.7244247217 194 192 195
-6.24098272569396 508.820246190691 2662.77134718585 198 196 199
-9.64368637670887 508.728059833559 2655.36374675605 203 201 204
-10.2550471847507 509.030149674683 2645.04120641618 208 206 209
-10.9025199907284 509.329273810958 2634.69217821943 203 201 204
-15.7752026829681 509.033449369486 2628.68829488011 171 169 172
-22.7453142452039 508.441274917024 2624.86754940795 173 173 175
-34.5678756098744 507.161143310397 2626.17152023743 217 217 219
-49.8137034046906 505.392905201696 2631.16719191994 238 238 240
-65.0030624141651 503.628913103382 2636.20382053693 253 253 255
-81.5101626601806 501.673586008805 2642.75458899551 254 254 255
-97.9518443819583 499.723234530852 2649.35251146386 254 254 255
-110.915115100808 498.26488015896 2652.29931721754 252 252 254
-121.113052218878 497.198704101799 2652.31172882619 243 243 245
-126.537843231696 496.813861969934 2647.14219611976 239 239 241
-129.939843836809 496.719029159723 2639.73509193813 231 231 233
-132.012738525566 496.81597406106 2630.82208865628 229 229 231
-132.769855803972 497.103567530879 2620.39381291347 226 224 227
-132.893689181722 497.48444432311 2609.18975957738 209 209 211
-131.723733037181 498.05426767702 2596.45419119301 204 204 206
-131.268287387909 498.523883921551 2584.43548243966 200 204 207
-128.869759998605 499.277211914632 2570.12168227542 201 202 206
-127.189918350588 499.930003711998 2556.52112439634 199 200 202
-122.272301403646 501.055721224037 2539.09461676795 196 194 195
-117.430674742615 502.175148251866 2521.61299029706 180 176 173
-108.087498106957 503.954289443484 2498.75183521744 180 171 166
-91.6827943863523 506.769340755306 2467.4289870359 184 174 165
-54.0005175910905 512.699872857504 2410.78703817568 171 158 149
22.3938056385262 524.771377270509 2294.54559847652 110 87 69
25.7360542249239 525.726690148532 2277.21124619969 113 91 70
24.5223735976596 526.017335485236 2265.21668229383 115 93 72
22.6296474320762 526.210542217915 2253.96470134617 113 88 66
21.9732876880747 526.587998792852 2241.13955432924 114 89 67
20.0041092101704 526.774434110991 2229.83182269324 116 94 73
21.1576693809081 527.424565507929 2214.61470203522 115 94 75
17.2164977662068 527.324041619569 2205.58167582663 106 90 74
18.2714615357367 527.965647914094 2190.2930373519 83 71 57
24.2693511476015 529.345014081385 2168.71019174208 59 49 37
36.4025981671596 531.643269673831 2139.22869676217 53 46 36
229.327134035622 521.138458433613 2785.43242868622 222 223 225
223.831818543026 520.750267490652 2780.21145983992 254 255 255
208.252457522298 519.03641607531 2783.73058501914 252 253 255
191.951696023019 517.224850897257 2787.96129328574 252 253 255
171.081639707666 514.808031684041 2796.28736522482 250 251 253
161.055935935817 513.817648953575 2795.18997974073 252 253 255
141.086504981537 511.512569830852 2802.93446358073 252 253 255
123.488178316632 509.516820087818 2808.69367949462 251 252 254
106.716851774686 507.627040137297 2813.81790557539 251 252 254
94.565295093556 506.346359710639 2814.883672376 251 252 254
86.9943976710648 505.671724119724 2811.86202335961 250 251 253
74.8979816469957 504.39525679002 2812.96778413944 248 249 251
69.6156196911275 504.023431659608 2807.90156722966 247 248 250
60.5723229186861 503.150861614105 2806.28190966032 245 246 248
58.2859705423768 503.178471543044 2798.44885177925 244 245 247
53.7361903808238 502.905056883266 2792.67916088547 244 245 247
49.9212927182828 502.730333270158 2786.20737078178 243 243 245
46.8343955977035 502.653783418736 2779.02878444751 241 241 243
41.5086673493987 502.278121121596 2773.93081647383 239 239 241
38.3911056548749 502.199012417934 2766.72998777441 238 238 240
33.7834673974688 501.920586593733 2760.91803445264 237 237 239
32.099954902661 502.036002258144 2752.28769066809 239 239 241
30.3890920704428 502.149176945875 2743.63721421226 235 235 237
27.1924413056555 502.06340723428 2736.37901841864 230 230 232
25.4310090254135 502.17235080917 2727.69186165932 231 231 233
20.0185763208967 501.789126789784 2722.53100147335 230 230 232
18.2130795676771 501.894361649781 2713.81217712882 228 228 230
16.3801610840193 501.997334813512 2705.07316825374 219 219 221
13.8017037424634 502.000519248975 2697.02823352959 204 204 206
11.9160517378831 502.099041177965 2688.25097445342 202 202 204
7.86154709220543 501.903886504615 2681.60567912386 199 199 201
6.63906647573631 502.09526020864 2672.07430634604 200 200 202
1.12868344555794 501.703290001421 2666.84269005449 198 196 199
-2.97291464453631 501.503921540696 2660.16293986136 184 182 185
-4.97413352308373 501.592528633766 2651.30185367133 188 186 189
-6.30019322530639 501.775058620507 2641.69564388561 185 183 186
-8.35859661017402 501.858809091518 2632.79307882682 182 180 183
-13.9359818479066 501.46067909652 2627.51286000458 146 144 147
-21.6069371464385 500.774751766033 2624.41891418064 126 126 128
-34.8208985233196 499.32469558416 2627.18373648126 242 242 244
-53.524787186328 497.114840396929 2635.8458267872 250 250 252
-71.4607959568891 495.006120796352 2643.83004525703 249 249 251
-90.6972283976337 492.712965546514 2653.34099238842 251 251 253
-106.425470325674 490.900502888754 2659.22176439367 250 250 252
-116.630372112512 489.850112907582 2659.22950160191 245 245 247
-123.406717360243 489.274079188576 2655.54959769933 236 236 238
-128.822528940547 488.886817582212 2650.38626764302 234 234 236
-132.215236977373 488.781401184732 2642.98584623449 228 228 230
-132.930640830473 489.050238823674 2632.58771444191 224 224 226
-133.010395065834 489.409818154949 2621.415507141 215 213 214
-135.139486967687 489.484989300567 2612.46165501171 205 205 207
-135.961313345803 489.744712641649 2601.98632909386 203 203 205
-136.819219396475 490.001323537059 2591.48453800922 200 201 205
-133.073051826324 490.906573067746 2575.67807274926 196 197 201
-127.411768441815 492.085122919498 2557.5556012921 192 193 197
-116.563061064491 493.999055251959 2533.31644706203 176 175 173
-107.798964553765 495.625841363807 2511.27006383938 172 168 165
-96.5211979841063 497.613834426421 2486.10728227742 181 174 168
-67.7636368902366 502.082351445585 2440.28019634166 143 129 120
-19.7564876371887 509.293263552092 2371.36739479462 81 64 54
29.820246135607 516.74993795074 2299.8885535094 96 78 64
33.846194754561 517.756077988081 2281.81475632041 104 83 64
33.2950259450864 518.115171485 2269.06577144419 106 83 65
31.4172584618104 518.287634185687 2257.82452929197 105 84 63
29.5033485429919 518.456900098854 2246.55707052454 105 84 63
29.4626109497886 518.896008698915 2232.94318231619 106 85 64
30.640673951531 519.512458040758 2217.74365367703 99 82 62
30.4966398861812 519.942641266713 2204.05513291981 105 90 71
24.6359588889074 519.554340872125 2197.33426563829 110 101 86
231.353911569999 513.237599722538 2794.27217781969 218 219 221
218.076671352047 511.851815346305 2795.75641685815 241 242 244
211.836732003802 511.363561695948 2791.23047855671 254 255 255
197.066163921194 509.78388740587 2794.10126352464 249 250 252
183.889225689234 508.405959761933 2795.6582534092 252 253 255
163.040399110827 506.042314755005 2803.99998457548 252 253 255
146.11837867872 504.178637640287 2809.01510165532 252 253 255
130.023366606388 502.418167833905 2813.39522088056 251 252 254
114.748908092262 500.760442168759 2817.13566068175 251 252 254
98.7638802082786 499.00852384532 2821.59555310724 250 251 253
86.6354042445847 497.751061269732 2822.67787473845 250 251 253
81.3618344681215 497.376796917654 2817.61801911202 249 250 252
73.0602107892477 496.611364574695 2815.30152224068 247 248 250
66.277672454174 496.041823750501 2811.61686724769 246 247 249
56.4933746535687 495.083210628572 2810.69493750036 243 244 246
51.973674028174 494.806248006782 2804.94673945612 242 243 245
48.9378655695414 494.722395966125 2797.80515139616 242 243 245
45.1388082826636 494.540233003085 2791.34480663707 241 241 243
42.0678577161402 494.453459380004 2784.17772851474 240 240 242
37.4978557441628 494.172227620766 2778.39304432685 237 237 239
34.3940259094846 494.082715730515 2771.2021174515 236 236 238
31.2715662319132 493.991649807362 2763.99767753396 236 236 238
28.8642551486031 493.994957920926 2756.07681101132 238 238 240
27.165210702504 494.09212278622 2747.43482086289 234 234 236
23.9802190641463 493.995826781376 2740.18502370109 229 229 231
21.5034724660215 493.993340970804 2732.21408702158 231 231 233
18.2789803469556 493.893700204539 2724.93534369944 228 228 230
15.7582369904086 493.887500806332 2716.93249402076 225 225 227
15.3760210079081 494.164127319601 2706.77564220132 209 209 211
13.5207686389784 494.248289496551 2698.02064221183 208 208 210
13.0702897275392 494.519251527702 2687.81427644668 199 199 201
9.01411922971862 494.315243882309 2681.16743418628 207 207 209
8.50192885938972 494.58109746781 2670.91660106933 209 209 211
4.40614697234887 494.373656818825 2664.2410262787 197 195 198
1.71063978929986 494.35269180512 2656.11111730477 186 184 187
-0.303123612533263 494.423430318441 2647.24114129124 166 164 167
-2.34423157494601 494.491823771393 2638.35103626697 168 166 169
-4.41287217630948 494.557867285907 2629.44096034225 184 182 185
-10.6996208259336 494.062550586225 2624.88105320354 151 149 152
-21.1647226634566 493.008900091995 2624.70014932695 122 122 124
-35.0743087375027 491.492955757174 2628.19540133194 240 240 242
-57.9297757389476 488.776060188847 2641.25616437103 245 245 247
-78.6116705853557 486.344671035395 2652.1889325103 255 255 255
-102.638543734002 483.45881015649 2666.87003012705 253 253 255
-116.273793718676 481.963730932596 2670.56425990375 247 247 249
-124.397732923115 481.207838828675 2668.3766186231 242 242 244
-128.424669199131 481.003406457917 2661.75096672265 235 235 237
-132.465821749769 480.797628242972 2655.11500232438 234 234 236
-133.815774558884 480.956236897601 2645.4913507493 225 225 227
-133.175158246201 481.385904656926 2633.60667381465 220 220 222
-133.25147985721 481.720669666675 2622.43682920696 213 211 212
-136.04738028446 481.688355872929 2614.23438002102 204 204 206
-136.863597807851 481.926223856397 2603.76271490294 203 203 205
-136.385557523997 482.342078898275 2591.7601131713 198 199 203
-131.311053856634 483.386753002328 2574.44692557384 192 193 197
-120.364773675103 485.237031665445 2550.27818153347 187 188 190
-106.89974015868 487.437966091284 2522.99667068517 165 164 162
-96.1939635264257 489.268626861153 2498.65348112084 177 173 170
-78.4076273871741 492.076253554363 2465.8618024225 190 183 177
47.7887720172832 510.581964210415 2279.53444010381 95 79 64
45.9488415593619 510.735805127211 2268.32053249573 101 83 63
42.7865178707281 510.708842008184 2258.61715126376 104 85 68
38.31503013742 510.502216667132 2250.43418678771 102 84 64
35.7412886017281 510.55910086682 2239.92286939337 100 82 62
35.6819336702019 510.96624226748 2226.29561763601 96 78 58
38.7447113112436 511.80956800656 2208.75810366974 88 73 54
34.1511486302419 511.59190774246 2200.48629408781 114 101 84
220.016770565789 503.715729048586 2814.41331601774 241 242 244
215.373585263878 503.423470885637 2808.5758182983 254 255 255
205.261146799307 502.452647675529 2807.41565605727 248 249 251
195.169513356355 501.483490390665 2806.27087873567 249 250 252
185.099111713074 500.515968080213 2805.14120660322 254 255 255
171.182571971982 499.068514991347 2807.39672803904 252 253 255
147.283312453233 496.374470688302 2818.46590272366 251 252 254
127.329004185444 494.168118578233 2826.22184939361 251 252 254
114.354084724031 492.83008083492 2827.92548904644 250 251 253
103.711737901096 491.781970788216 2827.61583008376 249 250 252
91.569659819696 490.54486467743 2828.68868883609 249 250 252
80.9822639249269 489.500992587808 2828.41918091707 248 249 251
75.7265887559595 489.12488163029 2823.37199364305 246 247 249
69.7095411769739 488.653340463162 2819.00771899391 244 245 247
63.691485017721 488.181672781922 2814.6427125626 243 244 246
54.6664923017097 487.331431583048 2813.03673157142 239 240 242
49.4045207971978 486.954616384734 2807.98497638228 238 239 241
44.8839079480621 486.671526223783 2802.23638048741 237 238 240
42.5882027869346 486.669850801092 2794.39639423695 236 236 238
40.2692503161233 486.66625763757 2786.53984027886 235 235 237
36.4465133551701 486.473319336245 2780.06227503947 233 233 235
32.6094788234297 486.279192900327 2773.57433916775 233 233 235
28.758245487738 486.08384152317 2767.07610407546 233 233 235
28.5619885778621 486.35336783976 2757.05402199243 233 233 235
26.8658600992504 486.433812045802 2748.41435547466 230 230 232
23.6837116270143 486.326280134181 2741.16626799555 228 228 230
19.0281757518163 486.031736945032 2735.31980550784 229 229 231
17.2630335848742 486.106445490696 2726.6297859653 225 225 227
14.7475713298206 486.08647440612 2718.63040043647 222 222 224
14.370788880024 486.341102715953 2708.47767055263 206 206 208
11.0839979941479 486.2247156254 2701.15397517848 204 204 206
12.075922431463 486.65775085834 2689.52398605758 191 191 193
10.1665568992666 486.720402304149 2680.7293548481 198 198 200
9.65327183909404 486.963718469006 2670.47761401064 189 189 191
5.55565761851717 486.747466527366 2663.80066629139 157 155 158
2.85864587096452 486.712220342956 2655.66959428959 194 192 195
2.25397055855847 486.947878966955 2645.35156392097 192 190 193
0.909978886585172 487.089704577582 2635.732148692 132 130 133
0.234992432423642 487.319477625143 2625.36282398758 128 126 129
-8.16090442183137 486.551277224552 2622.97797245876 148 146 149
-22.8119234615924 484.97144964889 2627.17075140895 128 128 130
-42.9642735467106 482.674781068455 2637.25274912677 238 238 240
-66.4890611701179 479.935217079522 2651.06322917217 250 250 252
-89.9045532600053 477.204069527466 2664.95327699023 252 252 254
-111.147973698526 474.750081699788 2676.71390540669 252 252 254
-122.700349277597 473.555136727189 2678.21417116529 239 239 241
-128.753370393851 473.076484299336 2673.82378251134 237 237 239
-131.402824728194 473.042756209402 2665.72748805977 233 233 235
-133.39646489367 473.095891998374 2656.87171617144 231 231 233
-135.417516509019 473.146672730621 2647.99606120928 219 219 221
-134.768862262667 473.549151034335 2636.11707342432 213 213 215
