ply
format ascii 1.0
comment KinectMotionCapture
element vertex 803
property float x
property float y
property float z
property uchar red
property uchar green
property uchar blue
end_header
-38.2027551531792 192.932590842247 2631.00004196167 17 20 9
-30.9985410422087 192.787170410156 2628.99994850159 18 21 12
-23.8866694271564 193.301469087601 2635.99991798401 17 20 11
-16.6795048862696 193.155556917191 2634.0000629425 16 19 10
-9.37149114906788 190.736070275307 2601.0000705719 16 19 10
-2.2558115888387 189.342990517616 2582.00001716614 17 20 11
4.79513220489025 189.489617943764 2584.00011062622 15 18 11
11.8707269430161 189.855948090553 2588.99998664856 14 17 10
18.8857987523079 189.342081546783 2582.00001716614 14 17 10
25.9027555584908 189.121276140213 2578.9999961853 11 14 7
32.9032316803932 188.900202512741 2575.99997520447 12 15 8
39.9181991815567 188.825562596321 2575.00004768372 15 18 9
47.456257045269 190.877184271812 2602.9999256134 15 18 9
54.6229518949986 191.09533727169 2605.99994659424 14 17 8
61.2609386444092 189.626693725586 2585.99996566772 15 18 9
68.1593790650368 189.184382557869 2579.99992370605 20 23 14
74.5584443211555 187.568619847298 2558.00008773804 17 20 11
82.1759179234505 189.032301306725 2578.00006866455 17 20 11
89.4177630543709 189.469158649445 2584.00011062622 14 17 8
95.8333238959312 188.219308853149 2566.99991226196 15 18 9
102.436177432537 187.48252093792 2556.99992179871 15 18 9
108.385004103184 185.719057917595 2532.99999237061 12 15 6
116.523824632168 187.694624066353 2559.99994277954 12 15 8
123.072683811188 187.030494213104 2551.00011825562 12 15 8
129.673883318901 186.512753367424 2543.99991035461 12 15 8
135.967910289764 185.62825024128 2532.00006484985 12 15 8
143.211618065834 186.063155531883 2538.00010681152 13 16 9
153.563484549522 190.309837460518 2595.99995613098 13 16 9
162.250891327858 192.210227251053 2621.99997901917 13 16 9
168.107539415359 190.738275647163 2601.99999809265 15 18 11
173.719808459282 189.119562506676 2579.99992370605 17 20 13
177.740216255188 185.961440205574 2536.99994087219 16 19 12
183.272331953049 184.562399983406 2517.99988746643 15 18 11
190.361440181732 184.775784611702 2520.99990844727 13 18 11
201.143234968185 188.433617353439 2571.00009918213 16 18 13
208.634480834007 188.866183161736 2576.99990272522 15 16 11
216.073974967003 189.225256443024 2582.00001716614 18 17 13
222.848623991013 188.9977902174 2578.9999961853 19 18 14
230.319187045097 189.35638666153 2584.00011062622 17 17 9
238.18351328373 190.007820725441 2592.99993515015 25 22 13
247.514709830284 191.75811111927 2617.00010299683 21 12 0
256.197243928909 192.921847105026 2632.99989700317 58 40 26
263.165563344955 192.766457796097 2631.00004196167 100 77 63
270.019263029099 192.53759086132 2628.00002098084 69 36 21
276.433765888214 192.015528678894 2621.00005149841 66 30 14
283.133774995804 191.71305000782 2617.00010299683 124 91 72
290.143728256226 191.630154848099 2615.9999370575 124 91 72
297.260850667953 191.620349884033 2615.9999370575 121 90 70
304.726004600525 191.830083727837 2618.99995803833 125 92 73
312.444567680359 192.186057567596 2624.00007247925 130 97 80
320.311009883881 192.615061998367 2630.00011444092 152 119 104
328.457981348038 193.190261721611 2638.00001144409 140 110 99
337.283551692963 194.131404161453 2651.00002288818 137 119 107
-135.780543088913 191.720113158226 2716.00008010864 115 101 88
-127.237662672997 190.030470490456 2691.99991226196 113 97 82
-119.092456996441 188.764110207558 2674.00002479553 119 98 81
-111.337631940842 187.991544604301 2663.00010681152 113 90 72
-103.681474924088 187.289342284203 2653.00011634827 128 99 81
-96.152164041996 186.728045344353 2644.99998092651 128 97 79
-89.0023708343506 186.872467398643 2647.0000743866 91 62 46
-82.1193531155586 187.6520216465 2657.99999237061 48 20 6
-75.175978243351 188.431367278099 2668.99991035461 66 40 27
-67.9942071437836 188.716262578964 2673.00009727478 46 29 19
-60.6313683092594 188.506707549095 2670.00007629395 26 13 5
-52.8051480650902 186.60244345665 2642.99988746643 20 15 9
-44.9708476662636 184.06243622303 2607.00011253357 13 13 5
-37.7975329756737 183.781459927559 2602.9999256134 17 20 9
-30.7991914451122 184.418112039566 2611.99998855591 19 22 13
-23.8784588873386 186.042964458466 2634.99999046326 17 20 11
-16.642102971673 185.549437999725 2628.00002098084 16 19 10
-9.41146072000265 184.420213103294 2611.99998855591 18 21 12
-2.26724985986948 183.220133185387 2595.00002861023 19 22 13
4.79530310258269 182.443425059319 2584.00011062622 15 18 11
11.8207139894366 182.019531726837 2578.00006866455 15 18 11
18.8718419522047 182.160168886185 2579.99992370605 15 18 11
25.793194770813 181.312158703804 2568.00007820129 11 14 7
32.4190109968185 179.193004965782 2538.00010681152 13 16 7
39.9041213095188 181.733474135399 2573.99988174438 15 18 9
47.1480078995228 182.579174637794 2585.99996566772 16 19 10
54.3733648955822 183.142244815826 2594.00010108948 16 19 10
61.1683540046215 182.292997837067 2582.00001716614 17 20 11
67.9768621921539 181.655317544937 2572.99995422363 19 22 13
74.9983116984367 181.652829051018 2572.99995422363 18 21 12
81.8281918764114 181.226506829262 2566.99991226196 19 22 13
90.0438278913498 183.694437146187 2601.99999809265 18 21 12
96.4340567588806 182.349860668182 2582.99994468689 19 22 13
102.199427783489 180.087387561798 2551.00011825562 19 22 13
108.816727995872 179.518967866898 2542.99998283386 15 18 9
115.071333944798 178.45618724823 2528.00011634827 15 18 11
122.208558022976 178.805023431778 2532.99999237061 14 17 10
130.086243152618 180.141896009445 2552.00004577637 13 16 9
136.617079377174 179.572567343712 2543.99991035461 14 17 10
143.273055553436 179.214850068092 2539.00003433228 15 18 11
152.267411351204 181.68018758297 2573.99988174438 16 19 12
161.575838923454 184.286385774612 2611.00006103516 15 18 11
167.854934930801 183.36321413517 2598.00004959106 14 17 10
173.25447499752 181.59294128418 2572.99995422363 15 18 11
179.70809340477 181.022360920906 2565.00005722046 15 18 11
185.68067252636 180.028140544891 2551.00011825562 14 17 10
196.862101554871 183.973625302315 2607.00011253357 10 16 6
203.027829527855 183.120042085648 2595.00002861023 19 20 14
210.260882973671 183.254197239876 2596.99988365173 18 19 13
215.913951396942 182.047486305237 2579.99992370605 19 18 14
223.806738853455 182.745739817619 2589.99991416931 18 19 13
231.129184365273 182.949811220169 2592.99993515015 18 19 11
238.375276327133 183.08313190937 2595.00002861023 24 24 14
247.995927929878 184.97996032238 2621.99997901917 17 9 0
255.719304084778 185.394912958145 2628.00002098084 48 34 21
262.874275445938 185.386389493942 2628.00002098084 92 73 59
269.822746515274 185.236558318138 2625.99992752075 81 52 38
276.54841542244 184.945493936539 2621.99997901917 71 38 23
283.467710018158 184.795320034027 2619.99988555908 111 80 62
290.486037731171 184.71547961235 2618.99995803833 116 85 67
297.725111246109 184.776499867439 2619.99988555908 111 80 60
305.201381444931 184.978380799294 2622.99990653992 107 76 58
313.169151544571 185.462161898613 2630.00011444092 103 72 54
321.173965930939 185.94565987587 2637.00008392334 106 74 61
329.838216304779 186.781466007233 2648.9999294281 107 77 66
338.821172714233 187.758013606071 2663.00010681152 109 91 79
-136.285096406937 184.993416070938 2726.0000705719 113 103 94
-127.478331327438 183.029755949974 2697.00002670288 107 93 82
-119.096502661705 181.472957134247 2674.00002479553 111 92 75
-111.508667469025 181.001752614975 2667.00005531311 113 92 73
-103.997655212879 180.598139762878 2661.00001335144 108 82 65
-96.5917035937309 180.330038070679 2657.00006484985 110 83 66
-89.3080309033394 180.26527762413 2655.99989891052 115 86 70
-82.2148472070694 180.607497692108 2661.00001335144 74 48 35
-75.2348899841309 181.288868188858 2671.0000038147 63 39 27
-68.0474117398262 181.562781333923 2674.99995231628 37 20 10
-60.7242807745934 181.49708211422 2674.00002479553 22 12 3
-52.4273477494717 178.105235099792 2624.00007247925 20 17 10
-44.9723936617374 176.952987909317 2607.00011253357 13 13 5
-37.7117022871971 176.275581121445 2596.99988365173 16 19 8
-30.8592077344656 177.634298801422 2617.00010299683 18 21 12
-23.5439762473106 176.345556974411 2598.00004959106 17 20 11
-16.4590235799551 176.414102315903 2598.99997711182 17 20 11
-9.39016509801149 176.889672875404 2605.99994659424 20 23 14
-2.28130770847201 177.229270339012 2611.00006103516 21 24 15
4.83629619702697 176.889836788177 2605.99994659424 18 21 12
11.8990736082196 176.142916083336 2595.00002861023 15 18 11
18.9602710306644 175.938755273819 2592.00000762939 15 18 11
25.8844792842865 174.919828772545 2576.99990272522 11 14 7
32.6628312468529 173.561304807663 2556.99992179871 8 11 4
40.5411310493946 177.496924996376 2615.00000953674 12 15 6
47.0584705471992 175.187662243843 2581.00008964539 16 19 10
54.1865713894367 175.457447767258 2585.00003814697 19 22 13
61.217837035656 175.387635827065 2584.00011062622 19 22 13
68.1377127766609 175.04608631134 2578.9999961853 19 22 13
74.8551338911057 174.29706454277 2568.00007820129 18 21 12
82.0222571492195 174.633800983429 2572.99995422363 20 23 14
88.8010635972023 174.155831336975 2565.99998474121 20 23 14
95.951996743679 174.424231052399 2569.9999332428 21 24 15
103.124357759953 174.69234764576 2573.99988174438 19 22 13
109.077177941799 172.992125153542 2549.00002479553 16 19 10
115.302838385105 171.902537345886 2532.99999237061 17 20 13
122.260957956314 171.966433525085 2533.99991989136 16 19 12
130.44747710228 173.658818006516 2559.00001525879 15 18 11
137.642070651054 173.925802111626 2562.99996376038 15 18 11
143.785759806633 172.90323972702 2548.00009727478 16 19 12
152.568340301514 175.001934170723 2578.9999961853 14 17 10
160.529226064682 176.014602184296 2594.00010108948 13 16 9
167.34367609024 175.737783312798 2589.99991416931 13 16 9
172.990918159485 174.307316541672 2569.00000572205 15 18 11
179.854184389114 174.165815114975 2566.99991226196 16 19 12
188.52561712265 175.720289349556 2589.99991416931 16 19 12
196.491047739983 176.52815580368 2601.99999809265 14 17 8
204.129919409752 176.996529102325 2608.99996757507 21 22 14
209.782034158707 175.768703222275 2591.00008010864 20 21 13
217.009037733078 175.897493958473 2592.99993515015 19 18 13
224.159747362137 175.958201289177 2594.00010108948 17 18 12
231.849864125252 176.425710320473 2601.0000705719 15 18 9
239.393532276154 176.757290959358 2605.99994659424 22 24 13
248.003974556923 177.834719419479 2621.99997901917 15 9 0
255.727589130402 178.2336384058 2628.00002098084 36 24 12
263.082832098007 178.36107313633 2630.00011444092 71 53 39
270.036935806274 178.216993808746 2628.00002098084 78 50 36
276.979178190231 178.07275056839 2625.99992752075 80 48 33
283.584952354431 177.724927663803 2621.00005149841 114 83 65
290.828019380569 177.783772349358 2621.99997901917 117 86 68
298.30276966095 177.977994084358 2625 105 76 58
306.374579668045 178.511038422585 2632.99989700317 107 75 60
314.25067782402 178.908213973045 2638.99993896484 105 73 58
321.914732456207 179.16963994503 2642.99988746643 110 81 67
330.844640731812 180.108696222305 2657.00006484985 112 84 72
340.358465909958 181.31859600544 2674.99995231628 108 92 79
-128.002434968948 176.39185488224 2707.99994468689 110 97 88
-119.59033459425 174.897655844688 2684.99994277954 100 81 64
-111.888624727726 174.315109848976 2676.00011825562 108 87 70
-104.352824389935 173.927754163742 2670.00007629395 98 72 55
-96.9947651028633 173.800691962242 2667.99998283386 87 60 43
-89.6472334861755 173.673421144485 2665.99988937378 92 65 48
-82.2793617844582 173.480793833733 2663.00010681152 85 59 46
-75.0965252518654 173.678755760193 2665.99988937378 72 50 37
-67.8715854883194 173.811346292496 2667.99998283386 41 27 18
-60.5218932032585 173.618003726006 2664.99996185303 28 19 10
-52.6888258755207 171.795681118965 2637.00008392334 17 16 11
-45.301653444767 171.080648899078 2625.99992752075 18 19 11
-38.0614772439003 170.756235718727 2621.00005149841 15 18 7
-30.7187214493752 169.714972376823 2605.00001907349 15 18 9
-23.5175658017397 169.064342975616 2595.00002861023 16 19 10
-16.4849013090134 169.586196541786 2602.9999256134 17 20 11
-9.41209681332111 170.172989368439 2611.99998855591 17 20 11
-2.28749960660934 170.564070343971 2618.00003051758 20 23 14
4.82346536591649 169.326171278954 2598.99997711182 19 22 15
11.9178099557757 169.325888156891 2598.99997711182 18 21 14
18.9316384494305 168.608739972115 2588.00005912781 15 18 11
26.1665936559439 169.715583324432 2605.00001907349 11 14 7
33.507015556097 170.887291431427 2622.99990653992 11 14 7
41.1006100475788 172.710254788399 2651.00002288818 10 13 4
46.3306866586208 165.542453527451 2540.99988937378 12 15 6
54.2512461543083 168.602809309959 2588.00005912781 15 18 9
61.3146238029003 168.600931763649 2588.00005912781 15 18 9
68.1663826107979 168.077677488327 2579.99992370605 18 21 12
74.5661035180092 166.642159223557 2558.00008773804 15 18 9
81.6742852330208 166.900217533112 2562.00003623962 20 23 14
88.7001603841782 166.96260869503 2562.99996376038 20 23 14
95.8431214094162 167.220190167427 2566.99991226196 22 25 16
103.247947990894 167.868405580521 2576.99990272522 19 22 13
110.70691049099 168.516367673874 2586.99989318848 15 18 9
115.898407995701 165.842041373253 2546.0000038147 17 20 13
123.760692775249 167.07581281662 2565.00005722046 17 20 13
131.318330764771 167.788222432137 2575.99997520447 17 20 13
138.022482395172 167.393118143082 2569.9999332428 16 19 12
144.862651824951 167.193204164505 2566.99991226196 14 17 10
154.939666390419 170.575246214867 2618.99995803833 12 15 8
161.400824785233 169.853806495667 2608.00004005432 12 15 8
166.961401700974 168.285578489304 2584.00011062622 14 17 10
173.467859625816 167.759165167809 2575.99997520447 16 19 12
180.350437760353 167.623355984688 2573.99988174438 16 19 12
187.439784407616 167.682692408562 2575.00004768372 14 17 8
195.289015769958 168.392986059189 2585.99996566772 19 23 9
201.945617794991 168.061196804047 2581.00008964539 21 23 12
210.11258661747 168.966367840767 2595.00002861023 20 22 11
216.932237148285 168.764397501945 2592.00000762939 20 20 12
223.734721541405 168.562218546867 2588.99998664856 18 19 13
233.01599919796 170.182809233665 2614.00008201599 16 19 10
241.238370537758 170.956745743752 2625.99992752075 17 20 9
247.1604347229 170.102924108505 2612.99991607666 15 11 0
255.151689052582 170.681118965149 2621.99997901917 21 11 0
263.29106092453 171.324148774147 2631.99996948242 35 21 8
270.250827074051 171.185865998268 2630.00011444092 66 43 29
277.409642934799 171.177580952644 2630.00011444092 92 63 47
283.918261528015 170.778587460518 2624.00007247925 116 85 67
291.280597448349 170.900106430054 2625.99992752075 117 88 70
298.539161682129 170.95635831356 2627.00009346008 100 73 56
306.849330663681 171.598091721535 2637.00008392334 106 77 61
314.855605363846 172.044366598129 2644.00005340576 107 78 62
323.020666837692 172.555491328239 2651.99995040894 108 80 66
332.099765539169 173.52183163166 2667.00005531311 106 79 68
342.40448474884 175.073400139809 2690.99998474121 109 93 80
-128.999128937721 170.317381620407 2729.00009155273 118 108 99
-119.994975626469 168.136849999428 2694.00000572205 85 69 54
-112.226665019989 167.516306042671 2684.00001525879 96 78 64
-104.786045849323 167.332410812378 2680.99999427795 82 60 46
-97.5431650876999 167.46036708355 2683.00008773804 59 36 20
-90.1881009340286 167.40083694458 2681.99992179871 63 40 24
-82.6836451888084 167.029052972794 2676.00011825562 80 58 44
-75.2115920186043 166.656985878944 2670.00007629395 83 64 50
-67.7210986614227 166.159838438034 2661.99994087219 76 63 54
-60.3421330451965 165.849730372429 2657.00006484985 50 41 32
-52.6105761528015 164.353400468826 2632.99989700317 14 14 6
-45.320350676775 163.980424404144 2627.00009346008 19 20 12
-38.1933897733688 164.16896879673 2630.00011444092 16 19 8
-30.9791378676891 163.982778787613 2627.00009346008 14 17 8
-23.6814469099045 163.109719753265 2612.99991607666 16 19 10
-16.5297575294971 162.923082709312 2609.99989509583 17 20 11
-9.38356854021549 162.548959255219 2604.00009155273 15 18 9
-2.26572784595191 161.862477660179 2592.99993515015 19 22 13
4.80691576376557 161.675170063972 2589.99991416931 20 23 16
11.8631599470973 161.487638950348 2586.99989318848 18 21 14
18.9907643944025 162.04896569252 2595.99995613098 15 18 11
26.2477844953537 163.109451532364 2612.99991607666 11 14 7
33.648606389761 164.419382810593 2634.0000629425 12 15 8
41.1019176244736 165.479391813278 2651.00002288818 10 13 4
47.170914709568 161.483034491539 2586.99989318848 10 13 4
54.0014132857323 160.794854164124 2575.99997520447 10 13 4
61.600886285305 162.291124463081 2599.99990463257 12 15 6
68.5120299458504 161.852166056633 2592.99993515015 17 20 11
74.4227096438408 159.353211522102 2552.99997329712 15 18 9
81.7406252026558 160.037383437157 2563.99989128113 20 23 14
88.7721851468086 160.097166895866 2565.00005722046 20 23 14
96.3315442204475 161.030516028404 2579.99992370605 21 24 15
103.531666100025 161.27710044384 2584.00011062622 18 21 12
110.924363136292 161.773070693016 2592.00000762939 14 17 8
118.22371929884 162.081599235535 2596.99988365173 16 19 12
123.909324407578 160.267993807793 2568.00007820129 17 20 13
130.557760596275 159.827217459679 2561.00010871887 17 20 13
137.704566121101 160.01033782959 2563.99989128113 15 18 11
146.447345614433 161.940559744835 2595.00002861023 13 16 9
155.121982097626 163.620859384537 2621.99997901917 12 15 8
161.034509539604 162.36799955368 2601.99999809265 12 15 8
166.449636220932 160.740599036217 2575.99997520447 15 18 11
173.473238945007 160.735443234444 2575.99997520447 16 19 12
180.776417255402 160.979673266411 2579.99992370605 15 18 11
186.790436506271 160.100609064102 2565.99998474121 13 16 7
194.162234663963 160.406827926636 2571.00009918213 18 21 10
203.203707933426 162.022978067398 2596.99988365173 21 23 12
210.199952125549 161.954402923584 2595.99995613098 19 20 12
216.938823461533 161.698490381241 2592.00000762939 19 20 12
224.260032176971 161.879062652588 2595.00002861023 18 21 14
232.933878898621 162.995100021362 2612.99991607666 19 22 13
240.786299109459 163.487121462822 2621.00005149841 16 19 8
249.154284596443 164.290755987167 2634.0000629425 16 16 6
254.964709281921 163.410156965256 2619.99988555908 22 14 3
263.699024915695 164.400443434715 2635.99991798401 30 18 6
270.772635936737 164.330288767815 2634.99999046326 65 43 30
278.050720691681 164.384663105011 2635.99991798401 98 71 54
284.575879573822 164.002373814583 2630.00011444092 104 75 57
291.954725980759 164.118751883507 2631.99996948242 111 84 67
299.343407154083 164.234966039658 2634.0000629425 110 84 69
307.44007229805 164.725065231323 2641.99995994568 110 82 68
315.460175275803 165.152624249458 2648.9999294281 101 75 60
323.639005422592 165.642306208611 2657.00006484985 108 84 72
332.482874393463 166.443467140198 2670.00007629395 103 81 70
-121.780313551426 163.176476955414 2733.99996757507 124 124 116
-113.233588635921 161.628141999245 2707.99994468689 75 71 62
-105.492763221264 161.094203591347 2698.99988174438 50 43 33
-97.9460626840591 160.798788070679 2694.00000572205 76 66 56
-90.3926119208336 160.44345498085 2687.99996376038 60 47 38
-82.8097462654114 159.968495368958 2680.0000667572 32 18 7
-75.3547176718712 159.672394394875 2674.99995231628 27 15 3
-67.9521262645721 159.435763955116 2671.0000038147 12 4 0
-60.3893920779228 158.721372485161 2658.99991989136 14 7 0
-52.6321604847908 157.230749726295 2634.0000629425 20 17 8
-45.3217290341854 156.814381480217 2627.00009346008 18 18 8
-38.368821144104 157.711014151573 2641.99995994568 16 19 10
-31.593319028616 159.920752048492 2678.99990081787 16 19 10
-23.8996893167496 157.41440653801 2637.00008392334 15 18 9
-16.5999326854944 156.459912657738 2621.00005149841 15 18 9
-9.31538641452789 154.311284422874 2585.00003814697 15 18 9
-2.25531146861613 154.072672128677 2581.00008964539 18 21 12
4.78293420746922 153.833836317062 2576.99990272522 19 22 13
11.8497647345066 154.251471161842 2584.00011062622 17 20 11
18.8596621155739 153.892830014229 2578.00006866455 15 18 9
26.2184496968985 155.802384018898 2609.99989509583 13 16 7
33.4707796573639 156.398430466652 2619.99988555908 13 16 7
40.9481264650822 157.650917768478 2641.00003242493 9 12 5
54.5271635055542 155.260339379311 2601.0000705719 12 15 8
61.6501420736313 155.318275094032 2601.99999809265 13 16 9
68.3820024132729 154.480665922165 2588.00005912781 15 18 11
75.1246139407158 153.821930289268 2576.99990272522 15 18 11
82.1256786584854 153.759896755219 2575.99997520447 17 20 13
89.5016863942146 154.354244470596 2585.99996566772 18 21 14
96.9318822026253 154.948353767395 2595.99995613098 18 21 14
103.855341672897 154.70664203167 2592.00000762939 18 21 14
111.783653497696 155.897155404091 2611.99998855591 18 21 14
118.409395217896 155.23724257946 2601.0000705719 17 20 11
124.926365911961 154.517456889153 2588.99998664856 18 21 12
130.714640021324 153.021648526192 2563.99989128113 13 16 7
138.621732592583 154.032245278358 2581.00008964539 12 15 6
146.395280957222 154.803901910782 2594.00010108948 12 15 6
154.239177703857 155.575290322304 2607.00011253357 12 15 6
159.925282001495 154.198169708252 2584.00011062622 12 15 6
166.325345635414 153.596669435501 2573.99988174438 14 17 8
173.949778079987 154.128775000572 2582.99994468689 15 18 9
180.851861834526 154.00430560112 2581.00008964539 16 19 10
187.451109290123 153.64097058773 2575.00004768372 16 19 10
194.772139191628 153.874114155769 2578.9999961853 16 19 12
202.81845331192 154.643997550011 2592.00000762939 18 21 14
210.691943764687 155.234664678574 2601.99999809265 19 22 15
216.694071888924 154.453009366989 2588.99998664856 18 21 12
224.525839090347 154.98360991478 2598.00004959106 18 21 12
233.475551009178 156.229808926582 2618.99995803833 17 20 11
242.630690336227 157.535403966904 2641.00003242493 15 17 6
248.972296714783 156.991615891457 2631.99996948242 15 15 5
254.972010850906 156.268745660782 2619.99988555908 19 12 2
264.406889677048 157.633259892464 2642.99988746643 25 17 6
270.985901355743 157.267913222313 2637.00008392334 65 49 36
278.797030448914 157.618090510368 2642.99988746643 110 84 69
285.449594259262 157.312080264091 2638.00001144409 100 71 55
292.739450931549 157.363727688789 2638.99993896484 100 72 58
299.920052289963 157.355546951294 2638.99993896484 105 82 68
307.797789573669 157.704964280128 2644.99998092651 102 80 67
316.540747880936 158.471524715424 2657.99999237061 87 68 54
324.866086244583 158.999368548393 2667.00005531311 98 84 73
334.359973669052 160.063520073891 2684.99994277954 85 72 63
-106.238476932049 154.814094305038 2717.99993515015 95 88 78
-98.4215587377548 154.190436005592 2707.00001716614 57 47 37
-90.7315164804459 153.680473566055 2697.99995422363 68 55 46
-83.0902457237244 153.1702876091 2688.99989128113 56 43 34
-75.6668001413345 153.001680970192 2686.00010871887 46 33 24
-68.2594031095505 152.832850813866 2683.00008773804 20 11 2
-60.4365803301334 151.581466197968 2661.00001335144 20 13 5
-52.55376547575 149.817183613777 2630.00011444092 24 21 14
-45.4093180596828 149.932503700256 2631.99996948242 20 20 12
-38.3844673633575 150.560319423676 2642.99988746643 18 21 12
-31.2876179814339 151.130989193916 2653.00011634827 17 20 11
-23.8097533583641 149.650648236275 2627.00009346008 16 19 10
-16.3850728422403 147.372543811798 2586.99989318848 15 18 9
-9.33367665857077 147.54381775856 2589.99991416931 15 18 9
-2.2475125733763 146.518588066101 2572.00002670288 18 21 12
4.77379374206066 146.518543362617 2572.00002670288 19 22 13
11.8684563785791 147.429794073105 2588.00005912781 18 21 12
18.962636590004 147.657215595245 2592.00000762939 15 18 9
26.1790324002504 148.454084992409 2605.99994659424 13 16 7
33.6506143212318 150.048285722733 2634.0000629425 13 16 7
40.9028045833111 150.275096297264 2638.00001144409 10 13 6
48.2131280004978 150.615617632866 2644.00005340576 9 12 5
55.0109297037125 149.47484433651 2624.00007247925 10 13 6
61.8651956319809 148.732647299767 2611.00006103516 12 15 8
69.0181478857994 148.787721991539 2611.99998855591 13 16 9
75.4474774003029 147.418573498726 2588.00005912781 15 18 11
83.0526500940323 148.384675383568 2605.00001907349 16 19 12
90.0580585002899 148.211345076561 2601.99999809265 18 21 14
97.3080992698669 148.436516523361 2605.99994659424 18 21 14
104.138821363449 148.034945130348 2598.99997711182 17 20 13
110.973730683327 147.690176963806 2592.99993515015 17 20 13
117.957554757595 147.5730240345 2591.00008010864 17 20 11
124.978214502335 147.512629628181 2589.99991416931 16 19 10
131.432145833969 146.825581789017 2578.00006866455 13 16 7
138.303443789482 146.650925278664 2575.00004768372 13 16 7
145.835116505623 147.159516811371 2584.00011062622 13 16 7
153.001099824905 147.26921916008 2585.99996566772 12 15 6
161.105796694756 148.232951760292 2602.9999256134 12 15 6
167.105510830879 147.260293364525 2585.99996566772 15 18 9
173.685356974602 146.85694873333 2578.9999961853 16 19 10
180.92705309391 147.022858262062 2582.00001716614 17 20 11
188.548371195793 147.473260760307 2589.99991416931 17 20 11
194.399982690811 146.556943655014 2573.99988174438 15 18 11
201.337411999702 146.494567394257 2572.99995422363 17 20 13
209.159329533577 147.05827832222 2582.99994468689 18 21 14
218.290418386459 148.475736379623 2608.00004005432 18 21 12
225.482761859894 148.526608943939 2608.99996757507 18 21 12
233.21458697319 148.918867111206 2615.9999370575 20 22 11
239.513710141182 148.400127887726 2607.00011253357 14 16 5
248.5062032938 149.531990289688 2627.00009346008 17 14 5
255.368322134018 149.354428052902 2624.00007247925 17 10 2
265.514612197876 151.054948568344 2654.00004386902 17 10 2
272.534787654877 150.933936238289 2651.99995040894 58 45 36
280.281454324722 151.211127638817 2657.00006484985 76 54 41
287.080466747284 150.975957512856 2653.00011634827 68 45 31
293.745756149292 150.683745741844 2648.00000190735 52 30 16
300.950974225998 150.675907731056 2648.00000190735 86 68 56
309.086114168167 151.123091578484 2655.99989891052 76 60 47
317.978322505951 151.911467313766 2670.00007629395 80 66 55
327.676385641098 153.040960431099 2690.00005722046 90 81 72
-99.1878286004066 147.944435477257 2727.9999256134 129 122 114
-90.9358188509941 146.645441651344 2703.9999961853 106 99 91
-83.1852704286575 145.997002720833 2691.99991226196 35 26 19
-75.6689012050629 145.673751831055 2686.00010871887 37 30 22
-68.2613030076027 145.512998104095 2683.00008773804 26 22 13
-60.5291053652763 144.53849196434 2664.99996185303 17 14 7
-52.4752959609032 142.424821853638 2625.99992752075 18 17 12
-45.583114027977 143.293961882591 2641.99995994568 20 21 15
-38.1095968186855 142.318844795227 2624.00007247925 17 20 11
-30.863918364048 141.940101981163 2617.00010299683 17 20 11
-23.5203765332699 140.747606754303 2595.00002861023 17 20 11
-16.398198902607 140.422716736794 2588.99998664856 17 20 11
-9.1969920322299 138.41624557972 2552.00004577637 17 20 11
-2.25194497033954 139.772370457649 2576.99990272522 18 21 12
4.78506414219737 139.826580882072 2578.00006866455 18 21 12
11.8320984765887 139.934822916985 2579.99992370605 18 21 12
18.9851131290197 140.747979283333 2595.00002861023 17 20 11
26.0692574083805 140.747353434563 2595.00002861023 14 17 8
33.536572009325 142.37368106842 2625 12 15 6
40.8884398639202 143.023535609245 2637.00008392334 11 14 7
47.9409396648407 142.588421702385 2628.99994850159 10 13 6
54.7399185597897 141.610771417618 2611.00006103516 8 11 4
61.8906021118164 141.663402318954 2611.99998855591 9 12 5
69.4428682327271 142.529398202896 2628.00002098084 10 13 6
76.1201083660126 141.60543680191 2611.00006103516 14 17 10
83.3419039845467 141.765967011452 2614.00008201599 15 18 11
91.0297036170959 142.631351947784 2630.00011444092 18 21 14
97.6468697190285 141.815304756165 2615.00000953674 18 21 14
103.941366076469 140.673726797104 2594.00010108948 16 19 12
110.506005585194 140.020072460175 2582.00001716614 15 18 11
117.232359945774 139.637410640717 2575.00004768372 18 21 12
124.885156750679 140.339121222496 2588.00005912781 15 18 9
132.251501083374 140.661016106606 2594.00010108948 13 16 7
139.059215784073 140.386268496513 2588.99998664856 13 16 7
146.855011582375 141.087353229523 2601.99999809265 13 16 7
154.898643493652 141.950860619545 2618.00003051758 13 16 7
161.543443799019 141.512870788574 2609.99989509583 13 16 7
168.144002556801 141.074731945992 2601.99999809265 15 18 9
175.037011504173 140.907526016235 2598.99997711182 16 19 10
181.632697582245 140.523314476013 2592.00000762939 17 20 11
188.844680786133 140.626862645149 2594.00010108948 17 20 11
195.613637566566 140.404939651489 2589.99991416931 15 18 11
200.012534856796 138.556629419327 2555.99999427795 17 20 13
208.031252026558 139.255985617638 2569.00000572205 17 20 11
218.379974365234 141.418620944023 2608.99996757507 17 20 11
226.439476013184 142.009064555168 2619.99988555908 18 21 12
231.883510947227 140.973299741745 2601.0000705719 20 22 11
238.968804478645 140.967220067978 2601.0000705719 16 18 7
247.188329696655 141.61129295826 2612.99991607666 14 11 2
258.684009313583 144.043505191803 2657.99999237061 19 15 6
266.02178812027 144.090980291367 2658.99991989136 32 25 17
273.569583892822 144.24666762352 2661.99994087219 66 56 46
281.23813867569 144.456341862679 2665.99988937378 63 45 33
288.170039653778 144.286587834358 2663.00010681152 52 33 19
295.306384563446 144.225031137466 2661.99994087219 60 42 28
302.663564682007 144.271716475487 2663.00010681152 91 75 62
310.839682817459 144.697427749634 2671.0000038147 52 40 28
321.916580200195 146.423056721687 2703.00006866455 64 54 44
-91.8126329779625 140.607133507729 2730.00001907349 98 93 87
-84.052711725235 140.094339847565 2720.00002861023 23 16 10
-76.2906968593597 139.478355646133 2707.99994468689 22 18 9
-67.805141210556 137.26544380188 2664.99996185303 21 18 11
-59.735756367445 135.46434044838 2630.00011444092 22 22 14
-52.2568710148335 134.693175554276 2615.00000953674 22 23 17
-44.8941737413406 134.024813771248 2601.99999809265 18 19 13
-37.6894176006317 133.665338158607 2595.00002861023 16 19 10
-30.6288599967957 133.769229054451 2596.99988365173 17 20 11
-23.4122350811958 133.048802614212 2582.99994468689 17 20 11
-16.2972919642925 132.534220814705 2572.99995422363 17 20 11
-9.30535513907671 132.998153567314 2582.00001716614 18 21 12
-2.25812220014632 133.10132920742 2584.00011062622 17 20 11
4.77962289005518 132.637694478035 2575.00004768372 17 20 11
11.8278274312615 132.843509316444 2578.9999961853 18 21 12
18.839294090867 132.637083530426 2575.00004768372 17 20 11
26.1804610490799 134.233295917511 2605.99994659424 15 18 9
33.3074927330017 134.284034371376 2607.00011253357 13 16 7
40.1917509734631 133.510455489159 2592.00000762939 13 16 9
47.6686768233776 134.642511606216 2614.00008201599 11 14 7
54.4897839426994 133.868545293808 2598.99997711182 8 11 4
63.2665827870369 137.52406835556 2670.00007629395 8 11 4
71.0037723183632 138.397932052612 2687.00003623962 9 12 5
77.1716833114624 136.335775256157 2647.0000743866 12 15 8
84.0774327516556 135.818645358086 2637.00008392334 14 17 10
91.4128422737122 136.022388935089 2641.00003242493 16 19 12
98.060205578804 135.247409343719 2625.99992752075 16 19 12
103.944100439548 133.596733212471 2594.00010108948 14 17 10
110.080912709236 132.460936903954 2572.00002670288 12 15 8
116.68910831213 131.994530558586 2562.99996376038 19 22 13
123.730257153511 132.042944431305 2563.99989128113 17 20 11
131.541147828102 132.863655686378 2579.99992370605 13 16 7
140.298247337341 134.508088231087 2611.99998855591 12 15 6
148.100525140762 135.122373700142 2624.00007247925 12 15 6
155.139327049255 135.015517473221 2621.99997901917 15 18 9
161.733344197273 134.548082947731 2612.99991607666 15 18 9
168.92383992672 134.595394134521 2614.00008201599 15 18 9
175.445631146431 134.127631783485 2605.00001907349 15 18 9
182.688519358635 134.226113557816 2607.00011253357 14 17 8
189.0679448843 133.706569671631 2596.99988365173 14 17 8
195.769742131233 133.444339036942 2592.00000762939 16 19 10
202.91306078434 133.490845561028 2592.99993515015 17 20 11
210.303977131844 133.691608905792 2596.99988365173 17 20 11
219.306245446205 134.870260953903 2619.99988555908 15 18 9
227.309539914131 135.379508137703 2630.00011444092 15 18 9
232.245996594429 134.086981415749 2605.00001907349 10 12 1
237.59663105011 133.103221654892 2585.99996566772 16 18 7
256.549328565598 135.664537549019 2635.99991798401 22 19 10
266.928881406784 137.305036187172 2667.99998283386 34 30 21
275.117963552475 137.761622667313 2677.00004577637 32 25 15
282.511025667191 137.806326150894 2677.99997329712 29 21 10
289.908558130264 137.850895524025 2678.99990081787 50 42 29
296.97772860527 137.740939855576 2677.00004577637 60 52 41
-85.6308490037918 135.160207748413 2770.99990844727 20 17 12
-67.5778537988663 129.554554820061 2655.99989891052 17 18 12
-59.5555454492569 127.897650003433 2621.99997901917 18 19 13
-52.2581934928894 127.557575702667 2615.00000953674 21 24 17
-45.2058799564838 127.802655100822 2619.99988555908 19 22 15
-37.3708307743073 125.511020421982 2572.99995422363 18 21 12
-30.6178368628025 126.633808016777 2595.99995613098 17 20 11
-23.4944056719542 126.439347863197 2592.00000762939 16 19 10
-16.2913706153631 125.464230775833 2572.00002670288 16 19 10
-9.30198654532433 125.903576612473 2581.00008964539 15 18 9
-2.25817901082337 126.050055027008 2584.00011062622 16 19 10
4.77603124454618 125.513419508934 2572.99995422363 16 19 10
11.786850169301 125.366896390915 2569.9999332428 18 21 12
18.9641490578651 126.439690589905 2592.00000762939 19 22 13
26.1409375816584 126.926943659782 2601.99999809265 16 19 10
33.4233194589615 127.609118819237 2615.9999370575 14 17 8
39.944663643837 125.65703690052 2575.99997520447 13 16 9
47.3598539829254 126.680314540863 2596.99988365173 12 15 8
54.9104772508144 127.752214670181 2618.99995803833 9 12 5
62.9838183522224 129.653140902519 2657.99999237061 8 11 4
70.5034732818604 130.139276385307 2667.99998283386 8 11 4
77.640101313591 129.893586039543 2663.00010681152 10 13 6
84.0476527810097 128.574639558792 2635.99991798401 11 14 7
91.553583741188 129.01146709919 2644.99998092651 14 17 10
98.6228138208389 128.814056515694 2641.00003242493 14 17 10
104.507707059383 127.202019095421 2608.00004005432 11 14 7
110.640086233616 126.077607274055 2585.00003814697 9 12 5
117.192827165127 125.538349151611 2573.99988174438 15 18 9
123.829863965511 125.145256519318 2565.99998474121 16 19 10
132.717117667198 126.946628093719 2602.9999256134 13 16 7
139.281153678894 126.455649733543 2592.99993515015 11 14 5
147.201120853424 127.183705568314 2608.00004005432 12 15 6
154.728978872299 127.521440386772 2615.00000953674 14 17 8
162.232518196106 127.810209989548 2621.00005149841 14 17 8
168.928012251854 127.464905381203 2614.00008201599 15 18 9
176.123470067978 127.509519457817 2615.00000953674 15 18 9
182.412654161453 126.920118927956 2602.9999256134 14 17 8
189.800605177879 127.110719680786 2607.00011253357 14 17 8
195.245787501335 126.03348493576 2585.00003814697 14 17 8
202.839761972427 126.370072364807 2592.00000762939 16 19 10
211.118921637535 127.096474170685 2607.00011253357 17 20 11
220.567166805267 128.456398844719 2634.99999046326 15 18 9
227.920025587082 128.548637032509 2637.00008392334 15 18 9
234.391316771507 128.153249621391 2628.99994850159 12 15 6
238.980531692505 126.782849431038 2601.0000705719 14 15 7
247.389659285545 127.459585666656 2615.00000953674 17 17 7
257.626056671143 129.013434052467 2647.0000743866 20 17 8
267.335385084152 130.225837230682 2671.99993133545 20 17 8
275.535523891449 130.658194422722 2680.99999427795 21 17 8
283.256143331528 130.846709012985 2684.99994277954 38 34 23
290.997534990311 131.035074591637 2688.99989128113 33 31 18
300.978451967239 132.197842001915 2713.00005912781 17 15 3
-84.118627011776 125.342383980751 2721.99988365173 20 19 15
-68.4445723891258 123.872376978397 2690.00005722046 18 19 14
-60.7608295977116 123.183131217957 2674.99995231628 19 20 15
-52.8789572417736 121.849000453949 2645.99990844727 20 23 16
-45.4830378293991 121.389634907246 2635.99991798401 17 20 13
-38.0689091980457 120.699845254421 2621.00005149841 17 20 11
-30.748313292861 120.055943727493 2607.00011253357 17 20 11
-23.4768372029066 119.2736774683 2589.99991416931 15 18 9
-16.4437815546989 119.550459086895 2595.99995613098 14 17 8
-9.35266725718975 119.50471252203 2595.00002861023 14 17 8
-2.28008138947189 120.149560272694 2608.99996757507 16 19 10
4.8262644559145 119.735062122345 2599.99990463257 17 20 11
11.8972081691027 119.458578526974 2594.00010108948 15 18 9
18.9719200134277 119.412153959274 2592.99993515015 16 19 10
26.2018404901028 120.102398097515 2608.00004005432 19 22 13
33.5391126573086 120.884589850903 2625 18 21 12
40.2712561190128 119.594283401966 2596.99988365173 15 18 11
47.6527772843838 120.330087840557 2612.99991607666 14 17 10
55.792398750782 122.539304196835 2661.00001335144 14 17 10
63.3407682180405 123.090513050556 2673.00009727478 12 15 8
69.6859508752823 121.431216597557 2637.00008392334 10 13 6
76.7964348196983 121.291361749172 2634.0000629425 9 12 5
83.635151386261 120.782971382141 2622.99990653992 9 12 5
91.451920568943 121.655844151974 2641.99995994568 10 13 6
98.9985838532448 122.06806242466 2651.00002288818 10 13 6
105.792514979839 121.559202671051 2640.00010490417 9 12 5
111.413136124611 119.853049516678 2602.9999256134 9 12 5
118.01515519619 119.343921542168 2592.00000762939 12 15 6
126.72832608223 120.906569063663 2625.99992752075 12 15 6
132.771238684654 119.890689849854 2604.00009155273 12 15 6
140.358746051788 120.301924645901 2612.99991607666 11 14 5
147.148132324219 120.022408664227 2607.00011253357 12 15 6
155.146792531013 120.709531009197 2621.99997901917 13 16 7
162.236303091049 120.659880340099 2621.00005149841 14 17 8
170.095205307007 121.162489056587 2631.99996948242 14 17 8
175.18462240696 119.731552898884 2601.0000705719 15 18 9
182.066515088081 119.589418172836 2598.00004959106 15 18 9
188.203260302544 118.986845016479 2585.00003814697 16 19 10
195.627957582474 119.212672114372 2589.99991416931 15 17 6
202.29659974575 118.978083133698 2585.00003814697 15 18 7
210.475876927376 119.617819786072 2598.99997711182 16 19 8
218.312084674835 120.027258992195 2608.00004005432 16 19 8
228.011667728424 121.402956545353 2638.00001144409 13 19 9
235.555708408356 121.581897139549 2641.99995994568 16 19 10
244.13138628006 122.266873717308 2657.00006484985 16 19 10
250.517249107361 121.847279369831 2648.00000190735 17 18 10
255.393266677856 120.73740363121 2624.00007247925 16 16 8
266.340851783752 122.480131685734 2661.99994087219 16 16 8
275.850027799606 123.486444354057 2684.00001525879 20 20 12
284.000933170319 123.848415911198 2691.99991226196 20 21 13
293.493032455444 124.762266874313 2711.99989318848 18 21 10
-84.2132344841957 118.044100701809 2724.99990463257 18 19 14
-76.0989189147949 117.006182670593 2700.99997520447 20 21 16
-67.0212060213089 114.105321466923 2634.0000629425 19 20 15
-61.1029267311096 116.532668471336 2690.00005722046 19 21 16
-53.5196699202061 116.014063358307 2677.99997329712 20 23 16
-45.8119064569473 115.018755197525 2654.99997138977 17 20 13
-38.3021682500839 114.239901304245 2637.00008392334 17 20 11
-30.7961851358414 113.114275038242 2611.00006103516 16 19 10
-23.6858539283276 113.201513886452 2612.99991607666 15 18 9
-16.5835116058588 113.418571650982 2618.00003051758 14 17 8
-9.5078581944108 114.285305142403 2638.00001144409 14 17 8
-2.2984859533608 113.938853144646 2630.00011444092 15 18 9
4.87835006788373 113.852187991142 2628.00002098084 17 20 11
11.8653681129217 112.075753509998 2586.99989318848 15 18 9
19.0601516515017 112.855240702629 2605.00001907349 16 19 10
26.3330452144146 113.547891378403 2621.00005149841 19 22 13
33.3354361355305 113.02737891674 2608.99996757507 18 21 12
40.5513010919094 113.286502659321 2615.00000953674 16 19 12
47.7815084159374 113.502137362957 2619.99988555908 15 18 11
55.6259155273438 114.930614829063 2653.00011634827 14 17 10
63.0815252661705 115.319184958935 2661.99994087219 12 15 8
69.5553719997406 114.018134772778 2631.99996948242 11 14 7
76.2441903352737 113.280117511749 2615.00000953674 9 12 5
83.7964564561844 113.841518759727 2628.00002098084 9 12 5
91.8693616986275 114.965885877609 2654.00004386902 9 12 5
99.52362626791 115.440294146538 2664.99996185303 8 11 4
105.474293231964 114.008612930775 2631.99996948242 8 11 4
112.01485991478 113.356523215771 2617.00010299683 8 11 4
118.245452642441 112.487718462944 2596.99988365173 11 14 5
125.283345580101 112.441763281822 2595.99995613098 12 15 6
132.213324308395 112.30906099081 2592.99993515015 11 14 5
140.737861394882 113.475523889065 2619.99988555908 11 14 5
147.941619157791 113.515742123127 2621.00005149841 12 15 6
154.617682099342 113.166011869907 2612.99991607666 13 16 7
161.868467926979 113.249234855175 2615.00000953674 13 16 7
169.646561145782 113.678760826588 2625 14 17 8
176.400825381279 113.415233790874 2618.99995803833 14 17 8
182.35082924366 112.675257027149 2601.99999809265 15 18 9
187.770530581474 111.6753667593 2578.9999961853 15 18 9
195.858836174011 112.277515232563 2592.99993515015 17 19 8
204.022720456123 112.879492342472 2607.00011253357 16 19 8
208.941727876663 111.706092953682 2579.99992370605 17 20 9
216.224059462547 111.831523478031 2582.99994468689 17 20 9
225.250646471977 112.822666764259 2605.99994659424 14 20 10
235.649913549423 114.419683814049 2642.99988746643 15 18 9
242.390811443329 114.198252558708 2638.00001144409 16 19 10
251.374095678329 115.015625953674 2657.00006484985 17 18 10
258.513301610947 114.967063069344 2655.99989891052 17 17 9
268.247544765472 116.043753921986 2680.99999427795 18 18 10
278.425306081772 117.250062525272 2709.00011062622 21 21 13
283.901423215866 116.465263068676 2690.99998474121 20 23 14
292.525231838226 116.978727281094 2703.00006866455 17 23 13
-84.3386352062225 110.769532620907 2729.00009155273 14 16 13
-74.6072605252266 107.483357191086 2648.00000190735 18 20 17
-68.0149868130684 108.499579131603 2673.00009727478 20 22 17
-61.240516602993 109.434522688389 2696.00009918213 19 22 15
-53.9404936134815 109.557449817657 2698.99988174438 20 23 16
-45.4332605004311 106.879398226738 2632.99989700317 19 22 15
-38.0560494959354 106.352560222149 2619.99988555908 17 20 11
-31.0209468007088 106.759205460548 2630.00011444092 16 19 10
-23.867653682828 106.881536543369 2632.99989700317 16 19 10
-16.8562512844801 108.018577098846 2661.00001335144 16 19 10
-9.60537604987621 108.181215822697 2664.99996185303 17 20 11
-2.30902223847806 107.247680425644 2641.99995994568 15 18 9
4.82276361435652 105.461552739143 2598.00004959106 16 19 10
11.8289273232222 104.690104722977 2578.9999961853 14 17 8
19.0166532993317 105.501659214497 2598.99997711182 14 17 8
26.1929426342249 105.825938284397 2607.00011253357 17 20 11
33.2594811916351 105.662949383259 2602.9999256134 15 18 9
40.1334576308727 105.053313076496 2588.00005912781 14 17 10
47.8190034627914 106.432542204857 2621.99997901917 14 17 10
55.6480623781681 107.73042589426 2654.00004386902 14 17 10
62.5615268945694 107.160933315754 2640.00010490417 12 15 8
69.2661479115486 106.388352811337 2621.00005149841 12 15 8
76.4498934149742 106.427446007729 2621.99997901917 12 15 8
84.1489806771278 107.11582750082 2638.99993896484 10 13 6
91.6636064648628 107.479348778725 2648.00000190735 7 10 3
98.6294373869896 107.193283736706 2641.00003242493 6 9 2
105.075769126415 106.420040130615 2621.99997901917 7 10 3
110.818706452847 105.078458786011 2588.99998664856 8 11 4
119.067519903183 106.131374835968 2615.00000953674 11 14 5
125.334233045578 105.39834946394 2596.99988365173 12 15 6
133.490815758705 106.247998774052 2618.00003051758 11 14 5
139.935046434402 105.717658996582 2605.00001907349 11 14 5
146.53354883194 105.349525809288 2595.99995613098 12 15 6
154.206678271294 105.752304196358 2605.99994659424 12 15 6
161.190912127495 105.667978525162 2604.00009155273 13 16 7
168.292880058289 105.664677917957 2604.00009155273 13 16 7
176.135078072548 106.107577681541 2615.00000953674 14 17 8
182.354584336281 105.576515197754 2601.99999809265 14 17 8
190.10429084301 105.937965214252 2611.00006103516 15 18 9
197.902277112007 106.299258768559 2619.99988555908 15 17 6
204.574719071388 106.051854789257 2614.00008201599 15 18 7
211.132630705833 105.763755738735 2607.00011253357 16 19 8
216.647014021873 104.988746345043 2588.00005912781 16 19 8
224.045097827911 105.146676301956 2592.00000762939 13 19 7
234.406426548958 106.643095612526 2628.99994850159 16 19 10
239.730969071388 105.827197432518 2608.99996757507 17 20 11
249.013870954514 106.755346059799 2631.99996948242 18 19 11
260.367840528488 108.494482934475 2674.99995231628 19 19 11
269.95387673378 109.42218452692 2697.99995422363 20 20 12
278.739154338837 109.984673559666 2711.99989318848 23 23 15
-82.8568488359451 101.503923535347 2680.99999427795 12 14 11
-75.961172580719 102.073363959789 2696.00009918213 18 20 17
-67.8891092538834 101.014621555805 2667.99998283386 21 23 18
-61.24172732234 102.075986564159 2696.00009918213 20 21 15
-54.061483591795 102.417856454849 2704.99992370605 21 22 14
-46.2106727063656 101.396515965462 2677.99997329712 20 21 13
-38.1149053573608 99.3527248501778 2624.00007247925 18 21 12
-31.080536544323 99.7698828577995 2634.99999046326 17 20 11
-24.1128876805305 100.717015564442 2660.00008583069 17 20 11
-16.7805701494217 100.300900638103 2648.9999294281 17 20 11
-9.53347980976105 100.14969855547 2644.99998092651 18 21 12
-2.28634453378618 99.0517511963844 2615.9999370575 17 20 11
4.8135775141418 98.1808677315712 2592.99993515015 17 20 11
11.8842041119933 98.1049761176109 2591.00008010864 15 18 9
18.9731288701296 98.1803983449936 2592.99993515015 15 18 9
26.1331796646118 98.4828919172287 2601.0000705719 15 18 9
33.1068150699139 98.1036871671677 2591.00008010864 14 17 8
40.1807762682438 98.102979362011 2591.00008010864 12 15 8
47.6375743746758 98.8972634077072 2611.99998855591 12 15 8
55.5233545601368 100.259311497211 2648.00000190735 13 16 9
62.5153705477715 99.8795703053474 2638.00001144409 12 15 8
68.9239576458931 98.7424552440643 2608.00004005432 12 15 8
77.0928785204887 100.104056298733 2644.00005340576 13 16 9
84.756501019001 100.632555782795 2657.99999237061 12 15 8
98.9301353693008 100.288309156895 2648.9999294281 8 11 4
105.759121477604 99.907785654068 2638.99993896484 8 11 4
111.206129193306 98.3535498380661 2598.00004959106 9 12 5
120.481394231319 100.168496370316 2645.99990844727 12 15 6
128.328934311867 100.658252835274 2658.99991989136 13 16 7
133.44244658947 99.065862596035 2617.00010299683 12 15 6
139.615461230278 98.381906747818 2598.99997711182 12 15 6
147.213771939278 98.7198948860168 2608.00004005432 13 16 7
155.393183231354 99.3983820080757 2625.99992752075 13 16 7
161.998778581619 99.0547314286232 2617.00010299683 13 16 7
169.524103403091 99.2787256836891 2622.99990653992 14 17 8
175.599619746208 98.6699312925339 2607.00011253357 14 17 8
183.899968862534 99.3099883198738 2624.00007247925 15 18 9
190.544813871384 99.0415811538696 2617.00010299683 15 18 9
197.150722146034 98.7730473279953 2609.99989509583 15 17 4
204.813420772552 99.0342497825623 2617.00010299683 15 18 7
211.379617452621 98.7655073404312 2609.99989509583 16 19 8
218.576535582542 98.799392580986 2611.00006103516 14 20 8
224.567964673042 98.3034148812294 2598.00004959106 13 19 7
230.309307575226 97.7316871285439 2582.99994468689 16 22 12
238.908484578133 98.3706265687943 2599.99990463257 17 23 13
249.680832028389 99.8417139053345 2638.99993896484 19 22 13
259.496688842773 100.858569145203 2665.99988937378 19 20 14
270.859450101852 102.404832839966 2707.00001716614 19 20 14
282.136142253876 103.837341070175 2744.99988555908 21 20 15
-83.074726164341 94.4321379065514 2687.99996376038 7 9 6
-75.2018094062805 93.7660411000252 2668.99991035461 16 18 15
