ply
format ascii 1.0
comment KinectMotionCapture
element vertex 791
property float x
property float y
property float z
property uchar red
property uchar green
property uchar blue
end_header
211.906268138402 -110.970677304121 2689.31864338932 9 12 5
185.115182760764 -108.37797350477 2703.25869120942 9 12 5
124.602199201481 -100.534036418467 2748.36038490083 17 20 13
123.638100123826 -101.878913240964 2739.00883147986 21 24 17
59.8448003358603 -93.411613880911 2787.91118900751 23 26 19
30.6768684297674 -90.2987790940263 2805.07158009155 20 23 16
55.1543723383467 -95.6138114789212 2772.14859336537 17 20 13
56.4797489060926 -97.3046448032743 2760.74957299708 15 18 11
48.8945891256822 -97.588028067675 2757.71986114025 13 16 9
25.1123195222611 -95.2794813123399 2770.13422005033 15 18 11
63.8579667511467 -102.988770595279 2722.83988808498 17 20 13
27.3922836887488 -100.13314855231 2737.17875403924 18 21 12
16.9087118290348 -99.9403963844784 2736.9907741246 17 20 11
23.864565651512 -102.59428805598 2719.78764681057 17 20 11
13.3790432128986 -102.401245828179 2719.59825434887 15 18 9
16.6213535961535 -104.468365056852 2705.88154988593 16 19 12
85.9511584661115 -117.512909579735 2626.38586248719 17 20 13
74.5388604240125 -117.217498100561 2626.76018576178 14 17 10
3.36310130408535 -108.469959078701 2676.48803253938 17 20 13
48.2927412670353 -117.63454113461 2620.08295118284 15 18 11
58.2142961670771 -120.935918666417 2598.85067212756 12 17 11
324.852031115595 -116.128717054114 2725.46971633762 16 21 17
286.257327299657 -111.903098275395 2748.15303100328 18 23 17
260.332311168713 -109.530337862706 2760.24972358813 16 19 12
254.75692476911 -110.18894868168 2754.96933990256 16 19 12
263.149230673115 -112.95634532359 2737.57191580359 17 20 13
253.653222150172 -113.032582054434 2735.6281114102 17 20 13
244.17386702776 -113.107380058388 2733.69638670968 16 19 12
245.486988594572 -114.828361156303 2722.28832972527 14 17 10
233.707605206372 -114.549185581782 2722.39646276043 12 15 8
219.662031604757 -113.913145809634 2724.56899809913 10 13 6
220.15863166437 -115.520226988827 2713.80464080345 11 14 7
197.787043604687 -113.577438818731 2723.53467034308 10 13 6
195.992422728779 -114.829773183661 2714.81655932134 9 12 5
209.301034927873 -118.460660110628 2692.33255699086 8 11 4
153.85026520894 -111.271855532554 2732.45479379438 11 14 7
129.521726659809 -108.945518701908 2744.473240798 21 24 17
104.547697501171 -106.490788874001 2757.25973932539 23 26 19
44.5391209669661 -98.4070721606739 2802.72830296494 21 24 17
33.3061007347251 -98.0802894236544 2803.23274745148 17 20 13
33.2529908009396 -99.5499143019483 2793.30562652266 17 20 13
46.5041241240778 -103.184710861201 2770.77993672529 16 19 12
33.0382023237266 -102.497859352609 2773.37293139657 13 16 9
52.7682782783927 -107.229669274004 2744.42249017448 13 16 9
62.7945683702729 -110.405544545349 2724.50180821782 14 17 10
47.0913123123462 -109.358923618651 2729.18013820636 15 18 9
53.3481974067329 -111.939158883393 2712.70572325802 16 19 10
52.9780458812161 -113.434407922551 2702.54864232193 17 20 11
51.8458117867255 -114.81100793251 2693.07504355488 17 20 11
41.9994012877822 -114.73067451307 2692.11334945604 16 19 12
37.2234102285298 -115.500898416641 2686.17686254115 16 19 12
79.1803345812752 -124.201378942108 2633.79491906367 18 21 14
101.484235273877 -129.627745366244 2600.5310081566 18 21 14
53.5692629955529 -123.07695995007 2637.4667338184 18 21 14
49.3718209755749 -123.980123220948 2630.71393945563 19 22 15
95.5916145803544 -133.598572700115 2572.77174582092 11 13 8
332.343916494269 -125.261073285718 2719.7382736548 14 19 15
299.987612631122 -121.880230357402 2737.05877663642 11 16 10
263.871232150493 -117.889798694889 2757.83208514416 14 17 10
256.729797866815 -118.312831598166 2753.88829538733 15 18 11
257.356264969329 -119.934126038056 2743.21800948958 16 19 12
254.071130851766 -120.958694006184 2735.89091502696 16 19 12
244.591236288622 -121.022901311749 2733.95885291833 15 18 11
230.508849953489 -120.363168168079 2736.10482193247 13 16 9
225.681355917353 -121.146944166141 2730.13093076648 12 15 8
216.251228525859 -121.206750954515 2728.23526270917 12 15 8
215.233864746638 -122.595832166882 2718.84457818834 12 15 8
217.989817156798 -124.593329586371 2706.01098620572 11 14 7
176.677871281594 -119.556831327137 2732.90439347827 10 13 6
174.913965225793 -120.823196613998 2724.20847721573 9 12 5
170.104926061292 -121.604880123491 2718.2479749789 13 16 9
117.140343753758 -114.584698283691 2756.46624362278 23 26 19
56.9466678368906 -106.320285817982 2801.80154002922 24 27 20
56.8987996789652 -107.811939370109 2791.87840187303 20 23 16
51.5952343878823 -108.449246573639 2786.79517501699 16 19 12
47.0295244766956 -109.209415027096 2781.01147080382 17 20 13
30.5937887303172 -108.004686228786 2786.39464811104 16 19 12
53.3899311979251 -113.315679989187 2754.72319478612 15 18 11
55.3807605025036 -115.190812091518 2742.57060516938 13 16 9
46.3020986727725 -115.21881095446 2740.92958863483 13 16 9
50.4246201744261 -117.469917868296 2726.61499943315 14 17 8
49.3726490927222 -118.859701266207 2717.19951826051 15 18 9
59.2099691408388 -122.111465447156 2697.14146349402 16 19 10
66.2886129868183 -126.525434876031 2668.90222105381 17 20 13
55.863155588785 -127.965697228618 2657.63188491831 15 18 11
73.9434621309858 -132.745773679436 2628.72028279102 16 19 12
348.736357631212 -134.248712278288 2716.75436244515 108 114 114
339.83809055631 -134.441636598751 2714.00824590903 7 13 9
302.7583377662 -130.240935418722 2735.31958143302 13 18 12
272.877589926801 -127.12558480066 2750.72791867172 14 17 10
237.676218864441 -123.142288039281 2770.92946426515 15 18 11
239.912034839482 -125.028909120204 2758.95441252016 17 20 13
245.970532665007 -127.533499930054 2743.57160219011 17 20 13
213.348737834399 -123.896615557635 2761.93597863315 16 19 12
219.374599147349 -126.403869802506 2746.52979038484 15 18 11
223.026074587734 -128.547203152124 2733.10931236428 15 18 11
222.026109933577 -129.954381196981 2723.73114917651 15 18 11
214.886932728603 -130.37451290812 2719.78901031931 15 18 11
203.945230591269 -130.174843210193 2719.26895702809 12 15 8
202.896300286342 -131.585958146935 2709.85527765396 11 14 7
198.031272066536 -132.378260905088 2703.85442844451 13 16 9
63.3426275307833 -114.787646769579 2796.51433686771 25 28 21
95.4435421403525 -121.678417198135 2756.75849210342 18 21 14
74.3657224053882 -119.699066440376 2766.19125600251 20 23 16
55.6057694439946 -118.088374973123 2773.59701929489 17 20 13
56.9380902959677 -119.861629892312 2762.20261550481 16 19 12
58.2254465274237 -121.638587191038 2750.77559714844 14 17 10
55.7826700944837 -122.789449934567 2742.82346941107 14 17 10
36.4161397371987 -121.040980195467 2751.02524630747 14 17 10
76.4701895722504 -129.517687669545 2702.2054429312 14 17 8
66.5772373620768 -129.415255575784 2701.21012168677 14 17 8
80.0085073339289 -133.365085324173 2677.57808997893 15 18 9
50.3077721862084 -133.05754051544 2674.57597282345 18 21 14
70.1316625302715 -141.550927473478 2622.20702370815 16 18 13
105.091041136919 -149.515260014394 2575.87205733581 14 16 11
337.12303645637 -142.051161667795 2716.94194249902 13 19 15
307.879483335789 -138.991321111779 2731.5768779892 20 27 20
269.389009837018 -134.421607402829 2754.33778882183 20 23 16
242.761483638344 -131.713242352974 2767.16165892211 19 22 15
239.548736597909 -132.754170859823 2759.88695652716 17 20 13
230.121246230929 -132.792744555232 2757.99301317798 15 18 11
212.987091792687 -131.573131498603 2762.8702617392 13 16 9
210.546292980412 -132.739676502206 2754.91919371049 15 18 11
206.546656541269 -133.656000168768 2748.30972617465 15 18 11
212.487628392724 -136.214501547892 2732.84144569021 15 18 11
206.140586436675 -136.756254501272 2728.23759543817 14 17 10
195.985790578431 -136.6649379584 2727.05240184279 11 14 7
209.385911272775 -140.502473766557 2704.63368925608 11 14 7
118.852717986918 -128.495037675732 2766.28296699533 23 26 19
102.145080655658 -127.238183505099 2771.46959554331 25 28 21
100.505605277196 -128.527118514408 2762.86376741416 20 23 16
92.8534918688104 -128.796280412541 2759.78529700055 20 23 16
97.8904707495736 -131.239324697324 2744.89760863866 18 21 14
107.32331865674 -134.456574816758 2725.78155483505 18 21 14
89.2246516725872 -132.934630858094 2732.43121229205 16 19 12
68.238002565725 -130.892690977457 2741.93038475138 15 18 11
56.1842828410439 -130.387096180547 2743.07612348582 16 19 12
56.6594079030258 -132.069073375749 2732.29581914297 17 20 13
95.9305815310567 -140.59368975361 2684.14328605798 16 19 12
91.8244586170229 -141.516668466307 2677.45659049483 16 19 12
54.9277151719352 -136.61670801555 2702.60953964932 16 19 12
39.9998297204229 -135.589101857288 2706.61481939492 16 19 12
26.1785516159021 -136.37957254167 2699.06154930482 18 20 15
55.4119418937162 -144.989056244088 2648.57271845345 21 23 18
51.9568330458258 -146.046183490863 2641.12224076221 21 23 18
64.1679383381271 -149.980670116922 2617.84109446071 22 24 19
325.537290245808 -149.812812544964 2717.14971888548 16 23 16
277.617521158921 -143.604226617728 2747.90505078452 18 21 14
244.731784036298 -139.804713563736 2766.0789135736 17 20 13
239.184560047317 -140.473100805665 2760.81919037802 15 18 11
215.814888158972 -138.193231776006 2771.06213718327 14 17 10
219.577330903191 -140.398879779903 2757.72178609341 13 16 9
214.038530730789 -141.066554726836 2752.46817311015 14 17 10
194.668977808316 -139.416707320767 2759.43222271379 15 18 11
195.286281403038 -141.113394004066 2748.75491211711 15 18 11
213.427790887622 -145.783722636024 2722.35860093865 14 17 10
200.968253905452 -145.292821929425 2723.20978517708 11 14 7
190.820707469135 -145.187475744111 2722.02991790526 10 13 6
163.280973757472 -142.096986088544 2736.66481258378 20 23 16
129.069178012943 -137.82686883361 2757.58517524603 23 26 19
132.654353880895 -140.046967047144 2744.11624642134 22 25 18
126.424787289372 -140.578336900554 2739.59760916054 19 22 15
115.704469215757 -140.326947497029 2739.23830387219 21 24 17
110.97828602851 -141.118337939129 2733.338111011 18 21 14
98.8034060451635 -140.60213644797 2734.39577733622 17 20 13
99.2718987005392 -142.310131679253 2723.61053323381 15 18 11
84.1699654301671 -141.266096245791 2727.48972521867 15 18 11
60.2722288692603 -138.640762114599 2739.82198425759 15 18 11
70.2941029307946 -142.058947226805 2719.8971681562 15 18 11
52.3678617530692 -140.478117864225 2726.67182454918 16 19 12
56.4321519156659 -142.849845167414 2712.31441124105 17 20 13
29.5104232233161 -141.256690238151 2717.50884466373 18 21 14
3.08026067328537 -138.068983968463 2732.94887805508 17 20 13
-6.62360940403461 -137.92283628749 2732.09055343502 18 20 15
-2.63225943342826 -140.299606274361 2717.68023868291 20 22 17
63.7186068228144 -154.259071957545 2640.96086184716 21 23 18
48.0801619741618 -153.063994675083 2645.68692682514 22 24 19
323.83060438408 -155.902548747359 2729.46824099668 15 21 17
312.640776993815 -155.676230426702 2728.76845139489 16 23 16
281.941695361314 -152.188645088856 2744.82048307431 15 18 11
250.598487233362 -148.558904783525 2761.64162485999 15 18 11
226.387938798147 -146.093942204892 2772.51127095276 15 18 11
229.396038610199 -148.2028479594 2759.85960722066 15 18 11
230.032680323623 -149.92294095417 2749.19619668134 16 19 12
225.235835416694 -150.727314657152 2743.24471386879 14 17 10
218.892973588464 -151.269445899342 2738.64389196451 14 17 10
211.783242679449 -151.679973488853 2734.72285352541 14 17 10
212.315373659462 -153.408771993827 2723.98363682995 13 16 9
193.765914016046 -151.839586439046 2730.30674435585 11 14 7
174.526548531597 -150.132174016049 2737.36546118981 10 13 6
160.661558067032 -149.345378712962 2739.66966870487 22 25 18
152.879851091563 -149.615619126028 2736.49754216295 23 26 19
141.34192524933 -149.221173205533 2736.78129679317 20 23 16
138.841496351112 -150.419871348186 2728.78713325763 21 24 17
136.318285163652 -151.620335852996 2720.77615093043 19 22 15
105.41442317546 -147.75476293417 2739.15201527681 18 21 14
82.8392891470791 -145.345814566684 2749.97188782234 15 18 11
82.6157909714427 -146.940754623849 2739.92061407465 13 16 9
85.314537173427 -149.074292905699 2727.0448630171 12 15 8
74.6854588286987 -148.798156488285 2726.75182470387 11 14 7
65.5523904714284 -148.78826426556 2725.07155964223 11 14 7
54.2368048117554 -148.373267198525 2725.51659751137 11 14 7
26.8722758980275 -144.992607679804 2741.51530276075 12 15 8
46.268278455051 -150.232279983243 2712.31981770313 14 17 10
19.016285037833 -146.841547933231 2728.40015335492 14 17 10
15.7912903468382 -147.902736016764 2721.11646975795 15 18 11
13.2699227346231 -149.10069129072 2713.10683658753 16 18 13
32.3206258142728 -154.368684807229 2683.6611875942 17 19 14
38.2989503832385 -157.205274488353 2666.98324521353 19 21 16
58.5099252939099 -162.767666635523 2635.90684310941 20 22 17
302.090579836176 -161.845014809752 2738.38083293078 6 13 6
260.476115686497 -156.40759747637 2763.82193235506 16 19 12
237.762695521653 -154.151912386975 2773.30545091416 15 18 11
236.900657255746 -155.625185122759 2764.0272332031 13 16 9
249.181474125152 -159.373280733013 2743.2676396772 13 16 9
219.626687616027 -155.903220989112 2758.91436438926 13 16 9
230.272379681853 -159.391144544315 2739.44111955613 14 17 10
232.368426256051 -161.411025632268 2727.36407100143 14 17 10
225.987411433837 -161.956725642987 2722.73557310107 14 17 10
208.909910287989 -160.618213605864 2727.65419861275 13 16 9
178.180769456103 -156.848454096522 2744.92120011107 10 13 6
167.340679154665 -156.575741025572 2744.47488291025 10 13 6
155.768319846009 -156.165523786876 2744.73405034768 24 27 20
147.246890934467 -156.294085500559 2742.26114337057 30 33 26
107.86473099058 -150.86486534224 2768.08540960384 23 26 19
143.75466379026 -158.990369205817 2724.89457319593 20 23 16
111.275367162801 -154.769944323273 2744.60024200443 18 21 14
83.4271985996367 -151.352769596011 2760.24853150728 17 20 13
77.287411861001 -151.87665717673 2755.79501547703 15 18 11
83.760707334533 -154.720306078229 2739.47614678896 13 16 9
70.9234570063471 -154.017305349518 2741.28992399671 12 15 8
72.1392456195593 -155.910735841111 2729.81043478687 12 15 8
54.9252720498012 -154.38220250245 2735.86612765054 12 15 8
61.2385749878692 -157.238722967886 2719.4312117621 11 14 7
55.0491953364518 -157.765702098482 2714.94172911169 12 15 8
69.2650517490727 -162.144916735819 2690.64154378737 13 16 9
69.55150105793 -163.916798796371 2679.72400897868 12 15 8
27.7825898242487 -157.690024177844 2709.99758565978 12 14 9
26.6711958501178 -159.181137626189 2700.53851430759 13 15 10
29.847914689678 -161.504643884748 2686.77296248398 15 17 12
85.4018335229871 -175.736847130203 2609.63607530279 19 21 16
111.079988166876 -182.53201710191 2572.63552773529 20 22 17
129.446873694731 -187.952879500753 2542.69339049425 23 25 22
299.522007075568 -167.658837083021 2751.31069454604 15 19 18
253.126248529329 -161.291688860442 2780.70124962385 15 20 16
247.600897961507 -161.967295555504 2775.45734637011 21 24 17
250.644803340344 -164.13925783176 2762.83131946379 23 26 19
226.429940721881 -161.549511329162 2773.69847016823 19 22 15
180.612312845989 -155.132899346919 2803.50837505059 17 20 13
202.260486005192 -160.577508892197 2774.70946184945 16 19 12
243.543121009693 -171.233502027083 2718.12310773485 17 20 13
203.974561459299 -167.524943857756 2732.68732032935 12 15 8
210.590624639156 -170.404373956392 2716.4717657596 9 12 5
170.787761167385 -164.891550518098 2741.99118401733 8 11 4
143.29768101019 -161.568059840763 2756.66354829027 20 23 16
139.345138398086 -162.513815815284 2750.08807099424 29 32 25
143.662941840026 -164.981386667581 2735.91394940608 27 30 23
70.5717594500257 -153.195476334858 2792.91450028617 23 26 19
124.407961504458 -164.803113377532 2733.07242484539 16 19 12
73.3758062639285 -157.00743651499 2770.22511140993 17 20 13
88.1083756865921 -161.420875384615 2746.29932902131 15 18 11
98.2642436019847 -165.009627953527 2726.47048948933 14 17 10
62.4459499816736 -159.965453845716 2749.93559267224 14 17 10
32.7045472356282 -156.022595671781 2767.91950336722 13 16 9
53.855423671016 -161.710211842477 2737.52382165249 13 16 9
57.9757443475666 -164.193093947286 2723.20646303869 11 14 5
89.8168979983702 -172.005764307654 2682.02260577772 10 13 4
82.7944010535768 -172.401279045781 2678.16488114401 10 13 4
54.6999124117171 -168.721879672949 2694.87097281382 12 15 6
33.257360767601 -166.297272529895 2705.27692118579 13 16 9
19.8520953712933 -165.414117864146 2707.91488129303 17 20 13
33.8550030051321 -169.887335016429 2683.45955423612 16 19 12
63.5279171563203 -177.478242052373 2643.17538489974 17 20 13
123.04006326986 -191.027878258238 2572.61676284798 18 20 15
108.653221514223 -190.024808089504 2575.77880132932 20 22 17
100.715637979877 -190.293636445654 2572.49368369564 24 26 23
285.681319246767 -174.781726979676 2753.59274992254 11 16 12
246.447914646883 -169.511482055017 2777.05338462593 23 26 19
251.83671585312 -172.132081226403 2762.41984042553 22 25 18
242.387709983792 -172.119345409558 2760.51055992232 17 20 13
164.734184111365 -159.865508780381 2817.91154515033 16 19 12
163.242174673338 -161.226079001382 2809.41225538201 17 20 13
226.474439826632 -174.303776438578 2744.02318521176 17 20 13
241.654242110632 -178.757048693869 2720.42111522777 16 19 12
216.854005275184 -175.949202878204 2732.10035149205 13 16 9
212.793605347662 -176.913076277118 2725.44659435796 11 14 7
192.715734425097 -174.933550941889 2733.13387563997 8 11 4
174.235701420568 -173.228051459355 2739.50800247496 7 10 3
145.975341238243 -169.688845314913 2754.85810358967 20 23 16
143.527777973473 -170.925211268324 2746.90177820811 29 32 25
139.550665135235 -171.881381583119 2740.30843668011 30 33 26
120.537747992223 -170.015604329759 2747.53240737553 27 30 23
43.934862255159 -157.259982205735 2808.16763896028 20 23 16
79.0003220368529 -165.557029078666 2765.61329219655 17 20 13
84.7880519530513 -168.347622772013 2750.03274776957 15 18 11
84.5660624960538 -170.008865370261 2739.9825263658 14 17 10
68.0261959095505 -168.546951328954 2745.29151969871 14 17 10
45.6438262451373 -165.94139301009 2756.25212711364 13 16 9
29.2429511218457 -164.467263209144 2761.6619401997 13 16 9
67.9140241817477 -173.686962611533 2714.30619177976 14 17 8
74.1391714073032 -176.644273103139 2697.80685941263 14 17 8
88.3085927661882 -181.181159924001 2673.47191920916 14 17 8
61.6483240873187 -177.708088413357 2688.74658918821 15 18 9
32.2118714186512 -173.650801030212 2706.95184983172 16 19 12
28.2019980413493 -174.607056329973 2700.33475905935 18 21 14
72.4363570075841 -185.197561945877 2645.88879882173 17 20 13
96.9807024220319 -193.770967841045 2599.41147627316 18 20 15
104.797662323 -197.205940907055 2580.35825906568 20 22 17
329.452301036504 -188.783408203698 2727.20120873748 10 14 13
258.587405693862 -179.445096390247 2767.27651769441 16 19 12
256.147863111265 -180.69527058223 2759.32593673508 18 21 14
266.126682054383 -184.213271261363 2740.60444010318 23 26 19
231.040310162301 -179.514486389104 2760.89297513768 23 26 19
222.403959769269 -179.629645016278 2758.33712149239 19 22 15
220.71889271737 -181.023389866801 2749.69771210368 18 21 14
208.243302843334 -180.426150782023 2750.53809236008 17 20 13
214.967394840486 -183.38998030795 2734.40012820868 14 17 10
190.274927349249 -180.507536417275 2746.15786662445 12 15 8
203.797662485217 -184.762755445468 2723.82592421534 8 11 4
178.444710161948 -181.728539521672 2736.34037398837 8 11 4
140.317608599022 -176.248606158169 2760.60434796324 17 20 13
146.200224001094 -179.075783236026 2745.09240274787 26 29 22
142.217085216962 -180.041014957122 2738.49464698528 27 30 23
107.419622466068 -175.108357995198 2760.22913413632 25 28 21
96.7571383877162 -174.771450011117 2759.91218711384 20 23 16
73.4241314757256 -171.979962100624 2771.41963569964 15 18 11
109.76170080224 -180.734798024704 2727.31478176589 15 18 11
84.968341303687 -177.651623982152 2740.2354347794 14 17 10
69.1667955897426 -176.29665198421 2744.84407435765 14 17 10
78.9390108255339 -181.702382034093 2714.84703147389 14 17 10
65.3840355806583 -180.779049825488 2717.3766672241 18 21 12
56.2607663365702 -180.725258602651 2715.70372810582 18 21 12
60.2801698102411 -183.293355776045 2701.31278082686 19 22 13
48.2425302786194 -182.655838810624 2702.47055017118 19 22 13
26.8163834695985 -180.115523158788 2712.88897684463 18 21 14
28.6058392429793 -182.249210420005 2700.58880314772 17 20 13
41.8724816343485 -186.730853180168 2676.83503013273 17 20 13
68.7624123304045 -195.870844510369 2628.34979818052 19 21 16
43.8353551606401 -192.587954985656 2642.40957912642 21 23 18
56.0254815474615 -196.95220557288 2619.11104792944 22 24 21
347.964209553468 -200.141459703577 2712.15545170435 17 21 20
313.179593685149 -195.526942379685 2731.42727265933 15 20 16
285.591224628321 -192.194675697412 2744.79309855731 17 20 13
287.757077907489 -194.329942633337 2732.76606992074 11 14 7
251.76558605739 -189.396931644953 2753.63498168913 11 14 7
243.083553034652 -189.50808412244 2751.04603202259 16 19 12
245.240642625344 -191.644131117059 2739.01235197304 20 23 16
217.274094522173 -188.133198932287 2753.3402638918 18 21 14
191.736660226212 -185.047044904572 2765.72124182253 16 19 12
210.012320602959 -190.232251391869 2739.41957153087 14 17 10
212.855825264856 -192.520310148224 2726.64768181652 13 16 9
178.290542658673 -187.675805072633 2747.31470369652 10 13 6
182.654647917207 -190.255259115719 2733.17358057292 9 12 5
135.415308051721 -182.909920009575 2765.66267016676 22 25 18
145.850108696618 -186.65682047114 2746.03552834988 22 25 18
137.875274053709 -188.604765143878 2732.83372507281 15 18 11
106.147529099135 -184.149342124736 2751.85036341057 16 19 12
119.386514427697 -188.499360117659 2729.31224453511 15 18 11
98.2507669739596 -186.089737304637 2738.70519480741 16 19 12
74.2316654355637 -183.083081973677 2750.95169972817 17 20 13
39.2118923212319 -177.854272856825 2773.76127157364 21 24 17
81.8707832962238 -188.121594386821 2723.11529895195 22 25 18
74.9280860552197 -188.503554458512 2719.3157859606 23 26 19
55.5149878593495 -186.367415756532 2727.48576845673 21 24 15
62.5165546280608 -189.562617123681 2710.31303759267 20 23 14
65.0618969418972 -191.873575735312 2697.32488763682 18 21 12
64.6447022855448 -193.594215244881 2687.13285696109 17 20 11
22.143389918218 -186.684447102549 2718.11399655624 15 18 11
22.5045017497716 -188.548977448802 2707.25011692179 15 18 11
25.707277458856 -191.013459247722 2693.50274021008 15 18 11
51.8394777570057 -198.263896519701 2656.82903400854 18 21 14
36.2352806521766 -196.854163347467 2661.58101318131 19 21 16
20.1427910284577 -197.168887730579 2656.08940198133 24 26 23
345.243308581667 -207.673522627528 2715.08530213319 23 27 26
321.444449184943 -205.011489999782 2725.01935196529 20 25 21
306.346157497127 -203.954801867604 2727.66621127028 23 26 19
278.814469651672 -200.544129891412 2741.0735237263 23 26 19
240.510518053317 -195.064622682332 2763.97396207154 23 26 19
231.085298194449 -195.017758016982 2762.08209742428 22 25 18
241.013684688686 -198.655299209774 2743.32343573763 19 22 15
233.881001382253 -199.053108708541 2739.38582303546 14 17 10
215.984569031147 -197.381173726364 2744.94780779876 14 17 10
209.656573706698 -197.923653955148 2740.35776117265 12 15 8
186.504419344833 -195.206004841297 2750.76090299435 11 14 7
203.860468559334 -200.343953271718 2725.02756846927 9 12 5
176.221664032895 -196.728355163766 2739.59359885474 8 11 4
83.5154367256119 -182.01855346491 2803.38669023619 14 17 10
159.610951919248 -198.792137077481 2723.83628132652 11 14 7
152.257184167605 -200.917162646143 2709.8487691143 13 16 9
116.056444230235 -195.469991881616 2733.03867005768 11 14 7
150.052719105678 -204.096294881422 2690.94261721987 11 14 7
86.514742975468 -193.084035291639 2740.04324951821 13 16 9
76.6318260156438 -192.861014239599 2739.05551937075 15 18 11
52.7418265560944 -189.777674181323 2751.3960015669 18 21 14
55.4568487744609 -192.107835542442 2738.53075892929 19 22 15
63.2555473009608 -195.498126606376 2720.69956661408 19 22 13
68.7745974213656 -198.442430575439 2704.92347189637 17 20 11
77.1402776324908 -201.997306412418 2686.26742642082 15 18 9
47.5967494799821 -197.687632378741 2704.39663862615 14 17 8
33.4206550286416 -196.548808239158 2707.71213994657 13 16 9
44.5937567163242 -200.717103688086 2686.14770612763 13 16 9
60.1537804824543 -207.711080722112 2649.22211128752 18 21 14
53.8356804654274 -208.248427894037 2644.63926398088 20 22 17
53.9436052800237 -210.158053792237 2633.5916152567 23 25 20
58.9940057145046 -213.139775559675 2617.47589132868 24 26 23
293.620914748033 -207.685894004344 2749.30048958322 23 28 24
291.118310728499 -208.98307680398 2741.30425041161 30 33 26
286.252488892845 -209.833495328704 2735.30223704826 26 29 22
239.364811210972 -202.596917766993 2765.57562990679 13 16 9
236.149828508971 -203.738725587869 2758.29879585944 10 13 6
215.897175920727 -201.578803782605 2765.86028792567 11 14 7
237.379366182654 -207.530463194781 2736.93848187251 11 14 7
224.856636176167 -206.872459922229 2737.74499702347 11 14 7
202.396999487689 -204.252180781185 2747.41433538134 10 13 6
208.327495230434 -207.207482977139 2731.93645066777 10 13 6
197.408755907298 -206.844704477967 2731.43386978884 9 12 5
169.025394614509 -203.000224554354 2746.69635104548 9 12 5
117.263178466363 -194.449292950399 2783.32362639197 26 29 22
102.809963475202 -193.306870361653 2786.43825534589 24 27 20
117.804242509343 -198.082334536634 2762.70035811024 17 20 13
125.158302610192 -201.347896257191 2745.78250631914 17 20 13
127.185986943374 -203.554637928174 2733.65495403132 15 18 11
155.318418900619 -211.099814747434 2697.19472890341 16 19 12
141.524456619614 -210.116682598884 2699.55142074938 16 19 12
86.1735710804159 -200.57360751395 2740.99302719988 15 18 11
84.4394745324175 -202.019806406479 2732.31780959304 15 18 11
45.7550605774681 -195.809906257618 2758.65184108239 16 19 12
40.3952034781412 -196.484274360865 2753.52761937246 16 19 12
51.913254122419 -200.690164062595 2732.21305599143 14 17 8
34.0504622893811 -198.755877794536 2739.03579297438 12 15 6
21.364796980254 -197.892880405693 2740.96026781206 11 14 5
56.0025054185669 -207.042900224382 2696.85647786551 13 16 7
60.6574635726305 -209.888001514892 2681.68952355108 16 19 12
94.1674647000585 -218.917577097627 2638.00388121141 15 18 11
71.2080445732677 -215.903718253421 2649.78327718315 16 19 12
44.0370603189271 -211.951881465155 2665.92518021205 19 22 15
38.6442379542435 -214.570429504339 2649.65129500625 22 24 19
262.678540596986 -207.799320399629 2786.15530304799 17 21 20
261.863168009043 -209.404102564573 2776.9102481616 18 23 19
299.360645426891 -218.465296664994 2734.88001569858 11 14 7
276.525312197985 -215.820249848374 2744.2771290697 11 14 7
281.79476066948 -218.657122393647 2729.55567358047 13 16 9
244.319797658298 -213.102152395001 2751.82270352578 10 13 6
248.029127886517 -215.634361244173 2738.44219594453 13 16 9
232.391508499837 -214.345050603639 2741.93400552183 15 18 11
228.346200976584 -215.349940226833 2735.29098143841 16 19 12
228.889798846417 -217.276537228711 2724.55936992474 11 14 7
194.204275025743 -212.139887534292 2745.14070615237 9 12 5
180.275445449549 -211.142200403555 2747.39970354171 10 13 6
173.995549156396 -211.680813946296 2742.84454451539 11 14 7
131.312288329799 -204.81831521181 2771.22317862516 22 25 18
131.185544634609 -206.582756234045 2761.2414801864 24 27 20
126.499056880562 -207.42285863714 2755.36952217918 26 29 22
98.4970942084962 -203.466259455014 2770.90905534157 25 28 21
116.347007877281 -208.950053708779 2744.29723976953 22 25 18
124.339441719119 -212.429171856253 2726.60604039224 22 25 18
86.0449413735829 -206.285653979803 2751.9870612327 22 25 18
69.4858024546656 -204.635524983393 2757.28303698641 21 24 17
81.8785775677102 -209.052114615249 2735.36618169743 20 23 16
57.2302942973901 -205.683829953858 2748.39344770636 18 21 14
37.8458714658385 -203.398537443358 2756.58526755651 17 20 13
57.4527107519214 -209.388060976056 2727.53882439896 12 15 6
67.3885327153658 -213.356746984983 2707.54854442262 13 16 7
35.6279090771703 -208.405405729898 2727.77919133082 14 17 8
54.2248089843236 -214.261439139201 2699.23662882432 15 18 9
63.2411617270758 -218.089047444173 2679.81555720304 15 18 11
27.9135295675843 -216.066487437834 2682.62395119752 18 21 14
22.4137582246788 -216.753344801198 2677.39853388296 21 23 18
31.9109853121087 -220.75732291117 2657.09012835947 15 17 12
0.715815776841655 -215.755543421947 2677.73094049387 19 21 18
248.145764380899 -214.455460125839 2789.17275511646 20 25 21
257.514245042616 -218.091630992005 2771.24324931301 20 23 16
262.111213880092 -220.805284142752 2757.2702542224 19 22 15
280.655422011538 -226.318097584706 2731.16130605839 22 25 18
268.790521105076 -225.782499145513 2731.20874445189 21 24 17
234.512495675432 -220.732274703267 2750.85001056949 18 21 14
236.661782585387 -222.989924669432 2738.81035272415 15 18 11
237.22311536468 -224.939888987541 2728.09118478774 17 20 13
240.045997535943 -227.361771714833 2715.30366754502 17 20 13
189.256867660141 -218.844166971422 2750.16611183151 15 18 11
168.475712591119 -216.409471873266 2758.58120405774 9 12 5
141.691455410434 -212.713792163964 2772.53178857397 9 12 5
138.539337154848 -213.872044908973 2765.30044300864 20 23 16
142.932290457548 -216.602773645998 2751.17917173474 20 23 16
129.163286143778 -215.563839831712 2753.55453326725 22 25 18
95.1353362038017 -210.269397514803 2774.61335808506 23 26 19
106.253474208544 -214.420538966001 2754.24420343695 25 28 21
87.3679874723705 -212.266371199105 2761.56171743157 23 26 19
74.519035929745 -211.369971768437 2763.36799178181 17 20 13
47.5892402378904 -207.463826029286 2778.44917500648 14 17 10
72.6477707858182 -214.635982806164 2744.70294356052 11 14 7
107.863008141965 -224.044178646375 2701.01650893914 10 13 6
28.6666437308627 -208.860960405401 2765.95974083847 13 16 7
51.2444168923043 -215.579275297935 2734.12315306132 13 16 7
75.8462327803899 -222.789625931991 2700.04564595225 14 17 8
65.9550680532939 -222.526049808598 2699.05214224171 15 18 9
61.9068608982869 -223.536640893393 2692.40698727433 15 18 9
63.6488395520596 -225.826032750621 2680.07190220276 15 18 11
76.9149329088306 -230.678131642905 2656.31585474753 18 21 14
59.052344783296 -228.655587257227 2663.13918644716 19 22 15
43.4161772862009 -227.107687614715 2667.8686894407 24 27 20
29.9865977617571 -226.036099125484 2670.48997817202 18 20 15
25.1746237693569 -226.888637578325 2664.52698952156 25 27 22
248.553291287556 -222.240700789123 2789.42874628937 20 25 21
288.454584581156 -232.075913284795 2745.43176633427 22 25 18
269.549208860928 -230.102926063806 2751.49890803551 22 25 18
279.515288610877 -233.967367627195 2732.76642169924 20 23 16
262.996389147567 -232.463825554449 2736.8557887722 18 21 14
241.889657447233 -230.005630067054 2745.03468810732 17 20 13
227.04006646877 -228.808201512862 2747.86254874204 19 22 15
235.327734928355 -232.367207242647 2730.38496659342 18 21 14
222.809935589385 -231.643903234208 2731.19509237457 17 20 13
195.020962327912 -227.736314705375 2745.6537412283 14 17 10
179.56335891414 -226.366194744299 2749.27645754123 8 11 4
132.201050568711 -218.295211373475 2781.68037466796 20 23 16
136.66481645825 -221.058279825049 2767.61056761946 19 22 15
140.309856021954 -223.666851818931 2754.1830675691 19 22 15
127.302867239102 -222.76026415673 2755.87453447959 19 22 15
90.2679456964548 -216.724067238114 2779.69803401481 20 23 16
88.6568730468906 -218.210185908554 2771.11179685586 22 25 18
81.0369672764222 -218.413877776867 2768.05730054195 17 20 13
77.898174162597 -219.581397075193 2760.83527324232 13 16 9
85.1467422209766 -223.003450027619 2743.8404498364 11 14 7
71.5648935339241 -221.920508615989 2746.35141290696 12 15 8
77.237237811342 -225.027951249693 2730.68561806563 15 18 11
48.2139495720006 -220.55044027383 2747.95777678448 16 19 12
30.3437452507951 -218.486612956959 2754.7755019705 14 17 8
60.141408179843 -226.939026704211 2715.81273309034 15 18 9
55.408744131662 -227.792369168718 2709.90723383853 17 20 11
57.9452100278983 -230.268850183377 2696.91181077453 17 20 11
53.8968101032116 -231.287731403069 2690.26647407312 18 21 14
75.1560366706379 -237.999699208766 2658.70911250924 21 24 17
65.2321799801876 -237.724373239535 2657.69196921207 19 22 15
55.3293136062836 -237.446798767858 2656.69034810945 22 25 18
51.1827053409149 -238.472919032614 2649.97378141883 17 19 14
67.7475347807754 -244.238089698644 2622.42866116016 13 15 10
296.855231865635 -239.789999558856 2749.01213372629 16 21 17
240.326481727899 -230.084150432715 2787.13063221663 21 24 17
248.101192233396 -233.511743852639 2770.51689815849 25 28 21
251.765327712257 -237.975014542126 2747.21296474237 22 25 18
246.946671300045 -238.84395632843 2741.24504877706 25 28 21
220.50264299909 -235.199884120487 2754.20697443768 22 25 18
231.12201462594 -239.293103124592 2734.71187789287 17 20 13
214.010574280557 -237.577489364135 2739.60781024908 11 14 7
198.490532743375 -236.180215312619 2743.1856958517 8 11 4
181.49604971539 -234.454469523141 2748.166464384 7 10 3
188.914761735579 -237.912456129779 2731.29450547899 13 16 9
164.383002930044 -234.558638493128 2743.17113265167 24 27 20
138.44274880055 -230.870767768288 2756.49847680838 22 25 18
126.19562292737 -230.101997127297 2757.50504985879 18 21 14
97.4338470710818 -225.746197704177 2773.73083688584 17 20 13
96.5539508776967 -227.413561063334 2764.43869047478 17 20 13
88.9119529443483 -227.613934547019 2761.3681958888 21 24 17
76.0587177428111 -226.66920128949 2763.17131526662 19 22 15
79.5995008444392 -229.321557686188 2749.66801570532 17 20 13
68.2575755707919 -228.701582127889 2750.09529215967 16 19 12
60.6409236841832 -228.899076244085 2747.04289157143 16 19 12
37.5586915975603 -225.646960858045 2758.73446534891 17 20 11
41.0235244463655 -228.305021993629 2745.17607893285 18 21 12
100.0949341399 -243.477628120841 2677.99514134645 18 21 12
40.8770071904923 -233.997757465865 2714.16305355064 20 23 14
52.8502710691674 -238.654060013844 2691.94087142187 20 23 16
45.8983788556244 -239.020315918148 2688.13447786638 18 21 14
68.6853103541627 -248.203339992415 2644.08548499346 15 18 11
1.40209754054554 -234.640279975378 2700.36491758737 13 15 10
269.785534535693 -242.041415598111 2772.60684983897 17 22 18
259.527674817542 -241.771390491924 2771.34784824615 19 22 15
244.60570926499 -240.520450091453 2774.12321957859 21 24 17
257.765191988624 -245.146612855874 2752.76110546964 22 25 18
249.847925465678 -245.36629897444 2749.49096498624 25 28 21
245.03613044445 -246.240360573997 2743.52799705682 21 24 17
231.721222518212 -245.311928030749 2744.99665193461 19 22 15
204.586330768883 -241.42611075592 2758.69401705337 10 13 6
240.523754919582 -251.003047246505 2716.76558745315 10 13 6
191.826122481652 -244.364199253916 2739.54810576452 10 13 6
150.50494286834 -237.321893253377 2766.44497911489 17 20 13
156.440323369783 -240.49591017162 2750.96952763395 26 29 22
150.953103059738 -241.197164665669 2745.75313590666 25 28 21
118.296643007823 -235.943065990175 2765.33561092945 21 24 17
102.345034751021 -234.319365184621 2769.83682813228 19 22 15
98.4524776580642 -235.343843260568 2763.30443687627 17 20 13
96.0417266393137 -236.701394173011 2755.37447812878 21 24 17
86.8962423218136 -236.564954736094 2753.68585345918 22 25 18
50.2553305507849 -230.270917394702 2777.796285099 22 25 18
73.8452549967059 -237.453265468991 2745.45545138556 20 23 16
75.8222074787884 -239.814671399977 2733.29033909124 18 21 14
67.4323431896457 -239.842859215106 2730.91360900725 17 20 13
92.8543823998744 -247.557952637657 2696.1931060379 20 23 14
66.0737132294127 -243.409174604337 2711.38362324085 20 23 14
70.0909568230594 -246.285157272252 2696.98955071803 19 22 13
54.3851491046645 -244.638377459636 2701.66907087651 18 21 12
46.7212514661632 -244.833236318218 2698.58272865957 16 19 12
73.8062831737452 -253.094666749507 2661.3595927723 18 21 14
106.504484254191 -264.783850009567 2607.19110582904 15 18 11
35.5090264151618 -250.156380048866 2666.96032185002 16 18 13
283.626603238372 -250.83790182025 2771.47976689382 12 16 15
267.839866134795 -249.398307201629 2774.86453355081 16 21 17
273.252982645122 -252.428342832007 2760.24624767985 19 22 15
266.102465895347 -252.80972327945 2756.29608482742 17 20 13
258.177108102371 -253.02487752758 2753.0198072875 21 24 17
244.82292457762 -252.075430500672 2754.46009688824 24 27 20
223.762837579066 -249.458111994358 2762.67391042962 12 15 8
208.963699425959 -248.166871346604 2765.53852609388 16 19 12
210.383651543603 -250.374922285056 2754.20544575087 8 11 4
248.617335254262 -260.603900836239 2710.23291662407 10 13 6
230.700469087895 -258.648414605629 2715.78123024455 10 13 6
155.586589901914 -244.13220586545 2772.56464565667 12 15 8
134.919439638669 -241.48091468245 2781.06318502444 24 27 20
140.144107228776 -244.526863600598 2766.30850238259 23 26 19
143.031566615553 -247.074473296151 2753.56716170967 22 25 18
132.280671169732 -246.599789123169 2753.18682126368 19 22 15
111.772670042674 -243.934280362945 2761.80109772853 17 20 13
118.358559386122 -247.328756813194 2745.56106068951 14 17 10
94.9446066389541 -243.980781190175 2757.01235415487 16 19 12
63.4255732789923 -238.765973582564 2776.18443289137 21 24 17
73.703478118285 -243.007727301119 2756.44075295036 24 27 20
92.0403359594593 -249.119790163165 2728.94342019021 25 28 21
75.4834285680666 -247.278957361488 2734.24197957821 23 26 19
86.2605141061663 -251.710175357108 2713.6241700757 22 25 18
63.1294266223752 -248.336764894537 2725.28094191662 21 24 15
59.881991245236 -249.545635448708 2717.98024254653 21 24 15
23.7428538099094 -243.095523739225 2742.45521165814 18 21 12
47.5052675074461 -250.604029080199 2709.00273040424 16 19 10
65.2774377439576 -256.762913324471 2681.0958063889 14 17 10
64.0816341782129 -258.493328076015 2671.57433261408 16 19 12
246.253572984058 -252.532382673056 2793.78397017217 28 33 27
283.065742506389 -262.334615483388 2752.48822651254 25 28 21
284.482013388534 -264.570446797959 2741.15233685028 21 24 17
271.831826752538 -263.771836543127 2741.86687369551 16 19 12
243.67970022099 -259.590587104698 2756.06365114015 15 18 11
224.170598236112 -257.259763270431 2762.92998793018 14 17 10
234.859676515378 -261.527652450928 2743.48424400942 14 17 10
206.170035698925 -257.156818017396 2758.52736279238 15 18 11
216.008163055915 -261.261997302965 2739.70090165179 12 15 8
218.861021564216 -263.845806848247 2726.93429470426 12 15 8
178.133100368852 -256.737466691103 2753.02653158939 12 15 8
135.318011927879 -249.101330657712 2781.31351967359 16 19 12
127.637769755857 -249.289687165998 2778.21536189118 16 19 12
137.377641996808 -253.403005443184 2759.31763229451 15 18 11
124.379121914678 -252.398050583938 2761.01573659613 13 16 9
112.924625067723 -251.731822420204 2761.36134731614 12 15 8
136.020642949619 -258.94023212886 2729.89796376987 10 13 6
93.0983990696874 -251.076779531216 2759.34346062197 11 14 7
97.3919855519245 -254.007265633445 2745.1494388859 14 17 10
103.111034742696 -257.286571464966 2729.51663091201 15 18 11
82.0591611362 -254.379657212196 2738.97290200532 16 19 12
81.059796423288 -256.114291891632 2729.59380957237 17 20 13
78.554201580427 -257.506590159839 2721.5949205105 17 20 13
73.0857438675208 -258.210517099714 2716.3918221768 16 17 11
43.427509495424 -253.213492792007 2734.44136296025 16 17 11
43.8663953602023 -255.295134571121 2723.63276367006 16 17 9
69.0322897305293 -263.266488701803 2688.72527782886 16 17 9
61.3264366301012 -263.454350996858 2685.60855664117 16 17 9
86.2111011472946 -271.449145063976 2650.49708254979 21 24 15
42.3295362292651 -262.958741056449 2682.95602158258 18 21 12
36.0979640308696 -263.490572105459 2678.43592807852 22 24 19
254.516848806758 -262.009381184362 2787.37494257422 23 28 22
296.799538151783 -273.160960499047 2741.39221541624 18 21 14
295.054598696374 -274.742043165478 2732.70845434151 14 17 10
269.908396036883 -271.17997915403 2744.1404183835 11 14 7
237.874205980527 -266.063800734286 2761.70321835429 11 14 7
232.325733224522 -266.77939713855 2756.44235077713 11 14 7
205.913079637631 -262.849298825777 2769.42846941615 8 11 4
242.783683430642 -273.035321118535 2726.9381054078 13 16 9
209.504494342651 -267.549082193972 2746.07032669877 9 12 5
187.101571274877 -264.466620378223 2755.78341349401 9 12 5
161.73533228424 -260.685010305924 2768.29201717702 13 16 9
146.86506839488 -263.15509828217 2751.32425643089 19 22 15
111.189256260596 -256.920496031525 2773.66364060776 17 20 13
89.2344149918527 -253.799056479598 2783.70145441455 16 19 12
83.1333661247187 -254.322942411006 2779.27602030241 13 16 9
123.432187915771 -265.644258438379 2731.85428546681 14 17 10
88.091535786877 -259.38023422451 2754.4367833123 15 18 11
74.4976090309386 -258.162891785931 2756.93967150065 15 18 11
89.1350456716467 -263.580922772154 2732.93983687104 16 19 12
77.023137731338 -262.712777124123 2734.04493564068 16 19 12
80.4309506935135 -265.518514071907 2720.44446628484 15 18 11
71.2823069922464 -265.349113019063 2718.75371826761 16 17 11
47.490270183407 -261.668553772413 2731.16824071282 16 17 11
49.3812492405343 -264.127028541312 2718.94001829816 16 17 9
43.9368814379906 -264.830965117314 2713.7546776828 16 17 9
43.1712523186283 -268.706518119782 2693.41796790254 15 18 11
62.9502391792145 -275.588090144421 2663.25676316487 13 16 9
52.3385234530625 -275.065806622332 2662.977558168 13 15 10
298.258848144054 -277.415448293294 2760.9552778995 12 17 13
317.79362009602 -283.696326730455 2734.32548355884 12 17 11
290.946315990921 -279.732734569546 2746.99668441426 13 16 9
272.027133987708 -277.499665851427 2753.05513501038 13 16 9
258.63251196429 -276.480368364099 2754.46646368679 15 18 11
248.385192489357 -276.155491330105 2753.21508630003 16 19 12
224.98568212996 -272.860412786811 2763.44183927418 16 19 12
210.181926124902 -271.47987076996 2766.30355968806 14 17 10
203.130566924639 -271.844973703559 2762.42536070821 12 15 8
199.924695128236 -273.085676609685 2755.15433595065 12 15 8
184.442477428354 -271.522058558602 2758.76048342528 16 19 12
145.330925627852 -264.511980647321 2783.55359552671 12 15 8
120.880082893752 -260.824640364309 2795.49027536734 27 30 23
148.181576328908 -269.091208713355 2760.89439891676 26 29 22
126.820031889928 -266.103097004335 2770.12659429602 23 26 19
128.199496976133 -268.396396358303 2758.76373223986 20 23 16
91.1348081152727 -261.692385292072 2782.56874094413 20 23 16
103.797796104621 -266.633700346178 2760.84540537511 21 24 17
80.420398055288 -263.094679496361 2772.32446027981 18 21 14
110.879769800885 -272.295170192428 2733.83729460808 17 20 13
83.8241216252813 -267.865946613596 2748.82989417384 17 20 13
91.7618399279574 -271.765513028666 2731.09719515818 16 19 12
98.8756828069932 -275.49458092959 2714.00285702631 15 18 11
71.9823066246934 -271.05076729965 2729.11345940158 15 18 11
81.9786750021381 -275.496471859063 2709.16465461988 16 17 11
61.0852832425191 -272.466252494964 2718.73643715085 16 17 11
41.0099958082277 -269.606770551453 2727.66537951857 16 17 9
33.4061433349473 -269.775556027615 2724.62269739015 16 17 9
46.880135892275 -275.127308406816 2701.01453518175 16 17 9
53.7151701966336 -278.878474602752 2683.71826530884 20 23 16
70.5801790059342 -285.144176808631 2656.38821619029 14 17 10
330.988919139845 -292.559804837123 2733.9652601857 14 19 15
310.352110294527 -289.942986618511 2741.25058345328 14 19 13
277.252300824978 -284.49437121647 2759.27790813507 16 19 12
240.393271709154 -278.149337701458 2780.75981795003 15 18 11
227.866700449779 -277.274865179802 2781.56464495421 16 19 12
232.473632457071 -280.294376206067 2767.59732314759 16 19 12
232.368381000336 -282.255316454487 2757.62991510682 14 17 10
201.224475320961 -279.078524691153 2764.71206475248 12 15 8
209.552315137091 -282.997866593941 2747.26207298078 12 15 8
200.172247695334 -282.828692862277 2745.40355980382 16 19 12
164.831006298761 -276.596997684071 2766.75013561744 9 12 5
150.22601292378 -275.169216791427 2769.7564770549 12 15 8
128.831762043902 -272.129447540862 2778.96522449279 25 28 21
112.826853902081 -270.333999597038 2783.4286734046 23 26 19
113.494330421599 -272.47198198424 2772.78549898211 20 23 16
119.393079383361 -275.867808060775 2757.28236900919 20 23 16
95.1854243367625 -272.09366420013 2769.39607494863 21 24 17
86.0562272880294 -271.902135879128 2767.71953630381 17 20 13
91.8733662816673 -275.304513529407 2752.15721233833 16 19 12
97.6194556826719 -278.712885964317 2736.54335264212 15 18 11
88.4527367637191 -278.524098614184 2734.83959970927 14 17 10
82.2622203045347 -279.054993443058 2730.34927312887 14 17 10
73.1202524525849 -278.863842517575 2728.66347474467 14 17 10
69.1432104092797 -279.935780252657 2722.06989262965 16 17 11
96.6836808342166 -288.787804359614 2685.17392251472 16 17 11
59.6854895171806 -281.720710749344 2710.2640124215 16 17 9
45.4664545050272 -280.257301626472 2713.55032377695 16 17 9
52.3691352121873 -284.052346459093 2696.3025754941 16 17 9
80.2016174432354 -293.121969158724 2658.3821521603 16 19 12
88.3247537689993 -297.299278978733 2639.54712869527 14 17 10
306.970017968637 -295.045127656256 2754.82964328627 14 19 15
304.479819723823 -296.49263653367 2746.84163589429 16 21 15
282.368286645268 -293.460252641458 2755.53037275051 16 19 12
236.890938508778 -285.036363039573 2784.36178982854 16 19 12
218.137727595727 -282.70208514767 2790.54106905433 18 21 14
231.326390085002 -287.735487622615 2769.19804523081 18 21 14
230.451370903275 -289.53777563085 2759.90875084963 15 18 11
211.766314249186 -287.197618021002 2766.13746633416 13 16 9
232.461119740331 -294.052664807762 2737.87532905109 15 18 11
226.869261760548 -294.780379008386 2732.58294922029 10 13 6
202.878759780152 -291.169567238227 2743.61791563624 11 14 7
183.57380860781 -288.635983439434 2750.63327272626 9 12 5
155.960546826676 -284.10298109168 2765.22246642625 18 21 14
152.783649977741 -285.362963965024 2757.97234856963 18 21 14
115.495663886264 -278.454785113859 2781.61681297313 21 24 17
98.0280390971102 -276.256311208675 2787.49202203572 22 25 18
83.638253113234 -274.779670870499 2790.65461938647 20 23 16
104.594132487382 -281.8582279642 2761.34557137981 15 18 11
91.6939204905685 -280.74666165642 2763.1157757955 17 20 13
86.2988227316532 -281.456594384927 2757.96582723753 16 19 12
89.0870205603362 -284.17623178801 2745.15195286556 15 18 11
82.1729569359904 -284.523053349349 2741.37308050046 16 19 12
76.742429538891 -285.235427708588 2736.19773035134 17 20 13
80.1606157038686 -288.147026765195 2722.60424453913 18 21 14
83.5209101745176 -291.063375438484 2708.96876774449 16 17 11
73.6215102684965 -290.679305999214 2707.9699044994 16 17 9
87.1425308591025 -296.175104167473 2684.39539877266 16 17 9
76.4859398006941 -295.608899970867 2684.08388515662 16 17 9
70.2160332995172 -296.145389865114 2679.5359787004 16 17 9
81.336159548675 -301.106714763538 2657.92912500502 9 12 5
359.664869504149 -312.962299412124 2721.30138111804 107 111 112
306.596815821459 -302.809786227295 2755.75480818802 14 19 15
253.786812089115 -292.635222627767 2790.39570734079 18 20 15
267.099284207139 -297.72609529481 2769.14243913854 17 20 13
252.934861935764 -296.45005921585 2771.23206024764 16 19 12
232.57604430915 -293.71136664361 2778.71952259991 16 19 12
237.175987049243 -296.807975705727 2764.74674360759 16 19 12
217.678936601167 -294.244668278704 2771.62299438907 14 17 10
226.861517746261 -298.443809608061 2753.55587450235 12 15 8
220.536951747134 -298.987953697241 2748.96830543957 10 13 6
214.211660264066 -299.532096814897 2744.38021046292 10 13 6
204.819520255618 -299.342333578488 2742.51304991462 9 12 5
193.151003180656 -298.599874267075 2742.70419340674 14 17 10
168.556246945681 -294.728890050737 2754.53747747205 20 23 16
152.425562203851 -292.873551918992 2758.91005159792 21 24 17
143.171014137305 -292.671626555962 2757.14269598823 20 23 16
