ply
format ascii 1.0
comment KinectMotionCapture
element vertex 791
property float x
property float y
property float z
property uchar red
property uchar green
property uchar blue
end_header
244.117870926857 125.571340322495 2440.00005722046 163 163 163
251.788944005966 126.079931855202 2450.00004768372 174 176 175
259.5134973526 126.588329672813 2460.00003814697 176 178 177
267.616242170334 127.25093960762 2473.00004959106 185 187 184
278.118461370468 128.993853926659 2506.99996948242 0 1 0
316.898971796036 140.09302854538 2723.00004959106 20 23 16
-106.537871062756 142.910897731781 2930.0000667572 118 118 116
-98.3058884739876 142.571970820427 2923.00009727478 98 99 94
-90.2044177055359 142.379149794579 2918.99991035461 90 91 86
-82.0399150252342 142.039835453033 2911.99994087219 78 80 75
-74.0150511264801 141.895413398743 2908.99991989136 92 94 89
-66.1198347806931 141.994684934616 2911.00001335144 85 87 82
-58.3733022212982 142.4840092659 2921.0000038147 51 56 49
-20.9201723337173 112.585656344891 2308.00008773804 7 8 2
-2.01960210688412 112.732850015163 2311.00010871887 9 10 5
4.24144230782986 111.464515328407 2285.00008583069 9 10 5
28.6321323364973 109.316535294056 2240.9999370575 7 9 8
62.3115412890911 115.018151700497 2358.00004005432 10 9 4
83.003968000412 116.963893175125 2398.00000190735 15 12 3
89.0630111098289 116.327725350857 2384.99999046326 19 16 7
94.8503613471985 115.447536110878 2367.00010299683 38 35 26
101.737521588802 115.932881832123 2377.00009346008 59 56 49
124.988049268723 126.315742731094 2589.99991416931 70 69 64
130.473732948303 124.800778925419 2559.00001525879 90 89 84
135.252580046654 122.798040509224 2517.99988746643 96 95 90
140.823140740395 121.673054993153 2494.99988555908 94 93 88
146.741062402725 120.938114821911 2480.00001907349 96 95 91
152.947932481766 120.49562484026 2470.99995613098 110 109 105
158.911243081093 119.906738400459 2459.00011062622 116 115 111
165.077865123749 119.512751698494 2450.99997520447 117 116 112
171.55060172081 119.362443685532 2447.99995422363 120 119 115
178.079128265381 119.260773062706 2446.00009918213 124 123 119
184.520483016968 119.110181927681 2443.00007820129 134 133 129
190.710067749023 118.813216686249 2437.00003623962 145 144 140
197.028130292892 118.613623082638 2433.00008773804 144 143 139
203.156188130379 118.316389620304 2427.00004577637 155 154 152
209.769383072853 118.311546742916 2427.00004577637 150 149 147
216.292649507523 118.257813155651 2426.00011825562 150 150 148
223.269000649452 118.44764649868 2430.0000667572 150 150 148
229.887902736664 118.442378938198 2430.0000667572 152 152 150
237.089946866035 118.729412555695 2436.00010871887 156 156 156
244.32373046875 119.016267359257 2441.99991226196 162 162 162
252.103179693222 119.54665184021 2453.00006866455 172 174 173
259.625107049942 119.930639863014 2460.99996566772 177 179 178
267.406076192856 120.411925017834 2470.99995613098 183 185 182
276.904612779617 121.623955667019 2496.00005149841 0 2 0
321.217238903046 131.397157907486 2697.00002670288 16 19 12
-107.631243765354 136.297211050987 2960.00003814697 117 118 113
-98.7454429268837 135.194465517998 2936.00010871887 110 111 106
-90.5465111136436 134.920358657837 2930.0000667572 96 97 92
-82.3517888784409 134.600043296814 2923.00009727478 100 101 96
-74.2203742265701 134.325549006462 2917.00005531311 93 96 89
-66.2349835038185 134.281128644943 2915.99988937378 62 65 58
-58.3147406578064 134.374678134918 2917.99998283386 36 39 32
-27.6227649301291 107.852324843407 2342.00000762939 9 10 4
43.4947870671749 109.830565750599 2384.99999046326 8 8 6
64.6121129393578 112.589798867702 2444.9999332428 11 10 5
70.2072232961655 110.884428024292 2407.99999237061 14 11 4
76.3971880078316 110.330156981945 2395.99990844727 18 13 7
82.7982574701309 110.14412343502 2391.99995994568 24 20 11
89.1024544835091 109.865859150887 2385.99991798401 32 28 19
94.6121737360954 108.71260613203 2361.00006103516 70 67 58
100.96949338913 108.618266880512 2358.99996757507 72 69 62
126.342251896858 120.538234710693 2618.00003051758 52 51 46
131.037667393684 118.325293064117 2569.9999332428 90 89 84
135.846644639969 116.434596478939 2529.00004386902 97 96 91
141.503781080246 115.418545901775 2506.99996948242 100 99 94
147.217854857445 114.540539681911 2487.99991607666 95 94 90
153.13720703125 113.892614841461 2473.99997711182 99 98 94
159.17344391346 113.382682204247 2463.00005912781 104 103 99
165.35110771656 113.010741770267 2454.99992370605 116 115 111
171.55459523201 112.684711813927 2447.99995422363 118 117 113
177.792012691498 112.404592335224 2441.99991226196 133 132 128
184.147089719772 112.216405570507 2437.99996376038 135 134 130
190.557911992073 112.074129283428 2434.99994277954 141 140 136
196.870669722557 111.885696649551 2430.99999427795 143 142 138
203.16082239151 111.697144806385 2427.00004577637 149 148 144
209.774196147919 111.692562699318 2427.00004577637 151 150 146
216.297566890717 111.641824245453 2426.00011825562 149 149 147
223.090320825577 111.729003489017 2427.99997329712 151 151 149
229.79848086834 111.770026385784 2428.99990081787 151 151 149
236.997932195663 112.040996551514 2434.99994277954 155 155 153
244.529321789742 112.449832260609 2444.00000572205 161 161 159
252.211600542068 112.904526293278 2453.9999961853 171 173 172
259.630858898163 113.221004605293 2460.99996566772 177 179 178
267.303794622421 113.629356026649 2470.00002861023 184 186 183
277.687311172485 115.141570568085 2503.00002098084 28 30 25
-99.4203314185143 128.048703074455 2956.00008964539 122 123 117
-91.1048203706741 127.704232931137 2947.99995422363 110 111 106
-82.804411649704 127.316236495972 2938.99989128113 93 94 89
-74.5528265833855 126.928091049194 2930.0000667572 79 80 74
-66.509060561657 126.842990517616 2927.99997329712 49 52 45
-58.4559477865696 126.714393496513 2924.99995231628 40 41 35
-50.177413970232 125.979110598564 2907.99999237061 31 32 26
-8.83026979863644 106.14063590765 2450.00004768372 14 15 9
11.0076870769262 103.974424302578 2400.00009536743 9 10 5
17.1285271644592 101.41808539629 2341.00008010864 8 9 4
23.4194323420525 100.984409451485 2331.00008964539 9 10 5
29.808958992362 101.07047855854 2332.99994468689 10 9 5
49.7341379523277 102.757409214973 2371.99997901917 10 9 4
64.4549950957298 105.657376348972 2438.99989128113 13 10 5
70.5295205116272 104.789517819881 2418.99991035461 16 13 6
76.4307901263237 103.834897279739 2397.0000743866 20 16 7
82.8693509101868 103.703215718269 2394.00005340576 34 30 21
88.9924168586731 103.224843740463 2382.99989700317 45 41 32
93.8929542899132 101.490184664726 2342.99993515015 68 65 56
99.6448621153831 100.838355720043 2328.00006866455 21 20 15
128.130689263344 114.997260272503 2654.99997138977 26 25 20
131.499484181404 111.702688038349 2578.9999961853 54 53 48
136.171951889992 109.794080257416 2535.00008583069 72 71 66
141.84558391571 108.838252723217 2513.00001144409 99 98 93
147.576153278351 108.0122590065 2493.99995803833 92 91 87
153.450086712837 107.359409332275 2479.00009155273 104 103 99
159.435451030731 106.836378574371 2467.00000762939 108 107 103
165.489435195923 106.399856507778 2457.00001716614 114 113 109
171.628415584564 106.049843132496 2448.99988174438 118 117 113
177.795901894569 105.743013322353 2441.99991226196 134 133 129
184.226632118225 105.609275400639 2438.99989128113 136 135 131
190.640330314636 105.475425720215 2436.00010871887 141 140 136
197.036921977997 105.341449379921 2433.00008773804 143 142 138
203.332647681236 105.164058506489 2428.99990081787 148 147 143
209.95157957077 105.159729719162 2428.99990081787 150 149 145
216.658845543861 105.198577046394 2430.0000667572 149 149 147
223.370745778084 105.237282812595 2430.99999427795 150 150 148
230.087235569954 105.275869369507 2431.99992179871 151 151 149
237.197652459145 105.487480759621 2437.00003623962 155 155 153
244.934737682343 105.958633124828 2447.99995422363 161 161 159
252.525269985199 106.343075633049 2457.00001716614 172 174 173
259.847372770309 106.597527861595 2463.00005912781 181 183 182
267.52582192421 106.98164999485 2471.99988365173 183 185 182
277.91503071785 108.404248952866 2505.00011444092 59 61 56
-91.6321128606796 120.348714292049 2964.99991416931 128 129 123
-83.2006260752678 119.863428175449 2953.00006866455 115 114 109
-74.859730899334 119.418539106846 2941.99991226196 75 75 67
-66.6467621922493 119.095280766487 2934.00001525879 60 57 50
-58.4971569478512 118.812404572964 2927.00004577637 54 51 44
-50.3165163099766 118.36700886488 2915.99988937378 42 37 31
-41.3823239505291 115.64826220274 2848.99997711182 22 22 14
-9.18728113174438 103.472389280796 2549.00002479553 21 22 14
-2.20502004958689 102.417074143887 2523.00000190735 19 18 13
4.62784804403782 101.199246942997 2493.00003051758 17 16 11
11.0767195001245 98.0328023433685 2414.99996185303 11 10 5
17.2093752771616 95.4751446843147 2351.99999809265 13 12 7
23.630915209651 95.4747200012207 2351.99999809265 14 11 6
51.0142184793949 98.7596586346626 2433.00008773804 20 13 7
64.1128122806549 98.4731614589691 2426.00011825562 17 12 6
70.1519623398781 97.6599678397179 2405.99989891052 25 20 14
76.6874924302101 97.6178720593452 2404.99997138977 30 26 17
83.8057324290276 98.265677690506 2421.0000038147 50 46 37
93.6945676803589 94.8932394385338 2338.00005912781 42 39 32
129.050344228745 108.52337628603 2674.00002479553 9 8 3
132.522016763687 105.476908385754 2598.99997711182 1 0 0
136.765688657761 103.32328081131 2546.0000038147 20 19 14
142.300099134445 102.305918931961 2520.99990844727 91 90 85
147.993430495262 101.491369307041 2500.99992752075 91 90 86
153.638958930969 100.717328488827 2482.00011253357 105 104 100
159.568026661873 100.186675786972 2469.00010108948 104 103 99
165.627598762512 99.7776463627815 2459.00011062622 115 114 110
171.631962060928 99.3685126304626 2448.99988174438 122 121 117
177.945181727409 99.1621538996696 2444.00000572205 134 133 128
184.381484985352 99.0368276834488 2440.99998474121 135 134 129
190.879002213478 98.9519730210304 2438.99989128113 140 139 135
197.202891111374 98.7858548760414 2434.99994277954 141 140 136
203.587919473648 98.6602082848549 2431.99992179871 146 145 141
210.215151309967 98.656140267849 2431.99992179871 148 147 143
217.019870877266 98.7330973148346 2434.00001525879 149 150 145
223.650902509689 98.7287908792496 2434.00001525879 149 149 147
230.375662446022 98.7649187445641 2434.99994277954 149 149 147
237.397059798241 98.9226251840591 2438.99989128113 155 155 153
244.939625263214 99.2829874157906 2447.99995422363 161 161 159
252.32470035553 99.5620861649513 2454.99992370605 171 173 172
259.535998106003 99.7599437832832 2460.00003814697 175 177 176
267.206460237503 100.119881331921 2469.00010108948 176 178 175
277.587652206421 101.452834904194 2502.00009346008 128 130 125
-92.468373477459 113.278537988663 2992.00010299683 126 126 118
-83.7094262242317 112.485140562057 2970.99995613098 129 126 119
-75.1920193433762 111.880883574486 2954.99992370605 87 84 75
-66.8525248765945 111.427895724773 2943.00007820129 75 71 62
-58.5782676935196 110.97476631403 2930.99999427795 55 51 42
-50.421055406332 110.635034739971 2921.99993133545 46 39 31
11.1778480932117 92.2739580273628 2437.00003623962 17 14 9
17.5536200404167 90.8348560333252 2398.9999294281 19 16 11
24.0533761680126 90.6451493501663 2394.00005340576 21 18 11
30.5257327854633 90.4553011059761 2388.99993896484 23 16 8
36.893118172884 90.0760218501091 2378.99994850159 23 14 7
43.5340330004692 90.3781726956367 2387.00008392334 23 16 8
50.6587699055672 91.4752632379532 2415.99988937378 25 18 10
57.5150884687901 91.8907225131989 2427.00004577637 24 17 9
64.1405060887337 91.8895453214645 2427.00004577637 22 15 7
71.0280910134315 92.229001224041 2436.00010871887 29 24 18
131.079882383347 102.81603038311 2716.00008010864 13 12 7
134.309276938438 99.7093915939331 2634.0000629425 12 11 6
143.488273024559 96.2216183543205 2542.00005531311 85 84 79
148.588076233864 95.0454473495483 2510.99991798401 94 93 89
153.951451182365 94.1341668367386 2486.99998855591 104 103 99
159.700363874435 93.5256332159042 2470.99995613098 101 100 96
165.630787611008 93.0684208869934 2459.00011062622 117 116 112
171.84554040432 92.8003340959549 2451.99990272522 122 121 117
178.239852190018 92.6456898450851 2447.99995422363 132 131 126
184.762716293335 92.5666242837906 2446.00009918213 133 132 127
191.117435693741 92.4117788672447 2441.99991226196 138 137 132
197.449624538422 92.2568291425705 2437.99996376038 139 138 134
204.010352492332 92.215284705162 2437.00003623962 144 143 139
210.737749934196 92.2493189573288 2437.99996376038 146 145 141
217.469766736031 92.2832265496254 2438.99989128113 148 149 144
223.930776119232 92.2035500407219 2437.00003623962 147 148 143
230.75844347477 92.2750756144524 2438.99989128113 148 149 144
237.888187170029 92.459999024868 2444.00000572205 155 155 153
245.544537901878 92.8339287638664 2453.9999961853 161 161 159
252.63774394989 92.98075735569 2457.99994468689 171 173 172
259.962826967239 93.203142285347 2463.99998664856 169 171 170
267.536044120789 93.501016497612 2471.99988365173 178 180 177
277.481764554977 94.5930480957031 2500.99992752075 153 155 150
-84.3026712536812 105.11352866888 2992.00010299683 127 123 114
-75.5242109298706 104.271776974201 2967.99993515015 105 98 88
-67.1036317944527 103.781200945377 2953.9999961853 75 66 57
-58.7592236697674 103.290468454361 2940.00005722046 66 56 47
-50.6118051707745 103.045508265495 2933.00008773804 65 55 46
-42.4588210880756 102.695003151894 2923.00009727478 29 29 19
-33.4520079195499 99.6390581130981 2835.99996566772 25 28 17
-17.8768001496792 99.1481021046638 2822.00002670288 19 21 10
11.1551219597459 85.4460000991821 2431.99992179871 21 18 13
17.6637042313814 84.8133414983749 2414.00003433228 28 25 20
24.0337289869785 84.0400159358978 2391.99995994568 35 30 24
30.3474068641663 83.4422558546066 2375 38 29 20
36.8317700922489 83.4416523575783 2375 39 26 17
43.6260290443897 84.0382054448128 2391.99995994568 39 29 19
50.6387390196323 84.8454087972641 2414.99996185303 41 32 23
57.6820373535156 85.5119749903679 2434.00001525879 37 30 22
64.696691930294 86.0027298331261 2447.99995422363 34 27 19
120.802342891693 93.1929275393486 2653.00011634827 7 8 2
131.806224584579 95.9306135773659 2730.99994659424 11 12 6
138.747990131378 95.5769643187523 2720.99995613098 8 9 3
141.551926732063 92.5537422299385 2634.99999046326 5 6 0
146.426185965538 91.1111161112785 2594.00010108948 22 23 17
149.123355746269 88.5094180703163 2519.99998092651 41 42 37
153.830423951149 87.2774794697762 2484.99989509583 102 103 98
159.832507371902 86.8533104658127 2473.00004959106 106 107 102
165.835827589035 86.4641517400742 2461.99989318848 114 115 110
172.269135713577 86.3207504153252 2457.99994468689 119 120 115
178.607106208801 86.1421301960945 2453.00006866455 125 124 119
185.143709182739 86.0687643289566 2450.99997520447 127 126 121
191.433906555176 85.8899429440498 2446.00009918213 133 132 127
197.777092456818 85.7461541891098 2441.99991226196 135 134 129
204.265132546425 85.672490298748 2440.00005722046 142 141 137
211.000800132751 85.7040584087372 2440.99998474121 144 143 139
217.562779784203 85.6653153896332 2440.00005722046 146 147 142
224.210411310196 85.6615751981735 2440.00005722046 146 147 142
231.140971183777 85.7630521059036 2443.00007820129 148 149 144
238.573685288429 86.0399156808853 2450.99997520447 155 155 153
245.949029922485 86.2815827131271 2457.99994468689 159 159 157
253.053247928619 86.4178165793419 2461.99989318848 169 171 170
260.07279753685 86.5188464522362 2464.99991416931 169 171 170
267.86532998085 86.8654400110245 2474.99990463257 179 181 178
277.819365262985 87.8787264227867 2503.99994850159 177 179 174
-75.8054181933403 96.5264886617661 2979.00009155273 114 105 96
-67.3546716570854 96.0740298032761 2964.99991416931 72 62 52
-58.980081230402 95.6214293837547 2950.99997520447 76 64 52
-50.8370026946068 95.4603180289268 2946.00009918213 79 65 54
-42.5757542252541 94.9750393629074 2930.99999427795 37 35 23
-25.4554133862257 90.9904688596725 2808.00008773804 18 18 8
-18.0481486022472 92.3193916678429 2848.99997711182 16 16 6
-10.1573932915926 91.3150981068611 2818.00007820129 16 16 8
24.4059059768915 78.709214925766 2428.99990081787 38 33 27
30.7568274438381 77.9958814382553 2407.00006484985 43 34 25
37.3907051980495 78.1249329447746 2411.00001335144 42 32 23
44.2104116082191 78.5455033183098 2424.00002479553 44 34 25
51.1638298630714 79.0631696581841 2440.00005722046 46 36 27
58.2044012844563 79.5807093381882 2456.00008964539 42 35 27
94.5419669151306 88.4861946105957 2730.99994659424 16 13 8
101.809404790401 88.3225873112679 2726.0000705719 13 12 7
108.087323606014 87.3812884092331 2697.00002670288 10 9 4
116.432398557663 88.1246253848076 2720.00002861023 14 15 9
123.17219376564 87.6367017626762 2704.99992370605 7 8 2
130.794912576675 87.7966210246086 2710.00003814697 10 11 5
138.444378972054 87.9564210772514 2714.99991416931 3 4 0
143.327087163925 86.4315256476402 2667.99998283386 9 10 4
154.080644249916 80.6257501244545 2489.00008201599 99 100 95
160.222992300987 80.2992954850197 2479.00009155273 108 109 104
166.242763400078 79.9403637647629 2467.99993515015 111 112 107
172.622427344322 79.7757059335709 2463.00005912781 118 119 114
178.901329636574 79.5785635709763 2457.00001716614 123 122 118
185.524493455887 79.5432776212692 2456.00008964539 125 124 119
191.828399896622 79.3783441185951 2450.99997520447 131 130 125
198.266297578812 79.2780965566635 2447.99995422363 133 132 128
204.603344202042 79.1453793644905 2444.00000572205 139 138 134
211.263597011566 79.1421085596085 2444.00000572205 141 140 136
217.655494809151 79.0415853261948 2440.99998474121 143 144 139
224.305927753448 79.038143157959 2440.99998474121 144 144 142
231.333911418915 79.16409522295 2444.9999332428 147 147 145
238.577544689178 79.3547108769417 2450.99997520447 154 154 152
245.953023433685 79.5775949954987 2457.99994468689 157 157 155
253.057301044464 79.703226685524 2461.99989318848 159 161 160
260.182470083237 79.8287764191628 2466.00008010864 178 180 179
268.086075782776 80.1808089017868 2476.99999809265 169 171 168
277.601897716522 80.9858739376068 2502.00009346008 202 204 201
-76.0101824998856 88.6317119002342 2986.99998855591 128 116 104
-67.5601810216904 88.2470458745956 2973.99997711182 110 94 79
-59.1808781027794 87.8622531890869 2960.99996566772 89 70 53
-50.9413406252861 87.596021592617 2951.99990272522 88 67 48
-42.6781065762043 87.1812999248505 2937.99996376038 48 38 26
-33.9603312313557 85.4311287403107 2878.99994850159 29 23 11
-25.8546955883503 84.6303850412369 2851.99999809265 20 16 5
-17.7380200475454 83.0876603722572 2799.99995231628 15 12 5
-10.1647628471255 83.6813524365425 2819.9999332428 10 9 4
-2.41232267580926 81.900991499424 2759.99999046326 10 11 6
5.07001811638474 81.0404121875763 2730.99994659424 10 11 6
12.3939700424671 80.1797285676003 2701.99990272522 9 10 4
31.830683350563 73.9174857735634 2490.9999370575 32 28 19
52.4856857955456 74.2716640233994 2503.00002098084 35 31 22
88.3324146270752 82.1899697184563 2769.99998092651 12 12 4
95.651239156723 81.9808840751648 2763.00001144409 11 11 3
101.81101411581 80.8815956115723 2726.0000705719 9 10 2
110.173039138317 81.562414765358 2749.00007247925 10 11 3
117.504373192787 81.4420357346535 2744.99988555908 12 13 7
123.811632394791 80.6688442826271 2719.00010108948 8 9 3
130.410820245743 80.1625773310661 2701.99990272522 8 11 4
137.324705719948 79.893596470356 2693.00007820129 9 12 5
145.746797323227 80.4848298430443 2713.00005912781 10 13 6
154.392540454865 73.9814788103104 2493.99995803833 69 72 65
160.677880048752 73.7418606877327 2486.00006103516 107 110 103
166.784211993217 73.4428316354752 2476.0000705719 114 117 110
173.045605421066 73.2327103614807 2469.00010108948 116 119 112
179.413750767708 73.0818286538124 2463.99998664856 120 119 115
185.980558395386 73.019839823246 2461.99989318848 123 122 118
192.30093061924 72.8688016533852 2457.00001716614 130 129 125
198.674276471138 72.7473273873329 2453.00006866455 132 131 129
205.108746886253 72.6554393768311 2450.00004768372 137 136 134
211.698964238167 72.6227685809135 2448.99988174438 139 138 136
218.01546216011 72.5010707974434 2444.9999332428 143 142 140
224.584966897964 72.4682435393333 2444.00000572205 147 145 146
231.526598334312 72.5539326667786 2447.00002670288 148 146 147
238.775789737701 72.7284848690033 2453.00006866455 149 147 148
245.8565980196 72.8436335921288 2457.00001716614 155 153 154
252.752691507339 72.8994011878967 2459.00011062622 161 163 162
259.975284337997 73.0440095067024 2463.99998664856 169 171 170
268.089979887009 73.4256654977798 2476.99999809265 173 175 174
277.384042739868 74.1036310791969 2500 201 203 200
-76.0621726512909 80.5312469601631 2989.00008201599 129 117 105
-67.5384327769279 80.1011398434639 2973.00004959106 111 95 80
-59.121772646904 79.6978697180748 2957.99994468689 90 71 54
-50.8730448782444 79.4291794300079 2947.99995422363 86 65 46
-42.736828327179 79.2681649327278 2941.99991226196 51 41 29
-33.8074713945389 77.2209614515305 2865.9999370575 31 25 13
-25.3927242010832 75.4700303077698 2801.00011825562 23 19 8
-17.9853439331055 76.4941945672035 2838.99998664856 18 15 8
-10.0279366597533 74.9585703015327 2782.00006484985 12 11 6
-2.4202240165323 74.6083781123161 2769.00005340576 13 14 8
5.14992047101259 74.7430771589279 2773.9999294281 13 14 8
12.6831317320466 74.5004639029503 2765.00010490417 12 13 7
19.9476145207882 73.4494253993034 2726.0000705719 9 10 2
80.4221332073212 74.3061155080795 2757.99989700317 14 11 4
87.7596661448479 74.1433203220367 2752.00009346008 11 11 3
94.925619661808 73.8726630806923 2742.00010299683 10 9 4
102.372691035271 73.8443657755852 2740.9999370575 9 10 4
110.735706984997 74.4356140494347 2763.00001144409 8 11 4
117.976926267147 74.2454752326012 2756.00004196167 10 13 6
124.450907111168 73.6242309212685 2733.00004005432 10 12 7
130.702286958694 72.9490295052528 2707.99994468689 10 12 7
138.244539499283 73.028028011322 2710.99996566772 10 12 7
147.199362516403 73.8072767853737 2740.00000953674 9 11 6
156.437635421753 68.0638179183006 2526.99995040894 4 6 1
161.326467990875 67.226730287075 2496.00005149841 94 96 91
167.325437068939 66.9013261795044 2483.99996757507 104 106 101
173.398450016975 66.6297301650047 2473.99997711182 105 107 102
179.561883211136 66.4119347929955 2466.00008010864 116 115 113
185.983121395111 66.3017854094505 2461.99989318848 118 117 115
192.538380622864 66.2454217672348 2460.00003814697 124 123 121
199.081987142563 66.1889836192131 2457.99994468689 126 125 123
205.613911151886 66.1324709653854 2456.00008964539 132 131 129
212.134122848511 66.0758763551712 2453.9999961853 134 133 131
218.553468585014 65.9922808408737 2450.99997520447 140 138 139
224.9556183815 65.9086182713509 2447.99995422363 145 143 144
231.908246874809 65.9864172339439 2450.99997520447 149 147 148
239.071041345596 66.1179795861244 2456.00008964539 152 150 151
245.959982275963 66.1686882376671 2457.99994468689 153 151 152
252.550572156906 66.1385655403137 2457.00001716614 160 160 160
260.084271430969 66.3506090641022 2464.99991416931 171 173 172
268.418312072754 66.7509958148003 2480.00001907349 168 170 169
278.386354446411 67.5280541181564 2509.0000629425 179 181 178
-76.0631635785103 72.3710954189301 2989.00008201599 121 111 99
-67.539319396019 71.9845816493034 2973.00004959106 96 82 69
-59.1425262391567 71.6463774442673 2959.00011062622 81 64 48
-50.9772524237633 71.5259835124016 2953.9999961853 78 56 42
-42.9117046296597 71.5265646576881 2953.9999961853 58 48 36
-34.7869955003262 71.4059695601463 2948.99988174438 32 25 15
-25.5290400236845 68.1859254837036 2815.99998474121 22 18 7
-17.6434796303511 67.4355700612068 2785.00008583069 19 16 9
-10.1073682308197 67.8957998752594 2803.99990081787 14 14 6
-2.41938140243292 67.0241788029671 2767.99988746643 13 14 8
5.12771029025316 66.8788775801659 2762.00008392334 13 14 8
12.7245802432299 67.1693310141563 2773.9999294281 14 15 9
20.2039908617735 66.8543502688408 2760.99991798401 13 14 6
27.6324152946472 66.5877014398575 2750 13 14 6
35.230677574873 66.7568147182465 2756.99996948242 14 14 4
65.364271402359 66.7785406112671 2757.99989700317 14 11 4
73.2903257012367 67.1408772468567 2773.00000190735 11 8 1
79.8691436648369 66.316731274128 2739.00008201599 9 9 1
86.7722183465958 65.8798888325691 2720.99995613098 8 9 3
93.6459004878998 65.4913932085037 2704.99992370605 8 9 3
103.382430970669 67.0154765248299 2767.99988746643 7 10 3
111.859336495399 67.5709992647171 2790.99988937378 7 10 3
118.706189095974 67.1338215470314 2773.00000190735 9 12 5
125.090017914772 66.5028765797615 2746.99997901917 10 12 7
132.296741008759 66.3560628890991 2740.9999370575 10 12 7
140.694051980972 66.7901486158371 2759.0000629425 10 12 7
148.383155465126 66.861018538475 2762.00008392334 9 11 6
153.886422514915 65.9877210855484 2726.0000705719 8 10 5
161.910235881805 60.6325380504131 2505.00011444092 69 71 66
167.799085378647 60.2916926145554 2490.9999370575 100 102 97
173.891261219978 60.0476078689098 2480.99994659424 105 107 102
180.001050233841 59.8276704549789 2471.99988365173 116 115 113
186.28765642643 59.68027561903 2466.00008010864 118 117 115
192.77560710907 59.6054121851921 2463.00005912781 122 121 119
199.165493249893 59.5062971115112 2459.00011062622 124 123 121
205.867633223534 59.5039017498493 2459.00011062622 130 129 127
212.482526898384 59.477224946022 2457.99994468689 133 132 130
219.002023339272 59.4263002276421 2456.00008964539 134 132 133
225.601628422737 59.399489313364 2454.99992370605 144 142 143
232.573419809341 59.4693943858147 2457.99994468689 147 145 146
239.463359117508 59.5150366425514 2460.00003814697 148 146 147
246.163129806519 59.5122165977955 2460.00003814697 150 148 149
252.861976623535 59.5093332231045 2460.00003814697 164 164 164
260.614991188049 59.7482733428478 2470.00002861023 168 170 169
268.854469060898 60.0838772952557 2483.99996757507 172 174 173
278.722554445267 60.7580058276653 2512.00008392334 176 178 175
-76.2421786785126 64.3610134720802 2996.00005149841 114 104 94
-67.6764026284218 63.9965981245041 2979.00009155273 84 72 60
-59.2631325125694 63.6965334415436 2964.99991416931 74 56 42
-51.1159040033817 63.6326968669891 2961.99989318848 71 52 38
-43.0138930678368 63.6117234826088 2960.99996566772 60 50 40
-34.7284190356731 63.2469356060028 2944.00000572205 32 25 15
-17.884423956275 60.6480129063129 2822.99995422363 19 16 7
-9.97771788388491 59.4665668904781 2767.99988746643 13 14 6
-2.41241720505059 59.2947714030743 2759.99999046326 14 15 9
5.14447875320911 59.5310740172863 2770.99990844727 13 14 8
12.5595908612013 58.8220171630383 2737.99991607666 12 13 7
20.2993545681238 59.5952421426773 2773.9999294281 12 13 5
28.0145760625601 59.8957501351833 2788.00010681152 11 12 4
35.5888903141022 59.8309524357319 2785.00008583069 8 8 0
42.5108000636101 58.8852614164352 2740.9999370575 12 11 6
50.2319112420082 59.1640323400497 2753.99994850159 12 11 6
58.0447651445866 59.4642013311386 2767.99988746643 11 10 5
65.5072256922722 59.3775920569897 2763.99993896484 9 10 4
79.6076208353043 58.6456172168255 2730.00001907349 8 9 4
85.8483985066414 57.8284040093422 2691.99991226196 7 9 4
94.581738114357 58.6866810917854 2732.00011253357 7 9 4
105.213761329651 60.5114698410034 2816.99991226196 6 8 3
118.964403867722 59.6927851438522 2779.00004386902 3 8 2
126.047730445862 59.4551786780357 2767.99988746643 5 7 4
133.649721741676 59.4752579927444 2769.00005340576 7 9 6
141.919553279877 59.7744733095169 2782.99999237061 8 10 7
148.008793592453 59.1715201735497 2755.00011444092 9 11 8
153.549477458 58.4181770682335 2720.00002861023 9 11 8
159.549579024315 57.9010583460331 2696.00009918213 11 13 10
160.898774862289 55.8161288499832 2598.99997711182 5 7 4
163.140147924423 54.2037226259708 2523.9999294281 2 4 1
168.339878320694 53.6650791764259 2499.00007247925 116 118 115
174.524053931236 53.4699819982052 2490.00000953674 109 111 108
180.439978837967 53.2104149460793 2477.9999256134 112 111 109
186.667427420616 53.0581586062908 2470.99995613098 113 112 110
192.934304475784 52.9273264110088 2464.99991416931 116 115 113
199.329704046249 52.8393760323524 2460.99996566772 119 118 116
206.037357449532 52.8372414410114 2460.99996566772 128 127 125
212.571367621422 52.7921132743359 2459.00011062622 131 130 128
219.271972775459 52.789855748415 2459.00011062622 137 135 136
226.063624024391 52.8090037405491 2460.00003814697 144 142 143
233.049109578133 52.8710260987282 2463.00005912781 143 141 142
239.758014678955 52.8685748577118 2463.00005912781 145 143 144
246.365949511528 52.8446026146412 2461.99989318848 153 151 152
253.275901079178 52.884966135025 2463.99998664856 162 162 162
261.039882898331 53.0969612300396 2473.99997711182 154 156 155
269.182085990906 53.3732548356056 2486.99998855591 171 173 172
278.947442770004 53.9498962461948 2513.99993896484 179 181 178
-76.5228867530823 56.3874617218971 3006.99996948242 107 97 87
-67.9497122764587 56.0881197452545 2990.9999370575 70 58 46
-59.5635585486889 55.8824501931667 2980.00001907349 61 43 31
-51.3062626123428 55.7517148554325 2973.00004959106 61 43 29
-43.1305542588234 55.6771606206894 2969.00010108948 59 49 39
-34.7877591848373 55.3024671971798 2948.99988174438 32 25 15
-26.0735526680946 53.9337918162346 2875.99992752075 26 22 13
-9.99223906546831 51.9838109612465 2772.0000743866 13 14 6
-2.42642709054053 52.0588867366314 2776.00002288818 16 19 10
5.0776950083673 51.2899868190289 2734.99989509583 14 17 8
12.7294464036822 52.0400293171406 2775.00009536743 12 15 6
20.6947270780802 53.0337914824486 2828.00006866455 13 14 6
27.8741829097271 52.0208850502968 2773.9999294281 13 14 6
35.9854027628899 52.8082065284252 2815.99998474121 9 10 2
42.5732731819153 51.4763779938221 2744.99988555908 12 13 7
49.0650795400143 50.4445470869541 2690.00005722046 12 13 8
57.9614862799644 51.8317185342312 2763.99993896484 11 12 7
65.9108012914658 52.149910479784 2780.99989891052 9 10 5
73.0276182293892 51.8117137253284 2763.00001144409 9 10 5
78.267052769661 50.3295958042145 2684.00001525879 8 10 7
86.6465494036675 50.947617739439 2717.00000762939 7 9 6
96.7637822031975 52.4093396961689 2795.00007629395 7 9 6
104.916043579578 52.6708960533142 2809.00001525879 4 9 5
111.34073138237 52.0885996520519 2778.00011634827 3 8 4
117.938220500946 51.6562648117542 2755.00011444092 2 7 3
125.593632459641 51.7113506793976 2757.99989700317 4 6 3
133.458003401756 51.8413782119751 2765.00010490417 6 8 5
140.39109647274 51.6150966286659 2753.00002098084 7 9 6
145.592704415321 50.8075729012489 2710.00003814697 8 10 7
151.631638407707 50.3562204539776 2686.00010871887 8 10 7
159.314438700676 50.4672415554523 2691.99991226196 11 13 10
165.853068232536 50.2220094203949 2678.99990081787 8 10 7
163.400337100029 47.3897941410542 2528.00011634827 3 5 2
168.543666601181 46.9008572399616 2502.00009346008 120 122 119
174.946337938309 46.7867888510227 2496.00005149841 108 110 107
181.16994202137 46.6351807117462 2487.99991607666 111 110 108
187.273681163788 46.4647859334946 2479.00009155273 112 111 109
193.405836820602 46.3130809366703 2470.99995613098 115 114 112
199.655622243881 46.1988151073456 2464.99991416931 118 117 115
206.290557980537 46.1782142519951 2463.99998664856 129 128 126
212.919220328331 46.1575575172901 2463.00005912781 132 131 129
219.809114933014 46.1930558085442 2464.99991416931 136 134 135
226.433411240578 46.1722910404205 2463.99998664856 137 135 136
233.145967125893 46.1702048778534 2463.99998664856 139 137 138
239.565640687943 46.1118593811989 2460.99996566772 149 147 148
246.468394994736 46.1471416056156 2463.00005912781 155 153 154
253.792315721512 46.2573133409023 2469.00010108948 160 160 160
261.569976806641 46.4423596858978 2479.00009155273 159 161 160
269.401133060455 46.6273277997971 2489.00008201599 169 171 170
278.617233037949 47.0370203256607 2510.99991798401 181 183 180
-76.9307389855385 48.4337136149406 3023.00000190735 146 137 130
-68.2910829782486 48.1619387865067 3006.00004196167 50 40 31
-59.8639100790024 47.9862168431282 2994.99988555908 36 22 11
-51.4620281755924 47.7783866226673 2982.00011253357 31 17 6
-43.1454665958881 47.5865080952644 2970.00002861023 50 41 32
-25.829004123807 45.6483438611031 2848.99997711182 29 26 17
-17.7010409533978 44.7672791779041 2793.99991035461 19 19 9
-10.1004708558321 44.8955781757832 2802.00004577637 15 17 6
-2.46927887201309 45.2641509473324 2825.00004768372 18 20 9
5.15571609139442 44.4950461387634 2776.99995040894 14 17 6
12.5185484066606 43.72588545084 2729.00009155273 13 16 7
20.0655739754438 43.9340472221375 2742.00010299683 12 15 8
27.9447715729475 44.5587299764156 2780.99989891052 12 15 8
35.4873389005661 44.4943830370903 2776.99995040894 13 14 8
42.635690420866 44.0454334020615 2749.00007247925 9 11 6
49.8133487999439 43.756652623415 2730.99994659424 9 11 6
57.6684102416039 44.0606325864792 2750 9 11 6
65.7928958535194 44.4767065346241 2776.00002288818 9 11 6
78.8218006491661 43.3059446513653 2703.00006866455 7 9 6
86.519755423069 43.4654839336872 2713.00005912781 7 9 6
95.3105688095093 44.1055819392204 2753.00002098084 6 11 7
104.020573198795 44.6174405515194 2785.00008583069 5 9 8
110.059157013893 43.9917705953121 2746.00005149841 4 8 7
116.184063255787 43.4782095253468 2713.99998664856 2 6 5
124.365203082561 43.7495708465576 2730.99994659424 6 8 5
133.362650871277 44.2611537873745 2763.00001144409 8 10 7
139.729395508766 43.891616165638 2740.00000953674 5 7 4
145.593971014023 43.4099063277245 2710.00003814697 6 8 5
151.237785816193 42.9121479392052 2678.99990081787 12 14 11
158.487305045128 42.8948886692524 2677.99997329712 8 10 7
163.207828998566 40.4417105019093 2525.00009536743 7 9 6
168.612509965897 40.0880314409733 2503.00002098084 119 121 118
175.017923116684 39.9905666708946 2496.99997901917 116 118 115
181.24432861805 39.8610383272171 2489.00008201599 115 114 112
187.350824475288 39.7154465317726 2480.00001907349 114 113 111
193.564027547836 39.6018400788307 2473.00004959106 117 116 114
200.143322348595 39.5682640373707 2470.99995613098 124 123 121
206.794634461403 39.5506583154202 2470.00002861023 131 130 128
213.526159524918 39.5490154623985 2470.00002861023 130 129 127
220.167696475983 39.5313128829002 2469.00010108948 128 126 127
226.527214050293 39.4655279815197 2464.99991416931 133 131 132
232.958689332008 39.415717124939 2461.99989318848 131 129 130
239.762336015701 39.4299030303955 2463.00005912781 160 158 159
246.770665049553 39.4760556519032 2466.00008010864 158 156 157
254.308372735977 39.6021939814091 2473.99997711182 158 158 158
261.677622795105 39.6962612867355 2480.00001907349 168 170 169
269.728064537048 39.8863144218922 2492.00010299683 172 174 173
279.063373804092 40.2523577213287 2515.00010490417 180 182 179
-68.3597549796104 39.9941392242908 3009.0000629425 98 89 82
-60.0042752921581 39.9015322327614 3002.00009346008 51 41 31
-51.6867637634277 39.8088693618774 2994.99988555908 29 16 7
-43.349165469408 39.6629832684994 2983.99996757507 64 57 49
-34.5759950578213 38.9587767422199 2930.99999427795 41 37 28
-25.4484228789806 37.3107716441154 2806.99992179871 30 27 18
-17.4921043217182 36.6994813084602 2760.99991798401 17 17 7
-10.1546179503202 37.443932145834 2816.99991226196 24 26 15
-2.46143015101552 37.4306812882423 2815.99998474121 24 26 15
5.17060793936253 37.0186157524586 2785.00008583069 15 18 7
20.0364515185356 36.3937169313431 2737.99991607666 12 15 8
27.4927988648415 36.3669730722904 2736.00006103516 12 15 8
35.2959223091602 36.7123521864414 2762.00008392334 13 14 8
42.7135564386845 36.6057492792606 2753.99994850159 9 11 6
50.1055642962456 36.5123897790909 2746.99997901917 9 11 6
57.6688423752785 36.5519039332867 2750 9 11 6
65.2719587087631 36.6046465933323 2753.99994850159 9 11 6
73.5045671463013 36.9630455970764 2780.99989891052 8 10 7
80.4554000496864 36.6701185703278 2759.0000629425 8 10 7
86.9349762797356 36.2309515476227 2726.0000705719 8 10 7
95.5190062522888 36.6689302027225 2759.0000629425 6 11 7
103.722527623177 36.9074866175652 2776.99995040894 5 9 8
111.182227730751 36.8668958544731 2773.9999294281 4 8 7
117.255173623562 36.4009812474251 2739.00008201599 2 6 5
124.958135187626 36.4666096866131 2743.99995803833 5 7 4
133.991107344627 36.8910059332848 2776.00002288818 8 10 7
139.730423688889 36.4116802811623 2740.00000953674 12 14 11
145.702481269836 36.0386408865452 2711.99989318848 7 9 6
153.89221906662 36.2236835062504 2726.0000705719 5 7 4
158.015012741089 35.478513687849 2670.00007629395 7 9 6
164.695680141449 33.8553041219711 2548.00009727478 9 11 8
168.613716959953 33.2562960684299 2503.00002098084 100 102 99
175.019204616547 33.1754386425018 2496.99997901917 123 125 122
181.391268968582 33.0945514142513 2490.9999370575 120 119 117
187.654331326485 33.0003425478935 2483.99996757507 120 119 117
194.113343954086 32.945953309536 2480.00001907349 125 124 122
200.630739331245 32.9048074781895 2476.99999809265 128 127 125
207.382172346115 32.9034812748432 2476.99999809265 125 124 122
214.046373963356 32.8888297080994 2476.0000705719 122 121 119
220.525950193405 32.8475758433342 2473.00004959106 126 124 125
226.804494857788 32.7797196805477 2467.99993515015 133 131 132
233.149588108063 32.7251143753529 2463.99998664856 147 145 146
240.056067705154 32.7501595020294 2466.00008010864 147 145 146
247.272744774818 32.8150019049644 2470.99995613098 148 146 147
254.515767097473 32.8798070549965 2476.0000705719 159 159 159
261.573970317841 32.9180061817169 2479.00009155273 164 166 165
269.405245780945 33.049114048481 2489.00008201599 165 167 166
278.843373060226 33.3660468459129 2513.00001144409 178 180 177
-68.7463879585266 31.9576561450958 3026.00002288818 177 172 166
-60.1645484566689 31.7890271544456 3009.99999046326 39 32 24
-51.8251396715641 31.7153967916965 3003.00002098084 44 37 29
-43.494701385498 31.6206030547619 2993.99995803833 50 45 39
-34.5408134162426 30.9237651526928 2927.99997329712 32 27 21
-17.9737061262131 29.9629550427198 2836.99989318848 24 24 14
-10.0213028490543 29.3610263615847 2779.99997138977 23 27 13
-2.4422153364867 29.5089203864336 2793.99991035461 13 17 3
5.18549280241132 29.4983517378569 2792.99998283386 17 20 9
12.6517489552498 29.1286483407021 2757.99989700317 16 19 10
20.541513338685 29.6460706740618 2806.99992179871 13 16 9
27.7944225817919 29.212923720479 2766.00003242493 11 14 7
35.1044498383999 29.0120858699083 2746.99997901917 11 12 7
42.8999327123165 29.2125418782234 2766.00003242493 11 13 8
50.5071580410004 29.2439740151167 2769.00005340576 9 11 6
57.9418130218983 29.1803143918514 2763.00001144409 8 10 5
65.651573240757 29.2539075016975 2769.99998092651 8 10 5
72.5799277424812 29.0000736713409 2746.00005149841 10 12 7
79.4352442026138 28.7673249840736 2723.99997711182 10 12 9
87.3819813132286 28.9358496665955 2740.00000953674 9 11 8
96.2812379002571 29.3683335185051 2780.99989891052 8 10 7
104.881040751934 29.6529233455658 2808.00008773804 6 8 5
111.623778939247 29.4094625860453 2785.00008583069 6 8 5
118.711397051811 29.2821265757084 2773.00000190735 7 9 6
127.008140087128 29.4504258781672 2789.00003433228 4 6 3
133.605748414993 29.2279832065105 2767.99988746643 32 34 31
140.802174806595 29.1533395648003 2760.99991798401 11 13 10
145.918264985085 28.6774300038815 2716.00008010864 9 11 8
153.723776340485 28.7505481392145 2723.00004959106 15 17 14
158.430233597755 28.2640401273966 2677.00004577637 12 14 11
163.504138588905 27.8831031173468 2641.00003242493 9 11 8
167.217507958412 27.3121185600758 2586.99989318848 14 16 13
169.423088431358 26.5511106699705 2515.00010490417 54 56 53
175.510883331299 26.4340806752443 2503.99994850159 124 126 123
181.974917650223 26.3803657144308 2499.00007247925 123 122 120
188.335373997688 26.3160597532988 2493.00003051758 121 120 118
194.662377238274 26.2517258524895 2486.99998855591 125 124 122
201.198890805244 26.219030842185 2483.99996757507 124 123 121
207.550838589668 26.1652003973722 2479.00009155273 119 118 116
214.134067296982 26.1430032551289 2476.99999809265 117 116 114
220.616385340691 26.1102188378572 2473.99997711182 124 122 123
227.081522345543 26.0774120688438 2470.99995613098 140 138 139
233.718648552895 26.0656792670488 2470.00002861023 155 153 154
240.738868713379 26.0961297899485 2473.00004959106 140 138 139
247.67442047596 26.1159893125296 2474.99990463257 143 141 142
254.722774028778 26.1463765054941 2477.9999256134 155 155 155
261.57546043396 26.1556282639503 2479.00009155273 160 162 161
269.514977931976 26.2703485786915 2490.00000953674 165 167 166
278.734028339386 26.501078158617 2512.00008392334 183 185 182
-60.4846440255642 23.6953347921371 3026.00002288818 82 78 69
-51.9634522497654 23.5780999064446 3010.99991798401 19 15 6
-43.5530170798302 23.476492613554 2997.99990653992 30 25 19
-34.8240919411182 23.1164339929819 2951.99990272522 28 23 17
-26.1195935308933 22.5605722516775 2881.00004196167 28 25 16
-18.17019097507 22.4588587880135 2868.00003051758 27 27 17
-10.1294945925474 22.0047272741795 2809.99994277954 22 26 12
-2.4273672606796 21.7463318258524 2776.99995040894 17 23 9
5.14281447976828 21.6915104538202 2769.99998092651 16 22 8
12.9683325067163 22.1378318965435 2826.99990272522 14 20 8
20.0439877808094 21.4486550539732 2739.00008201599 13 16 9
27.6739671826363 21.5660184621811 2753.99994850159 11 14 7
35.5135463178158 21.7616632580757 2779.00004386902 10 12 7
43.0397242307663 21.7301826924086 2775.00009536743 12 15 8
50.6533086299896 21.7456538230181 2776.99995040894 9 12 5
58.0888763070107 21.6906238347292 2769.99998092651 8 11 4
65.1541650295258 21.5259399265051 2749.00007247925 10 11 5
72.2630843520164 21.4082058519125 2733.99996757507 11 12 7
79.5231088995934 21.3530920445919 2726.99999809265 12 13 8
87.6056253910065 21.5093623846769 2746.99997901917 11 12 7
96.5932756662369 21.8456871807575 2789.99996185303 9 10 5
104.806818068027 21.9705663621426 2805.99999427795 8 9 4
110.782600939274 21.6412860900164 2763.99993896484 8 9 4
119.354106485844 21.8287445604801 2788.00010681152 8 8 6
127.099812030792 21.8517426401377 2790.99988937378 4 6 1
135.054439306259 21.9060312956572 2798.00009727478 6 8 3
138.711959123611 21.2948229163885 2720.00002861023 47 49 44
147.584438323975 21.5056370943785 2746.99997901917 3 5 0
153.555139899254 21.2936718016863 2720.00002861023 14 16 11
159.496232867241 21.0973434150219 2694.9999332428 11 13 8
165.300294756889 20.9010038524866 2670.00007629395 14 16 11
169.828057289124 19.7333451360464 2520.99990844727 53 55 50
175.792038440704 19.6309164166451 2507.99989700317 126 128 123
182.267010211945 19.5910856127739 2503.00002098084 119 118 116
188.562870025635 19.535580649972 2496.00005149841 117 116 114
194.976329803467 19.4957032799721 2490.9999370575 113 112 110
201.199814677238 19.4401573389769 2483.99996757507 115 114 112
207.551777362823 19.4002445787191 2479.00009155273 128 127 125
214.048594236374 19.3759594112635 2476.0000705719 133 132 130
220.79573571682 19.3751305341721 2476.0000705719 141 139 140
227.542027831078 19.3742774426937 2476.0000705719 147 145 146
234.287455677986 19.3734001368284 2476.0000705719 137 135 136
241.129323840141 19.3803254514933 2476.99999809265 148 146 147
247.875675559044 19.3794034421444 2476.99999809265 154 152 153
254.621118307114 19.378462806344 2476.99999809265 154 154 154
261.471092700958 19.3853210657835 2477.9999256134 160 162 161
268.974959850311 19.4390881806612 2484.99989509583 172 174 173
278.402298688889 19.625810906291 2509.0000629425 172 174 171
-52.0326532423496 15.3766134753823 3015.00010490417 151 151 143
-43.4805266559124 15.2645371854305 2993.00003051758 136 131 127
-26.3554006814957 14.8261096328497 2907.00006484985 12 12 2
-18.2589497417212 14.698663726449 2881.99996948242 28 28 18
-10.234066285193 14.4793931394815 2838.99998664856 20 24 10
-2.44136084802449 14.2448022961617 2792.99998283386 17 21 7
5.17253763973713 14.209097251296 2786.00001335144 16 22 8
12.6977236941457 14.1172707080841 2767.99988746643 14 20 8
20.2343221753836 14.1019271686673 2765.00010490417 13 16 9
27.6238173246384 14.020262286067 2749.00007247925 12 15 8
35.3091955184937 14.0915811061859 2763.00001144409 11 13 8
43.2104729115963 14.2087806016207 2786.00001335144 12 13 7
50.4710786044598 14.111758209765 2766.99995994568 11 12 4
57.753536850214 14.0453167259693 2753.99994850159 11 12 4
64.9173632264137 13.9686586335301 2739.00008201599 11 12 6
72.5012123584747 13.9888795092702 2743.00003051758 11 12 6
80.3107246756554 14.0447784215212 2753.99994850159 11 12 6
88.7859016656876 14.197550714016 2783.99991989136 11 12 6
96.3858664035797 14.1973113641143 2783.99991989136 12 11 7
104.134857654572 14.2174512147903 2788.00010681152 11 10 6
111.103624105453 14.135580509901 2772.0000743866 8 9 4
119.568549096584 14.2423687502742 2792.99998283386 8 9 4
130.565896630287 13.7929935008287 2704.99992370605 107 109 104
139.375373721123 13.9354197308421 2733.00004005432 44 46 41
146.886467933655 13.9401499181986 2733.99996757507 6 8 3
153.32980453968 13.8479899615049 2716.00008010864 12 14 9
160.91713309288 13.8628827407956 2719.00010108948 8 10 5
166.105657815933 13.6789223179221 2683.00008773804 15 17 12
167.154178023338 13.1839625537395 2585.99996566772 18 20 15
170.232802629471 12.8827448934317 2526.99995040894 52 54 49
175.792619585991 12.7854449674487 2507.99989700317 129 131 126
182.121962308884 12.7493087202311 2500.99992752075 119 118 116
188.563466072083 12.7233546227217 2496.00005149841 119 118 116
194.898694753647 12.6922857016325 2490.00000953674 123 122 120
201.200470328331 12.6612056046724 2483.99996757507 128 127 125
207.468718290329 12.6301124691963 2477.9999256134 138 137 135
214.135691523552 12.6244900748134 2476.99999809265 141 140 138
221.063941717148 12.6341423019767 2479.00009155273 151 149 150
227.910354733467 12.6386834308505 2480.00001907349 138 136 137
234.477415680885 12.6279182732105 2477.9999256134 136 134 135
241.130098700523 12.6222372055054 2476.99999809265 147 145 146
247.976496815681 12.6267317682505 2477.9999256134 152 150 151
255.033075809479 12.641403824091 2480.99994659424 160 160 160
261.99945807457 12.6509638503194 2483.00004005432 157 159 158
269.300490617752 12.6757938414812 2487.99991607666 163 165 164
278.40319275856 12.7821192145348 2509.0000629425 170 172 169
-18.1069318205118 6.7719086073339 2858.00004005432 24 26 15
-10.1511748507619 6.67240843176842 2815.99998474121 12 15 4
-2.46234401129186 6.67478563264012 2816.99991226196 28 31 20
5.16140786930919 6.58711418509483 2779.99997138977 15 21 9
12.7573823556304 6.58947229385376 2780.99989891052 14 20 8
20.2416777610779 6.55391020700336 2766.00003242493 13 16 9
27.814794331789 6.55861990526319 2767.99988746643 13 16 9
35.0281186401844 6.49460731074214 2740.9999370575 12 15 8
42.9623946547508 6.56327325850725 2769.99998092651 11 12 6
50.5076535046101 6.56084716320038 2769.00005340576 12 13 5
57.3761723935604 6.48259231820703 2736.00006103516 12 13 5
64.9174898862839 6.4896265976131 2739.00008201599 11 12 6
72.9771181941032 6.54166797176003 2760.99991798401 11 12 6
81.2148898839951 6.59843860194087 2785.00008583069 10 11 5
88.9455378055573 6.60781282931566 2789.00003433228 11 12 6
97.2515940666199 6.65508490055799 2809.00001525879 11 12 7
103.425376117229 6.5601971000433 2769.00005340576 12 11 7
110.302209854126 6.51979353278875 2752.00009346008 10 11 6
118.541337549686 6.55993120744824 2769.00005340576 7 8 3
128.056794404984 6.66165119037032 2812.00003623962 0 2 0
129.166379570961 6.33931579068303 2676.00011825562 171 174 167
137.284740805626 6.37705903500319 2691.99991226196 8 11 4
146.080866456032 6.44084997475147 2719.00010108948 14 17 10
155.305996537209 6.51647243648767 2750.99992752075 4 7 0
166.229784488678 6.3597559928894 2684.99994277954 8 11 4
169.029027223587 6.19375705718994 2615.00000953674 6 9 2
170.030996203423 5.97802130505443 2523.9999294281 13 16 9
175.512582063675 5.93044981360435 2503.99994850159 107 110 103
