ply
format ascii 1.0
comment KinectMotionCapture
element vertex 796
property float x
property float y
property float z
property uchar red
property uchar green
property uchar blue
end_header
236.887007951736 -197.868004441261 2578.9999961853 149 118 97
244.477331638336 -198.319718241692 2585.00003814697 147 119 97
251.90481543541 -198.617711663246 2588.99998664856 148 119 101
259.753286838531 -199.222341179848 2596.99988365173 154 122 107
267.747074365616 -199.903383851051 2605.99994659424 147 119 107
276.632636785507 -201.197803020477 2622.99990653992 131 118 112
-40.9145504236221 -224.043697118759 2818.00007820129 12 14 9
-33.1888310611248 -223.806634545326 2815.00005722046 16 19 12
-25.4068672657013 -222.93321788311 2803.99990081787 14 17 10
-17.6531840115786 -221.661970019341 2788.00010681152 12 15 8
-9.9507300183177 -219.595357775688 2762.00008392334 9 12 5
-2.44344118982553 -222.37828373909 2796.99993133545 8 11 4
5.12871937826276 -219.754546880722 2763.99993896484 9 12 5
12.7866473048925 -221.741855144501 2789.00003433228 10 13 6
20.427392795682 -222.05924987793 2792.99998283386 10 13 6
28.0698034912348 -222.217306494713 2795.00007629395 12 15 8
35.837959498167 -223.090603947639 2805.99999427795 12 15 8
43.3094874024391 -222.134977579117 2793.99991035461 12 13 7
51.5356920659542 -224.75677728653 2826.99990272522 9 12 5
56.6932037472725 -215.055271983147 2704.99992370605 7 9 4
63.5770931839943 -213.383376598358 2684.00001525879 7 9 4
80.468475818634 -219.499334692955 2760.99991798401 6 8 5
126.071780920029 -220.190763473511 2769.99998092651 51 53 50
136.66620850563 -225.193575024605 2832.99994468689 0 2 0
141.997307538986 -221.452280879021 2786.00001335144 13 15 10
149.702504277229 -221.605643630028 2788.00010681152 15 16 11
155.781775712967 -219.453692436218 2760.99991798401 12 13 7
162.718757987022 -218.652755022049 2750.99992752075 13 14 8
168.672412633896 -216.659411787987 2726.0000705719 13 14 8
176.362574100494 -216.970756649971 2730.00001907349 11 12 4
183.602541685104 -216.72548353672 2726.99999809265 14 14 6
189.074158668518 -214.493170380592 2698.99988174438 13 13 3
195.77519595623 -213.770657777786 2690.00005722046 12 8 0
200.46329498291 -210.981816053391 2654.99997138977 121 102 85
204.568788409233 -207.795605063438 2615.00000953674 123 100 84
209.426924586296 -205.562904477119 2586.99989318848 158 125 108
215.637922286987 -204.760357737541 2576.99990272522 153 118 98
222.484856843948 -204.593256115913 2575.00004768372 156 121 99
229.765728116035 -204.823210835457 2578.00006866455 157 122 100
236.786514520645 -204.814568161964 2578.00006866455 150 119 98
243.901014328003 -204.885125160217 2578.9999961853 149 121 99
251.409262418747 -205.27321100235 2584.00011062622 148 119 101
259.243816137314 -205.899327993393 2592.00000762939 152 120 105
267.531991004944 -206.84289932251 2604.00009155273 146 118 106
276.833653450012 -208.501026034355 2625 129 116 110
-40.8112928271294 -231.149449944496 2811.00010871887 17 19 14
-33.1757180392742 -231.397598981857 2813.99989128113 16 19 12
-25.3967959433794 -230.494260787964 2802.99997329712 19 22 15
-17.7094638347626 -230.001747608185 2796.99993133545 16 19 12
-10.0980410352349 -230.4957062006 2802.99997329712 17 20 13
-2.44247051887214 -229.920327663422 2796.0000038147 12 15 8
5.23984432220459 -232.222780585289 2823.99988174438 12 15 8
12.7678019925952 -229.015350341797 2785.00008583069 10 13 6
20.3241910785437 -228.521317243576 2779.00004386902 9 12 5
28.1389802694321 -230.411648750305 2802.00004577637 9 12 5
35.8109921216965 -230.574816465378 2803.99990081787 9 12 5
43.4937737882137 -230.737671256065 2805.99999427795 13 14 8
51.1873029172421 -230.900257825851 2808.00008773804 10 13 6
59.1430254280567 -232.049211859703 2822.00002670288 8 11 4
66.0379678010941 -229.250937700272 2788.00010681152 8 10 5
80.1447182893753 -226.120457053185 2750 5 7 4
90.0380536913872 -232.283934950829 2825.00004768372 6 8 5
134.634837508202 -229.461506009102 2790.99988937378 16 18 13
139.392450451851 -224.852055311203 2734.99989509583 14 16 11
149.481862783432 -228.874698281288 2783.99991989136 12 13 8
155.43720126152 -226.484626531601 2755.00011444092 17 18 12
162.94901072979 -226.478308439255 2755.00011444092 14 15 7
169.160857796669 -224.745467305183 2733.99996757507 15 16 8
174.805358052254 -222.437039017677 2706.00008964539 15 16 8
183.124199509621 -223.580792546272 2720.00002861023 18 18 8
189.487159252167 -222.340524196625 2704.99992370605 16 16 6
194.967105984688 -220.195949077606 2678.99990081787 14 10 0
200.15361905098 -217.88689494133 2651.00002288818 105 86 69
204.717412590981 -215.084612369537 2617.00010299683 101 78 62
209.338009357452 -212.528809905052 2585.99996566772 152 121 103
215.462386608124 -211.61662042141 2575.00004768372 149 116 97
222.130849957466 -211.279466748238 2571.00009918213 151 116 96
229.578793048859 -211.681663990021 2575.99997520447 149 117 96
236.685767769814 -211.754903197289 2576.99990272522 146 118 97
243.986427783966 -211.992278695107 2579.99992370605 150 123 102
251.594424247742 -212.475836277008 2585.99996566772 147 118 100
259.534239768982 -213.205620646477 2595.00002861023 151 118 103
268.035709857941 -214.34585750103 2608.99996757507 144 116 104
277.245223522186 -215.978711843491 2628.99994850159 126 113 107
-41.2161238491535 -241.189613938332 2838.99998664856 24 26 21
-33.2215242087841 -239.407077431679 2818.00007820129 14 17 10
-25.3232754766941 -237.454295158386 2795.00007629395 19 22 15
-17.645426094532 -236.775502562523 2786.99994087219 15 18 11
-9.98234841972589 -235.416784882545 2770.99990844727 17 20 13
-2.43625580333173 -236.946269869804 2789.00003433228 14 17 10
5.23406360298395 -239.664852619171 2821.00009918213 13 16 9
12.7764455974102 -236.775889992714 2786.99994087219 11 14 7
20.2502273023129 -235.246002674103 2769.00005340576 10 13 6
27.9269441962242 -236.26446723938 2780.99989891052 8 11 4
35.8350723981857 -238.387078046799 2805.99999427795 8 11 4
43.3060005307198 -237.365961074829 2793.99991035461 11 12 6
51.495086401701 -239.997610449791 2825.00004768372 10 13 6
58.5328564047813 -237.276777625084 2792.99998283386 10 13 6
65.9642219543457 -236.594572663307 2785.00008583069 9 11 6
73.800690472126 -237.35623061657 2793.99991035461 9 11 6
81.0739994049072 -236.333623528481 2782.00006484985 9 11 8
88.6002033948898 -236.160203814507 2779.99997138977 5 7 4
139.0300989151 -231.71029984951 2727.9999256134 13 15 10
146.03964984417 -231.025010347366 2720.00002861023 12 13 8
155.092462897301 -233.481988310814 2749.00007247925 15 16 10
162.41018474102 -233.22069644928 2746.00005149841 14 15 7
169.154092669487 -232.194796204567 2733.99996757507 15 16 8
178.028210997581 -234.056189656258 2756.00004196167 15 16 8
182.712957262993 -230.482056736946 2713.99998664856 18 18 8
190.530374646187 -230.984061956406 2720.00002861023 16 16 6
194.52278316021 -226.985111832619 2673.00009727478 15 11 0
199.466228485107 -224.344789981842 2641.99995994568 98 79 64
204.631105065346 -222.128927707672 2615.9999370575 94 71 55
209.57262814045 -219.828099012375 2588.99998664856 145 114 96
215.872302651405 -219.055488705635 2579.99992370605 144 111 94
222.467795014381 -218.622297048569 2575.00004768372 141 109 88
229.658991098404 -218.783125281334 2576.99990272522 142 111 90
236.860260367393 -218.943729996681 2578.9999961853 140 113 92
244.071573019028 -219.104081392288 2581.00008964539 146 119 98
251.681983470917 -219.603702425957 2586.99989318848 138 109 91
259.424239397049 -220.187932252884 2594.00010108948 142 109 94
268.230944871902 -221.620664000511 2611.00006103516 137 109 97
277.656495571136 -223.477378487587 2632.99989700317 123 110 104
-32.8193083405495 -244.105443358421 2783.99991989136 8 11 4
-25.2406690269709 -244.282081723213 2786.00001335144 15 18 11
-17.5117291510105 -242.529317736626 2766.00003242493 16 19 12
-9.97472275048494 -242.792949080467 2769.00005340576 19 22 15
-2.41606286726892 -242.530196905136 2766.00003242493 12 15 8
5.13736670836806 -242.793172597885 2769.00005340576 13 16 9
12.6933939754963 -242.792785167694 2769.00005340576 14 17 10
20.2859379351139 -243.230491876602 2773.9999294281 13 16 9
27.9358103871346 -243.930920958519 2782.00006484985 10 13 6
35.9484925866127 -246.82305753231 2815.00005722046 9 12 5
50.927858799696 -244.978025555611 2793.99991035461 10 13 6
58.8866472244263 -246.378570795059 2809.99994277954 11 14 7
66.5061920881271 -246.200546622276 2808.00008773804 11 13 8
73.7711787223816 -244.882360100746 2792.99998283386 9 11 6
80.6043371558189 -242.511823773384 2766.00003242493 6 8 5
87.5129476189613 -240.754753351212 2746.00005149841 7 9 6
133.369699120522 -242.39245057106 2765.00010490417 5 7 2
141.164734959602 -242.824971675873 2769.99998092651 12 14 9
150.328695774078 -245.448678731918 2799.99995231628 15 16 11
155.480936169624 -241.585254669189 2756.00004196167 15 16 10
163.527190685272 -242.367506027222 2765.00010490417 12 13 5
170.755699276924 -241.922229528427 2759.99999046326 12 13 5
176.212266087532 -239.11015689373 2727.9999256134 13 14 6
183.176711201668 -238.489121198654 2720.99995613098 16 16 6
190.872803330421 -238.831952214241 2724.99990463257 16 16 6
194.223761558533 -233.915954828262 2668.99991035461 14 10 0
199.156135320663 -231.190979480743 2638.00001144409 94 75 60
204.388156533241 -228.991732001305 2612.99991607666 91 68 52
209.887951612473 -227.230563759804 2592.99993515015 134 103 85
216.365620493889 -226.608425378799 2585.99996566772 135 102 85
222.89077937603 -226.073682308197 2579.99992370605 128 95 76
229.828029870987 -225.976869463921 2578.9999961853 133 102 81
237.034514546394 -226.142644882202 2581.00008964539 130 103 82
244.629204273224 -226.658582687378 2586.99989318848 136 109 88
252.450287342072 -227.349475026131 2595.00002861023 127 98 80
260.114014148712 -227.86483168602 2601.0000705719 132 99 84
268.631279468536 -229.080721735954 2615.00000953674 128 100 88
279.016435146332 -231.78543150425 2645.99990844727 121 108 102
-32.7353700995445 -251.058578491211 2776.99995040894 10 12 7
-25.0765010714531 -250.246167182922 2767.99988746643 16 19 12
-17.6439173519611 -251.964867115021 2786.99994087219 18 21 14
-9.95627883821726 -249.886095523834 2763.99993896484 18 21 14
-2.41770478896797 -250.247985124588 2767.99988746643 15 18 11
5.13899838551879 -250.428736209869 2769.99998092651 14 17 10
12.789105065167 -252.236515283585 2789.99996185303 14 17 8
20.3435588628054 -251.512557268143 2782.00006484985 15 18 9
28.2659567892551 -254.494875669479 2815.00005722046 15 18 9
36.0107831656933 -254.945516586304 2819.9999332428 12 15 6
43.116319924593 -251.508355140686 2782.00006484985 10 13 4
51.1261522769928 -253.585606813431 2805.0000667572 9 12 3
59.3241602182388 -255.933731794357 2831.00008964539 8 11 2
67.3322379589081 -257.015764713287 2842.99993515015 9 12 5
75.4847601056099 -258.368670940399 2858.00004005432 10 12 7
81.3293531537056 -252.308338880539 2790.99988937378 4 6 3
89.0388265252113 -252.575814723969 2793.99991035461 16 18 15
143.299013376236 -254.167556762695 2812.00003623962 9 11 8
149.141192436218 -251.08814239502 2778.00011634827 2 4 0
157.279565930367 -251.985371112823 2788.00010681152 13 16 9
164.466455578804 -251.345753669739 2780.99989891052 12 13 5
171.119675040245 -249.982893466949 2766.00003242493 13 14 6
176.463201642036 -246.902674436569 2732.00011253357 15 16 8
183.438256382942 -246.262341737747 2724.99990463257 16 18 7
190.654665231705 -245.983257889748 2721.99988365173 15 17 6
194.870516657829 -241.998910903931 2677.99997329712 20 14 2
198.770329356194 -237.924173474312 2632.99989700317 102 76 63
204.223230481148 -235.927730798721 2611.00006103516 97 69 55
210.041075944901 -234.473243355751 2595.00002861023 117 84 65
216.607660055161 -233.92216861248 2588.99998664856 115 80 60
223.227143287659 -233.461186289787 2584.00011062622 110 75 53
230.175018310547 -233.361348509789 2582.99994468689 116 81 59
237.667590379715 -233.803302049637 2588.00005912781 114 86 65
245.470210909843 -234.515994787216 2595.99995613098 119 93 76
253.315508365631 -235.228344798088 2604.00009155273 101 78 62
260.90344786644 -235.669389367104 2608.99996757507 99 79 68
269.442200660706 -236.923068761826 2622.99990653992 94 79 72
-32.2388373315334 -254.713028669357 2734.99989509583 12 14 9
-25.0119715929031 -257.135719060898 2760.99991798401 12 15 8
-17.5924859941006 -258.813083171844 2779.00004386902 13 16 9
-10.0819049403071 -260.676324367523 2799.00002479553 14 17 10
-2.44641955941916 -260.86288690567 2801.00011825562 14 17 10
5.20926527678967 -261.514753103256 2808.00008773804 13 16 9
12.9810515791178 -263.74951004982 2832.00001716614 12 15 6
20.598579198122 -262.351751327515 2816.99991226196 13 16 7
28.3450223505497 -262.909442186356 2822.99995422363 13 16 7
35.9197929501534 -261.976689100266 2812.99996376038 11 14 5
43.3933548629284 -260.764181613922 2799.99995231628 11 14 5
50.5953244864941 -258.526980876923 2776.00002288818 9 12 3
59.4262890517712 -264.112204313278 2835.99996566772 8 11 2
67.1634674072266 -264.109373092651 2835.99996566772 8 11 4
74.9003738164902 -264.106184244156 2835.99996566772 9 11 6
81.0635089874268 -259.073913097382 2782.00006484985 12 14 11
89.385412633419 -261.211901903152 2805.0000667572 3 5 2
142.171666026115 -259.778946638107 2789.99996185303 14 16 13
150.100991129875 -260.331124067307 2796.0000038147 16 18 13
157.159864902496 -259.393244981766 2786.00001335144 9 12 5
163.808807730675 -257.896512746811 2769.99998092651 15 16 8
170.555457472801 -256.67878985405 2756.99996948242 15 16 8
176.972255110741 -255.088448524475 2740.00000953674 17 18 10
183.430328965187 -253.6840736866 2724.99990463257 17 19 8
189.665883779526 -252.093285322189 2707.99994468689 16 18 7
193.334102630615 -247.337341308594 2657.00006484985 21 14 4
198.157906532288 -244.350001215935 2625 97 69 57
204.292684793472 -243.131160736084 2611.99998855591 105 77 63
210.598692297935 -242.191389203072 2601.99999809265 111 78 59
217.184066772461 -241.623654961586 2595.99995613098 115 80 60
223.822340369225 -241.148799657822 2591.00008010864 106 71 49
230.789005756378 -241.045966744423 2589.99991416931 111 76 54
238.484054803848 -241.687402129173 2596.99988365173 106 77 59
246.500000357628 -242.607682943344 2607.00011253357 97 74 56
254.472225904465 -243.434548377991 2615.9999370575 93 71 58
261.992543935776 -243.795797228813 2619.99988555908 89 75 66
270.869076251984 -245.366424322128 2637.00008392334 87 76 72
-32.6381213963032 -265.42267203331 2769.00005340576 16 18 13
-25.2644699066877 -267.341077327728 2789.00003433228 16 18 13
-17.7182853221893 -268.300652503967 2799.00002479553 13 16 9
-10.0454250350595 -267.342746257782 2789.00003433228 15 18 11
-2.45940824970603 -269.931137561798 2815.99998474121 15 18 11
5.22943260148168 -270.218640565872 2819.00000572205 14 17 10
12.9300393164158 -270.409941673279 2821.00009918213 13 16 7
20.6122621893883 -270.217478275299 2819.00000572205 13 16 7
28.3537656068802 -270.695567131042 2823.99988174438 14 17 8
35.9053835272789 -269.543826580048 2812.00003623962 12 15 6
43.5928367078304 -269.637852907181 2812.99996376038 13 16 7
50.9210675954819 -267.814427614212 2793.99991035461 11 14 5
58.2501925528049 -266.469985246658 2779.99997138977 10 13 4
66.5920525789261 -269.534379243851 2812.00003623962 8 11 4
73.814183473587 -267.901659011841 2795.00007629395 8 10 5
81.9048061966896 -269.431710243225 2811.00010871887 11 13 10
89.731864631176 -269.906938076019 2815.99998474121 9 11 8
97.689650952816 -270.669430494308 2823.99988174438 10 12 9
132.821604609489 -263.934046030045 2753.99994850159 13 15 12
142.012402415276 -267.090350389481 2786.99994087219 12 14 11
149.664804339409 -267.179578542709 2788.00010681152 11 13 8
156.701549887657 -266.214281320572 2778.00011634827 13 16 9
160.785645246506 -260.553240776062 2719.00010108948 15 16 8
169.186919927597 -262.0789706707 2734.99989509583 16 17 9
175.995588302612 -261.112958192825 2724.99990463257 17 18 10
183.893382549286 -261.775612831116 2732.00011253357 17 19 8
190.287798643112 -260.329931974411 2717.00000762939 16 18 7
194.999068975449 -256.776213645935 2680.0000667572 20 16 5
197.696268558502 -250.922977924347 2618.99995803833 83 61 48
204.049080610275 -249.955967068672 2608.99996757507 108 85 71
210.832267999649 -249.563530087471 2605.00001907349 94 67 50
217.927485704422 -249.554023146629 2605.00001907349 95 66 48
224.762767553329 -249.256834387779 2601.99999809265 105 74 54
231.670022010803 -249.055206775665 2599.99990463257 106 77 59
239.208340644836 -249.523833394051 2605.00001907349 97 74 58
246.867537498474 -250.087887048721 2611.00006103516 81 62 48
254.850327968597 -250.938951969147 2619.99988555908 94 77 67
262.28129863739 -251.215070486069 2622.99990653992 93 80 74
-33.3791375160217 -279.175251722336 2832.00001716614 17 19 14
-25.525975972414 -277.796566486359 2818.00007820129 17 19 14
-17.7617631852627 -276.614636182785 2805.99999427795 13 16 9
-10.0773684680462 -275.826662778854 2798.00009727478 15 18 11
-2.43833288550377 -275.235444307327 2792.00005531311 16 19 12
5.19394222646952 -276.024013757706 2799.99995231628 15 18 11
12.7461003139615 -274.15058016777 2780.99989891052 13 16 7
20.428504794836 -275.431334972382 2793.99991035461 14 17 8
28.2118823379278 -277.007460594177 2809.99994277954 14 17 8
35.7504822313786 -276.020139455795 2799.99995231628 14 17 8
43.0484302341938 -273.849576711655 2778.00011634827 14 17 8
50.6088733673096 -273.748755455017 2776.99995040894 13 16 9
58.6036592721939 -275.717675685883 2796.99993133545 12 15 8
67.251980304718 -279.953449964523 2839.99991416931 10 13 6
73.9427730441093 -276.007175445557 2799.99995231628 9 11 6
80.7646811008453 -273.243457078934 2772.0000743866 8 10 5
89.5364955067635 -276.985138654709 2809.99994277954 9 11 6
96.7857390642166 -275.797933340073 2798.00009727478 8 10 7
125.306025147438 -271.440088748932 2753.99994850159 0 2 0
134.262248873711 -274.39084649086 2783.99991989136 9 11 6
141.496330499649 -273.694515228271 2776.99995040894 18 20 15
149.121105670929 -273.786306381226 2778.00011634827 21 23 18
156.299516558647 -273.089319467545 2770.99990844727 5 8 1
162.729606032372 -271.209448575974 2752.00009346008 14 15 9
169.364765286446 -269.822031259537 2737.99991607666 15 16 10
176.568791270256 -269.419848918915 2733.99996757507 16 17 9
184.827297925949 -270.594030618668 2746.00005149841 17 19 8
193.080455064774 -271.669238805771 2756.99996948242 17 19 8
194.91745531559 -263.974517583847 2678.99990081787 20 18 6
198.140203952789 -258.644729852676 2625 86 68 56
204.665526747704 -257.847279310226 2617.00010299683 97 77 66
211.470201611519 -257.443696260452 2612.99991607666 87 64 50
218.586921691895 -257.433921098709 2612.99991607666 78 52 37
225.443750619888 -257.128298282623 2609.99989509583 104 77 60
232.194319367409 -256.723940372467 2605.99994659424 102 76 61
239.381372928619 -256.811857223511 2607.00011253357 85 63 50
246.856644749641 -257.194966077805 2611.00006103516 80 62 52
254.547327756882 -257.774770259857 2617.00010299683 85 71 62
262.569725513458 -258.649706840515 2625.99992752075 96 87 82
-41.5242798626423 -289.823889732361 2861.00006103516 6 8 5
-33.1535972654819 -284.963190555573 2812.99996376038 13 15 10
-25.5972091108561 -286.281555891037 2825.99997520447 15 17 12
-17.9318077862263 -286.991745233536 2832.99994468689 13 16 9
-10.0804856047034 -283.54811668396 2799.00002479553 13 16 9
-2.42511625401676 -281.319737434387 2776.99995040894 17 20 13
5.12320687994361 -279.800117015839 2762.00008392334 15 18 11
12.7225732430816 -281.217932701111 2776.00002288818 13 16 7
20.3690323978662 -282.230138778687 2786.00001335144 14 17 8
27.8892684727907 -281.418561935425 2778.00011634827 15 18 9
35.4040488600731 -280.910551548004 2773.00000190735 15 18 9
42.9069064557552 -280.503451824188 2769.00005340576 14 17 10
50.1326322555542 -278.677731752396 2750.99992752075 14 17 10
66.9646114110947 -286.472141742706 2828.00006866455 12 15 8
74.7050419449806 -286.570012569427 2828.9999961853 11 14 7
80.5277302861214 -279.981940984726 2763.99993896484 7 9 4
87.3337462544441 -277.648091316223 2740.9999370575 9 11 6
96.4352265000343 -282.404482364655 2788.00010681152 5 7 2
106.837533414364 -289.996474981308 2862.99991607666 5 7 4
128.166437149048 -285.320252180099 2816.99991226196 5 7 4
135.220393538475 -283.997237682343 2803.99990081787 14 16 11
142.202943563461 -282.673925161362 2790.99988937378 10 12 7
148.577302694321 -280.337572097778 2767.99988746643 7 9 4
155.16409277916 -278.608620166779 2750.99992752075 25 28 21
162.840202450752 -278.904885053635 2753.99994850159 16 17 11
169.975355267525 -278.289347887039 2747.99990653992 16 17 11
177.46464908123 -278.281152248383 2747.99990653992 15 16 8
186.097458004951 -279.994070529938 2765.00010490417 15 16 8
192.441195249557 -278.263658285141 2747.99990653992 14 15 7
194.762885570526 -271.065205335617 2677.00004577637 17 14 5
198.961287736893 -266.904473304749 2635.99991798401 75 62 53
205.28170466423 -265.781253576279 2625 63 49 40
211.946025490761 -265.164017677307 2618.99995803833 62 45 35
218.827873468399 -264.850288629532 2615.9999370575 53 37 24
225.692570209503 -264.536261558533 2612.99991607666 83 65 53
232.1837246418 -263.817012310028 2605.99994659424 84 66 56
239.003211259842 -263.502478599548 2602.9999256134 78 63 56
246.183663606644 -263.592571020126 2604.00009155273 83 72 66
254.341334104538 -264.694571495056 2615.00000953674 94 84 82
-33.3169624209404 -294.079452753067 2826.99990272522 12 14 9
-25.7227495312691 -295.433223247528 2839.99991416931 15 17 12
-17.6461096853018 -290.024995803833 2788.00010681152 14 17 10
-9.97195113450289 -288.049161434174 2769.00005340576 13 16 9
-2.3979265242815 -285.656869411469 2746.00005149841 17 20 13
5.14335744082928 -288.465529680252 2773.00000190735 15 18 11
12.9052605479956 -292.938202619553 2815.99998474121 12 15 6
20.2876124531031 -288.672298192978 2775.00009536743 13 16 7
28.2492954283953 -292.728096246719 2813.99989128113 14 17 8
35.453375428915 -288.877576589584 2776.99995040894 14 17 8
42.6878705620766 -286.587089300156 2755.00011444092 13 16 9
51.2052997946739 -292.30609536171 2809.99994277954 13 16 9
58.7655790150166 -291.78324341774 2805.0000667572 13 16 9
66.6535198688507 -292.820364236832 2815.00005722046 12 15 8
73.6715495586395 -290.216326713562 2789.99996185303 11 14 7
80.2907347679138 -286.675870418549 2756.00004196167 12 14 9
87.6799449324608 -286.255657672882 2752.00009346008 14 16 11
96.741795539856 -290.931820869446 2796.99993133545 6 8 3
105.153165757656 -293.111175298691 2818.00007820129 5 7 4
128.797143697739 -294.446021318436 2831.00008964539 15 17 12
141.329944133759 -288.504481315613 2773.9999294281 20 22 17
147.765010595322 -286.313384771347 2753.00002098084 11 13 8
154.76182103157 -285.369992256165 2743.99995803833 19 22 15
162.181988358498 -285.258293151855 2743.00003051758 16 17 11
170.152753591537 -286.082178354263 2750.99992752075 16 17 11
178.101897239685 -286.801636219025 2757.99989700317 13 14 6
184.607952833176 -285.233110189438 2743.00003051758 12 13 5
190.331265330315 -282.624423503876 2717.99993515015 11 12 4
194.244399666786 -277.624100446701 2670.00007629395 11 11 3
199.480175971985 -274.807244539261 2642.99988746643 57 48 39
206.60138130188 -274.693548679352 2641.99995994568 47 37 28
213.797256350517 -274.68353509903 2641.99995994568 48 35 26
219.486758112907 -272.801846265793 2624.00007247925 49 36 27
225.941091775894 -271.959573030472 2615.9999370575 73 59 48
232.351094484329 -271.117091178894 2608.00004005432 71 58 49
238.8084679842 -270.378291606903 2601.0000705719 84 73 67
245.226874947548 -269.639283418655 2594.00010108948 92 82 80
-33.0206714570522 -299.107640981674 2802.00004577637 15 17 12
-25.3591854125261 -298.895627260208 2799.99995231628 21 23 18
-17.581932246685 -296.548277139664 2778.00011634827 14 17 10
-9.87061858177185 -292.599231004715 2740.9999370575 11 14 7
-2.41090380586684 -294.734537601471 2760.99991798401 13 16 9
5.13568008318543 -295.588463544846 2769.00005340576 13 16 9
12.7992117777467 -298.15000295639 2792.99998283386 14 17 8
20.5205269157887 -299.643605947495 2806.99992179871 14 17 8
27.8965327888727 -296.653419733047 2779.00004386902 14 17 8
35.9750054776669 -300.815016031265 2818.00007820129 14 17 8
43.9252331852913 -302.62765288353 2835.00003814697 14 17 10
50.9658493101597 -298.568874597549 2796.99993133545 14 17 10
59.0349733829498 -300.807774066925 2818.00007820129 14 17 10
66.3660615682602 -299.203395843506 2802.99997329712 13 16 9
73.2189938426018 -295.997589826584 2773.00000190735 12 15 8
81.5976411104202 -298.982411623001 2801.00011825562 12 15 8
89.1092121601105 -298.551142215729 2796.99993133545 14 17 10
96.8061462044716 -298.759937286377 2799.00002479553 11 13 8
105.259872972965 -301.103055477142 2821.00009918213 6 8 3
113.072410225868 -301.417738199234 2823.99988174438 48 50 45
121.328547596931 -302.799373865128 2836.99989318848 6 8 3
128.426820039749 -301.298886537552 2822.99995422363 9 12 5
133.905217051506 -296.382784843445 2776.99995040894 9 12 5
140.304043889046 -293.921172618866 2753.99994850159 13 16 9
148.40179681778 -295.087993144989 2765.00010490417 14 17 10
154.923394322395 -293.159395456314 2746.99997901917 13 16 9
161.287173628807 -291.123867034912 2727.9999256134 13 14 8
170.639216899872 -294.423848390579 2759.0000629425 12 13 7
177.38288640976 -293.13462972641 2746.99997901917 11 12 6
183.993250131607 -291.738510131836 2733.99996757507 11 12 4
191.442355513573 -291.729241609573 2733.99996757507 12 13 5
200.60259103775 -283.600717782974 2657.99999237061 28 25 18
210.892111063004 -287.751764059067 2697.00002670288 26 23 14
216.538235545158 -285.500854253769 2676.00011825562 27 23 14
222.320020198822 -283.569782972336 2657.99999237061 30 26 17
228.175774216652 -281.851917505264 2641.99995994568 36 29 23
234.032660722733 -280.240565538406 2627.00009346008 49 40 33
239.072531461716 -277.775645256042 2604.00009155273 96 88 85
-33.0661125481129 -307.173281908035 2805.99999427795 19 21 16
-25.2492036670446 -305.204302072525 2788.00010681152 16 19 12
-10.0105470046401 -304.330408573151 2779.99997138977 16 19 12
-2.42911628447473 -304.549664258957 2782.00006484985 13 16 9
5.12243388220668 -302.3601770401 2762.00008392334 13 16 9
12.6931592822075 -303.235441446304 2769.99998092651 14 17 8
20.3220993280411 -304.329305887222 2779.99997138977 14 17 8
27.9954802244902 -305.313318967819 2789.00003433228 14 17 8
35.858266055584 -307.501018047333 2809.00001525879 14 17 8
43.4891730546951 -307.280033826828 2806.99992179871 14 17 10
51.619179546833 -310.123771429062 2832.99994468689 14 17 10
59.2414252460003 -309.57356095314 2828.00006866455 14 17 10
66.1495700478554 -305.84841966629 2793.99991035461 13 16 9
73.9545300602913 -306.611090898514 2801.00011825562 12 15 8
81.7391201853752 -307.154357433319 2805.99999427795 11 14 7
88.6268019676209 -304.52287197113 2782.00006484985 10 13 6
97.1470475196838 -307.473510503769 2809.00001525879 6 9 2
105.105251073837 -308.343946933746 2816.99991226196 12 15 8
112.426057457924 -307.353258132935 2808.00008773804 31 34 27
121.963851153851 -312.163263559341 2851.99999809265 10 13 6
128.101855516434 -308.216512203217 2815.99998474121 9 12 5
141.36677980423 -303.715348243713 2775.00009536743 14 17 10
148.233294487 -302.28516459465 2762.00008392334 13 16 9
153.223738074303 -297.352492809296 2717.00000762939 11 14 7
161.042585968971 -298.110604286194 2723.99997711182 11 12 6
170.506969094276 -301.713645458221 2756.99996948242 10 11 5
180.215090513229 -305.425494909287 2790.99988937378 10 11 5
185.195356607437 -301.148474216461 2752.00009346008 10 11 5
189.752355217934 -296.543121337891 2710.00003814697 11 12 6
211.820006370544 -296.403467655182 2709.00011062622 13 13 5
218.55041384697 -295.517474412918 2700.99997520447 22 22 14
224.316418170929 -293.427675962448 2681.99992179871 16 13 6
230.582684278488 -292.103558778763 2670.00007629395 28 23 17
239.098981022835 -293.623596429825 2684.00001525879 29 25 22
-33.2411304116249 -316.493660211563 2821.00009918213 17 19 14
-25.3837201744318 -314.475774765015 2802.99997329712 17 19 14
-17.814252525568 -315.823197364807 2815.00005722046 14 17 10
-10.0712329149246 -313.804477453232 2796.99993133545 20 23 16
-2.47002486139536 -317.395001649857 2828.9999961853 13 16 9
5.248271394521 -317.507117986679 2829.99992370605 13 16 9
12.8070451319218 -313.579887151718 2795.00007629395 14 17 8
20.3210320323706 -311.896055936813 2779.99997138977 14 17 8
27.9438216239214 -312.343597412109 2783.99991989136 14 17 8
35.6649123132229 -313.46383690834 2793.99991035461 14 17 8
43.7192805111408 -316.603094339371 2822.00002670288 14 17 10
51.1063225567341 -314.693331718445 2805.0000667572 14 17 10
59.8876811563969 -320.748597383499 2858.99996757507 14 17 10
66.9036954641342 -317.04306602478 2825.99997520447 13 16 9
73.8186538219452 -313.673734664917 2796.0000038147 12 15 8
81.9970071315765 -315.80114364624 2815.00005722046 12 15 8
88.9725908637047 -313.328593969345 2792.99998283386 9 12 5
96.1736813187599 -311.977505683899 2780.99989891052 11 14 7
104.502841830254 -314.215838909149 2801.00011825562 11 14 5
113.381080329418 -317.687660455704 2832.00001716614 9 12 3
121.145039796829 -317.793667316437 2832.99994468689 8 11 2
128.322675824165 -316.441059112549 2821.00009918213 9 12 5
134.904012084007 -313.854247331619 2798.00009727478 10 13 6
140.850067138672 -310.145437717438 2765.00010490417 13 16 9
148.279309272766 -309.913545846939 2763.00001144409 12 15 8
155.020400881767 -308.335363864899 2749.00007247925 10 13 6
163.812816143036 -310.794651508331 2770.99990844727 9 10 4
174.579784274101 -316.618084907532 2822.99995422363 9 10 4
180.14132976532 -312.907814979553 2789.99996185303 9 10 4
191.42310321331 -306.608289480209 2733.99996757507 11 12 6
200.398355722427 -308.953285217285 2755.00011444092 11 12 6
215.718701481819 -309.38059091568 2759.0000629425 5 6 0
222.261294722557 -308.02384018898 2746.99997901917 15 16 8
227.148726582527 -304.536461830139 2716.00008010864 9 8 3
-33.4867872297764 -326.584011316299 2842.00000762939 12 14 9
-25.6268549710512 -325.20666718483 2829.99992370605 17 19 14
-17.7247077226639 -321.875303983688 2801.00011825562 16 19 12
-10.1066995412111 -322.56555557251 2806.99992179871 16 19 12
-2.43409699760377 -320.382535457611 2788.00010681152 13 16 9
5.22759184241295 -323.944807052612 2819.00000572205 13 16 9
12.8842517733574 -323.139905929565 2812.00003623962 14 17 8
20.3784182667732 -320.381045341492 2788.00010681152 14 17 8
27.9222521930933 -319.690257310867 2782.00006484985 14 17 8
35.7778817415237 -322.101712226868 2802.99997329712 14 17 8
42.9578572511673 -318.652212619781 2773.00000190735 14 17 10
50.6116859614849 -319.224268198013 2778.00011634827 14 17 10
58.5439391434193 -321.174800395966 2795.00007629395 14 17 10
66.3319677114487 -321.975767612457 2802.00004577637 13 16 9
74.0523189306259 -322.316735982895 2805.0000667572 12 15 8
81.3518315553665 -320.933640003204 2792.99998283386 10 13 6
89.1589820384979 -321.618527173996 2799.00002479553 9 12 5
96.7564359307289 -321.498602628708 2798.00009727478 13 16 9
104.236133396626 -321.033596992493 2793.99991035461 6 9 0
112.574383616447 -323.095977306366 2812.00003623962 5 8 0
119.984120130539 -322.400391101837 2805.99999427795 5 8 0
125.450253486633 -316.878825426102 2757.99989700317 9 12 5
132.438078522682 -315.608114004135 2746.99997901917 10 13 6
140.07855951786 -315.945535898209 2750 13 16 9
156.647548079491 -319.146633148193 2778.00011634827 10 13 6
162.621960043907 -316.036343574524 2750.99992752075 11 12 6
172.839179635048 -321.082144975662 2795.00007629395 10 11 5
180.390194058418 -320.957958698273 2793.99991035461 10 11 5
186.723902821541 -318.765729665756 2775.00009536743 10 11 5
194.213643670082 -318.640887737274 2773.9999294281 11 12 6
207.443371415138 -327.589869499207 2851.99999809265 11 12 6
218.287631869316 -320.67608833313 2792.00005531311 13 16 9
225.64797103405 -320.320010185242 2789.00003433228 9 12 5
233.32567512989 -320.423007011414 2789.99996185303 9 11 6
-33.3907045423985 -333.376109600067 2834.00011062622 18 20 15
-25.4443548619747 -330.554455518723 2809.99994277954 18 20 15
-17.7806857973337 -330.555617809296 2809.99994277954 17 20 13
-9.85052343457937 -321.851402521133 2736.00006103516 14 17 10
-2.43309047073126 -327.851116657257 2786.99994087219 13 16 9
5.08823292329907 -322.792738676071 2743.99995803833 13 16 9
12.8285670652986 -329.379826784134 2799.99995231628 14 17 8
20.3334502875805 -327.261447906494 2782.00006484985 14 17 8
27.8404336422682 -326.31903886795 2773.9999294281 14 17 8
35.4951284825802 -327.140748500824 2780.99989891052 14 17 8
42.7231527864933 -324.433028697968 2757.99989700317 14 17 10
50.463180989027 -325.842052698135 2769.99998092651 14 17 10
58.2265816628933 -327.015399932861 2779.99997138977 14 17 10
65.996952354908 -327.953040599823 2788.00010681152 13 16 9
73.5203176736832 -327.596306800842 2785.00008583069 12 15 8
81.6386714577675 -329.709351062775 2802.99997329712 9 12 5
88.548943400383 -326.999217271805 2779.99997138977 9 12 5
96.5091362595558 -328.288078308105 2790.99988937378 11 14 5
104.230493307114 -328.635424375534 2793.99991035461 3 6 0
112.328104674816 -330.040961503983 2805.99999427795 5 8 0
118.3100938797 -325.447559356689 2766.99995994568 6 9 0
125.30705332756 -324.029535055161 2755.00011444092 10 13 4
132.864832878113 -324.140101671219 2756.00004196167 9 12 3
140.2238458395 -323.779881000519 2753.00002098084 12 15 6
148.585543036461 -325.653791427612 2769.00005340576 12 15 8
154.55287694931 -322.35261797905 2740.9999370575 12 15 8
162.49506175518 -323.284894227982 2749.00007247925 13 14 8
171.778783202171 -326.686292886734 2778.00011634827 12 13 7
175.538614392281 -319.738805294037 2719.00010108948 11 12 6
185.83932518959 -324.785590171814 2762.00008392334 11 12 6
197.073698043823 -331.007540225983 2815.00005722046 11 12 6
202.995732426643 -328.17479968071 2790.99988937378 12 13 7
218.041628599167 -327.91730761528 2789.00003433228 13 18 11
230.975732207298 -335.665285587311 2855.00001907349 6 11 4
232.644498348236 -327.070504426956 2782.00006484985 7 12 6
-33.2474634051323 -339.641958475113 2822.00002670288 8 11 4
-25.3976676613092 -337.597578763962 2805.0000667572 26 29 22
-17.5202768296003 -333.265990018845 2769.00005340576 18 21 14
-10.0479815155268 -335.914582014084 2790.99988937378 24 27 20
-2.4198608007282 -333.628177642822 2772.0000743866 14 17 8
5.20105613395572 -337.599873542786 2805.0000667572 14 17 8
12.84159719944 -337.358623743057 2802.99997329712 13 16 7
20.2373098582029 -333.265602588654 2769.00005340576 13 16 7
27.9894229024649 -335.671365261078 2789.00003433228 14 17 6
35.6335490942001 -336.030632257462 2792.00005531311 14 17 6
43.2629212737083 -336.148798465729 2792.99998283386 13 16 7
50.5150258541107 -333.739101886749 2773.00000190735 14 17 8
58.0348484218121 -333.495318889618 2770.99990844727 15 18 9
73.4370499849319 -334.811836481094 2782.00006484985 13 16 7
81.3429206609726 -336.13133430481 2792.99998283386 11 14 5
88.7669920921326 -335.404485464096 2786.99994087219 6 9 0
96.3309109210968 -335.278958082199 2786.00001335144 8 11 2
104.187436401844 -336.115777492523 2792.99998283386 10 13 4
111.881598830223 -336.350470781326 2795.00007629395 12 15 6
119.628995656967 -336.705058813095 2798.00009727478 8 11 2
126.300752162933 -334.171146154404 2776.99995040894 13 16 9
133.869886398315 -334.163904190063 2776.99995040894 9 12 5
140.878289937973 -332.83269405365 2766.00003242493 10 13 6
154.093399643898 -328.845649957657 2733.00004005432 15 18 11
161.067634820938 -327.874392271042 2724.99990463257 12 15 8
167.812183499336 -326.541841030121 2713.99998664856 12 15 8
177.207544445992 -330.262213945389 2744.99988555908 12 15 8
185.425579547882 -331.575721502304 2756.00004196167 12 15 8
192.302763462067 -330.482661724091 2746.99997901917 11 14 7
198.693856596947 -328.667491674423 2732.00011253357 10 13 6
206.888824701309 -329.859524965286 2742.00010299683 14 17 8
217.1700745821 -334.178745746613 2778.00011634827 18 21 14
228.374674916267 -339.579880237579 2822.99995422363 8 11 4
237.231254577637 -341.25143289566 2836.99989318848 4 6 1
-25.4414975643158 -345.843076705933 2809.99994277954 22 25 18
-17.5952054560184 -342.275083065033 2780.99989891052 16 19 12
-9.8998136818409 -338.460505008698 2750 15 18 11
-2.43892753496766 -343.876212835312 2793.99991035461 15 18 9
5.16553269699216 -342.891544103622 2786.00001335144 15 18 9
12.6667879521847 -340.306460857391 2765.00010490417 13 16 7
20.1557707041502 -339.443922042847 2757.99989700317 13 16 7
27.8975162655115 -342.150211334229 2779.99997138977 13 16 5
35.5677157640457 -343.009948730469 2786.99994087219 14 17 6
43.1985147297382 -343.25385093689 2789.00003433228 14 17 8
50.6943203508854 -342.512726783752 2782.99999237061 15 18 9
58.1362806260586 -341.648131608963 2776.00002288818 15 18 9
66.084235906601 -343.613713979721 2792.00005531311 13 16 7
73.4329000115395 -342.379063367844 2782.00006484985 12 15 6
81.4548134803772 -344.220668077469 2796.99993133545 12 15 6
88.7301415205002 -342.862069606781 2786.00001335144 11 14 5
97.2935855388641 -346.302568912506 2813.99989128113 12 15 6
105.188705027103 -347.035229206085 2819.9999332428 5 8 0
113.236248493195 -348.136633634567 2828.9999961853 39 42 33
119.793303310871 -344.80744600296 2802.00004577637 12 15 6
127.885445952415 -346.031010150909 2812.00003623962 13 16 9
135.453149676323 -345.777451992035 2809.99994277954 10 13 6
142.092749476433 -343.308627605438 2789.99996185303 10 13 6
147.496044635773 -338.255524635315 2749.00007247925 14 17 10
153.408288955688 -334.80179309845 2720.99995613098 15 18 11
161.413326859474 -336.023390293121 2730.99994659424 13 16 9
170.523375272751 -339.336186647415 2757.99989700317 13 16 9
176.939561963081 -337.234884500504 2740.9999370575 13 16 9
186.088159680367 -340.300619602203 2766.00003242493 12 15 8
193.692222237587 -340.413093566895 2766.99995994568 11 14 7
199.119329452515 -336.834520101547 2737.99991607666 11 14 7
209.216386079788 -341.128975152969 2773.00000190735 11 14 5
220.050558447838 -346.283853054047 2815.00005722046 9 12 5
230.061039328575 -349.838823080063 2844.00010108948 9 12 5
-25.3766551613808 -352.604955434799 2802.99997329712 21 23 18
-17.6511313766241 -350.970864295959 2789.99996185303 21 23 18
-10.0180329754949 -350.091069936752 2782.99999237061 18 21 14
-2.4248210247606 -349.462479352951 2778.00011634827 16 19 12
12.6156667247415 -346.442759037018 2753.99994850159 13 16 9
20.3299913555384 -349.964082241058 2782.00006484985 12 15 6
27.8959088027477 -349.711120128632 2779.99997138977 12 15 6
35.4380495846272 -349.331855773926 2776.99995040894 12 15 6
42.9017506539822 -348.449021577835 2769.99998092651 13 16 7
50.6185442209244 -349.578440189362 2779.00004386902 13 16 7
58.5308149456978 -351.587980985641 2795.00007629395 13 16 7
66.5537863969803 -353.722780942917 2812.00003623962 12 15 6
73.2703134417534 -349.190324544907 2776.00002288818 12 15 6
81.100694835186 -350.317895412445 2785.00008583069 11 14 5
88.6932015419006 -350.313007831573 2785.00008583069 15 18 9
96.8039929866791 -352.194398641586 2799.99995231628 8 11 2
106.935746967793 -360.616028308868 2867.00010299683 23 26 17
113.509945571423 -356.710433959961 2835.99996566772 59 62 53
120.983459055424 -355.948954820633 2829.99992370605 15 18 9
127.60528922081 -352.923214435577 2805.99999427795 13 16 9
136.40946149826 -355.934172868729 2829.99992370605 11 14 7
143.154144287109 -353.536605834961 2811.00010871887 11 14 7
148.453414440155 -347.994446754456 2766.99995994568 13 16 9
154.696255922318 -345.093220472336 2743.99995803833 14 17 10
163.650050759315 -348.228186368942 2769.00005340576 14 17 10
170.946568250656 -347.715675830841 2765.00010490417 14 17 10
182.029008865356 -354.622095823288 2819.9999332428 14 17 10
188.297748565674 -351.970881223679 2799.00002479553 14 17 10
195.151343941689 -350.576847791672 2788.00010681152 13 16 9
203.398734331131 -351.697325706482 2796.99993133545 12 15 8
214.561268687248 -357.595324516296 2844.00010108948 15 18 9
226.369827985764 -364.121168851852 2895.99990844727 11 14 5
231.018990278244 -359.07918214798 2855.99994659424 27 29 24
-25.3389552235603 -359.713077545166 2799.00002479553 19 21 16
-17.7576392889023 -360.742479562759 2806.99992179871 18 20 15
-10.0750382989645 -359.715223312378 2799.00002479553 10 12 7
-2.45348131284118 -361.25773191452 2811.00010871887 14 16 11
5.20200934261084 -360.615104436874 2805.99999427795 14 16 11
12.9996929317713 -364.727079868317 2838.00005912781 12 15 8
28.0247144401073 -358.941435813904 2792.99998283386 11 14 7
35.0786782801151 -353.284925222397 2749.00007247925 11 14 7
42.7443608641624 -354.696273803711 2759.99999046326 11 14 5
50.9616397321224 -359.577029943466 2798.00009727478 11 14 5
58.8624328374863 -361.244440078735 2811.00010871887 12 15 6
66.3605555891991 -360.341101884842 2803.99990081787 12 15 6
73.5035613179207 -357.895344495773 2785.00008583069 12 15 6
80.3971067070961 -354.806631803513 2760.99991798401 12 15 6
88.3695855736732 -356.600731611252 2775.00009536743 13 16 7
97.1094965934753 -360.964447259903 2809.00001525879 4 7 0
112.983040511608 -362.751066684723 2822.99995422363 30 33 24
118.924558162689 -357.475936412811 2782.00006484985 13 16 7
127.825275063515 -361.195027828217 2811.00010871887 13 16 9
135.678604245186 -361.701339483261 2815.00005722046 12 15 8
140.854313969612 -355.397343635559 2766.00003242493 11 14 7
148.820400238037 -356.416791677475 2773.9999294281 12 15 8
155.645698308945 -354.737639427185 2760.99991798401 14 17 10
160.213023424149 -348.304480314255 2710.99996566772 15 18 11
168.896660208702 -350.993007421494 2732.00011253357 15 18 11
177.694067358971 -353.680908679962 2753.00002098084 15 18 11
189.026966691017 -360.99311709404 2809.99994277954 15 18 11
195.280253887177 -358.412802219391 2789.99996185303 14 17 10
203.241780400276 -359.043687582016 2795.00007629395 13 16 9
210.399970412254 -358.261168003082 2789.00003433228 7 10 3
219.557002186775 -360.81799864769 2809.00001525879 11 13 8
228.013262152672 -362.089723348618 2819.00000572205 11 13 8
-25.6090089678764 -371.260166168213 2828.9999961853 4 6 3
-17.5478272140026 -364.043563604355 2773.9999294281 9 11 8
-10.12122631073 -369.031339883804 2812.00003623962 11 13 10
-2.45944410562515 -369.819164276123 2818.00007820129 9 11 6
5.18316030502319 -366.931915283203 2796.0000038147 9 11 6
12.7790607511997 -366.14391207695 2789.99996185303 8 10 5
20.729461684823 -372.310936450958 2836.99989318848 7 9 4
27.8223715722561 -363.910496234894 2773.00000190735 8 10 5
35.1659059524536 -361.677646636963 2756.00004196167 8 11 4
43.2218834757805 -366.268426179886 2790.99988937378 8 11 4
51.3774864375591 -370.202511548996 2821.00009918213 8 11 4
58.3982728421688 -365.99987745285 2789.00003433228 8 11 4
66.1199614405632 -366.652280092239 2793.99991035461 9 12 5
73.182500898838 -363.892316818237 2773.00000190735 10 13 6
80.8582007884979 -364.412605762482 2776.99995040894 12 15 8
88.3961841464043 -364.276319742203 2776.00002288818 10 13 6
97.4840000271797 -370.044559240341 2819.9999332428 10 13 6
103.715851902962 -364.920943975449 2780.99989891052 62 65 58
110.615193843842 -362.683862447739 2763.99993896484 17 20 13
118.532828986645 -363.857984542847 2773.00000190735 11 14 7
127.408489584923 -367.655843496323 2802.00004577637 13 16 9
133.212640881538 -362.662076950073 2763.99993896484 13 16 9
141.966283321381 -365.802943706512 2788.00010681152 12 15 8
147.524207830429 -360.80864071846 2750 11 14 7
154.396489262581 -359.35652256012 2739.00008201599 13 16 9
160.794615745544 -356.985658407211 2720.99995613098 16 19 12
167.155921459198 -354.745745658875 2703.9999961853 16 19 12
177.167400717735 -360.114455223084 2744.99988555908 16 19 12
186.59445643425 -363.908231258392 2773.9999294281 16 19 12
195.128992199898 -365.733712911606 2788.00010681152 15 18 11
202.139392495155 -364.672690629959 2779.99997138977 14 17 10
210.840508341789 -366.628378629684 2795.00007629395 14 17 10
219.231769442558 -367.927640676498 2805.0000667572 18 20 15
-26.0147880762815 -384.978383779526 2874.00007247925 5 7 4
-17.7428498864174 -375.736981630325 2805.0000667572 3 5 2
-10.0954193621874 -375.737845897675 2805.0000667572 12 14 11
5.08460169658065 -367.433041334152 2743.00003051758 6 8 3
12.6866865903139 -371.049255132675 2769.99998092651 6 8 3
20.2971268445253 -372.119903564453 2778.00011634827 6 8 3
27.7604926377535 -370.644897222519 2766.99995994568 7 9 4
35.278607159853 -370.375096797943 2765.00010490417 7 9 4
43.1418418884277 -373.185634613037 2786.00001335144 8 11 4
51.2651018798351 -377.06732749939 2815.00005722046 8 11 4
58.6669258773327 -375.322639942169 2802.00004577637 8 11 4
65.9029930830002 -373.041749000549 2785.00008583069 8 11 4
73.1516927480698 -371.296226978302 2772.0000743866 8 11 4
80.7077512145042 -371.291548013687 2772.0000743866 9 12 5
88.1998017430305 -371.018499135971 2769.99998092651 9 12 5
96.4411273598671 -373.691707849503 2789.99996185303 14 17 10
105.275891721249 -378.10555100441 2822.99995422363 52 55 48
110.968716442585 -371.40217423439 2773.00000190735 13 16 9
118.824921548367 -372.332751750946 2779.99997138977 10 13 6
125.445753335953 -369.5128262043 2759.0000629425 13 16 9
134.168535470963 -372.853219509125 2783.99991989136 13 16 9
141.448646783829 -372.041404247284 2778.00011634827 12 15 8
150.948494672775 -376.853793859482 2813.99989128113 11 14 7
154.500052332878 -367.068588733673 2740.9999370575 13 16 9
161.494180560112 -365.987807512283 2733.00004005432 17 20 13
168.876856565475 -365.844041109085 2732.00011253357 17 20 13
178.125023841858 -369.583129882813 2759.99999046326 17 20 13
188.063248991966 -374.392867088318 2796.0000038147 16 19 12
196.867153048515 -376.657754182816 2812.99996376038 16 19 12
203.945249319077 -375.574767589569 2805.0000667572 14 17 10
211.054474115372 -374.62529540062 2798.00009727478 11 13 8
222.735896706581 -381.574720144272 2849.99990463257 6 8 5
-34.5782823860645 -401.261359453201 2936.00010871887 4 6 3
-25.8412100374699 -390.19301533699 2855.00001907349 3 5 2
-17.8745836019516 -386.230915784836 2825.99997520447 6 8 5
-9.92924906313419 -377.074807882309 2759.0000629425 4 6 3
-2.44169030338526 -382.405400276184 2798.00009727478 7 9 4
5.17881894484162 -381.858617067337 2793.99991035461 8 10 5
20.098615437746 -375.980168581009 2750.99992752075 13 15 10
27.8390385210514 -379.258781671524 2775.00009536743 15 17 12
35.3402234613895 -378.573477268219 2769.99998092651 15 17 12
43.4643551707268 -383.627772331238 2806.99992179871 13 16 9
50.7884882390499 -381.164878606796 2789.00003433228 11 14 7
58.8936135172844 -384.441465139389 2812.99996376038 10 13 6
66.0172551870346 -381.294280290604 2789.99996185303 10 13 6
73.0416476726532 -378.283351659775 2767.99988746643 10 13 6
80.2660956978798 -376.77538394928 2756.99996948242 7 10 3
88.0033820867538 -377.726763486862 2763.99993896484 11 14 7
96.227839589119 -380.454272031784 2783.99991989136 88 91 84
104.933857917786 -384.547740221024 2813.99989128113 8 11 4
112.56255209446 -384.404450654984 2812.99996376038 7 10 3
117.706447839737 -376.334935426712 2753.99994850159 11 14 7
126.483842730522 -380.153626203537 2782.00006484985 12 15 8
133.630320429802 -378.915846347809 2773.00000190735 13 16 9
143.374815583229 -384.782999753952 2815.99998474121 13 16 9
149.759322404861 -381.494730710983 2792.00005531311 13 16 9
157.308876514435 -381.348788738251 2790.99988937378 12 15 8
161.484465003014 -373.414367437363 2733.00004005432 20 23 16
168.866708874702 -373.267769813538 2732.00011253357 12 15 8
177.920773625374 -376.672893762589 2756.99996948242 19 22 15
190.338760614395 -386.635214090347 2829.99992370605 17 20 13
198.394998908043 -387.30663061142 2835.00003814697 14 17 10
204.660162329674 -384.562224149704 2815.00005722046 12 15 8
212.324202060699 -384.549826383591 2815.00005722046 12 14 9
-34.1757163405418 -404.500663280487 2901.99995040894 20 22 19
-26.1654201894999 -402.969360351563 2891.00003242493 8 10 7
-10.2129206061363 -395.58407664299 2838.00005912781 9 11 6
