ply
format ascii 1.0
comment KinectMotionCapture
element vertex 760
property float x
property float y
property float z
property uchar red
property uchar green
property uchar blue
end_header
-15.9932747483253 364.436060190201 2529.00004386902 245 245 245
-9.07114986330271 363.284051418304 2520.99990844727 243 243 243
-2.19085835851729 361.843347549438 2510.99991798401 242 242 242
4.64419228956103 361.122786998749 2506.00004196167 242 242 242
11.4611256867647 360.68993806839 2503.00002098084 241 241 241
18.2762760668993 360.544919967651 2502.00009346008 240 240 240
25.0357519835234 359.678864479065 2496.00005149841 239 239 239
31.7879393696785 359.100669622421 2492.00010299683 238 238 238
38.6575423181057 359.818875789642 2496.99997901917 238 238 238
45.5178469419479 360.248446464539 2500 238 238 238
52.4571277201176 361.109882593155 2506.00004196167 238 238 238
59.3816228210926 361.682683229446 2509.99999046326 238 238 238
66.3013085722923 362.110942602158 2513.00001144409 238 238 238
73.2371062040329 362.538754940033 2516.00003242493 239 239 239
80.0616592168808 362.389743328094 2515.00010490417 239 239 239
87.1569439768791 363.393038511276 2522.0000743866 239 239 239
93.9172208309174 362.9549741745 2519.00005340576 239 239 239
100.82084685564 363.092809915543 2519.99998092651 240 240 240
107.558615505695 362.653911113739 2516.99995994568 240 240 240
114.416040480137 362.646847963333 2516.99995994568 243 243 243
121.321216225624 362.783402204514 2517.99988746643 243 243 243
128.231450915337 362.919569015503 2519.00005340576 242 242 242
135.361149907112 363.631546497345 2523.9999294281 242 242 242
142.461270093918 364.199072122574 2528.00011634827 242 242 242
149.641767144203 364.910185337067 2532.99999237061 242 242 242
156.725347042084 365.332722663879 2536.00001335144 242 242 242
163.631156086922 365.322649478912 2536.00001335144 243 243 243
170.738145709038 365.744322538376 2539.00003433228 243 243 243
178.070783615112 366.597712039948 2545.00007629395 242 242 242
186.016991734505 368.603020906448 2559.00001525879 241 241 241
193.360045552254 369.311362504959 2563.99989128113 241 243 242
201.589182019234 371.603697538376 2579.99992370605 241 243 242
209.823861718178 373.75146150589 2595.00002861023 241 243 242
219.560295343399 378.347039222717 2627.00009346008 241 243 242
229.556456208229 383.085906505585 2660.00008583069 238 240 239
240.176528692245 388.544052839279 2697.99995422363 237 239 238
248.800784349442 390.545278787613 2711.99989318848 235 237 236
258.633881807327 394.273936748505 2737.99991607666 234 236 235
-43.6891727149487 358.54771733284 2536.00001335144 235 237 234
-36.5881770849228 356.712311506271 2523.00000190735 244 244 244
-29.6992268413305 356.573015451431 2522.0000743866 242 242 242
-22.7251164615154 355.019450187683 2510.99991798401 239 239 239
-15.9057602286339 355.586230754852 2515.00010490417 242 242 242
-9.03214700520039 354.880064725876 2509.99999046326 240 240 240
-2.1857637912035 354.173511266708 2505.00011444092 239 239 239
4.62780985981226 353.042334318161 2496.99997901917 238 238 238
11.4252269268036 352.759033441544 2494.99988555908 238 238 238
18.2263068854809 352.758049964905 2494.99988555908 236 236 236
24.9871984124184 352.191179990768 2490.9999370575 237 237 237
31.7389518022537 351.765215396881 2487.99991607666 235 235 235
38.5206714272499 351.762980222702 2487.99991607666 236 236 236
45.3933030366898 352.467238903046 2493.00003051758 236 236 236
52.251148968935 352.888315916061 2496.00005149841 236 236 236
59.1961406171322 353.733062744141 2502.00009346008 236 236 236
65.9625306725502 353.446304798126 2500 237 237 237
72.8633478283882 353.866040706635 2503.00002098084 238 238 238
79.6210467815399 353.578478097916 2500.99992752075 237 237 237
86.6095051169395 354.280054569244 2506.00004196167 237 237 237
93.5130342841148 354.557126760483 2507.99989700317 237 237 237
100.387126207352 354.692399501801 2509.0000629425 238 238 238
107.138067483902 354.403108358383 2506.99996948242 238 238 238
113.923214375973 354.254812002182 2506.00004196167 241 241 241
120.991595089436 354.954272508621 2510.99991798401 241 241 241
127.781331539154 354.805111885071 2509.99999046326 240 240 240
134.779706597328 355.220973491669 2513.00001144409 240 240 240
141.624867916107 355.212360620499 2513.00001144409 240 240 240
148.824006319046 356.051385402679 2519.00005340576 240 240 240
155.808061361313 356.324642896652 2520.99990844727 241 241 241
162.867024540901 356.738775968552 2523.9999294281 242 242 242
169.941738247871 357.15252161026 2526.99995040894 242 242 242
177.172169089317 357.848435640335 2532.00006484985 241 241 241
184.71996486187 359.109252691269 2540.99988937378 241 241 241
192.240700125694 360.228300094604 2549.00002479553 240 242 241
200.27320086956 362.194806337357 2562.99996376038 240 242 241
208.462089300156 364.302098751068 2578.00006866455 240 242 241
217.149779200554 367.115318775177 2598.00004959106 238 240 239
227.499112486839 372.471392154694 2635.99991798401 238 240 239
237.609341740608 377.120196819305 2668.99991035461 237 239 238
247.43963778019 381.061851978302 2697.00002670288 233 235 234
255.721032619476 382.459670305252 2707.00001716614 237 239 238
265.99970459938 386.682540178299 2736.99998855591 233 235 234
-57.8801147639751 353.869438171387 2552.00004577637 212 214 211
-50.2055808901787 348.880887031555 2516.00003242493 231 233 230
-43.2267524302006 347.913205623627 2509.0000629425 231 231 231
-36.2424179911613 346.52903676033 2499.00007247925 238 238 238
-29.4066816568375 346.253722906113 2496.99997901917 242 242 242
-22.5636381655931 345.700711011887 2493.00003051758 241 241 241
-15.8118922263384 346.672564744949 2500 241 241 241
-8.98593664169312 346.257328987122 2496.99997901917 238 238 238
-2.17455765232444 345.564335584641 2492.00010299683 239 239 239
4.60956757888198 344.870924949646 2486.99998855591 238 238 238
11.3664148375392 344.177097082138 2482.00011253357 237 237 237
18.1324910372496 344.176173210144 2482.00011253357 235 235 235
24.8684007674456 343.758821487427 2479.00009155273 234 234 234
31.6388942301273 343.895673751831 2480.00001907349 235 235 235
38.3992418646812 343.893498182297 2480.00001907349 235 235 235
45.2140681445599 344.306886196136 2483.00004005432 235 235 235
52.0241446793079 344.581127166748 2484.99989509583 233 233 233
58.9159354567528 345.270991325378 2490.00000953674 233 233 233
65.6500458717346 344.989776611328 2487.99991607666 232 232 232
72.5767984986305 345.678776502609 2493.00003051758 235 235 235
79.2758390307426 345.258086919785 2490.00000953674 234 234 234
86.2001776695251 345.807522535324 2493.99995803833 233 233 233
92.8849875926971 345.385998487473 2490.9999370575 233 233 233
99.7131690382957 345.518678426743 2492.00010299683 234 234 234
106.631904840469 345.928192138672 2494.99988555908 234 234 234
113.612078130245 346.476018428802 2499.00007247925 234 234 234
120.613627135754 347.023338079453 2503.00002098084 234 234 234
127.229243516922 346.461117267609 2499.00007247925 235 235 235
134.14441049099 346.730321645737 2500.99992752075 236 236 236
140.957295894623 346.721857786179 2500.99992752075 237 237 237
148.065090179443 347.406148910522 2506.00004196167 236 236 236
154.952362179756 347.535520792007 2506.99996948242 237 237 237
162.167191505432 348.35758805275 2513.00001144409 239 239 239
169.346854090691 349.040538072586 2517.99988746643 239 239 239
176.343262195587 349.307268857956 2519.99998092651 239 239 239
183.640733361244 350.128054618835 2526.00002288818 239 239 239
190.894767642021 350.809723138809 2530.99989891052 239 241 240
198.878735303879 352.738499641418 2545.00007629395 238 240 239
207.019075751305 354.805260896683 2559.99994277954 237 239 238
215.909048914909 357.980221509933 2582.99994468689 236 238 237
224.837183952332 361.015975475311 2605.00001907349 237 239 238
234.863609075546 365.575551986694 2638.00001144409 237 239 238
244.701847434044 369.580090045929 2667.00005531311 233 235 234
254.602551460266 373.445361852646 2694.9999332428 231 233 232
262.710928916931 374.538689851761 2703.00006866455 231 233 232
273.859322071075 379.788219928741 2740.9999370575 226 228 227
-64.1032829880714 342.988193035126 2523.00000190735 225 227 224
-56.7949898540974 340.408951044083 2503.99994850159 244 244 242
-49.8095899820328 339.324682950974 2496.00005149841 243 243 241
-42.9020747542381 338.511824607849 2490.00000953674 246 246 246
-35.9981134533882 337.426692247391 2482.00011253357 245 245 245
-29.2082950472832 337.156772613525 2480.00001907349 242 242 242
-22.4654786288738 337.430328130722 2482.00011253357 240 240 240
-15.718000009656 337.839275598526 2484.99989509583 240 240 240
-8.92891269177198 337.296277284622 2480.99994659424 240 240 240
-2.16073053888977 336.616903543472 2476.0000705719 238 238 238
4.58390498533845 336.20896935463 2473.00004959106 237 237 237
11.3121662288904 335.800617933273 2470.00002861023 236 236 236
18.0386397987604 335.663765668869 2469.00010108948 236 236 236
24.809755384922 336.20622754097 2473.00004959106 236 236 236
31.5898284316063 336.612313985825 2476.0000705719 233 233 233
38.3551716804504 336.746066808701 2476.99999809265 233 233 233
45.0894050300121 336.607605218887 2476.0000705719 233 233 233
51.8180169165134 336.468607187271 2474.99990463257 232 232 232
58.5646480321884 336.465209722519 2474.99990463257 232 232 232
65.3374567627907 336.597383022308 2476.0000705719 231 231 231
72.2028166055679 337.136924266815 2480.00001907349 230 230 230
79.026035964489 337.404161691666 2482.00011253357 230 230 230
85.8253017067909 337.53502368927 2483.00004005432 230 230 230
92.5178155303001 337.257713079453 2480.99994659424 231 231 231
99.2791354656219 337.251782417297 2480.99994659424 231 231 231
106.296546757221 338.06112408638 2486.99998855591 232 232 232
113.300807774067 338.734120130539 2492.00010299683 231 231 231
120.235487818718 339.134693145752 2494.99988555908 232 232 232
126.778796315193 338.447630405426 2490.00000953674 234 234 234
133.562594652176 338.439732789993 2490.00000953674 233 233 233
140.514969825745 338.839143514633 2493.00003051758 233 233 233
147.54231274128 339.374125003815 2496.99997901917 234 234 234
154.467284679413 339.636832475662 2499.00007247925 235 235 235
161.596193909645 340.306848287582 2503.99994850159 237 237 237
168.617263436317 340.704649686813 2506.99996948242 237 237 237
175.584092736244 340.966135263443 2509.0000629425 237 237 237
182.706594467163 341.499000787735 2513.00001144409 236 236 236
190.151944756508 342.575013637543 2520.99990844727 237 237 237
197.796508669853 343.922346830368 2530.99989891052 237 237 237
205.899193882942 345.94863653183 2546.0000038147 237 237 237
214.082822203636 347.974419593811 2561.00010871887 237 237 237
222.606301307678 350.407212972641 2578.9999961853 238 238 238
231.672167778015 353.518784046173 2601.99999809265 238 238 238
243.064597249031 359.890431165695 2648.9999294281 237 237 237
254.050612449646 365.310251712799 2688.99989128113 235 235 235
262.434661388397 366.789609193802 2700.00004768372 232 232 232
270.97761631012 368.404299020767 2711.99989318848 225 225 225
282.972007989883 374.501138925552 2756.99996948242 224 224 224
-77.7693912386894 335.722476243973 2519.99998092651 240 242 239
-70.3657492995262 333.195686340332 2500.99992752075 221 221 219
-63.2432922720909 331.601053476334 2489.00008201599 215 215 213
-56.2540702521801 330.405622720718 2480.00001907349 214 214 212
-49.4534149765968 330.142378807068 2477.9999256134 226 226 224
-42.5773188471794 329.212576150894 2470.99995613098 243 241 242
-35.7682481408119 328.548818826675 2466.00008010864 244 242 243
-29.0098544210196 328.151077032089 2463.00005912781 244 242 243
-22.3220251500607 328.552335500717 2466.00008010864 242 240 241
-15.5987804755569 328.55349779129 2466.00008010864 236 234 235
-8.87187477201223 328.421026468277 2464.99991416931 234 232 233
-2.14951788075268 328.154891729355 2463.00005912781 238 236 237
4.56564966589212 328.15483212471 2463.00005912781 236 234 235
11.2533187493682 327.354907989502 2457.00001716614 235 233 234
17.9666802287102 327.620506286621 2459.00011062622 233 231 232
24.6908813714981 327.885657548904 2460.99996566772 233 231 232
31.4896889030933 328.816562891006 2467.99993515015 230 230 230
38.2336415350437 328.947693109512 2469.00010108948 230 230 230
44.910054653883 328.545480966568 2466.00008010864 229 229 229
51.5699423849583 328.14285159111 2463.00005912781 229 229 229
58.284267783165 328.139513731003 2463.00005912781 228 228 228
65.1039481163025 328.668713569641 2467.00000762939 228 228 228
71.9451829791069 329.197436571121 2470.99995613098 228 228 228
78.6805897951126 329.192876815796 2470.99995613098 227 227 227
85.4502767324448 329.32111620903 2471.99988365173 227 227 227
92.1878069639206 329.315781593323 2471.99988365173 226 226 226
99.0050435066223 329.576432704926 2473.99997711182 226 226 226
106.003791093826 330.369561910629 2480.00001907349 227 227 227
112.898431718349 330.762624740601 2483.00004005432 227 227 227
119.760826230049 331.022024154663 2484.99989509583 228 228 228
126.328185200691 330.481857061386 2480.99994659424 229 229 229
133.087828755379 330.474078655243 2480.99994659424 229 229 229
140.072464942932 330.998748540878 2484.99989509583 229 229 229
147.019326686859 331.389784812927 2487.99991607666 230 230 230
154.105633497238 332.046806812286 2493.00003051758 232 232 232
161.218583583832 332.70338177681 2497.99990653992 232 232 232
168.223708868027 333.093225955963 2500.99992752075 233 233 233
175.034627318382 333.083122968674 2500.99992752075 233 233 233
181.990340352058 333.338975906372 2503.00002098084 232 232 232
189.182579517365 333.993911743164 2507.99989700317 233 233 233
196.870312094688 335.447520017624 2519.00005340576 233 233 233
204.617261886597 336.900591850281 2529.99997138977 233 233 233
213.008552789688 339.285343885422 2548.00009727478 234 234 234
220.633909106255 340.337991714478 2555.99999427795 234 234 234
229.103431105614 342.588543891907 2572.99995422363 233 233 233
239.591717720032 347.634583711624 2611.00006103516 233 233 233
251.986652612686 355.076313018799 2667.00005531311 232 232 232
262.158155441284 359.055638313293 2697.00002670288 230 230 230
271.192997694016 361.303627490997 2713.99998664856 222 222 222
280.832648277283 364.216655492783 2736.00006103516 218 218 218
-92.3836752772331 331.994116306305 2543.99991035461 227 229 226
-84.6096649765968 328.736871480942 2519.00005340576 231 233 230
-77.2185400128365 326.523125171661 2502.00009346008 232 234 231
-69.8635131120682 324.047893285751 2483.00004005432 241 241 239
-62.891349196434 323.007792234421 2474.99990463257 241 241 239
-55.9852421283722 322.09774851799 2467.99993515015 219 219 217
-49.2767691612244 322.231441736221 2469.00010108948 210 210 208
-42.4592643976212 321.58163189888 2463.99998664856 214 212 213
-35.7268862426281 321.453452110291 2463.00005912781 217 215 216
-28.9527121931314 320.802837610245 2457.99994468689 230 228 229
-22.2328491508961 320.543348789215 2456.00008964539 237 235 236
-15.5048323795199 319.89187002182 2450.99997520447 245 243 244
-8.81482195109129 319.631576538086 2448.99988174438 247 245 246
-2.14004702866077 320.023447275162 2451.99990272522 236 234 235
4.55109449103475 320.414930582047 2454.99992370605 235 233 234
11.2310955300927 320.022910833359 2451.99990272522 233 231 232
17.9239250719547 320.152550935745 2453.00006866455 231 229 230
24.6422067284584 320.542871952057 2456.00008964539 230 228 229
31.4150340855122 321.324229240417 2461.99989318848 228 228 228
38.1430275738239 321.452677249908 2463.00005912781 228 228 228
44.7852686047554 320.928126573563 2459.00011062622 228 228 228
51.4474101364613 320.664256811142 2457.00001716614 227 227 227
58.1221207976341 320.530444383621 2456.00008964539 227 227 227
64.9495050311089 321.179330348969 2460.99996566772 226 226 226
71.6874375939369 321.305692195892 2461.99989318848 228 228 228
78.4623995423317 321.562260389328 2463.99998664856 226 226 226
85.213415324688 321.687906980515 2464.99991416931 225 225 225
92.0814499258995 322.204679250717 2469.00010108948 224 224 224
98.8108664751053 322.199016809464 2469.00010108948 224 224 224
105.753630399704 322.84539937973 2473.99997711182 224 224 224
112.450450658798 322.708457708359 2473.00004959106 225 225 225
119.334191083908 323.093116283417 2476.0000705719 225 225 225
125.928312540054 322.694420814514 2473.00004959106 226 226 226
132.827505469322 323.078244924545 2476.0000705719 226 226 226
139.742538332939 323.461681604385 2479.00009155273 226 226 226
146.791622042656 324.105620384216 2483.99996757507 228 228 228
153.805613517761 324.61878657341 2487.99991607666 229 229 229
160.905346274376 325.261950492859 2493.00003051758 230 230 230
167.628183960915 325.121939182281 2492.00010299683 230 230 230
174.764901399612 325.764298439026 2496.99997901917 230 230 230
181.63737654686 325.884431600571 2497.99990653992 231 231 231
188.740968704224 326.395571231842 2502.00009346008 231 231 231
196.100145578384 327.297657728195 2509.0000629425 232 232 232
203.658521175385 328.460156917572 2517.99988746643 232 232 232
211.850389838219 330.535382032394 2533.99991989136 232 232 232
219.265401363373 331.305712461472 2539.99996185303 232 232 232
227.513745427132 333.249539136887 2555.0000667572 232 232 232
236.393511295319 335.97531914711 2575.99997520447 232 232 232
248.032450675964 342.352330684662 2625 231 231 231
260.520458221436 349.510997533798 2680.0000667572 230 230 230
271.208316087723 353.930056095123 2713.99998664856 223 223 223
280.129909515381 355.870753526688 2729.00009155273 217 217 217
290.607243776321 359.636455774307 2757.99989700317 207 209 206
-106.173947453499 324.810534715652 2542.00005531311 213 215 212
-98.8549813628197 323.538720607758 2532.00006484985 250 252 249
-91.2633240222931 321.11644744873 2513.00001144409 240 242 239
-83.9092507958412 319.204747676849 2497.99990653992 241 243 240
-76.6366720199585 317.292720079422 2483.00004005432 237 237 235
-69.5581212639809 315.891325473785 2471.99988365173 237 237 235
-62.6917704939842 315.256297588348 2467.00000762939 238 238 236
-55.8751337230206 314.748585224152 2463.00005912781 240 240 238
-49.159936606884 314.751714468002 2463.00005912781 240 240 238
-42.3411503434181 313.987612724304 2457.00001716614 238 236 237
-35.5984531342983 313.606530427933 2453.9999961853 238 236 237
-28.8366358727217 312.841683626175 2447.99995422363 238 236 237
-22.1074279397726 312.076389789581 2441.99991226196 240 238 239
-15.4361659660935 311.821937561035 2440.00005722046 243 241 242
-8.78654886037111 311.950415372849 2440.99998474121 245 243 244
-2.13493756018579 312.589734792709 2446.00009918213 232 230 231
4.54209605231881 313.100844621658 2450.00004768372 231 229 230
11.2134413793683 312.844783067703 2447.99995422363 229 227 228
17.8957581520081 312.97168135643 2448.99988174438 227 225 226
24.5533641427755 312.714904546738 2447.00002670288 226 224 225
31.2637723982334 313.096642494202 2450.00004768372 226 226 226
37.9749312996864 313.350170850754 2451.99990272522 226 226 226
44.6786433458328 313.475549221039 2453.00006866455 225 225 225
51.3666979968548 313.472718000412 2453.00006866455 224 224 224
58.0308921635151 313.341706991196 2451.99990272522 224 224 224
64.7685974836349 313.593685626984 2453.9999961853 224 224 224
71.4878439903259 313.71745467186 2454.99992370605 225 225 225
78.212283551693 313.840866088867 2456.00008964539 224 224 224
84.9764496088028 314.091682434082 2457.99994468689 223 223 223
91.8630883097649 314.725428819656 2463.00005912781 222 222 222
98.6165553331375 314.847618341446 2463.99998664856 221 221 221
105.460613965988 315.225005149841 2467.00000762939 220 220 220
112.138733267784 315.090924501419 2466.00008010864 220 220 220
118.955574929714 315.339714288712 2467.99993515015 220 220 220
125.579208135605 315.077096223831 2466.00008010864 220 220 220
132.406055927277 315.325140953064 2467.99993515015 221 221 221
139.13057744503 315.317332744598 2467.99993515015 222 222 222
146.090984344482 315.820157527924 2471.99988365173 225 225 225
153.196305036545 316.578060388565 2477.9999256134 225 225 225
160.39827466011 317.463308572769 2484.99989509583 225 225 225
167.234227061272 317.581713199615 2486.00006103516 225 225 225
174.285009503365 318.082928657532 2490.00000953674 226 226 226
181.066066026688 318.072825670242 2490.00000953674 227 227 227
188.07278573513 318.445533514023 2493.00003051758 228 228 228
195.251539349556 319.07331943512 2497.99990653992 229 229 229
202.942132949829 320.467084646225 2509.0000629425 230 230 230
211.109936237335 322.49903678894 2525.00009536743 229 229 229
218.500822782516 323.253273963928 2530.99989891052 231 231 231
226.368874311447 324.645727872849 2542.00005531311 231 231 231
234.479576349258 326.293081045151 2555.0000667572 231 231 231
245.306000113487 331.515669822693 2595.99995613098 231 231 231
258.201837539673 339.163720607758 2655.99989891052 228 228 228
271.223396062851 346.555382013321 2713.99998664856 223 223 223
280.248045921326 348.583251237869 2730.00001907349 217 217 217
289.148032665253 350.355237722397 2743.99995803833 209 211 208
-112.085208296776 315.015941858292 2519.00005340576 214 216 213
-104.968748986721 314.271837472916 2513.00001144409 242 244 241
-97.7674424648285 313.152074813843 2503.99994850159 242 244 241
-90.2880132198334 310.906410217285 2486.00006103516 232 234 231
-83.0743163824081 309.285521507263 2473.00004959106 236 238 235
-76.0855227708817 308.289557695389 2464.99991416931 239 239 237
-69.1400766372681 307.293236255646 2457.00001716614 238 238 236
-62.3904578387737 307.046860456467 2454.99992370605 235 235 233
-55.6061491370201 306.550025939941 2450.99997520447 234 234 232
-48.8833524286747 306.30287528038 2448.99988174438 233 233 231
-42.1712882816792 306.055396795273 2447.00002670288 239 237 238
-35.4989804327488 306.05760216713 2447.00002670288 238 236 237
-28.7676379084587 305.434107780457 2441.99991226196 235 233 234
-22.0272392034531 304.309904575348 2433.00008773804 232 230 231
-15.3674734756351 303.810656070709 2428.99990081787 228 226 227
-8.75826459378004 304.311692714691 2433.00008773804 227 225 226
-2.12720641866326 304.81231212616 2437.00003623962 229 227 228
4.52196691185236 305.062383413315 2438.99989128113 228 226 227
11.1774513497949 305.187046527863 2440.00005722046 226 224 225
17.8383458405733 305.311262607574 2440.99998474121 224 222 223
24.5046243071556 305.435091257095 2441.99991226196 224 222 223
31.16350248456 305.433452129364 2441.99991226196 224 224 224
37.8687344491482 305.80672621727 2444.9999332428 224 224 224
44.6083880960941 306.304603815079 2448.99988174438 223 223 223
51.3068698346615 306.426912546158 2450.00004768372 223 223 223
57.939600199461 306.173592805862 2447.99995422363 222 222 222
64.6139979362488 306.170046329498 2447.99995422363 222 222 222
71.3755264878273 306.541353464127 2450.99997520447 223 223 223
78.1849771738052 307.03729391098 2454.99992370605 222 222 222
84.8776549100876 307.032614946365 2454.99992370605 221 221 221
91.6073247790337 307.152658700943 2456.00008964539 220 220 220
98.3020588755608 307.147175073624 2456.00008964539 220 220 220
105.210192501545 307.766616344452 2460.99996566772 219 219 219
111.872337758541 307.635337114334 2460.00003814697 219 219 219
118.673220276833 307.878881692886 2461.99989318848 218 218 218
125.280857086182 307.621866464615 2460.00003814697 219 219 219
132.145389914513 307.989656925201 2463.00005912781 220 220 220
138.856664299965 307.981967926025 2463.00005912781 221 221 221
145.685613155365 308.223932981491 2464.99991416931 223 223 223
152.524948120117 308.465629816055 2467.00000762939 222 222 222
159.568250179291 309.081941843033 2471.99988365173 222 222 222
166.301876306534 309.072762727737 2471.99988365173 223 223 223
173.454880714417 309.813380241394 2477.9999256134 224 224 224
180.27637898922 309.9285364151 2479.00009155273 225 225 225
187.555268406868 310.793399810791 2486.00006103516 226 226 226
194.559007883072 311.157792806625 2489.00008201599 227 227 227
202.144593000412 312.396913766861 2499.00007247925 228 228 228
209.867507219315 313.76051902771 2509.99999046326 227 227 227
217.822313308716 315.373748540878 2523.00000190735 226 226 226
226.114243268967 317.36147403717 2539.00003433228 226 226 226
234.400719404221 319.223701953888 2553.99990081787 224 224 224
243.713036179543 322.335332632065 2578.9999961853 224 224 224
256.174385547638 329.320728778839 2634.99999046326 224 224 224
269.339323043823 336.805075407028 2694.9999332428 221 221 221
279.134035110474 339.789569377899 2719.00010108948 214 214 214
287.899136543274 341.39883518219 2732.00011253357 205 207 204
298.896014690399 345.506817102432 2765.00010490417 199 201 198
-119.476832449436 309.50465798378 2529.99997138977 223 225 222
-111.424081027508 306.330412626266 2503.99994850159 231 233 230
-104.222789406776 305.235475301743 2494.99988555908 233 235 232
-97.1092209219933 304.262429475784 2486.99998855591 230 232 229
-89.6756947040558 302.065521478653 2469.00010108948 231 231 229
-82.5751349329948 300.724595785141 2457.99994468689 230 230 228
-75.5959749221802 299.627959728241 2448.99988174438 229 229 227
-68.834476172924 299.265027046204 2446.00009918213 229 229 227
-61.9873851537704 298.412263393402 2438.99989128113 227 227 225
-55.2916936576366 298.170924186707 2437.00003623962 227 227 225
-48.6066937446594 297.929137945175 2434.99994277954 227 226 224
-41.9668890535831 297.931730747223 2434.99994277954 224 223 221
-35.326924175024 297.93393611908 2434.99994277954 224 223 221
-28.6514777690172 297.568678855896 2431.99992179871 226 225 223
-21.9832342118025 297.08069562912 2427.99997329712 226 225 223
-15.3493769466877 296.8370616436 2426.00011825562 223 222 220
-8.74436739832163 297.204792499542 2428.99990081787 222 221 219
-2.12209112942219 297.449827194214 2430.99999427795 222 222 220
4.50924830511212 297.572106122971 2431.99992179871 221 221 219
11.1414417624474 297.571629285812 2431.99992179871 221 221 219
17.7882127463818 297.815561294556 2434.00001525879 220 220 218
24.4357846677303 297.936707735062 2434.99994277954 219 219 217
31.0887228697538 298.057526350021 2436.00010871887 218 218 218
37.7934612333775 298.544973134995 2440.00005722046 219 219 219
44.5380844175816 299.154371023178 2444.9999332428 220 220 220
51.2260384857655 299.274027347565 2446.00009918213 219 219 219
57.8719079494476 299.148559570313 2444.9999332428 219 219 219
64.5385086536407 299.145072698593 2444.9999332428 220 220 220
71.350485086441 299.75301027298 2450.00004768372 219 219 219
78.0938863754272 299.993425607681 2451.99990272522 219 219 219
84.7096219658852 299.744129180908 2450.00004768372 219 219 219
91.3141146302223 299.494475126266 2447.99995422363 219 219 219
98.1075093150139 299.856156110764 2450.99997520447 219 219 219
104.959644377232 300.339818000793 2454.99992370605 218 218 218
111.651286482811 300.333708524704 2454.99992370605 218 218 218
118.294291198254 300.204932689667 2453.9999961853 217 217 217
124.982349574566 300.19810795784 2453.9999961853 218 218 218
131.669938564301 300.190925598145 2453.9999961853 219 219 219
138.357028365135 300.18338561058 2453.9999961853 221 221 221
145.161852240562 300.420135259628 2456.00008964539 221 221 221
152.100667357445 300.901144742966 2460.00003814697 220 220 220
159.060761332512 301.381796598434 2463.99998664856 220 220 220
165.974766016006 301.739752292633 2467.00000762939 221 221 221
172.974526882172 302.21962928772 2470.99995613098 222 222 222
179.995447397232 302.699118852615 2474.99990463257 223 223 223
187.414735555649 303.789705038071 2483.99996757507 224 224 224
194.335207343102 304.023861885071 2486.00006103516 225 225 225
201.508551836014 304.624527692795 2490.9999370575 226 226 226
208.624765276909 305.102497339249 2494.99988555908 226 226 226
216.970801353455 307.292073965073 2513.00001144409 225 225 225
225.770339369774 309.97022986412 2535.00008583069 223 223 223
234.138131141663 311.91423535347 2551.00011825562 221 221 221
242.686673998833 313.979983329773 2568.00007820129 221 221 221
252.785295248032 317.879140377045 2599.99990463257 221 221 221
266.555309295654 326.056629419327 2667.00005531311 218 218 218
277.711629867554 330.687761306763 2704.99992370605 212 212 212
286.649882793427 332.506597042084 2720.00002861023 204 206 203
297.506511211395 336.402922868729 2752.00009346008 192 194 191
310.1986348629 342.132091522217 2799.00002479553 200 202 199
-118.491739034653 300.111502408981 2509.0000629425 221 223 220
-110.940776765347 298.203945159912 2493.00003051758 226 228 225
-103.769086301327 297.133326530457 2483.99996757507 226 228 225
-96.6070145368576 295.942664146423 2473.99997711182 224 226 223
-89.3538221716881 294.273138046265 2460.00003814697 226 226 224
-82.2773948311806 292.961984872818 2448.99988174438 225 225 223
-75.4150152206421 292.248666286469 2443.00007820129 224 224 222
-68.6131939291954 291.654497385025 2437.99996376038 222 222 220
-61.8129558861256 290.940314531326 2431.99992179871 219 219 217
-55.0452247262001 290.225863456726 2426.00011825562 218 218 216
-48.4098009765148 290.109068155289 2424.99995231628 218 217 215
-41.8313667178154 290.35085439682 2427.00004577637 217 216 214
-35.2273508906364 290.472626686096 2427.99997329712 218 217 215
-28.5706240683794 290.115535259247 2424.99995231628 219 218 216
-21.9573099166155 290.116935968399 2424.99995231628 219 218 216
-15.3375882655382 289.998352527618 2424.00002479553 217 216 214
-8.7304599583149 290.118634700775 2424.99995231628 217 216 214
-2.11697281338274 290.118932723999 2424.99995231628 214 214 212
4.49652271345258 290.118873119354 2424.99995231628 215 215 213
11.1191645264626 290.357738733292 2427.00004577637 217 217 215
17.7526716142893 290.596187114716 2428.99990081787 218 218 216
24.3970211595297 290.834277868271 2430.99999427795 218 218 216
31.0394242405891 290.952384471893 2431.99992179871 217 217 217
37.7026498317719 291.189730167389 2434.00001525879 217 217 217
44.3948581814766 291.546314954758 2437.00003623962 218 218 218
51.1032603681087 291.902542114258 2440.00005722046 217 217 217
57.8041560947895 292.138785123825 2441.99991226196 218 218 218
64.4893422722816 292.255014181137 2443.00007820129 219 219 219
71.2088644504547 292.490512132645 2444.9999332428 219 219 219
77.9708549380302 292.845219373703 2447.99995422363 218 218 218
84.6106335520744 292.721092700958 2447.00002670288 217 217 217
91.207318007946 292.476952075958 2444.9999332428 216 216 216
97.9128628969193 292.591363191605 2446.00009918213 216 216 216
104.666210711002 292.824983596802 2447.99995422363 217 215 216
111.384615302086 292.938619852066 2448.99988174438 217 215 216
118.059821426868 292.93230175972 2448.99988174438 217 215 216
124.632768332958 292.686432600021 2447.00002670288 218 216 217
131.355285644531 292.79899597168 2447.99995422363 219 217 218
138.195544481277 293.150424957275 2450.99997520447 220 218 219
145.110756158829 293.621063232422 2454.99992370605 217 215 216
151.799887418747 293.612957000732 2454.99992370605 218 216 217
158.617570996284 293.84371638298 2457.00001716614 219 217 218
165.445595979691 294.074088335037 2459.00011062622 219 217 218
172.423928976059 294.543296098709 2463.00005912781 219 217 218
179.350703954697 294.892549514771 2466.00008010864 218 216 217
186.821311712265 296.078473329544 2476.0000705719 219 219 219
194.111213088036 296.905279159546 2483.00004005432 221 221 221
201.276749372482 297.492533922195 2487.99991607666 222 222 222
208.217918872833 297.720730304718 2490.00000953674 223 223 223
216.550707817078 299.861550331116 2507.99989700317 222 222 222
225.60428082943 302.838802337646 2532.99999237061 221 223 222
234.150618314743 304.978638887405 2551.00011825562 217 219 218
241.943508386612 306.042015552521 2559.99994277954 215 217 216
250.854074954987 308.419942855835 2579.99992370605 212 214 213
263.171017169952 314.742118120193 2632.99989700317 213 215 214
275.87816119194 321.182936429977 2687.00003623962 211 213 212
286.348700523376 324.754238128662 2717.00000762939 193 195 192
296.981483697891 328.32482457161 2746.99997901917 201 203 200
309.106439352036 333.328992128372 2789.00003433228 188 190 187
319.641917943954 336.420148611069 2815.00005722046 191 193 190
-125.836595892906 294.448524713516 2519.00005340576 221 223 222
-117.789752781391 291.532784700394 2493.99995803833 230 232 229
-110.501818358898 290.253132581711 2483.00004005432 229 231 228
-103.356994688511 289.206862449646 2473.99997711182 226 228 225
-96.2608531117439 288.160175085068 2464.99991416931 226 228 225
-89.104451239109 286.76238656044 2453.00006866455 224 224 222
-82.046739757061 285.481095314026 2441.99991226196 221 221 219
-75.2648040652275 285.017788410187 2437.99996376038 214 214 212
-68.5606822371483 284.787893295288 2436.00010871887 210 210 208
-61.7655403912067 284.090012311935 2430.0000667572 205 204 202
-54.9801923334599 283.274859189987 2423.00009727478 203 202 200
-48.3326278626919 283.043831586838 2421.0000038147 203 202 200
-41.7474955320358 283.163189888 2421.99993133545 203 202 200
-35.1422466337681 283.16530585289 2421.99993133545 203 202 200
-28.5250768065453 283.050149679184 2421.0000038147 202 201 199
-21.9223070889711 283.051520586014 2421.0000038147 201 200 198
-15.3257809579372 283.169448375702 2421.99993133545 209 208 206
-8.71294364333153 282.936304807663 2420.00007629395 209 208 206
-2.11272528395057 282.936602830887 2420.00007629395 206 206 204
4.48750099167228 282.936543226242 2420.00007629395 207 207 205
11.096871457994 283.16992521286 2421.99993133545 211 211 209
17.7098028361797 283.286064863205 2423.00009727478 212 212 210
24.3381559848785 283.518761396408 2424.99995231628 213 213 211
30.9900883585215 283.867985010147 2427.99997329712 215 215 215
37.6117900013924 283.866077661514 2427.99997329712 215 215 215
44.2880056798458 284.214586019516 2430.99999427795 215 215 215
50.9804151952267 284.562706947327 2434.00001525879 214 214 214
57.7363297343254 285.1442694664 2438.99989128113 216 216 216
64.4401013851166 285.374730825424 2440.99998474121 218 218 218
71.1254104971886 285.487979650497 2441.99991226196 217 217 217
77.7840465307236 285.48389673233 2441.99991226196 217 217 217
84.3732357025146 285.245686769485 2440.00005722046 216 216 216
90.951181948185 285.00708937645 2437.99996376038 216 216 216
97.6379886269569 285.118848085403 2438.99989128113 215 215 215
104.28711771965 285.113364458084 2438.99989128113 216 214 215
110.981352627277 285.224467515945 2440.00005722046 216 214 215
117.632389068604 285.218268632889 2440.00005722046 216 214 215
124.282993376255 285.211741924286 2440.00005722046 216 214 215
131.147786974907 285.672426223755 2444.00000572205 217 215 216
138.090252876282 286.249577999115 2448.99988174438 217 215 216
145.059496164322 286.826401948929 2453.9999961853 216 214 215
151.684418320656 286.701560020447 2453.00006866455 217 215 216
158.36788713932 286.693274974823 2453.00006866455 218 216 217
165.11806845665 286.801517009735 2453.9999961853 218 216 217
171.943143010139 287.026315927505 2456.00008964539 217 215 216
178.996622562408 287.601292133331 2460.99996566772 217 215 216
186.453983187675 288.760244846344 2470.99995613098 215 215 215
193.887010216713 289.801955223084 2480.00001907349 216 216 216
201.044708490372 290.375798940659 2484.99989509583 218 218 218
208.228915929794 290.949314832687 2490.00000953674 219 219 219
216.303110122681 292.69090294838 2505.00011444092 221 221 221
224.547281861305 294.548839330673 2520.99990844727 220 222 221
233.061358332634 296.639978885651 2539.00003433228 216 218 217
241.483554244041 298.49699139595 2555.0000667572 214 216 215
250.867128372192 301.404923200607 2579.99992370605 211 213 212
262.385040521622 306.648731231689 2625 211 213 212
275.892376899719 313.877493143082 2687.00003623962 209 211 210
287.838965654373 319.00280714035 2730.99994659424 194 196 193
299.267113208771 323.309659957886 2767.99988746643 191 193 190
308.346331119537 324.929475784302 2782.00006484985 191 193 190
316.478580236435 325.497686862946 2786.99994087219 211 213 210
-133.078083395958 288.387447595596 2526.00002288818 216 218 217
-124.444499611855 284.398347139359 2490.9999370575 223 225 224
-117.276526987553 283.491402864456 2483.00004005432 229 231 228
-110.062703490257 282.355695962906 2473.00004959106 227 229 226
-102.902993559837 281.219601631165 2463.00005912781 225 227 224
-95.836453139782 280.197262763977 2453.9999961853 226 226 224
-88.8186395168304 279.174566268921 2444.9999332428 217 217 215
-81.9167569279671 278.379827737808 2437.99996376038 213 213 211
-75.1762464642525 278.041481971741 2434.99994277954 204 204 202
-68.5080960392952 277.931123971939 2434.00001525879 202 201 199
-61.7434605956078 277.363687753677 2428.99990081787 196 195 193
-54.9831725656986 276.68172121048 2423.00009727478 196 195 193
-48.2953116297722 276.227682828903 2418.99991035461 196 195 193
-41.7152903974056 276.344358921051 2420.00007629395 198 197 195
-35.0861102342606 276.117980480194 2417.99998283386 197 196 194
-28.4677091985941 275.891304016113 2415.99988937378 193 192 190
-21.8601115047932 275.664299726486 2414.00003433228 192 191 189
-15.2949765324593 276.007860898972 2417.00005531311 191 190 188
-8.69901478290558 275.894314050674 2415.99988937378 191 190 188
-2.10934784263372 275.894612073898 2415.99988937378 195 195 193
4.47847275063396 275.780349969864 2414.99996185303 199 199 197
11.0837304964662 276.236712932587 2418.99991035461 202 202 200
17.68883690238 276.350140571594 2420.00007629395 204 204 202
24.3194047361612 276.69158577919 2423.00009727478 207 207 205
30.9407133609056 276.80429816246 2424.00002479553 210 210 210
37.5518687069416 276.802450418472 2424.00002479553 211 211 211
44.19931396842 277.028620243073 2426.00011825562 211 211 211
50.8784428238869 277.368664741516 2428.99990081787 210 210 210
57.6210916042328 277.936697006226 2434.00001525879 213 213 213
64.2851889133453 278.04759144783 2434.99994277954 215 215 215
70.8671137690544 277.815639972687 2433.00008773804 214 214 214
77.5334164500237 277.925819158554 2434.00001525879 214 214 214
84.204874932766 278.035670518875 2434.99994277954 214 214 214
90.806856751442 277.916848659515 2434.00001525879 213 213 213
97.3630025982857 277.683436870575 2431.99992179871 213 213 213
103.993393480778 277.678072452545 2431.99992179871 214 212 213
110.759854316711 278.014898300171 2434.99994277954 214 212 213
117.445848882198 278.123080730438 2436.00010871887 213 211 212
124.085888266563 278.116643428802 2436.00010871887 213 211 212
130.940124392509 278.56656908989 2440.00005722046 213 211 212
137.87205517292 279.130280017853 2444.9999332428 213 211 212
144.712507724762 279.465347528458 2447.99995422363 216 214 215
151.259586215019 279.229253530502 2446.00009918213 217 215 216
157.924309372902 279.221147298813 2446.00009918213 217 215 216
164.58848118782 279.212713241577 2446.00009918213 217 215 216
171.18202149868 279.089778661728 2444.9999332428 217 215 216
178.351372480392 279.879689216614 2451.99990272522 214 214 214
185.70913374424 280.897527933121 2460.99996566772 213 213 213
193.349808454514 282.257378101349 2473.00004959106 211 211 211
200.6506472826 283.046156167984 2480.00001907349 210 210 210
208.156079053879 284.062772989273 2489.00008201599 212 212 212
216.227933764458 285.763770341873 2503.99994850159 216 216 216
224.024415016174 287.007868289948 2515.00010490417 218 220 219
232.247143983841 288.707941770554 2529.99997138977 214 216 215
240.928813815117 290.864080190659 2549.00002479553 213 215 214
250.685453414917 294.160693883896 2578.00006866455 209 211 210
262.398362159729 299.510538578033 2625 209 211 210
275.700986385345 306.342840194702 2684.99994277954 206 208 207
289.856135845184 313.744634389877 2750 185 187 184
300.147175788879 316.69619679451 2776.00002288818 192 194 191
307.031661272049 315.996587276459 2769.99998092651 182 184 181
315.018087625504 316.437512636185 2773.9999294281 136 138 135
-131.293728947639 277.724981307983 2492.00010299683 216 220 219
-123.75158816576 276.059865951538 2476.99999809265 219 223 222
-116.66864156723 275.285929441452 2470.00002861023 223 225 222
-109.623417258263 274.51166510582 2463.00005912781 223 225 222
-102.532364428043 273.514091968536 2453.9999961853 222 224 221
-95.6071689724922 272.850513458252 2447.99995422363 220 220 218
-88.7143537402153 272.186577320099 2441.99991226196 207 207 205
-81.9883048534393 271.968126296997 2440.00005722046 204 204 202
-75.2111077308655 271.526396274567 2436.00010871887 198 198 196
-68.4835910797119 271.19579911232 2433.00008773804 196 195 193
-61.6959035396576 270.53040266037 2427.00004577637 192 191 189
-54.9860894680023 270.087599754334 2423.00009727478 191 190 188
-48.2579544186592 269.421488046646 2417.00005531311 192 191 189
-41.6485443711281 269.312351942062 2415.99988937378 191 190 188
-35.0154265761375 268.979966640472 2413.00010681152 187 186 184
-28.4220930188894 268.870204687119 2411.99994087219 185 184 182
-21.8159928917885 268.537074327469 2408.99991989136 183 182 180
-15.2514930814505 268.649578094482 2410.00008583069 183 182 180
-8.67787376046181 268.65017414093 2410.00008583069 184 183 181
-2.1050947252661 268.761932849884 2411.00001335144 189 189 187
4.4731474481523 268.873333930969 2411.99994087219 194 194 192
11.0659915953875 269.207358360291 2414.99996185303 200 200 198
17.6678504794836 269.429534673691 2417.00005531311 203 203 201
24.2705121636391 269.539892673492 2417.99998283386 210 210 208
30.9168305248022 269.98433470726 2421.99993133545 208 208 208
37.5228822231293 269.982516765594 2421.99993133545 209 209 209
44.1470071673393 270.091861486435 2423.00009727478 211 211 211
50.7764145731926 270.200818777084 2424.00002479553 211 211 211
57.5294569134712 270.866811275482 2430.0000667572 212 212 212
64.1565918922424 270.863622426987 2430.0000667572 213 213 213
70.75434923172 270.74858546257 2428.99990081787 212 212 212
77.3463770747185 270.633220672607 2427.99997329712 212 212 212
83.9326679706573 270.517557859421 2427.00004577637 212 212 212
90.5878022313118 270.624458789825 2427.99997329712 212 212 212
97.1679612994194 270.508080720901 2427.00004577637 212 212 212
103.913366794586 270.837247371674 2430.0000667572 213 211 212
110.629223287106 271.05450630188 2431.99992179871 213 211 212
117.210932075977 270.93717455864 2430.99999427795 212 210 211
123.786754906178 270.819455385208 2430.0000667572 212 210 211
130.51763176918 271.035730838776 2431.99992179871 212 210 211
137.428134679794 271.586030721664 2437.00003623962 212 210 211
144.365340471268 272.135972976685 2441.99991226196 213 211 212
151.143759489059 272.351235151291 2444.00000572205 214 212 213
157.867938280106 272.454708814621 2444.9999332428 214 212 213
164.462402462959 272.335022687912 2444.00000572205 214 212 213
170.980781316757 272.103577852249 2441.99991226196 214 212 213
177.996873855591 272.651821374893 2447.00002670288 214 214 214
185.265898704529 273.533940315247 2454.99992370605 212 212 212
192.65604019165 274.527132511139 2463.99998664856 210 210 210
199.770852923393 275.074273347855 2469.00010108948 209 209 209
207.246705889702 276.066660881042 2477.9999256134 210 210 210
215.116262435913 277.504295110703 2490.9999370575 213 213 213
222.788617014885 278.607338666916 2500.99992752075 216 218 217
230.881854891777 280.155569314957 2515.00010490417 212 214 213
239.806622266769 282.594442367554 2536.99994087219 212 214 213
249.725565314293 286.035299301147 2568.00007820129 208 210 209
261.211842298508 291.03484749794 2612.99991607666 209 211 210
274.48245882988 297.70427942276 2673.00009727478 205 207 206
289.132624864578 305.486530065537 2743.00003051758 183 185 182
299.080669879913 308.033555746078 2766.00003242493 191 193 190
306.049108505249 307.46203660965 2760.99991798401 183 185 182
314.238518476486 308.115124702454 2766.99995994568 223 225 222
325.948089361191 312.108308076859 2802.99997329712 0 1 0
-139.700040221214 274.089246988297 2520.99990844727 213 217 216
-130.93164563179 270.18204331398 2484.99989509583 216 220 219
-123.458161950111 268.666356801987 2470.99995613098 217 221 220
-116.485692560673 268.12881231308 2466.00008010864 219 219 217
-109.495528042316 267.482191324234 2460.00003814697 214 214 212
-102.454096078873 266.617715358734 2451.99990272522 208 208 206
-95.534011721611 265.970379114151 2446.00009918213 202 202 200
-88.7189507484436 265.54012298584 2441.99991226196 189 189 187
-81.9589421153069 265.218257904053 2438.99989128113 190 190 188
-75.184129178524 264.787346124649 2434.99994277954 188 187 185
-68.4308409690857 264.356076717377 2430.99999427795 187 186 184
-61.6736933588982 263.815730810165 2426.00011825562 184 183 181
-54.9889504909515 263.492465019226 2423.00009727478 182 181 179
-48.2404977083206 262.73387670517 2415.99988937378 181 180 178
-41.6162423789501 262.518703937531 2414.00003433228 182 181 179
-34.9737145006657 262.08570599556 2410.00008583069 178 177 175
-28.3882226794958 261.978566646576 2408.99991989136 177 176 174
-21.7990186065435 261.762380599976 2407.00006484985 176 175 173
-15.2333024889231 261.763334274292 2407.00006484985 179 178 176
-8.67112446576357 261.872708797455 2407.99999237061 180 179 177
-2.10345815867186 261.981725692749 2408.99991989136 185 185 183
4.46967221796513 262.090444564819 2410.00008583069 190 190 188
11.0619878396392 262.525022029877 2414.00003433228 194 194 192
17.6541525870562 262.63302564621 2414.99996185303 197 197 195
24.2517031729221 262.740701436996 2415.99988937378 205 205 203
30.8290831744671 262.630522251129 2414.99996185303 206 206 206
37.4163836240768 262.628763914108 2414.99996185303 208 208 208
44.0217591822147 262.735426425934 2415.99988937378 213 213 213
50.6952665746212 263.167977333069 2420.00007629395 213 213 213
57.3903955519199 263.600170612335 2424.00002479553 212 212 212
64.027912914753 263.7058198452 2424.99995231628 212 212 212
70.612370967865 263.593584299088 2424.00002479553 210 210 210
77.2548168897629 263.698518276215 2424.99995231628 211 211 211
83.9370265603065 263.911902904511 2427.00004577637 211 211 211
90.5551686882973 263.90740275383 2427.00004577637 211 211 211
97.1729829907417 263.902574777603 2427.00004577637 211 211 211
103.875942528248 264.114916324615 2428.99990081787 212 210 211
110.634922981262 264.435648918152 2431.99992179871 212 210 211
117.168746888638 264.212399721146 2430.0000667572 211 209 210
123.589336872101 263.771384954453 2426.00011825562 211 209 210
130.148649215698 263.656198978424 2424.99995231628 212 210 211
136.927589774132 263.975590467453 2427.99997329712 213 211 212
143.84064078331 264.512121677399 2433.00008773804 210 208 209
150.780379772186 265.048235654831 2437.99996376038 211 209 210
157.746806740761 265.584081411362 2443.00007820129 211 209 210
164.403453469276 265.575975179672 2443.00007820129 212 210 211
170.919433236122 265.350133180618 2440.99998474121 211 209 210
177.787616848946 265.66755771637 2444.00000572205 210 210 210
184.897869825363 266.310721635818 2450.00004768372 209 209 209
192.196547985077 267.170906066895 2457.99994468689 208 208 208
199.214413762093 267.59597659111 2461.99989318848 207 207 207
206.671565771103 268.564164638519 2470.99995613098 208 208 208
214.349702000618 269.749313592911 2482.00011253357 211 211 211
222.532406449318 271.477431058884 2497.99990653992 211 213 212
230.526000261307 272.879153490067 2510.99991798401 207 209 208
238.967671990395 274.715125560761 2528.00011634827 209 211 210
248.376280069351 277.528613805771 2553.99990081787 206 208 207
260.024964809418 282.623410224915 2601.0000705719 206 208 207
274.085015058517 289.999186992645 2668.99991035461 203 205 204
288.830399513245 297.699987888336 2740.00000953674 184 186 183
298.338204622269 299.750238656998 2759.0000629425 181 183 180
305.731236934662 299.627184867859 2757.99989700317 173 175 172
314.140021800995 300.481557846069 2766.00003242493 223 225 222
324.568122625351 303.18221449852 2790.99988937378 93 95 92
-138.321623206139 264.577656984329 2496.00005149841 212 216 215
