ply
format ascii 1.0
comment KinectMotionCapture
element vertex 760
property float x
property float y
property float z
property uchar red
property uchar green
property uchar blue
end_header
101.842880249023 602.651000022888 2552.00004577637 150 149 145
108.693666756153 602.17022895813 2549.99995231628 155 154 150
115.487948060036 601.452708244324 2546.99993133545 158 157 153
122.361727058887 601.207137107849 2546.0000038147 147 146 142
129.178941249847 600.724697113037 2543.99991035461 143 142 138
136.038452386856 600.477993488312 2542.99998283386 147 146 142
142.723515629768 599.522411823273 2539.00003433228 150 149 145
149.386465549469 598.566353321075 2535.00008583069 151 150 146
156.150549650192 598.081946372986 2532.99999237061 149 148 144
163.032069802284 598.069310188293 2532.99999237061 147 146 142
169.913187623024 598.056197166443 2532.99999237061 145 144 140
176.654264330864 597.570419311523 2530.99989891052 147 146 142
183.674052357674 598.028481006622 2532.99999237061 150 149 145
190.704196691513 598.486125469208 2535.00008583069 148 148 146
197.900608181953 599.415302276611 2539.00003433228 149 149 147
205.037593841553 600.107967853546 2542.00005531311 149 149 147
212.190330028534 600.800096988678 2545.00007629395 147 147 145
219.444915652275 601.727724075317 2549.00002479553 141 141 139
226.720660924911 602.654874324799 2552.99997329712 139 139 137
234.109073877335 603.817582130432 2558.00008773804 131 131 129
241.806715726852 605.687856674194 2565.99998474121 130 130 128
249.256402254105 606.849551200867 2571.00009918213 112 112 110
256.034940481186 606.358468532562 2569.00000572205 103 103 101
262.290120124817 604.686796665192 2562.00003623962 127 127 125
268.296480178833 602.542877197266 2552.99997329712 132 134 129
274.361193180084 600.634694099426 2545.00007629395 135 137 132
280.602812767029 599.198162555695 2539.00003433228 143 144 139
287.150949239731 598.469316959381 2536.00001335144 145 144 140
293.682098388672 597.740113735199 2532.99999237061 152 148 145
300.196349620819 597.010731697083 2529.99997138977 155 151 148
306.81499838829 596.516847610474 2528.00011634827 158 154 151
313.91841173172 596.966505050659 2529.99997138977 155 154 150
320.65162062645 596.707940101624 2529.00004386902 151 150 146
327.637612819672 596.920847892761 2529.99997138977 162 163 158
334.496170282364 596.897542476654 2529.99997138977 184 186 181
342.433393001556 598.761320114136 2538.00010681152 183 185 182
350.688457489014 601.096332073212 2548.00009727478 186 188 185
360.400468111038 605.78989982605 2568.00007820129 192 194 191
-147.433534264565 623.01766872406 2668.99991035461 214 216 211
-139.707878232002 620.928227901459 2660.00008583069 164 166 161
-132.030725479126 618.838131427765 2651.00002288818 170 172 167
-124.590486288071 617.681205272675 2645.99990844727 156 157 152
-117.354549467564 617.457449436188 2644.99998092651 158 157 153
-110.165394842625 617.466628551483 2644.99998092651 169 168 164
-102.859109640121 616.77485704422 2641.99995994568 167 166 162
-95.6775173544884 616.78284406662 2641.99995994568 139 138 134
-88.4621366858482 616.556823253632 2641.00003242493 140 139 135
-81.4058408141136 617.497563362122 2644.99998092651 136 135 131
-74.3836909532547 618.904650211334 2651.00002288818 124 123 119
-67.404717206955 621.011555194855 2660.00008583069 118 117 113
-60.0825361907482 620.082795619965 2655.99989891052 85 84 80
-52.6426322758198 617.519319057465 2644.99998092651 116 115 111
-45.2280156314373 614.488184452057 2631.99996948242 133 132 128
-37.9273593425751 612.156927585602 2621.99997901917 136 137 132
-30.6692197918892 609.591543674469 2611.00006103516 152 153 148
-23.4708115458488 607.025504112244 2599.99990463257 149 150 145
-16.3447689265013 604.925930500031 2591.00008010864 159 160 155
-9.27121192216873 603.05917263031 2582.99994468689 156 157 152
-2.24113161675632 601.191818714142 2575.00004768372 160 159 155
4.7491486184299 599.790930747986 2569.00000572205 150 149 145
11.7250578477979 599.323332309723 2566.99991226196 141 140 136
18.6900589615107 598.855137825012 2565.00005722046 146 145 141
25.6441291421652 598.386406898499 2562.99996376038 150 149 145
32.5618013739586 597.450077533722 2559.00001525879 153 152 148
39.5502969622612 597.914159297943 2561.00010871887 148 147 143
46.5495474636555 598.377585411072 2562.99996376038 144 143 139
53.5177811980248 598.373472690582 2562.99996376038 143 142 138
60.4150630533695 597.668468952179 2559.99994277954 146 145 141
67.2695487737656 596.729457378387 2555.99999427795 147 146 142
74.2182433605194 596.723735332489 2555.99999427795 153 152 148
81.1349600553513 596.483945846558 2555.0000667572 154 153 149
88.0805104970932 596.477150917053 2555.0000667572 155 154 150
95.0257852673531 596.469759941101 2555.0000667572 151 150 146
101.930893957615 596.228301525116 2553.99990081787 151 150 146
108.745031058788 595.519542694092 2551.00011825562 155 154 150
115.587919950485 595.043659210205 2549.00002479553 160 159 155
122.563779354095 595.267534255981 2549.99995231628 149 148 144
129.443198442459 595.023989677429 2549.00002479553 144 143 139
136.316806077957 594.780027866364 2548.00009727478 142 141 137
142.959728837013 593.601703643799 2542.99998283386 146 145 141
149.692967534065 592.889845371246 2539.99996185303 148 147 143
156.34785592556 591.94403886795 2536.00001335144 145 144 140
163.238048553467 591.931402683258 2536.00001335144 145 144 140
170.060724020004 591.684877872467 2535.00008583069 139 138 134
176.947310566902 591.671288013458 2535.00008583069 136 135 131
183.833435177803 591.657161712646 2535.00008583069 145 144 140
191.09520316124 592.809438705444 2539.99996185303 141 141 139
198.149815201759 593.261122703552 2542.00005531311 145 145 143
205.134123563766 593.478918075562 2542.99998283386 145 145 143
212.373420596123 594.3962931633 2546.99993133545 144 144 142
219.806134700775 595.779895782471 2552.99997329712 138 138 136
227.270841598511 597.162961959839 2559.00001525879 136 136 134
234.676033258438 598.312139511108 2563.99989128113 133 133 131
242.296263575554 599.927484989166 2571.00009918213 133 133 131
249.75997209549 601.07558965683 2575.99997520447 121 121 119
256.851553916931 601.289868354797 2576.99990272522 104 104 102
263.128787279129 599.637031555176 2569.9999332428 120 120 118
268.947035074234 597.050786018372 2559.00001525879 132 134 129
274.81272816658 594.697535037994 2549.00002479553 136 138 133
280.844509601593 592.81051158905 2540.99988937378 143 144 139
287.511706352234 592.323184013367 2539.00003433228 145 144 140
294.167280197144 591.835260391235 2536.99994087219 152 148 145
300.692737102509 591.113924980164 2533.99991989136 155 151 148
307.201206684113 590.392112731934 2530.99989891052 158 154 151
314.189046621323 590.603172779083 2532.00006484985 154 153 149
320.928007364273 590.347230434418 2530.99989891052 150 149 145
327.790260314941 590.324223041534 2530.99989891052 163 164 159
334.784090518951 590.534150600433 2532.00006484985 184 186 181
342.457264661789 591.909825801849 2538.00010681152 182 184 181
350.575089454651 593.984603881836 2546.99993133545 185 187 184
360.144555568695 598.390936851501 2565.99998474121 199 201 198
-147.224292159081 614.8881316185 2664.99996185303 212 214 209
-139.50888812542 612.822949886322 2655.99989891052 165 167 162
-131.991475820541 611.449420452118 2650.00009536743 175 177 172
-124.694660305977 610.998213291168 2648.00000190735 154 155 150
-117.497086524963 611.007809638977 2648.00000190735 156 155 151
-110.215894877911 610.555469989777 2645.99990844727 166 165 161
-102.984212338924 610.333323478699 2644.99998092651 175 174 170
-95.8663150668144 610.802888870239 2647.0000743866 141 140 136
-88.7372642755508 611.271798610687 2648.9999294281 139 138 134
-81.6278904676437 611.970961093903 2651.99995040894 133 132 128
-74.5580792427063 613.131046295166 2657.00006484985 124 123 119
-67.5368905067444 614.982903003693 2664.99996185303 119 118 114
-60.2910295128822 614.988029003143 2664.99996185303 84 83 79
-52.7862384915352 611.992657184601 2651.99995040894 95 94 90
-45.3691743314266 609.227478504181 2640.00010490417 131 130 126
-38.031704723835 606.692433357239 2628.99994850159 135 136 131
-30.7656917721033 604.387521743774 2618.99995803833 151 152 147
-23.5268902033567 601.389706134796 2605.99994659424 149 150 145
-16.3776464760304 599.083662033081 2595.99995613098 159 160 155
-9.28632635623217 597.007751464844 2586.99989318848 156 157 152
-2.24392558448017 594.931244850159 2578.00006866455 159 158 154
4.75508254021406 593.546509742737 2572.00002670288 148 147 143
11.7351496592164 592.853486537933 2569.00000572205 141 140 136
18.6915844678879 591.929256916046 2565.00005722046 148 147 143
25.666231289506 591.927409172058 2565.00005722046 152 151 147
32.6280817389488 591.694235801697 2563.99989128113 153 152 148
39.6307334303856 592.152833938599 2565.99998474121 147 146 142
46.607818454504 592.149317264557 2565.99998474121 143 142 138
53.5221286118031 591.453015804291 2562.99996376038 143 142 138
60.4435727000237 590.986847877502 2561.00010871887 146 145 141
67.3013255000114 590.058565139771 2556.99992179871 148 147 143
74.2823332548141 590.283691883087 2558.00008773804 154 153 149
81.1732709407806 589.8157954216 2555.99999427795 156 155 151
88.1220921874046 589.809000492096 2555.99999427795 156 155 151
94.9962437152863 589.340090751648 2553.99990081787 153 152 148
101.859286427498 588.870704174042 2552.00004577637 152 151 147
108.711138367653 588.400721549988 2549.99995231628 155 154 150
115.597181022167 588.160991668701 2549.00002479553 160 159 155
122.621655464172 588.613033294678 2551.00011825562 150 149 145
129.605874419212 588.833570480347 2552.00004577637 144 143 139
136.488169431686 588.592350482941 2551.00011825562 141 140 136
143.139764666557 587.42755651474 2546.0000038147 143 142 138
149.822726845741 586.493074893951 2542.00005531311 145 144 140
156.668484210968 586.250185966492 2540.99988937378 141 140 136
163.70153427124 586.698949337006 2542.99998283386 139 138 134
170.610785484314 586.68577671051 2542.99998283386 138 137 133
177.310198545456 585.98005771637 2539.99996185303 135 134 130
184.137880802155 585.735261440277 2539.00003433228 137 136 132
191.110074520111 585.951328277588 2539.99996185303 138 138 136
198.321089148521 586.858987808228 2543.99991035461 142 142 140
205.391988158226 587.304711341858 2546.0000038147 143 143 141
212.806731462479 588.672697544098 2552.00004577637 142 142 140
220.167383551598 589.809358119965 2556.99992179871 136 136 134
227.8211414814 591.637551784515 2565.00005722046 134 134 132
235.24309694767 592.773199081421 2569.9999332428 135 135 133
242.880091071129 594.369530677795 2576.99990272522 127 127 125
250.263601541519 595.273494720459 2581.00008964539 122 122 120
257.369190454483 595.485091209412 2582.00001716614 98 98 96
263.558030128479 593.620538711548 2573.99988174438 117 117 115
269.492506980896 591.294467449188 2563.99989128113 133 135 130
275.156497955322 588.507056236267 2552.00004577637 136 138 133
281.196802854538 586.641728878021 2543.99991035461 143 144 139
287.759214639664 585.929036140442 2540.99988937378 145 144 140
294.304698705673 585.216104984283 2538.00010681152 151 147 144
301.189213991165 585.194528102875 2538.00010681152 154 150 147
307.830214500427 584.711372852325 2536.00001335144 157 153 150
314.58380818367 584.458470344543 2535.00008583069 153 152 148
321.077644824982 583.744168281555 2532.00006484985 150 149 145
327.68389582634 583.260118961334 2529.99997138977 167 168 163
335.072040557861 584.158897399902 2533.99991989136 184 186 181
342.616051435471 585.287809371948 2539.00003433228 181 183 180
351.012378931046 587.799429893494 2549.99995231628 183 185 182
360.309660434723 591.693341732025 2566.99991226196 194 196 193
-155.116394162178 610.187470912933 2676.00011825562 216 218 215
-147.014990448952 606.779038906097 2661.00001335144 175 177 172
-139.52000439167 605.650246143341 2655.99989891052 174 176 171
-132.051795721054 604.520857334137 2651.00002288818 183 185 180
-124.751701951027 604.075074195862 2648.9999294281 151 152 147
-117.639623582363 604.540824890137 2651.00002288818 152 151 147
-110.308051109314 603.865742683411 2648.00000190735 162 161 157
-103.070370852947 603.646337985992 2647.0000743866 173 172 168
-95.9102585911751 603.882431983948 2648.00000190735 139 138 134
-88.8449251651764 604.802012443542 2651.99995040894 135 134 130
-81.7883908748627 605.949223041534 2657.00006484985 134 133 129
-74.6763646602631 606.867790222168 2661.00001335144 127 126 122
-67.669078707695 608.926057815552 2670.00007629395 115 114 110
-60.4542903602123 609.387338161469 2671.99993133545 82 81 77
-53.0094914138317 607.339441776276 2663.00010681152 80 79 75
-45.5447249114513 604.378521442413 2650.00009536743 135 134 130
-38.193941116333 602.101266384125 2640.00010490417 131 132 127
-30.87392821908 599.367201328278 2628.00002098084 143 144 139
-23.5739480704069 595.49218416214 2611.00006103516 147 148 143
-16.3979064673185 592.756986618042 2598.99997711182 154 155 150
-9.29785147309303 590.705335140228 2589.99991416931 156 157 152
-2.2502017673105 589.565515518188 2585.00003814697 149 148 144
4.76656295359135 587.96888589859 2578.00006866455 146 145 141
11.749810539186 586.599826812744 2572.00002670288 152 151 147
18.7003910541534 585.230112075806 2565.99998474121 156 155 151
25.6983414292336 585.684478282928 2568.00007820129 154 153 149
32.6943695545197 585.910141468048 2569.00000572205 149 148 144
39.6957397460938 586.13532781601 2569.9999332428 147 146 142
46.6297678649426 585.447549819946 2566.99991226196 145 144 140
53.5682402551174 584.98740196228 2565.00005722046 143 142 138
60.4956708848476 584.526598453522 2562.99996376038 145 144 140
67.3594176769257 583.609282970428 2559.00001525879 149 148 144
74.2883309721947 583.375453948975 2558.00008773804 158 157 153
81.1798274517059 582.913041114807 2555.99999427795 155 154 150
88.1292000412941 582.906246185303 2555.99999427795 154 153 149
95.0038880109787 582.442700862885 2553.99990081787 154 153 149
101.867474615574 581.978738307953 2552.00004577637 151 150 146
108.762502670288 581.742346286774 2551.00011825562 153 152 148
115.651778876781 581.505179405212 2549.99995231628 161 160 156
122.679524123669 581.951856613159 2552.00004577637 151 150 146
129.717797040939 582.397758960724 2553.99990081787 144 143 139
136.659547686577 582.387208938599 2553.99990081787 139 138 134
143.43224465847 581.692039966583 2551.00011825562 141 140 136
150.129273533821 580.768227577209 2546.99993133545 143 142 138
157.05081820488 580.756187438965 2546.99993133545 138 137 133
164.100661873817 581.199526786804 2549.00002479553 133 132 128
171.093851327896 581.414341926575 2549.99995231628 137 136 132
177.81275510788 580.716729164124 2546.99993133545 135 134 130
184.587419033051 580.24662733078 2545.00007629395 131 130 126
191.501170396805 580.23202419281 2545.00007629395 135 135 133
198.648318648338 580.90078830719 2548.00009727478 140 140 138
205.730527639389 581.341147422791 2549.99995231628 141 141 139
213.323459029198 583.148896694183 2558.00008773804 141 141 139
220.873132348061 584.727942943573 2565.00005722046 135 135 133
228.54907810688 586.534440517426 2572.99995422363 133 133 131
236.084833741188 587.884545326233 2578.9999961853 133 133 131
243.652537465096 589.234113693237 2585.00003814697 120 120 118
251.155197620392 590.355098247528 2589.99991416931 121 121 119
258.185982704163 590.335965156555 2589.99991416931 93 93 91
264.49927687645 588.720977306366 2582.99994468689 116 116 114
270.248353481293 585.966110229492 2571.00009918213 134 136 131
275.608122348785 582.527220249176 2555.99999427795 137 139 134
281.659632921219 580.683469772339 2548.00009727478 143 144 139
288.120001554489 579.751014709473 2543.99991035461 145 144 140
294.558018445969 578.818261623383 2539.99996185303 151 147 144
301.329642534256 578.568756580353 2539.00003433228 153 149 146
307.973742485046 578.091084957123 2536.99994087219 157 153 150
314.730405807495 577.840924263 2536.00001335144 153 152 148
321.227252483368 577.134728431702 2532.99999237061 150 149 145
327.707052230835 576.428174972534 2529.99997138977 168 169 164
335.227847099304 577.544093132019 2535.00008583069 184 186 181
343.044817447662 579.115152359009 2542.00005531311 181 183 180
351.036638021469 580.913484096527 2549.99995231628 182 184 181
359.913319349289 584.078192710876 2563.99989128113 193 195 192
-154.606908559799 600.931584835052 2667.00005531311 213 215 212
-147.026628255844 599.591553211212 2661.00001335144 175 177 172
-139.531075954437 598.476231098175 2655.99989891052 174 176 171
-132.112130522728 597.585737705231 2651.99995040894 179 181 176
-124.950058758259 597.821354866028 2653.00011634827 151 152 147
-117.737799882889 597.831010818481 2653.00011634827 151 150 146
-110.441870987415 597.389400005341 2651.00002288818 158 157 153
-103.117570281029 596.721947193146 2648.00000190735 169 168 164
-95.9541872143745 596.955299377441 2648.9999294281 140 139 135
-88.9860913157463 598.540127277374 2655.99989891052 133 132 128
-81.9181203842163 599.673807621002 2661.00001335144 135 134 130
-74.8788490891457 601.257681846619 2667.99998283386 127 126 122
-67.8266286849976 603.066325187683 2676.00011825562 115 114 110
-60.6628209352493 604.198217391968 2680.99999427795 80 79 75
-53.1929507851601 602.174639701843 2671.99993133545 62 61 57
-45.7202978432179 599.474251270294 2660.00008583069 126 125 121
-38.3127853274345 596.773207187653 2648.00000190735 131 132 127
-30.9586748480797 593.846201896667 2634.99999046326 143 144 139
-23.5848911106586 588.664948940277 2611.99998855591 146 147 142
-16.4118576794863 586.187541484833 2601.0000705719 155 156 151
-9.30578727275133 584.160208702087 2592.00000762939 157 158 153
-2.25299620069563 583.259224891663 2588.00005912781 148 147 143
4.7724973410368 581.681489944458 2581.00008964539 143 142 138
11.764470487833 580.328643321991 2575.00004768372 150 149 145
18.7237747013569 578.975200653076 2569.00000572205 155 154 150
25.720439851284 579.198658466339 2569.9999332428 154 153 149
32.7352024614811 579.647123813629 2572.00002670288 149 148 144
39.7761911153793 580.320239067078 2575.00004768372 148 147 143
46.7243865132332 579.640686511993 2572.00002670288 146 145 141
53.677000105381 579.185783863068 2569.9999332428 144 143 139
60.571376234293 578.279793262482 2565.99998474121 147 146 142
67.4438327550888 577.373206615448 2562.00003623962 151 150 146
74.323371052742 576.691389083862 2559.00001525879 158 157 153
81.2499076128006 576.459765434265 2558.00008773804 156 155 151
88.2052481174469 576.452970504761 2558.00008773804 155 154 150
95.1231345534325 576.220273971558 2556.99992179871 154 153 149
101.955465972424 575.536251068115 2553.99990081787 152 151 147
108.813844621181 575.077176094055 2552.00004577637 153 152 148
115.751728415489 575.068175792694 2552.00004577637 162 161 157
122.785441577435 575.509369373322 2553.99990081787 153 152 148
129.778906702995 575.72466135025 2555.0000667572 148 147 143
136.77741587162 575.939416885376 2555.99999427795 140 139 135
143.66851747036 575.703024864197 2555.0000667572 139 138 134
150.376945734024 574.790120124817 2551.00011825562 139 138 134
157.248184084892 574.552595615387 2549.99995231628 144 143 139
164.177939295769 574.540019035339 2549.99995231628 136 135 131
171.375647187233 575.428068637848 2553.99990081787 126 125 121
178.315371274948 575.41435956955 2553.99990081787 130 129 125
185.182064771652 575.174987316132 2552.99997329712 135 134 130
192.118033766747 575.160384178162 2552.99997329712 133 133 131
199.365377426147 576.046347618103 2556.99992179871 130 130 128
206.714600324631 577.157080173492 2562.00003623962 131 131 129
214.090406894684 578.267216682434 2566.99991226196 132 132 130
221.406742930412 579.151749610901 2571.00009918213 131 131 129
229.010671377182 580.711305141449 2578.00006866455 130 130 128
236.560493707657 582.045197486877 2584.00011062622 135 135 133
244.142234325409 583.378493785858 2589.99991416931 123 123 121
251.755982637405 584.711253643036 2595.99995613098 125 125 123
258.803457021713 584.692120552063 2595.99995613098 87 87 85
265.133440494537 583.095967769623 2588.99998664856 106 106 104
270.688861608505 579.923033714294 2575.00004768372 127 129 124
276.167660951614 576.749980449677 2561.00010871887 136 138 133
282.122492790222 574.702560901642 2552.00004577637 141 142 137
288.25432062149 573.10539484024 2545.00007629395 147 146 142
294.579386711121 571.958184242249 2539.99996185303 150 146 143
301.351428031921 571.711480617523 2539.00003433228 154 150 147
308.117300271988 571.464419364929 2538.00010681152 157 153 150
315.125197172165 571.6672539711 2539.00003433228 154 153 149
321.503728628159 570.744037628174 2535.00008583069 162 163 158
328.118771314621 570.270717144012 2532.99999237061 175 176 171
335.119068622589 570.472598075867 2533.99991989136 179 181 176
343.068689107895 572.249889373779 2542.00005531311 181 183 180
350.923299789429 573.801577091217 2549.00002479553 186 188 185
359.376549720764 576.253235340118 2559.99994277954 192 194 191
-154.677078127861 593.949258327484 2667.99998283386 207 209 206
-147.038251161575 592.402815818787 2661.00001335144 178 180 175
-139.647230505943 591.74633026123 2657.99999237061 177 179 174
-132.321894168854 591.311812400818 2655.99989891052 167 169 164
-125.101312994957 591.322064399719 2655.99989891052 153 154 149
-117.835953831673 591.109156608582 2654.99997138977 148 147 143
-110.575698316097 590.895533561707 2654.00004386902 144 143 139
-103.242665529251 590.236186981201 2651.00002288818 155 154 150
-96.0343256592751 590.244174003601 2651.00002288818 146 145 141
-89.0267565846443 591.587483882904 2657.00006484985 131 130 126
-82.0170715451241 593.15288066864 2664.00003433228 137 136 132
-75.0252231955528 595.16316652298 2673.00009727478 114 113 109
-67.9841861128807 597.172796726227 2681.99992179871 112 111 107
-60.780867934227 598.068654537201 2686.00010871887 93 92 88
-53.3764250576496 596.959888935089 2680.99999427795 150 149 145
-45.8786971867085 594.291985034943 2668.99991035461 133 132 128
-38.4605824947357 591.84604883194 2657.99999237061 131 132 127
-31.0551784932613 588.50884437561 2642.99988746643 140 141 136
-23.6590411514044 583.389699459076 2619.99988555908 142 143 138
-16.4447370916605 580.273926258087 2605.99994659424 156 157 152
-9.3173123896122 577.825665473938 2595.00002861023 161 162 157
-2.25579063408077 576.935470104218 2591.00008010864 145 144 140
4.78028133511543 575.599372386932 2585.00003814697 140 139 135
11.7791313678026 574.039995670319 2578.00006866455 149 148 144
18.7544468790293 572.925448417664 2572.99995422363 156 155 151
25.7425401359797 572.700917720795 2572.00002670288 154 153 149
32.7505804598331 572.921276092529 2572.99995422363 149 148 144
39.7639609873295 573.140978813171 2573.99988174438 148 147 143
46.7281565070152 572.692155838013 2572.00002670288 147 146 142
53.7022277712822 572.465479373932 2571.00009918213 146 145 141
60.6470927596092 572.015523910522 2569.00000572205 150 149 145
67.5545707345009 571.342408657074 2565.99998474121 154 153 149
74.4164884090424 570.446014404297 2562.00003623962 159 158 154
81.3517272472382 570.217132568359 2561.00010871887 156 155 151
88.3157923817635 570.210337638855 2561.00010871887 155 154 150
95.2051654458046 569.757699966431 2559.00001525879 155 154 150
102.083399891853 569.304466247559 2556.99992179871 153 152 148
108.950458467007 568.850815296173 2555.0000667572 154 153 149
115.897059440613 568.841874599457 2555.0000667572 162 161 157
122.84330278635 568.832337856293 2555.0000667572 156 155 151
129.789218306541 568.82232427597 2555.0000667572 151 150 146
136.788263916969 569.034397602081 2555.99999427795 142 141 137
143.736109137535 569.023311138153 2555.99999427795 139 138 134
150.683552026749 569.011688232422 2555.99999427795 137 136 132
157.507225871086 568.554282188416 2553.99990081787 148 147 143
164.448350667953 568.541705608368 2553.99990081787 140 139 135
171.456173062325 568.751215934753 2555.0000667572 124 123 119
178.678378462791 569.627940654755 2559.00001525879 128 127 123
185.849294066429 570.281565189362 2562.00003623962 134 133 129
193.111270666122 571.157276630402 2565.99998474121 132 132 130
200.23849606514 571.587264537811 2568.00007820129 129 129 127
207.456722855568 572.239279747009 2571.00009918213 125 125 123
214.690655469894 572.890818119049 2573.99988174438 127 127 125
222.026497125626 573.764443397522 2578.00006866455 129 129 127
229.738786816597 575.527727603912 2585.99996566772 129 129 127
237.310826778412 576.845347881317 2592.00000762939 130 130 128
244.914799928665 578.162372112274 2598.00004959106 126 126 124
252.64772772789 579.70142364502 2605.00001907349 124 124 122
259.91952419281 580.127358436584 2607.00011253357 86 86 84
266.586989164352 579.217612743378 2602.9999256134 89 89 87
271.655082702637 574.969887733459 2584.00011062622 124 126 121
276.942938566208 571.389555931091 2568.00007820129 134 136 131
282.253742218018 568.031489849091 2552.99997329712 139 140 135
288.275331258774 566.230714321136 2545.00007629395 146 145 141
294.484823942184 564.874708652496 2539.00003433228 151 147 144
301.373153924942 564.853131771088 2539.00003433228 155 151 148
308.260828256607 564.831256866455 2539.00003433228 156 152 149
315.27179479599 565.031409263611 2539.99996185303 153 152 148
321.653306484222 564.118981361389 2536.00001335144 165 166 161
328.400999307632 563.873589038849 2535.00008583069 175 176 171
335.142523050308 563.627898693085 2533.99991989136 176 178 173
342.822641134262 564.93878364563 2539.99996185303 181 183 180
350.39684176445 566.026866436005 2545.00007629395 186 188 185
359.260857105255 569.116055965424 2559.00001525879 191 193 190
-154.921159148216 587.620139122009 2671.99993133545 207 209 206
-147.215649485588 585.872709751129 2664.00003433228 180 182 177
-139.763355255127 585.004389286041 2660.00008583069 179 181 176
-132.481873035431 584.795117378235 2658.99991989136 164 166 161
-125.299662351608 585.025310516357 2660.00008583069 154 155 150
-117.978490889072 584.595084190369 2657.99999237061 148 147 143
-110.709518194199 584.384262561798 2657.00006484985 141 140 136
-103.367753326893 583.732903003693 2654.00004386902 149 148 144
-96.1507111787796 583.740890026093 2654.00004386902 149 148 144
-89.1679152846336 585.287928581238 2661.00001335144 134 133 129
-82.1468159556389 586.83443069458 2667.99998283386 135 134 130
-75.1715898513794 589.040279388428 2677.99997329712 113 112 108
-68.091057240963 590.80570936203 2686.00010871887 119 118 114
-60.9441734850407 592.350602149963 2693.00007820129 93 92 88
-53.5200983285904 591.255307197571 2687.99996376038 221 220 216
-46.0027381777763 588.619887828827 2676.00011825562 122 121 117
-38.5649763047695 586.203634738922 2664.99996185303 131 132 127
-31.151695176959 583.126962184906 2651.00002288818 140 141 136
-23.751262575388 578.509926795959 2630.00011444092 141 142 137
-16.5091753005981 575.432002544403 2615.9999370575 157 158 153
-9.35038272291422 572.793424129486 2604.00009155273 162 163 158
-2.25945562124252 570.814251899719 2595.00002861023 142 141 137
4.78806439787149 569.494247436523 2588.99998664856 139 138 134
11.8029285222292 568.173825740814 2582.99994468689 158 157 153
18.7996979802847 567.292749881744 2578.9999961853 162 161 157
25.7746484130621 566.411077976227 2575.00004768372 154 153 149
32.7914096415043 566.628634929657 2575.99997520447 144 143 139
39.7980660200119 566.625773906708 2575.99997520447 146 145 141
46.7864312231541 566.402316093445 2575.00004768372 147 146 142
53.7692159414291 566.178262233734 2573.99988174438 147 146 142
60.6991834938526 565.513849258423 2571.00009918213 152 151 147
67.6653161644936 565.288722515106 2569.9999332428 156 155 151
74.5096132159233 564.183294773102 2565.00005722046 159 158 154
81.485316157341 564.176976680756 2565.00005722046 157 156 152
88.4608030319214 564.170181751251 2565.00005722046 156 155 151
95.398798584938 563.942849636078 2563.99989128113 156 155 151
102.211318910122 563.055157661438 2559.99994277954 154 153 149
109.044425189495 562.386989593506 2556.99992179871 156 155 151
115.951627492905 562.158107757568 2555.99999427795 158 157 153
122.949220240116 562.36857175827 2556.99992179871 160 159 155
129.951894283295 562.578558921814 2558.00008773804 156 155 151
136.959612369537 562.787890434265 2559.00001525879 148 147 143
143.916144967079 562.776803970337 2559.00001525879 142 141 137
150.872275233269 562.76524066925 2559.00001525879 136 135 131
157.70460665226 562.313318252563 2556.99992179871 149 148 144
164.590016007423 562.080800533295 2555.99999427795 154 153 149
171.80509865284 562.947273254395 2559.99994277954 131 130 126
179.181084036827 564.253091812134 2565.99998474121 126 125 121
186.444073915482 565.118432044983 2569.9999332428 131 130 126
193.803548812866 566.203236579895 2575.00004768372 137 137 135
201.033711433411 566.847622394562 2578.00006866455 135 135 133
208.441004157066 567.931294441223 2582.99994468689 119 119 117
215.457811951637 567.915141582489 2582.99994468689 117 117 115
222.646310925484 568.338096141815 2585.00003814697 125 125 123
230.200469493866 569.640159606934 2591.00008010864 125 125 123
237.69499361515 570.721626281738 2595.99995613098 125 125 123
245.498895645142 572.462201118469 2604.00009155273 124 124 122
253.248602151871 573.982357978821 2611.00006103516 106 106 104
260.935992002487 575.282156467438 2617.00010299683 98 98 96
267.630964517593 574.383199214935 2612.99991607666 80 80 78
272.516250610352 569.747149944305 2592.00000762939 119 121 116
277.502506971359 565.550565719604 2572.99995422363 129 131 126
282.827198505402 562.233090400696 2558.00008773804 135 136 131
288.636177778244 560.014426708221 2548.00009727478 143 142 138
294.738084077835 558.454751968384 2540.99988937378 149 145 142
301.632255315781 558.433175086975 2540.99988937378 153 149 146
308.525711297989 558.411359786987 2540.99988937378 151 147 144
315.418362617493 558.389067649841 2540.99988937378 149 148 144
321.802914142609 557.487547397614 2536.99994087219 167 168 163
328.424096107483 557.025194168091 2535.00008583069 171 172 167
335.165917873383 556.782126426697 2533.99991989136 168 170 165
342.441469430923 557.417750358582 2536.99994087219 171 173 170
350.145608186722 558.712065219879 2542.99998283386 181 183 180
358.864277601242 561.543822288513 2555.99999427795 192 194 191
369.65611577034 567.45058298111 2582.99994468689 193 195 192
-154.875338077545 580.182015895844 2671.0000038147 209 211 208
-147.227212786675 578.673362731934 2664.00003433228 179 181 176
-139.77438211441 577.815771102905 2660.00008583069 178 180 175
-132.542163133621 577.826499938965 2660.00008583069 160 162 157
-125.403791666031 578.271090984344 2661.99994087219 153 154 149
-118.121020495892 578.063547611237 2661.00001335144 149 148 144
-110.884994268417 578.072607517242 2661.00001335144 142 141 137
-103.609688580036 577.863931655884 2660.00008583069 146 145 141
-96.4482203125954 578.306317329407 2661.99994087219 151 150 146
-89.3425941467285 579.182744026184 2665.99988937378 139 138 134
-82.2765454649925 580.493032932281 2671.99993133545 131 130 126
-75.2618238329887 582.45462179184 2680.99999427795 122 121 117
-68.1725665926933 584.198355674744 2688.99989128113 115 114 110
-61.1301250755787 586.810648441315 2700.99997520447 89 88 84
-53.8031719624996 587.032496929169 2701.99990272522 236 235 231
-46.0923872888088 582.474052906036 2680.99999427795 113 112 108
-38.6549159884453 580.30492067337 2671.0000038147 130 131 126
-31.2247164547443 577.266037464142 2657.00006484985 140 141 136
-23.8886494189501 574.661076068878 2644.99998092651 141 142 137
-16.5799297392368 570.751965045929 2627.00009346008 157 158 153
-9.37627349048853 567.276775836945 2611.00006103516 163 164 159
-2.26312060840428 564.670026302338 2598.99997711182 142 141 137
4.7976984642446 563.583672046661 2594.00010108948 140 139 135
11.8267294019461 562.279403209686 2588.00005912781 162 161 157
18.8376624137163 561.409115791321 2584.00011062622 164 163 159
25.8267726749182 560.538232326508 2579.99992370605 152 151 147
32.8577049076557 560.753166675568 2581.00008964539 144 143 139
39.8630686104298 560.532927513123 2579.99992370605 145 144 140
46.8628779053688 560.312211513519 2578.9999961853 147 146 142
53.8153164088726 559.6564412117 2575.99997520447 148 147 143
60.774888843298 559.217274188995 2573.99988174438 152 151 147
67.6707327365875 558.343112468719 2569.9999332428 156 155 151
74.5446309447289 557.468473911285 2565.99998474121 158 157 153
81.4918354153633 557.244956493378 2565.00005722046 156 155 151
88.4678661823273 557.238221168518 2565.00005722046 155 154 150
95.2947810292244 556.36191368103 2561.00010871887 156 155 151
102.139592170715 555.702328681946 2558.00008773804 154 153 149
108.967781066895 555.042207241058 2555.0000667572 156 155 151
115.960821509361 555.250525474548 2555.99999427795 156 155 151
123.007029294968 555.675625801086 2558.00008773804 161 160 156
130.012959241867 555.882811546326 2559.00001525879 157 156 152
136.970400810242 555.8722615242 2559.00001525879 152 151 147
143.983691930771 556.078433990479 2559.99994277954 146 145 141
151.002034544945 556.284129619598 2561.00010871887 139 138 134
157.963663339615 556.272089481354 2561.00010871887 144 143 139
164.796054363251 555.825114250183 2559.00001525879 155 154 150
172.086924314499 556.89799785614 2563.99989128113 139 138 134
179.404482245445 557.970345020294 2569.00000572205 128 127 123
186.821237206459 559.259355068207 2575.00004768372 129 128 124
194.044277071953 559.896171092987 2578.00006866455 137 137 135
201.205104589462 560.315370559692 2579.99992370605 138 138 136
208.618372678757 561.385631561279 2585.00003814697 123 123 121
215.974748134613 562.238097190857 2588.99998664856 117 117 115
223.266169428825 562.87282705307 2592.00000762939 121 121 119
230.75096309185 563.941419124603 2596.99988365173 121 121 119
238.353878259659 565.22661447525 2602.9999256134 125 125 123
246.177330613136 566.945612430573 2611.00006103516 124 124 122
253.946542739868 568.446815013886 2618.00003051758 103 103 101
261.753112077713 569.94754076004 2625 100 100 98
268.5726583004 569.276511669159 2621.99997901917 84 84 82
273.482650518417 564.697206020355 2601.0000705719 119 121 116
278.170019388199 559.900641441345 2578.9999961853 128 130 125
283.179610967636 555.972456932068 2561.00010871887 135 136 131
288.883686065674 553.56365442276 2549.99995231628 142 141 137
294.99140381813 552.022993564606 2542.99998283386 147 143 140
301.653951406479 551.567316055298 2540.99988937378 151 147 144
308.669179677963 551.762580871582 2542.00005531311 149 145 142
315.564930438995 551.740407943726 2542.00005531311 148 147 143
322.079360485077 551.066696643829 2539.00003433228 167 168 163
328.576743602753 550.392687320709 2536.00001335144 168 169 164
335.189282894135 549.935400485992 2533.99991989136 165 167 162
342.735230922699 550.997018814087 2539.00003433228 166 168 165
350.169718265533 551.841080188751 2542.99998283386 178 180 177
358.888864517212 554.637789726257 2555.99999427795 193 195 192
368.679404258728 558.952748775482 2575.99997520447 193 195 192
-154.829472303391 572.748124599457 2670.00007629395 210 212 209
-147.238776087761 571.472823619843 2664.00003433228 178 180 175
-139.89046216011 571.054995059967 2661.99994087219 177 179 174
-132.602423429489 570.85120677948 2661.00001335144 159 161 156
-125.319480895996 570.646822452545 2660.00008583069 151 152 147
-118.041567504406 570.441901683807 2658.99991989136 149 148 144
-110.852107405663 570.66547870636 2660.00008583069 147 146 142
-103.656858205795 570.888459682465 2661.00001335144 144 143 139
-96.5645760297775 571.754515171051 2664.99996185303 153 152 148
-89.483767747879 572.834670543671 2670.00007629395 148 147 143
-82.5294703245163 574.987053871155 2680.0000667572 123 122 118
-75.4362791776657 576.495110988617 2687.00003623962 120 121 116
-68.3555006980896 578.431785106659 2696.00009918213 117 116 112
-61.3387189805508 581.44074678421 2710.00003814697 214 213 209
-54.1659332811832 583.590865135193 2720.00002861023 219 220 215
-46.1992435157299 576.514542102814 2687.00003623962 116 117 112
-38.7303829193115 574.15783405304 2676.00011825562 130 131 126
-31.2859788537025 571.156740188599 2661.99994087219 141 142 137
-23.9266939461231 568.369686603546 2648.9999294281 142 143 138
-16.6001971811056 564.294695854187 2630.00011444092 158 159 154
-9.39139164984226 561.077296733856 2615.00000953674 163 164 159
-2.26765661500394 558.717608451843 2604.00009155273 141 140 136
4.80548245832324 557.430148124695 2598.00004959106 141 140 136
11.8505293503404 556.35666847229 2592.99993515015 161 160 156
18.8610460609198 555.068075656891 2586.99989318848 159 158 154
25.8588809520006 554.208040237427 2582.99994468689 147 146 142
32.8730680048466 553.991138935089 2582.00001716614 151 150 146
39.9280749261379 554.417371749878 2584.00011062622 147 146 142
46.9029694795609 553.770184516907 2581.00008964539 149 148 144
53.903192281723 553.551614284515 2579.99992370605 149 148 144
60.8033612370491 552.4742603302 2575.00004768372 153 152 148
67.702479660511 551.610946655273 2571.00009918213 157 156 152
74.5215192437172 550.317943096161 2565.00005722046 157 156 152
81.4347714185715 549.882650375366 2562.99996376038 155 154 150
88.3714258670807 549.661338329315 2562.00003623962 155 154 150
95.2651351690292 549.224972724915 2559.99994277954 156 155 151
102.187633514404 549.002587795258 2559.00001525879 154 153 149
109.019063413143 548.350632190704 2555.99999427795 156 155 151
115.924619138241 548.127233982086 2555.0000667572 154 153 149
122.968629002571 548.54691028595 2556.99992179871 163 162 158
129.921570420265 548.536956310272 2556.99992179871 160 159 155
137.034684419632 549.170076847076 2559.99994277954 160 159 155
144.163727760315 549.802601337433 2562.99996376038 156 155 151
151.249691843987 550.22007226944 2565.00005722046 148 147 143
158.099353313446 549.778997898102 2562.99996376038 135 134 130
165.002092719078 549.551963806152 2562.00003623962 145 144 140
172.301605343819 550.611317157745 2566.99991226196 153 152 148
179.558038711548 551.455795764923 2571.00009918213 137 136 132
186.908200383186 552.51407623291 2575.99997520447 126 125 121
194.059178233147 552.928388118744 2578.00006866455 126 127 122
201.454490423203 553.98565530777 2582.99994468689 137 138 133
208.957090973854 555.25678396225 2588.99998664856 135 135 133
216.491729021072 556.527435779572 2595.00002861023 124 124 122
223.972216248512 557.583034038544 2599.99990463257 116 116 114
231.212705373764 557.994842529297 2601.99999809265 113 113 111
238.738104701042 559.049367904663 2607.00011253357 117 117 115
246.572896838188 560.746669769287 2615.00000953674 120 120 118
254.644513130188 562.872350215912 2625 116 116 114
262.670040130615 564.782977104187 2634.0000629425 98 98 96
269.61687207222 564.334452152252 2631.99996948242 98 98 96
274.554252624512 559.81183052063 2611.00006103516 123 124 119
278.837591409683 554.217159748077 2585.00003814697 132 133 128
283.974289894104 550.552010536194 2568.00007820129 137 136 132
289.471089839935 547.744154930115 2555.0000667572 142 141 137
295.476704835892 546.008050441742 2546.99993133545 144 143 139
301.794290542603 544.914782047272 2542.00005531311 148 147 143
308.691203594208 544.893026351929 2542.00005531311 145 144 140
315.463125705719 544.656455516815 2540.99988937378 149 148 144
321.975201368332 543.991029262543 2538.00010681152 167 168 163
328.599691390991 543.539464473724 2536.00001335144 164 166 161
335.344940423965 543.301999568939 2535.00008583069 164 166 161
342.623949050903 543.921530246735 2538.00010681152 166 168 165
350.193798542023 544.969141483307 2542.99998283386 179 181 178
358.351618051529 546.873569488525 2552.00004577637 191 193 190
367.702513933182 550.491750240326 2569.00000572205 190 192 189
-154.609560966492 564.68278169632 2665.99988937378 202 204 201
-147.194996476173 564.059138298035 2663.00010681152 175 177 172
-140.006527304649 564.282178878784 2664.00003433228 169 171 166
-132.712513208389 564.081013202667 2663.00010681152 160 162 157
-125.47068297863 564.091086387634 2663.00010681152 155 156 151
-118.184044957161 563.888788223267 2661.99994087219 147 147 145
-111.069239675999 564.533352851868 2664.99996185303 151 151 149
-103.898800909519 564.965486526489 2667.00005531311 144 144 142
-96.7534258961678 565.60891866684 2670.00007629395 149 149 147
-89.591421186924 566.251873970032 2673.00009727478 145 145 143
-82.5976058840752 568.165242671967 2681.99992179871 127 127 125
-75.5826607346535 570.289969444275 2691.99991226196 108 110 107
-68.6145052313805 573.261499404907 2706.00008964539 109 109 107
-61.751052737236 577.92741060257 2727.9999256134 219 219 217
-46.3061034679413 570.521175861359 2693.00007820129 158 158 156
-38.8058461248875 567.982316017151 2680.99999427795 119 120 115
-31.3354954123497 564.807295799255 2665.99988937378 140 141 136
-23.9466726779938 561.631679534912 2651.00002288818 139 140 135
-16.6141483932734 557.608008384705 2631.99996948242 154 155 150
-9.38855204731226 553.795635700226 2614.00008201599 152 153 148
-2.26870900951326 551.889359951019 2605.00001907349 136 137 132
4.80216694995761 549.98254776001 2595.99995613098 140 141 136
11.8514774367213 549.346268177032 2592.99993515015 175 176 171
18.8771355897188 548.49761724472 2588.99998664856 150 151 146
25.9110108017921 548.283994197845 2588.00005912781 145 146 141
32.9393595457077 548.069775104523 2586.99989318848 142 143 138
39.9467162787914 547.643184661865 2585.00003814697 145 146 141
46.9067171216011 546.792328357697 2581.00008964539 150 151 146
53.8448058068752 545.94087600708 2576.99990272522 151 152 147
60.7137493789196 544.665277004242 2571.00009918213 158 159 154
67.5761848688126 543.600857257843 2565.99998474121 160 161 156
74.4402781128883 542.747914791107 2562.00003623962 155 156 151
81.377699971199 542.529881000519 2561.00010871887 155 156 151
88.2749482989311 542.099475860596 2559.00001525879 154 155 150
95.1982587575912 541.880369186401 2558.00008773804 154 155 150
102.155782282352 541.872620582581 2558.00008773804 154 155 150
109.027661383152 541.440546512604 2555.99999427795 154 155 150
115.888364613056 541.008055210114 2553.99990081787 156 157 152
122.930206358433 541.422367095947 2555.99999427795 161 162 157
129.931747913361 541.624248027802 2556.99992179871 160 161 156
136.991888284683 542.037487030029 2559.00001525879 158 159 154
144.174963235855 542.873680591583 2562.99996376038 157 158 153
151.438385248184 543.921291828156 2568.00007820129 154 155 150
158.420085906982 543.909311294556 2568.00007820129 131 132 127
165.336892008781 543.684959411621 2566.99991226196 131 132 127
172.449171543121 544.095516204834 2569.00000572205 156 157 152
179.711520671844 544.929027557373 2572.99995422363 142 143 138
187.212809920311 546.397507190704 2579.99992370605 127 128 123
194.375157356262 546.806454658508 2582.00001716614 128 127 123
201.703861355782 547.638475894928 2585.99996566772 134 133 128
209.053710103035 548.4699010849 2589.99991416931 141 140 136
216.758415102959 550.147891044617 2598.00004959106 135 134 130
224.506035447121 551.825284957886 2605.99994659424 123 122 118
231.763273477554 552.23160982132 2608.00004005432 120 119 115
239.213898777962 553.06088924408 2611.99998855591 113 112 108
246.968477964401 554.524958133698 2618.99995803833 109 108 106
255.051463842392 556.623578071594 2628.99994850159 116 115 113
263.188093900681 558.721601963043 2638.99993896484 100 99 97
270.353883504868 558.701992034912 2638.99993896484 101 100 98
275.415688753128 554.447829723358 2618.99995803833 110 109 107
279.397279024124 548.288285732269 2589.99991416931 128 127 125
284.437209367752 544.45743560791 2572.00002670288 133 132 130
290.058493614197 541.896462440491 2559.99994277954 145 144 142
296.077996492386 540.182054042816 2552.00004577637 151 150 148
302.409499883652 539.10231590271 2546.99993133545 144 144 142
309.077471494675 538.657248020172 2545.00007629395 143 143 141
315.733730792999 538.211822509766 2542.99998283386 164 164 162
322.378426790237 537.766098976135 2540.99988937378 169 171 168
329.141020774841 537.531673908234 2539.99996185303 162 167 163
336.029678583145 537.508487701416 2539.99996185303 155 160 156
342.917621135712 537.485122680664 2539.99996185303 168 170 167
350.217789411545 538.096070289612 2542.99998283386 181 183 180
358.095169067383 539.553046226501 2549.99995231628 188 190 187
367.441087961197 543.125450611115 2566.99991226196 192 194 191
-162.659719586372 560.180246829987 2678.99990081787 210 212 209
-154.563575983047 557.265162467957 2664.99996185303 190 192 189
-147.151172161102 556.649506092072 2661.99994087219 179 181 176
-140.122547745705 557.497084140778 2665.99988937378 167 169 164
-132.922261953354 557.716965675354 2667.00005531311 159 161 156
-125.716105103493 557.936131954193 2667.99998283386 154 155 150
-118.415333330631 557.73651599884 2667.00005531311 139 139 137
-111.328057944775 558.582067489624 2671.0000038147 127 127 125
-104.179702699184 559.217870235443 2674.00002479553 132 132 130
-96.9422608613968 559.434950351715 2674.99995231628 141 141 139
-89.7325798869133 559.860587120056 2677.00004577637 144 144 142
-82.7273428440094 561.749637126923 2686.00010871887 142 142 140
-75.7851973176003 564.474701881409 2698.99988174438 122 124 121
-68.9496099948883 568.66329908371 2719.00010108948 98 100 97
-46.5677343308926 566.376388072968 2707.99994468689 214 216 213
-38.9826372265816 563.242554664612 2693.00007820129 117 118 113
-31.4437858760357 559.480607509613 2674.99995231628 132 133 128
-23.9576119929552 554.672300815582 2651.99995040894 133 134 129
-16.5965333580971 549.863398075104 2628.99994850159 149 150 145
-9.39289201050997 546.936333179474 2615.00000953674 149 150 145
-2.27150274440646 545.472741127014 2608.00004005432 142 143 138
4.8099490813911 543.799340724945 2599.99990463257 140 141 136
11.8661345914006 542.962074279785 2595.99995613098 165 166 161
18.8932251185179 541.915118694305 2591.00008010864 150 151 146
25.9431097656488 541.913330554962 2591.00008010864 146 147 142
32.954715192318 541.283547878265 2588.00005912781 147 148 143
39.9344377219677 540.444076061249 2584.00011062622 148 149 144
46.8740947544575 539.394795894623 2578.9999961853 153 154 149
53.80729585886 538.554251194 2575.00004768372 153 154 149
60.694944113493 537.504017353058 2569.9999332428 158 159 154
67.5288587808609 536.243975162506 2563.99989128113 159 160 155
74.4461640715599 535.820126533508 2562.00003623962 157 158 153
81.3841372728348 535.604894161224 2561.00010871887 157 158 153
88.2819145917892 535.179913043976 2559.00001525879 156 157 152
95.2802002429962 535.38179397583 2559.99994277954 156 157 152
102.203764021397 535.164952278137 2559.00001525879 155 156 151
109.121553599834 534.947514533997 2558.00008773804 155 156 151
115.897454321384 534.102141857147 2553.99990081787 156 157 152
122.89173156023 534.301996231079 2555.0000667572 161 162 157
129.891097545624 534.501254558563 2555.99999427795 159 160 155
137.056097388268 535.327255725861 2559.99994277954 159 160 155
144.242435693741 536.152780056 2563.99989128113 160 161 156
151.568070054054 537.39595413208 2569.9999332428 156 157 152
158.617436885834 537.593126296997 2571.00009918213 135 136 131
165.671721100807 537.789642810822 2572.00002670288 130 131 126
172.663852572441 537.776648998261 2572.00002670288 153 154 149
180.074587464333 539.017677307129 2578.00006866455 148 149 144
187.517419457436 540.258049964905 2584.00011062622 125 126 121
194.691121578217 540.661633014679 2585.99996566772 129 128 123
201.87520980835 541.064739227295 2588.00005912781 134 133 128
209.230989217758 541.885435581207 2592.00000762939 141 140 135
217.108547687531 543.95991563797 2601.99999809265 137 136 132
225.039854645729 546.033799648285 2611.99998855591 124 123 119
232.491597533226 546.852827072144 2615.9999370575 121 120 116
240.056067705154 547.880470752716 2621.00005149841 115 114 110
