ply
format ascii 1.0
comment KinectMotionCapture
element vertex 797
property float x
property float y
property float z
property uchar red
property uchar green
property uchar blue
end_header
102.411031723022 -68.3665573596954 2742.00010299683 8 10 7
110.536381602287 -68.7641352415085 2757.99989700317 7 9 6
123.359210789204 -67.5395205616951 2709.00011062622 8 10 5
131.041392683983 -67.6875039935112 2714.99991416931 8 10 5
137.786895036697 -67.3617273569107 2701.99990272522 9 11 6
144.622072577477 -67.1106651425362 2691.99991226196 11 14 7
152.192398905754 -67.2085285186768 2696.00009918213 12 15 8
159.724771976471 -67.2813728451729 2698.99988174438 15 18 11
166.653767228127 -67.10484623909 2691.99991226196 16 19 12
174.061015248299 -67.1276673674583 2693.00007820129 16 19 10
179.11534011364 -66.2779808044434 2658.99991989136 15 18 9
185.665652155876 -66.026471555233 2648.9999294281 16 19 10
193.398550152779 -66.1986097693443 2655.99989891052 16 19 10
202.981859445572 -66.9688135385513 2687.00003623962 15 21 9
210.77673137188 -67.1158134937286 2693.00007820129 17 23 11
216.011643409729 -66.4652436971664 2667.00005531311 17 23 11
224.620208144188 -66.8612942099571 2683.00008773804 19 22 11
231.672674417496 -66.7837560176849 2680.0000667572 20 23 12
240.223750472069 -67.1297609806061 2694.00000572205 22 23 15
-45.9719486534595 -73.7015828490257 2664.00003433228 29 31 20
-39.1050726175308 -74.4768232107162 2691.99991226196 21 24 15
-32.0379473268986 -75.1413181424141 2716.00008010864 19 22 13
-24.531401693821 -74.8650580644608 2706.00008964539 19 22 13
-16.9526617974043 -74.0353539586067 2676.00011825562 19 22 13
-9.70709230750799 -74.5058730244637 2693.00007820129 18 21 12
-2.3406776599586 -74.0909576416016 2677.99997329712 16 17 9
4.96053975075483 -73.9249363541603 2671.99993133545 17 18 10
12.3344706371427 -74.3951499462128 2688.99989128113 17 18 10
19.7792369872332 -74.7822523117065 2703.00006866455 16 17 9
27.0290765911341 -74.422262609005 2690.00005722046 13 14 6
34.4506055116653 -74.5878219604492 2696.00009918213 12 13 5
42.5871387124062 -75.9705826640129 2746.00005149841 10 13 4
49.8657040297985 -75.6379440426826 2733.99996757507 10 13 6
57.2253204882145 -75.4988640546799 2729.00009155273 11 14 7
64.8654922842979 -75.7193267345428 2736.99998855591 11 13 8
72.3376423120499 -75.7183581590652 2736.99998855591 10 12 7
78.9055451750755 -74.8597010970116 2706.00008964539 12 14 9
87.0577692985535 -75.5224749445915 2730.00001907349 10 12 7
95.583014190197 -76.378770172596 2760.99991798401 8 10 7
104.389138519764 -77.3179233074188 2795.00007629395 7 9 6
110.494837164879 -76.2652307748795 2756.99996948242 9 11 8
117.676861584187 -76.0423541069031 2749.00007247925 13 15 10
124.905802309513 -75.8746862411499 2743.00003051758 9 11 6
131.425783038139 -75.3196850419044 2723.00004959106 8 10 5
138.04005086422 -74.8752504587173 2707.00001716614 8 10 5
147.1988260746 -75.7860392332077 2740.00000953674 7 10 3
153.940364718437 -75.4243955016136 2726.99999809265 8 11 4
159.249246120453 -74.4265466928482 2690.99998474121 6 9 2
167.084932327271 -74.6455490589142 2698.99988174438 9 12 5
173.735558986664 -74.3389874696732 2687.99996376038 14 17 8
180.527612566948 -74.1153210401535 2680.0000667572 15 18 9
185.803428292274 -73.3108296990395 2651.00002288818 15 18 9
194.488272070885 -73.861300945282 2671.0000038147 15 18 9
203.734651207924 -74.5775550603867 2697.00002670288 15 21 11
211.087062954903 -74.574738740921 2697.00002670288 17 23 13
217.22374856472 -74.1570815443993 2681.99992179871 17 23 13
224.533572793007 -74.1540938615799 2681.99992179871 19 22 13
232.18834400177 -74.2616131901741 2686.00010871887 20 23 14
240.488201379776 -74.5625570416451 2697.00002670288 22 23 15
-46.2991409003735 -81.5518349409103 2683.00008773804 25 28 19
-38.8866029679775 -81.370122730732 2677.00004577637 18 21 12
-31.7779667675495 -81.8874016404152 2694.00000572205 17 20 11
-24.476645514369 -82.0702165365219 2700.00004768372 19 22 13
-17.1551294624805 -82.31370896101 2707.99994468689 18 21 12
-9.65648610144854 -81.4324095845222 2678.99990081787 16 19 10
-2.35462700948119 -81.8884521722794 2694.00000572205 16 19 10
5.00502157956362 -81.9492265582085 2696.00009918213 16 19 10
12.4352024868131 -82.4050456285477 2710.99996566772 16 19 10
19.9106559157372 -82.7087536454201 2720.99995613098 15 18 9
34.743994474411 -82.6471224427223 2719.00010108948 9 12 3
42.896680533886 -84.0751379728317 2766.00003242493 11 14 5
50.3209382295609 -83.8616415858269 2759.0000629425 10 13 4
57.3083572089672 -83.0705314874649 2733.00004005432 9 12 3
65.2674213051796 -83.7078765034676 2753.99994850159 8 11 4
71.9665735960007 -82.7645882964134 2723.00004959106 8 10 5
80.0415873527527 -83.4320932626724 2744.99988555908 5 7 4
87.2159376740456 -83.1268578767776 2734.99989509583 9 11 8
94.4045931100845 -82.882322371006 2726.99999809265 21 23 18
101.661197841167 -82.7288404107094 2721.99988365173 2 4 0
109.21073704958 -82.818403840065 2724.99990463257 8 10 5
117.075838148594 -83.1205919384956 2734.99989509583 13 16 9
124.767385423183 -83.2707062363625 2740.00000953674 10 13 6
130.74816763401 -82.3266580700874 2709.00011062622 10 13 6
135.182425379753 -80.5620178580284 2651.00002288818 9 12 5
147.519022226334 -83.4468156099319 2746.00005149841 9 12 5
151.285007596016 -81.4389288425446 2680.0000667572 9 12 5
168.877765536308 -82.8926488757133 2727.9999256134 9 12 5
172.698944807053 -81.1884924769402 2671.99993133545 11 14 7
177.83060669899 -80.2135542035103 2640.00010490417 12 15 8
185.66058576107 -80.4842710494995 2648.9999294281 15 18 11
194.558292627335 -81.180214881897 2671.99993133545 16 19 12
202.523112297058 -81.4506858587265 2680.99999427795 16 19 12
210.379675030708 -81.6602632403374 2687.99996376038 17 20 13
217.220678925514 -81.4748108386993 2681.99992179871 18 21 14
225.032702088356 -81.6537961363792 2687.99996376038 21 24 17
232.530847191811 -81.7111730575562 2690.00005722046 22 25 18
240.930646657944 -82.0721834897995 2701.99990272522 18 21 14
-46.4364439249039 -89.1411006450653 2690.99998474121 22 27 20
-39.0021838247776 -88.9430716633797 2684.99994277954 19 22 13
-31.6005200147629 -88.7449085712433 2678.99990081787 18 21 12
-24.4309231638908 -89.2753899097443 2694.9999332428 20 23 14
-17.1611867845058 -89.739516377449 2709.00011062622 19 22 13
-9.7464406862855 -89.5741134881973 2703.9999961853 18 21 12
-2.35633738338947 -89.3092080950737 2696.00009918213 17 20 11
5.05506480112672 -90.2035981416702 2723.00004959106 15 18 9
12.5496722757816 -90.6340926885605 2736.00006103516 11 14 5
20.0566817075014 -90.7994583249092 2740.9999370575 10 13 4
26.8775261938572 -88.6127278208733 2674.99995231628 11 14 5
34.1811999678612 -88.6122062802315 2674.99995231628 11 14 5
42.8184494376183 -91.4603918790817 2760.99991798401 9 12 1
50.6119467318058 -91.9233709573746 2775.00009536743 10 13 4
57.5171150267124 -90.8624455332756 2743.00003051758 11 14 5
65.1241764426231 -91.0270288586617 2747.99990653992 10 13 6
72.8375613689423 -91.2908837199211 2756.00004196167 9 11 6
79.6612501144409 -90.4946252703667 2732.00011253357 12 14 11
86.3535478711128 -89.6982550621033 2707.99994468689 6 8 5
93.8145741820335 -89.7629931569099 2710.00003814697 63 65 60
101.808972656727 -90.2913212776184 2726.0000705719 2 4 0
109.68991369009 -90.6539037823677 2736.99998855591 11 13 8
116.346269845963 -90.0227054953575 2717.99993515015 6 9 2
124.08235669136 -90.252548456192 2724.99990463257 9 12 5
129.105105996132 -88.594451546669 2674.99995231628 9 12 5
140.17753303051 -91.0430401563644 2749.00007247925 9 12 5
147.248074412346 -90.7757058739662 2740.9999370575 10 13 6
153.596982359886 -90.1108682155609 2720.99995613098 10 13 6
161.55232489109 -90.4063284397125 2730.00001907349 10 13 6
174.95833337307 -89.6391347050667 2707.00001716614 10 13 6
177.019491791725 -87.0203077793121 2628.00002098084 11 14 7
183.274745941162 -86.5869000554085 2615.00000953674 13 16 9
195.064947009087 -88.7029245495796 2678.99990081787 13 16 9
202.671051025391 -88.8321325182915 2683.00008773804 14 17 10
209.28068459034 -88.5308012366295 2674.00002479553 17 20 13
217.055350542068 -88.7260064482689 2680.0000667572 19 22 15
225.02925992012 -88.9872834086418 2687.99996376038 21 24 17
232.786595821381 -89.1491249203682 2693.00007820129 21 24 17
241.90779030323 -89.8073837161064 2713.00005912781 19 22 15
-46.5736798942089 -96.7736765742302 2698.99988174438 7 12 5
-39.0741303563118 -96.4517667889595 2690.00005722046 18 21 12
-31.6235572099686 -96.1297079920769 2680.99999427795 17 20 11
-24.2401268333197 -95.8792194724083 2674.00002479553 18 21 12
-16.9328339397907 -95.8437398076057 2673.00009727478 18 21 12
-9.70301683992147 -96.5252444148064 2691.99991226196 15 18 9
-2.36765807494521 -97.134917974472 2709.00011062622 14 17 8
5.08839124813676 -98.2822999358177 2740.9999370575 14 17 8
12.3889148235321 -96.8478843569756 2700.99997520447 11 14 5
19.6173023432493 -96.1304679512978 2680.99999427795 10 13 4
26.8770549446344 -95.9149077534676 2674.99995231628 10 13 4
34.3467108905315 -96.3804796338081 2687.99996376038 11 14 5
42.4765236675739 -98.2084274291992 2739.00008201599 8 11 0
50.5198650062084 -99.3190929293633 2769.99998092651 10 13 4
57.9983852803707 -99.1746932268143 2766.00003242493 11 14 5
65.4311180114746 -98.994292318821 2760.99991798401 11 14 7
73.6291334033012 -99.8893827199936 2786.00001335144 10 12 7
80.0097435712814 -98.3821302652359 2743.99995803833 9 11 8
86.4158272743225 -97.1616208553314 2710.00003814697 0 1 0
102.59148478508 -98.4847396612167 2746.99997901917 0 1 0
109.728083014488 -98.1601551175117 2737.99991607666 8 10 5
116.643890738487 -97.6920574903488 2724.99990463257 9 12 5
122.850798070431 -96.7219620943069 2697.99995422363 9 12 5
139.563202857971 -98.1153398752213 2736.99998855591 9 12 5
145.204186439514 -96.8939810991287 2703.00006866455 10 13 6
152.070268988609 -96.5687111020088 2694.00000572205 10 13 6
161.07614338398 -97.5695922970772 2721.99988365173 10 13 6
167.696073651314 -97.1006900072098 2709.00011062622 10 13 6
176.441863179207 -97.8503301739693 2730.00001907349 10 13 6
179.104566574097 -95.3023955225945 2658.99991989136 10 13 6
186.355367302895 -95.2991768717766 2658.99991989136 11 14 7
195.571348071098 -96.2634831666946 2686.00010871887 12 15 8
204.858183860779 -97.1917435526848 2711.99989318848 13 16 9
211.468532681465 -96.8297272920609 2701.99990272522 16 19 12
217.537626624107 -96.2526053190231 2686.00010871887 18 21 14
224.858060479164 -96.2487459182739 2686.00010871887 21 24 17
233.819961547852 -96.9255715608597 2704.99992370605 21 24 17
240.833759307861 -96.7781320214272 2700.99997520447 18 21 14
-46.1586676537991 -103.21482270956 2674.99995231628 16 21 15
-38.8264581561089 -103.138484060764 2673.00009727478 21 24 15
-31.8234749138355 -104.103803634644 2697.99995422363 19 22 13
-24.0765009075403 -102.483756840229 2655.99989891052 18 21 12
-16.8374925851822 -102.561324834824 2657.99999237061 17 20 11
-9.64516587555408 -103.256143629551 2676.00011825562 13 16 7
-2.38509266637266 -105.301313102245 2729.00009155273 10 13 4
5.08458213880658 -105.687156319618 2739.00008201599 11 14 5
12.6042542979121 -106.034234166145 2747.99990653992 13 16 7
19.9608281254768 -105.262205004692 2727.9999256134 12 15 6
27.1478239446878 -104.258514940739 2701.99990272522 10 13 4
34.6655026078224 -104.682356119156 2713.00005912781 9 12 3
42.4757152795792 -105.684816837311 2739.00008201599 10 13 2
50.1541569828987 -106.108359992504 2750 11 14 5
57.3263131082058 -105.489939451218 2733.99996757507 11 14 5
65.5483826994896 -106.723450124264 2766.00003242493 11 14 7
73.0199068784714 -106.606341898441 2763.00001144409 10 12 7
80.7371884584427 -106.836348772049 2769.00005340576 10 12 9
86.2547606229782 -104.365415871143 2704.99992370605 2 4 1
94.9881449341774 -105.868361890316 2743.99995803833 119 121 116
102.253444492817 -105.634957551956 2737.99991607666 5 7 2
109.004683792591 -104.938454926014 2720.00002861023 8 11 4
115.785621106625 -104.357577860355 2704.99992370605 9 12 5
123.71364235878 -104.818217456341 2717.00000762939 9 12 5
133.878409862518 -107.014685869217 2773.9999294281 9 12 5
141.29427075386 -106.896303594112 2770.99990844727 9 12 5
146.007284522057 -104.848995804787 2717.99993515015 10 13 6
153.196394443512 -104.691825807095 2713.99998664856 10 13 6
158.232778310776 -103.145860135555 2674.00002479553 10 13 6
169.302418828011 -105.495676398277 2734.99989509583 10 13 6
175.469174981117 -104.720957577229 2714.99991416931 9 12 5
183.075323700905 -104.833252727985 2717.99993515015 10 13 6
188.945040106773 -103.981204330921 2696.00009918213 11 14 7
197.679236531258 -104.710318148136 2714.99991416931 11 14 7
206.893935799599 -105.632103979588 2739.00008201599 12 15 8
215.143024921417 -106.013767421246 2749.00007247925 15 18 11
217.209696769714 -103.425927460194 2681.99992179871 17 20 13
224.519103765488 -103.421792387962 2681.99992179871 20 23 16
232.778519392014 -103.841692209244 2693.00007820129 21 24 17
-46.1404733359814 -110.474735498428 2674.00002479553 16 21 15
-39.305005222559 -111.797712743282 2706.00008964539 22 25 16
-31.6577069461346 -110.88952422142 2684.00001525879 20 23 14
-24.2754388600588 -110.642209649086 2677.99997329712 18 21 12
-16.8941654264927 -110.18817871809 2667.00005531311 16 19 10
-9.75309778004885 -111.799754202366 2706.00008964539 11 14 5
-2.37193494103849 -112.130396068096 2713.99998664856 11 14 5
5.10118575766683 -113.535098731518 2747.99990653992 11 14 5
12.5718927010894 -113.245703279972 2740.9999370575 11 14 5
19.9896935373545 -112.873531877995 2732.00011253357 11 14 5
27.3884050548077 -112.625144422054 2726.0000705719 11 14 5
34.8692387342453 -112.748444080353 2729.00009155273 11 14 5
42.2732643783093 -112.623691558838 2726.0000705719 11 14 3
49.7883893549442 -112.787976861 2730.00001907349 11 14 5
64.3621832132339 -112.20720410347 2716.00008010864 10 13 6
71.8292072415352 -112.288407981396 2717.99993515015 10 12 7
80.2690386772156 -113.732762634754 2753.00002098084 10 12 9
89.2503634095192 -115.631341934204 2799.00002479553 0 1 0
95.1246991753578 -113.522551953793 2747.99990653992 111 113 108
101.877927780151 -112.694300711155 2727.9999256134 4 6 1
109.363168478012 -112.733423709869 2729.00009155273 5 8 1
116.38256162405 -112.317994236946 2719.00010108948 6 9 2
124.667331576347 -113.100342452526 2737.99991607666 10 13 6
135.130524635315 -115.658715367317 2799.99995231628 10 13 6
142.107307910919 -115.118883550167 2786.99994087219 10 13 6
147.454753518105 -113.381080329418 2744.99988555908 9 12 5
158.104121685028 -115.690976381302 2801.00011825562 9 12 5
163.851127028465 -114.365980029106 2769.00005340576 10 13 6
167.627736926079 -111.843176186085 2707.99994468689 10 13 6
174.884051084518 -111.757092177868 2706.00008964539 10 13 6
182.937011122704 -112.166441977024 2716.00008010864 10 13 6
190.763458609581 -112.410418689251 2721.99988365173 11 14 7
196.073591709137 -111.20892316103 2693.00007820129 12 15 8
207.192033529282 -113.269582390785 2743.00003051758 13 16 9
213.338851928711 -112.563356757164 2726.0000705719 13 16 9
218.501269817352 -111.402839422226 2697.99995422363 14 17 10
222.840562462807 -109.911985695362 2661.99994087219 19 22 15
231.563895940781 -110.609337687492 2678.99990081787 21 23 18
-46.4328154921532 -118.52154135704 2690.99998474121 8 13 7
-39.2170026898384 -118.918880820274 2700.00004768372 20 23 14
-32.0698358118534 -119.756519794464 2719.00010108948 15 18 9
-24.3293028324842 -118.21560561657 2684.00001525879 13 16 7
-16.9824790209532 -118.083916604519 2680.99999427795 14 17 8
-9.74207371473312 -119.053199887276 2703.00006866455 12 15 6
-2.38062324933708 -119.978278875351 2723.99997711182 11 14 5
4.95442934334278 -117.555789649487 2668.99991035461 11 14 5
12.4936513602734 -119.978055357933 2723.99997711182 11 14 5
19.9014618992805 -119.80152130127 2720.00002861023 12 15 6
27.2572059184313 -119.492687284946 2713.00005912781 13 16 7
34.7023867070675 -119.624130427837 2716.00008010864 13 16 7
42.3188768327236 -120.195843279362 2729.00009155273 9 12 1
49.112543463707 -118.609249591827 2693.00007820129 10 13 4
57.0723116397858 -119.885317981243 2721.99988365173 12 15 6
64.7399500012398 -120.324417948723 2732.00011253357 13 16 9
72.0919370651245 -120.146714150906 2727.9999256134 10 12 7
80.5297270417213 -121.64244055748 2762.00008392334 8 10 7
102.062471210957 -120.359197258949 2733.00004005432 0 1 0
109.360836446285 -120.180726051331 2729.00009155273 7 10 3
117.107719182968 -120.486482977867 2736.00006103516 10 13 6
124.664671719074 -120.571881532669 2737.99991607666 10 13 6
131.89423084259 -120.348893105984 2733.00004005432 10 13 6
139.605849981308 -120.566077530384 2737.99991607666 10 13 6
148.4185308218 -121.663779020309 2763.00001144409 9 12 5
157.762095332146 -123.06947261095 2795.00007629395 9 12 5
163.966000080109 -122.009210288525 2770.99990844727 10 13 6
168.119415640831 -119.583934545517 2716.00008010864 10 13 6
174.621850252151 -118.963807821274 2701.99990272522 10 13 6
181.990221142769 -118.959955871105 2701.99990272522 11 14 7
187.535762786865 -117.811284959316 2676.00011825562 12 15 8
195.705428719521 -118.33543330431 2687.99996376038 13 16 9
204.695120453835 -119.2996352911 2710.00003814697 13 16 9
212.395280599594 -119.471229612827 2713.99998664856 13 16 9
215.743273496628 -117.265678942204 2664.00003433228 13 16 9
223.505631089211 -117.525100708008 2670.00007629395 18 21 14
231.213390827179 -117.740347981453 2674.99995231628 21 23 18
242.424741387367 -119.671940803528 2719.00010108948 19 21 16
-46.7423349618912 -126.707419753075 2709.00011062622 3 8 2
-39.3758714199066 -126.80196762085 2710.99996566772 17 20 11
-32.0219211280346 -126.989915966988 2714.99991416931 15 18 9
-24.7003808617592 -127.458319067955 2724.99990463257 12 15 6
-16.8997459113598 -124.792702496052 2667.99998283386 12 15 6
-9.71662253141403 -126.102700829506 2696.00009918213 12 15 6
-2.31327651999891 -123.810902237892 2647.0000743866 13 16 7
5.02485269680619 -126.617312431335 2707.00001716614 13 16 7
12.4566731974483 -127.038061618805 2716.00008010864 12 15 6
20.0765989720821 -128.347352147102 2743.99995803833 12 15 6
27.0958300679922 -126.148417592049 2697.00002670288 12 15 6
34.8549075424671 -127.59767472744 2727.9999256134 12 15 6
42.1008057892323 -126.988708972931 2714.99991416931 12 15 4
49.5673343539238 -127.127945423126 2717.99993515015 13 16 7
57.2177805006504 -127.641201019287 2729.00009155273 14 17 8
65.1650056242943 -128.621980547905 2750 12 15 8
72.565957903862 -128.433257341385 2746.00005149841 11 13 8
81.2567695975304 -130.349040031433 2786.99994087219 5 7 4
109.759069979191 -128.095179796219 2739.00008201599 8 11 4
117.961086332798 -128.887549042702 2756.00004196167 13 16 9
125.526919960976 -128.931477665901 2756.99996948242 11 12 6
131.891250610352 -127.806112170219 2733.00004005432 11 12 6
139.704674482346 -128.130316734314 2740.00000953674 11 12 6
146.535113453865 -127.565816044807 2727.9999256134 12 13 7
155.218601226807 -128.591075539589 2750 12 13 7
161.595478653908 -127.698972821236 2730.99994659424 12 13 7
167.744264006615 -126.713246107101 2710.00003814697 12 13 7
176.621362566948 -127.784699201584 2733.00004005432 12 13 7
184.545531868935 -128.107830882072 2740.00000953674 12 13 7
190.965443849564 -127.402201294899 2724.99990463257 13 14 8
196.06514275074 -125.901713967323 2693.00007820129 13 14 8
202.651232481003 -125.429660081863 2683.00008773804 15 18 9
208.712503314018 -124.677002429962 2667.00005531311 15 18 11
216.87225997448 -125.186383724213 2677.99997329712 15 18 11
223.416984081268 -124.760694801807 2668.99991035461 18 21 14
232.936978340149 -125.970870256424 2694.9999332428 21 23 18
241.973653435707 -126.853615045547 2713.99998664856 14 16 13
-38.866575807333 -132.467478513718 2676.00011825562 17 20 11
-31.879611313343 -133.804932236671 2703.00006866455 19 22 13
-24.5638191699982 -134.152144193649 2710.00003814697 17 20 11
-17.2223746776581 -134.598195552826 2719.00010108948 16 19 10
-9.70196910202503 -133.261948823929 2691.99991226196 17 20 11
-2.34992383047938 -133.113577961922 2688.99989128113 17 20 11
5.00245578587055 -133.410573005676 2694.9999332428 15 18 9
12.382990680635 -133.657887578011 2700.00004768372 14 17 8
27.4568442255259 -135.290488600731 2733.00004005432 12 15 6
34.9179431796074 -135.289698839188 2733.00004005432 12 15 6
42.0687757432461 -134.298697113991 2713.00005912781 14 17 6
49.1831712424755 -133.505523204803 2697.00002670288 16 19 10
57.6357170939446 -136.078283190727 2749.00007247925 15 18 9
65.8742934465408 -137.611240148544 2779.99997138977 11 14 7
73.0134323239326 -136.768028140068 2763.00001144409 11 13 8
118.086643517017 -136.555820703506 2759.0000629425 12 15 8
125.478401780128 -136.40433549881 2756.00004196167 12 13 7
131.646797060966 -135.015368461609 2727.9999256134 12 13 7
138.57963681221 -134.51711833477 2717.99993515015 12 13 7
146.90762758255 -135.354951024055 2734.99989509583 12 13 7
154.311820864677 -135.301783680916 2733.99996757507 12 13 7
161.118283867836 -134.753569960594 2723.00004959106 12 13 7
168.04975271225 -134.353652596474 2714.99991416931 12 13 7
175.712436437607 -134.547412395477 2719.00010108948 13 14 8
184.271782636642 -135.384261608124 2736.00006103516 14 15 9
190.330281853676 -134.390100836754 2716.00008010864 15 16 10
196.133345365524 -133.296862244606 2694.00000572205 15 16 10
201.060339808464 -131.708756089211 2661.99994087219 15 18 9
208.39461684227 -131.753325462341 2663.00010681152 16 19 10
216.78626537323 -132.440865039825 2677.00004577637 16 19 10
225.839301943779 -133.474498987198 2697.99995422363 18 21 14
233.795881271362 -133.815303444862 2704.99992370605 20 22 17
242.770478129387 -134.700074791908 2723.00004959106 18 20 17
-46.2568998336792 -140.029564499855 2680.99999427795 12 17 11
-39.1415320336819 -140.761911869049 2694.9999332428 17 20 11
-31.4895994961262 -139.457061886787 2670.00007629395 20 23 14
-24.4181677699089 -140.711352229118 2694.00000572205 20 23 14
-17.0319136232138 -140.450730919838 2688.99989128113 18 21 12
-9.76298749446869 -141.495734453201 2709.00011062622 19 22 13
-2.37345858477056 -141.861498355865 2716.00008010864 18 21 12
5.00047206878662 -140.71236550808 2694.00000572205 18 21 12
12.3001197353005 -140.085339546204 2681.99992179871 17 20 11
19.7756346315145 -141.181796789169 2703.00006866455 16 19 10
27.2954031825066 -141.912430524826 2717.00000762939 13 16 7
34.7509607672691 -142.068281769753 2720.00002861023 12 15 6
41.8195985257626 -140.865996479988 2697.00002670288 14 17 6
48.8354340195656 -139.872416853905 2677.99997329712 12 15 6
57.3616847395897 -142.900362610817 2736.00006103516 13 16 7
65.8252239227295 -145.092383027077 2778.00011634827 13 16 9
72.5359097123146 -143.366992473602 2744.99988555908 10 12 7
103.922188282013 -145.342409610748 2782.99999237061 4 6 1
109.953992068768 -143.302872776985 2743.99995803833 12 15 8
118.254862725735 -144.292160868645 2763.00001144409 10 13 6
125.110983848572 -143.505647778511 2747.99990653992 13 14 8
131.933003664017 -142.771229147911 2733.99996757507 13 14 8
138.678103685379 -142.036631703377 2720.00002861023 13 14 8
146.313101053238 -142.241835594177 2723.99997711182 13 14 8
154.533728957176 -142.968997359276 2737.99991607666 13 14 8
162.060931324959 -143.017128109932 2739.00008201599 13 14 8
168.045550584793 -141.759738326073 2714.99991416931 14 15 9
174.932584166527 -141.337662935257 2707.00001716614 15 16 10
181.101784110069 -140.393286943436 2688.99989128113 16 17 11
188.363417983055 -140.336364507675 2687.99996376038 17 18 12
196.492463350296 -140.905752778053 2698.99988174438 17 18 12
202.414900064468 -139.908790588379 2680.0000667572 17 20 11
208.389475941658 -139.0161216259 2663.00010681152 19 22 13
216.457009315491 -139.532774686813 2673.00009727478 20 23 14
225.917458534241 -140.884399414063 2698.99988174438 19 22 15
233.790174126625 -141.19179546833 2704.99992370605 20 22 17
245.350033044815 -143.639013171196 2752.00009346008 20 22 17
-47.6186573505402 -151.686355471611 2759.99999046326 15 20 13
-31.4533710479736 -146.577313542366 2667.00005531311 18 21 12
-24.1365376859903 -146.358251571655 2663.00010681152 19 22 13
-16.7781040072441 -145.589351654053 2648.9999294281 18 21 12
-9.74470376968384 -148.612543940544 2703.9999961853 18 21 12
-2.37776385620236 -149.547025561333 2720.99995613098 17 20 11
4.96692722663283 -147.073790431023 2676.00011825562 17 20 11
12.2493430972099 -146.798744797707 2671.0000038147 17 20 11
19.7604708373547 -148.447096347809 2700.99997520447 17 20 11
27.2143017500639 -148.886159062386 2709.00011062622 14 17 8
34.5711633563042 -148.720413446426 2706.00008964539 13 16 7
41.5238700807095 -147.180497646332 2677.99997329712 14 17 6
48.7611815333366 -146.95942401886 2674.00002479553 11 14 5
56.6263645887375 -148.441836237907 2700.99997520447 15 18 11
64.6861121058464 -150.033935904503 2730.00001907349 14 17 10
72.4018514156342 -150.581642985344 2740.00000953674 8 10 5
111.113078892231 -152.38256752491 2773.00000190735 9 11 6
118.080511689186 -151.610106229782 2759.0000629425 8 11 4
125.289767980576 -151.222139596939 2752.00009346008 12 13 7
132.219031453133 -150.55924654007 2740.00000953674 12 13 7
138.164609670639 -148.907124996185 2710.00003814697 13 14 8
145.879551768303 -149.23295378685 2716.00008010864 14 15 9
154.191017150879 -150.108009576797 2732.00011253357 14 15 9
162.352487444878 -150.763049721718 2743.99995803833 14 15 9
171.816632151604 -152.516677975655 2776.00002288818 14 15 9
175.897285342216 -149.545207619667 2721.99988365173 15 16 10
183.252155780792 -149.48545396328 2720.99995613098 16 17 11
188.358500599861 -147.667557001114 2687.99996376038 17 18 12
195.176973938942 -147.277891635895 2680.99999427795 17 18 12
203.315943479538 -147.876843810081 2691.99991226196 18 21 12
210.653364658356 -147.87133038044 2691.99991226196 19 22 13
217.989951372147 -147.865638136864 2691.99991226196 19 22 13
225.074604153633 -147.695004940033 2688.99989128113 18 21 14
234.043434262276 -148.732513189316 2707.99994468689 19 21 16
245.076298713684 -150.978058576584 2749.00007247925 30 32 29
-48.6697219312191 -162.735268473625 2821.00009918213 11 16 9
-40.9256964921951 -162.563487887383 2818.00007820129 16 19 12
-32.1600735187531 -157.314956188202 2726.99999809265 15 18 9
-23.963650688529 -152.527660131454 2644.00005340576 20 23 14
-16.8092977255583 -153.1051248312 2654.00004386902 20 23 14
-9.77325811982155 -156.451433897018 2711.99989318848 16 19 10
-2.33050994575024 -153.855636715889 2667.00005531311 14 17 8
4.98720305040479 -155.009359121323 2687.00003623962 16 19 10
12.3453009873629 -155.297562479973 2691.99991226196 17 20 11
19.6355432271957 -154.835596680641 2684.00001525879 17 20 11
27.0327106118202 -155.238717794418 2690.99998474121 16 19 10
34.3019030988216 -154.891714453697 2684.99994277954 15 18 9
41.5382012724876 -154.544487595558 2678.99990081787 15 18 9
48.5409833490849 -153.562515974045 2661.99994087219 16 19 10
56.3103072345257 -154.945492744446 2686.00010871887 15 18 11
64.3762722611427 -156.732007861137 2717.00000762939 11 13 8
72.7168992161751 -158.749014139175 2752.00009346008 6 8 3
110.268533229828 -158.735871315002 2752.00009346008 5 8 1
118.291191756725 -159.424751996994 2763.99993896484 11 14 7
126.242309808731 -159.940361976624 2773.00000190735 10 11 5
131.732821464539 -157.456561923027 2730.00001907349 11 12 6
137.956842780113 -156.068503856659 2706.00008964539 12 13 7
145.445808768272 -156.179830431938 2707.99994468689 14 15 9
154.525354504585 -157.905757427216 2737.99991607666 15 16 10
165.187910199165 -161.01548075676 2792.00005531311 15 16 10
170.512184500694 -158.876955509186 2755.00011444092 16 17 11
177.507907152176 -158.41069817543 2746.99997901917 16 17 11
183.651193976402 -157.252311706543 2726.99999809265 16 17 11
188.983991742134 -155.517160892487 2697.00002670288 16 17 11
194.734826683998 -154.24320101738 2674.99995231628 16 17 11
202.253073453903 -154.410645365715 2677.99997329712 17 20 11
211.508378386497 -155.846327543259 2703.00006866455 17 20 11
217.660158872604 -154.975533485413 2687.99996376038 16 19 10
225.152224302292 -155.084699392319 2690.00005722046 15 18 11
232.567921280861 -155.136033892632 2690.99998474121 17 19 14
238.91843855381 -154.495403170586 2680.0000667572 23 25 22
-47.8746853768826 -167.651906609535 2775.00009536743 21 24 17
-39.8643426597118 -165.84075987339 2744.99988555908 17 20 13
-31.8053402006626 -162.9419028759 2697.00002670288 18 21 14
-24.1623297333717 -161.069840192795 2665.99988937378 16 19 12
-16.9354677200317 -161.553785204887 2674.00002479553 16 19 12
-9.63963661342859 -161.614611744881 2674.99995231628 21 24 17
4.94065554812551 -160.829320549965 2661.99994087219 16 19 12
12.3953809961677 -163.306161761284 2703.00006866455 16 19 12
19.7666436433792 -163.245245814323 2701.99990272522 16 19 12
26.931457221508 -161.975800991058 2680.99999427795 13 16 9
34.441415220499 -162.881121039391 2696.00009918213 12 15 8
41.6299998760223 -162.215396761894 2684.99994277954 10 13 6
48.5577881336212 -160.884901881218 2663.00010681152 15 18 11
55.9522584080696 -161.245793104172 2668.99991035461 7 9 4
64.0426650643349 -163.298070430756 2703.00006866455 11 13 10
72.8468671441078 -166.558340191841 2756.99996948242 0 1 0
109.744422137737 -165.457233786583 2739.00008201599 9 11 6
117.132246494293 -165.333017706871 2736.99998855591 8 10 5
132.452756166458 -165.808796882629 2744.99988555908 11 14 7
140.195950865746 -166.106760501862 2750 10 13 6
146.784290671349 -165.075674653053 2733.00004005432 11 14 7
157.342672348022 -168.393179774284 2788.00010681152 12 15 8
161.751672625542 -165.12693464756 2733.99996757507 12 15 8
169.826447963715 -165.725991129875 2743.99995803833 12 15 8
175.435051321983 -163.969442248344 2714.99991416931 12 15 8
181.221544742584 -162.51477599144 2690.99998474121 13 16 9
190.379962325096 -164.079487323761 2717.00000762939 13 16 9
195.020437240601 -161.779060959816 2678.99990081787 13 16 9
202.24729180336 -161.712870001793 2677.99997329712 15 18 7
210.015654563904 -162.06918656826 2684.00001525879 15 18 9
218.868568539619 -163.210213184357 2703.00006866455 15 18 9
226.066529750824 -163.083016872406 2700.99997520447 19 22 15
230.487257242203 -161.023586988449 2667.00005531311 18 20 15
240.694642066956 -163.009196519852 2700.00004768372 13 15 12
-46.8553602695465 -171.49606347084 2716.00008010864 20 22 17
-39.7614575922489 -172.886565327644 2737.99991607666 19 22 15
-31.7218080163002 -169.856816530228 2690.00005722046 15 18 11
-24.4787819683552 -170.552253723145 2700.99997520447 15 18 11
-16.9856119900942 -169.353201985359 2681.99992179871 16 19 12
-9.69699490815401 -169.921919703484 2690.99998474121 12 15 8
4.93122357875109 -167.77515411377 2657.00006484985 17 20 13
12.2528411448002 -168.722033500671 2671.99993133545 16 19 12
19.8099222034216 -170.994728803635 2707.99994468689 14 17 10
27.2118877619505 -171.057134866714 2709.00011062622 13 16 9
34.4020277261734 -170.045867562294 2693.00007820129 14 17 10
41.7837575078011 -170.170947909355 2694.9999332428 10 12 7
48.9391945302486 -169.474929571152 2684.00001525879 7 9 4
55.9714958071709 -168.589308857918 2670.00007629395 11 13 10
63.2114633917809 -168.46114397049 2667.99998283386 5 7 4
103.238195180893 -174.572646617889 2765.00010490417 0 1 0
108.859606087208 -171.538785099983 2717.00000762939 3 5 0
117.898985743523 -173.934385180473 2755.00011444092 10 12 7
123.184755444527 -170.837104320526 2706.00008964539 9 12 5
131.724968552589 -172.348290681839 2730.00001907349 9 12 5
139.783874154091 -173.101648688316 2742.00010299683 10 13 6
148.122489452362 -174.107223749161 2757.99989700317 10 13 6
154.234036803246 -172.524392604828 2733.00004005432 10 13 6
160.918533802032 -171.698868274689 2720.00002861023 10 13 6
167.160138487816 -170.494467020035 2700.99997520447 10 13 6
174.783617258072 -170.741692185402 2704.99992370605 10 13 6
183.371052145958 -171.872347593307 2723.00004959106 10 13 6
189.183130860329 -170.414969325066 2700.00004768372 11 14 7
197.271212935448 -171.040207147598 2710.00003814697 11 14 5
202.845424413681 -169.519394636154 2686.00010871887 13 16 5
210.478886961937 -169.765561819077 2690.00005722046 13 16 7
217.728510499001 -169.695973396301 2688.99989128113 13 16 7
224.804446101189 -169.499978423119 2686.00010871887 19 22 15
232.727378606796 -169.934809207916 2693.00007820129 19 21 16
-46.2673157453537 -176.664412021637 2681.99992179871 22 24 19
-31.9920070469379 -178.709000349045 2713.00005912781 19 22 15
-24.4236197322607 -177.524223923683 2694.9999332428 16 19 12
-16.9597323983908 -176.405116915703 2677.99997329712 16 19 12
-9.62101109325886 -175.878554582596 2670.00007629395 14 17 10
-2.38534016534686 -179.831087589264 2730.00001907349 11 14 7
4.92364168167114 -174.758896231651 2653.00011634827 16 19 12
12.2157633304596 -175.483182072639 2664.00003433228 17 20 13
19.538626074791 -175.943776965141 2671.0000038147 16 19 12
27.0703844726086 -177.523925900459 2694.9999332428 13 16 9
34.1709852218628 -176.205486059189 2674.99995231628 12 15 8
41.8134219944477 -177.653402090073 2697.00002670288 12 14 9
49.5393164455891 -178.969338536263 2717.00000762939 4 6 1
56.7243546247482 -178.243026137352 2706.00008964539 8 10 7
64.157098531723 -178.372770547867 2707.99994468689 1 3 0
72.2874477505684 -180.214866995811 2736.00006103516 1 3 2
110.578931868076 -181.780740618706 2759.99999046326 12 14 9
117.980815470219 -181.579455733299 2756.99996948242 9 11 6
129.646077752113 -176.961243152618 2687.00003623962 9 12 5
139.626517891884 -180.38147687912 2739.00008201599 10 13 6
147.634476423264 -181.035384535789 2749.00007247925 10 13 6
154.059872031212 -179.779306054115 2730.00001907349 9 12 5
160.381019115448 -178.523063659668 2710.99996566772 10 13 6
167.092993855476 -177.793443202972 2700.00004768372 10 13 6
176.070392131805 -179.434150457382 2724.99990463257 10 13 6
184.981465339661 -180.877029895782 2746.99997901917 9 12 5
191.559433937073 -180.015042424202 2733.99996757507 9 12 5
197.847425937653 -178.955376148224 2717.99993515015 9 12 3
204.727038741112 -178.488105535507 2710.99996566772 9 12 3
208.516284823418 -175.453066825867 2664.99996185303 10 13 4
216.42629802227 -175.973057746887 2673.00009727478 10 13 4
227.140873670578 -178.665205836296 2713.99998664856 17 20 13
237.473115324974 -180.896118283272 2747.99990653992 18 20 15
-39.8314520716667 -188.164874911308 2743.00003051758 24 27 20
-31.9791436195374 -186.039537191391 2711.99989318848 26 29 22
-24.0965615957975 -182.404771447182 2658.99991989136 22 25 18
-16.6488587856293 -180.347487330437 2628.99994850159 20 23 16
-9.74319968372583 -185.492888092995 2703.9999961853 23 26 19
-2.32846825383604 -182.817727327347 2664.99996185303 24 27 20
4.9717272631824 -183.778047561646 2678.99990081787 14 17 10
12.2336950153112 -183.023169636726 2667.99998283386 10 13 6
19.6769554167986 -184.531822800636 2690.00005722046 10 13 6
26.7781913280487 -182.884633541107 2665.99988937378 12 15 8
33.9910127222538 -182.540640234947 2661.00001335144 13 16 9
42.4476563930511 -187.821388244629 2737.99991607666 15 17 12
50.8321672677994 -191.249683499336 2788.00010681152 6 8 3
65.0078356266022 -188.227474689484 2743.99995803833 10 12 9
103.940837085247 -190.956920385361 2783.99991989136 3 5 0
110.655404627323 -189.444303512573 2762.00008392334 9 11 6
118.062496185303 -189.234703779221 2759.0000629425 10 12 7
126.044526696205 -189.916446805 2769.00005340576 7 10 3
141.457036137581 -190.318986773491 2775.00009536743 10 13 6
146.394446492195 -186.953604221344 2726.0000705719 10 13 6
155.070543289185 -188.457310199738 2747.99990653992 9 12 5
161.44061088562 -187.149032950401 2729.00009155273 11 14 7
165.602326393127 -183.509021997452 2676.00011825562 11 14 7
177.098453044891 -187.960684299469 2740.9999370575 11 14 7
182.551309466362 -185.897544026375 2710.99996566772 11 14 7
191.202893853188 -187.125608325005 2729.00009155273 10 13 6
200.024679303169 -188.421919941902 2747.99990653992 10 13 4
204.342871904373 -185.535535216331 2706.00008964539 11 14 5
209.604948759079 -183.677509427071 2678.99990081787 12 15 6
219.253122806549 -185.658752918243 2707.99994468689 11 14 5
244.810730218887 -194.213196635246 2832.99994468689 16 18 13
-47.9719042778015 -198.353856801987 2780.99989891052 19 21 16
-39.6558232605457 -194.789171218872 2730.99994659424 22 25 18
-31.9308713078499 -193.14993917942 2707.99994468689 24 27 20
-24.4310162961483 -192.295029759407 2696.00009918213 24 27 20
-17.0915592461824 -192.509740591049 2698.99988174438 23 26 19
-9.68881417065859 -191.796958446503 2688.99989128113 21 24 17
-2.38168239593506 -194.436252117157 2726.0000705719 22 25 18
5.03093842417002 -193.366304039955 2710.99996566772 16 19 12
12.3799974098802 -192.581415176392 2700.00004768372 8 11 4
19.7713635861874 -192.794814705849 2703.00006866455 10 13 6
27.0283631980419 -191.938072443008 2690.99998474121 12 15 8
34.4624407589436 -192.436262965202 2697.99995422363 10 13 6
41.9656001031399 -193.076834082603 2707.00001716614 10 12 7
51.486749202013 -201.420158147812 2823.99988174438 5 7 2
65.3609335422516 -196.780011057854 2759.0000629425 10 12 9
74.4489058852196 -200.985580682755 2818.00007820129 6 8 7
104.459941387177 -199.546605348587 2798.00009727478 10 12 7
110.25096476078 -196.262270212173 2752.00009346008 12 14 9
115.961708128452 -193.263038992882 2710.00003814697 9 11 6
126.586407423019 -198.322087526321 2780.99989891052 11 14 7
135.71634888649 -200.599506497383 2812.99996376038 10 13 6
135.641187429428 -189.755573868752 2661.00001335144 10 13 6
152.751713991165 -193.025693297386 2707.00001716614 11 14 7
160.606950521469 -193.590715527534 2714.99991416931 11 14 7
166.772454977036 -192.158997058868 2694.9999332428 11 14 7
174.31429028511 -192.367032170296 2697.99995422363 12 15 8
180.053740739822 -190.649762749672 2674.00002479553 13 16 9
187.623366713524 -190.928652882576 2677.99997329712 14 17 10
196.960926055908 -192.91827082634 2706.00008964539 14 17 10
204.638093709946 -193.196594715118 2710.00003814697 15 18 9
212.336286902428 -193.474650382996 2713.99998664856 17 20 11
222.808182239532 -196.176126599312 2752.00009346008 16 19 10
234.825283288956 -200.017705559731 2805.99999427795 16 19 12
-56.6585846245289 -210.007727146149 2835.99996566772 116 118 115
-40.1916392147541 -204.975783824921 2767.99988746643 23 26 19
-32.4131473898888 -203.570142388344 2749.00007247925 24 27 20
-24.6566776186228 -201.497688889503 2720.99995613098 20 23 16
-17.1226058155298 -200.239568948746 2703.9999961853 17 20 13
-9.88662987947464 -203.202158212662 2743.99995803833 20 23 16
-2.38596508279443 -202.239707112312 2730.99994659424 11 14 7
5.03818038851023 -201.054811477661 2714.99991416931 8 11 4
12.4024739488959 -200.313940644264 2704.99992370605 9 12 5
19.9023094028234 -201.498225331306 2720.99995613098 14 17 10
27.2583942860365 -200.978979468346 2713.99998664856 10 13 6
34.7166582942009 -201.274037361145 2717.99993515015 5 8 1
42.5066687166691 -203.049913048744 2742.00010299683 10 12 7
50.6644994020462 -205.788105726242 2779.00004386902 6 8 3
57.5568601489067 -203.342437744141 2746.00005149841 18 20 15
64.7663548588753 -202.451601624489 2733.99996757507 9 11 8
74.0235447883606 -207.484394311905 2802.00004577637 9 11 10
105.464182794094 -209.174424409866 2825.00004768372 6 8 3
108.203940093517 -199.989154934883 2700.99997520447 12 14 9
119.981974363327 -195.16821205616 2635.99991798401 11 14 7
129.102051258087 -198.125258088112 2676.00011825562 11 14 7
135.432481765747 -196.713775396347 2657.00006484985 10 13 6
144.988104701042 -199.892267584801 2700.00004768372 11 14 7
152.464181184769 -200.034961104393 2701.99990272522 12 15 8
157.821089029312 -197.512343525887 2667.99998283386 10 13 6
167.571038007736 -200.46766102314 2707.99994468689 11 14 7
175.018846988678 -200.535580515862 2709.00011062622 12 15 8
182.000115513802 -200.08510351181 2703.00006866455 13 16 9
182.922869920731 -193.268552422523 2611.00006103516 15 18 11
192.368656396866 -195.630520582199 2642.99988746643 15 18 11
202.063664793968 -198.066145181656 2676.00011825562 17 20 11
211.859509348869 -200.427263975143 2707.99994468689 18 21 12
223.691016435623 -204.49024438858 2763.00001144409 17 20 11
244.967058300972 -209.802389144897 2835.00003814697 14 16 11
-48.1236353516579 -214.210003614426 2789.99996185303 18 20 15
-40.335338562727 -213.290333747864 2778.00011634827 23 26 19
-32.2704538702965 -210.143774747849 2736.99998855591 23 26 19
-24.5923288166523 -208.378940820694 2713.99998664856 19 22 15
-17.0333180576563 -206.537038087845 2690.00005722046 16 19 12
-9.69531107693911 -206.614315509796 2690.99998474121 12 15 8
-2.37364531494677 -208.610817790031 2717.00000762939 13 16 9
5.02129178494215 -207.766205072403 2706.00008964539 12 15 8
12.3424092307687 -206.690922379494 2691.99991226196 11 14 7
19.7406560182571 -207.227781414986 2698.99988174438 11 14 7
27.1167736500502 -207.303687930107 2700.00004768372 12 15 8
34.4216041266918 -206.918612122536 2694.9999332428 12 15 8
42.1640463173389 -208.836629986763 2720.00002861023 10 12 7
50.3709241747856 -212.136328220367 2763.00001144409 9 11 6
57.6176010072231 -211.059421300888 2749.00007247925 8 10 5
64.9771466851234 -210.596442222595 2743.00003051758 11 13 10
73.5981240868568 -213.895171880722 2786.00001335144 7 9 8
102.735117077827 -211.27162873745 2752.00009346008 9 11 6
109.121307730675 -209.118068218231 2723.99997711182 8 10 5
113.514438271523 -203.663393855095 2653.00011634827 13 15 10
120.205156505108 -202.7378231287 2641.00003242493 13 16 9
131.509453058243 -209.258109331131 2726.0000705719 14 17 10
138.027012348175 -207.871347665787 2707.99994468689 14 17 10
146.217823028564 -209.017470479012 2723.00004959106 14 17 10
153.587117791176 -208.935141563416 2721.99988365173 15 18 11
158.465981483459 -205.628797411919 2678.99990081787 14 17 10
167.812466621399 -208.155661821365 2711.99989318848 15 18 11
176.110744476318 -209.223836660385 2726.0000705719 17 20 13
180.848896503448 -206.14729821682 2686.00010871887 17 20 13
189.011141657829 -207.061439752579 2697.99995422363 15 18 11
194.617986679077 -205.212533473969 2674.00002479553 15 18 11
201.527833938599 -204.821571707726 2668.99991035461 13 16 7
210.287272930145 -206.272095441818 2687.99996376038 12 15 8
216.96363389492 -205.650463700294 2680.0000667572 9 12 5
-40.1450470089912 -219.829961657524 2765.00010490417 24 27 20
-32.2927944362164 -217.764258384705 2739.00008201599 22 25 18
-24.5460793375969 -215.380221605301 2709.00011062622 18 21 14
-17.1149764209986 -214.903980493546 2703.00006866455 15 18 11
-9.63729247450829 -212.678328156471 2674.99995231628 12 15 8
-2.35608173534274 -214.427694678307 2697.00002670288 13 16 9
5.02666505053639 -215.381726622581 2709.00011062622 12 15 8
12.4473813921213 -215.858399868011 2714.99991416931 11 14 7
19.5424240082502 -212.439060211182 2671.99993133545 11 14 7
26.7441459000111 -211.722612380981 2663.00010681152 11 14 7
34.3691930174828 -213.947549462318 2690.99998474121 12 15 8
41.7748987674713 -214.264050126076 2694.9999332428 9 11 6
50.7153533399105 -221.179127693176 2782.00006484985 8 10 5
57.9716861248016 -219.904944300652 2766.00003242493 7 9 4
65.2352124452591 -218.948513269424 2753.99994850159 10 12 9
73.489636182785 -221.171855926514 2782.00006484985 8 10 9
104.261703789234 -222.032502293587 2792.99998283386 10 12 7
108.356043696404 -215.032801032066 2704.99992370605 12 14 9
115.86332321167 -215.266942977905 2707.99994468689 5 7 2
124.615356326103 -217.647030949593 2737.99991607666 11 14 7
130.636110901833 -215.25739133358 2707.99994468689 12 15 8
139.448896050453 -217.477917671204 2736.00006103516 12 15 8
145.836442708969 -215.882673859596 2716.00008010864 11 14 7
151.888653635979 -213.969334959984 2691.99991226196 12 15 8
156.626418232918 -210.4661911726 2648.00000190735 11 14 7
167.187392711639 -214.751914143562 2701.99990272522 13 16 9
174.876734614372 -215.142801403999 2707.00001716614 16 19 12
183.198571205139 -216.248631477356 2720.99995613098 16 19 12
191.035658121109 -216.718375682831 2726.99999809265 11 14 7
198.686346411705 -216.94940328598 2730.00001907349 10 13 6
203.785464167595 -214.478299021721 2698.99988174438 12 15 6
207.072123885155 -210.338428616524 2647.0000743866 13 16 9
232.206165790558 -220.492824912071 2775.00009536743 17 19 14
-48.1198728084564 -229.420825839043 2789.99996185303 15 17 12
-40.2305535972118 -227.86021232605 2770.99990844727 22 25 18
-32.1264527738094 -224.079057574272 2724.99990463257 18 21 14
-24.7987974435091 -225.067004561424 2736.99998855591 14 17 10
-17.2472577542067 -223.998844623566 2723.99997711182 13 16 9
-9.84225794672966 -224.657252430916 2732.00011253357 11 14 7
-2.37520667724311 -223.588481545448 2719.00010108948 10 13 6
5.04873087629676 -223.752900958061 2720.99995613098 10 13 6
12.3551972210407 -221.614480018616 2694.9999332428 10 13 6
19.5197071880102 -219.475850462914 2668.99991035461 9 12 5
34.7381941974163 -223.667457699776 2720.00002861023 9 12 5
43.3077700436115 -229.750901460648 2793.99991035461 7 9 4
50.2393878996372 -226.624324917793 2756.00004196167 8 10 5
58.0322630703449 -227.691099047661 2769.00005340576 7 9 4
64.7825822234154 -224.892854690552 2734.99989509583 9 11 8
72.0338970422745 -224.232316017151 2726.99999809265 8 10 9
104.817532002926 -230.878338217735 2808.00008773804 8 10 5
111.796617507935 -229.476228356361 2790.99988937378 7 9 4
115.174226462841 -221.331983804703 2691.99991226196 9 11 6
122.380405664444 -221.080586314201 2688.99989128113 11 14 7
132.029935717583 -225.021913647652 2736.99998855591 13 16 9
138.729885220528 -223.783284425735 2721.99988365173 13 16 9
146.36766910553 -224.10649061203 2726.0000705719 11 14 7
154.365226626396 -224.922657012939 2736.00006103516 11 14 7
160.523980855942 -223.107844591141 2713.99998664856 9 12 5
166.12908244133 -220.71747481823 2684.99994277954 10 13 6
175.968140363693 -223.91664981842 2723.99997711182 12 15 8
183.999419212341 -224.649384617805 2733.00004005432 13 16 9
192.149102687836 -225.46398639679 2743.00003051758 14 17 10
197.514280676842 -223.072722554207 2713.99998664856 16 19 12
201.059639453888 -218.87318789959 2663.00010681152 11 14 7
210.036769509315 -220.673337578773 2684.99994277954 14 17 10
221.885338425636 -225.267380475998 2740.9999370575 15 18 11
234.874919056892 -230.682641267776 2806.99992179871 14 16 11
-47.703992575407 -234.986007213593 2766.00003242493 19 21 16
-39.6917499601841 -232.269242405891 2733.99996757507 19 22 15
-32.1133509278297 -231.421172618866 2723.99997711182 15 18 11
-24.5350375771523 -230.063036084175 2707.99994468689 13 16 9
-17.442824319005 -234.056890010834 2755.00011444092 13 16 9
-9.84185468405485 -232.103452086449 2732.00011253357 10 13 6
-2.391705987975 -232.613429427147 2737.99991607666 9 12 5
5.08748786523938 -232.95322060585 2742.00010299683 10 13 6
12.4647142365575 -230.998814105988 2719.00010108948 10 13 6
19.7456181049347 -229.38397526741 2700.00004768372 10 13 6
26.9026551395655 -227.598890662193 2678.99990081787 9 12 5
34.8006300628185 -231.505617499352 2724.99990463257 8 11 4
43.2285033166409 -236.941203474998 2789.00003433228 7 9 4
50.9664602577686 -237.533912062645 2796.0000038147 9 11 6
64.661517739296 -231.922149658203 2730.00001907349 9 11 8
73.0875134468079 -235.062524676323 2766.99995994568 9 11 10
104.775942862034 -238.445833325386 2806.99992179871 4 6 1
109.829410910606 -232.919931411743 2742.00010299683 1 3 0
116.067998111248 -230.45189678669 2713.00005912781 9 11 6
123.558722436428 -230.616852641106 2714.99991416931 12 15 8
130.770444869995 -230.271875858307 2710.99996566772 14 17 10
139.0300989151 -231.71029984951 2727.9999256134 15 18 11
146.791324019432 -232.214108109474 2733.99996757507 13 16 9
154.866769909859 -233.142241835594 2744.99988555908 12 15 8
162.055313587189 -232.711106538773 2740.00000953674 10 13 6
177.123859524727 -232.867226004601 2742.00010299683 9 12 5
185.136571526527 -233.539298176765 2750 10 13 6
192.351624369621 -233.19199681282 2746.00005149841 12 15 8
197.652027010918 -230.636566877365 2716.00008010864 17 20 13
201.882168650627 -227.062061429024 2674.00002479553 12 15 8
