ply
format ascii 1.0
comment KinectMotionCapture
element vertex 800
property float x
property float y
property float z
property uchar red
property uchar green
property uchar blue
end_header
262.532652792922 229.275910647955 2672.61695597408 20 21 13
259.531545039884 230.058236949297 2679.73220080485 18 19 11
264.235469092906 231.237607994364 2693.30799665634 17 18 10
262.050075037033 232.053732653641 2701.02581534652 32 35 26
256.014933702019 232.670718848008 2705.51036245818 30 33 24
263.928409150186 233.992536596092 2721.54594788077 29 32 25
255.590997298538 234.488901718936 2724.0837834378 29 32 25
243.343883809156 234.793689984999 2723.44744106228 26 29 22
242.776199861868 235.678822534151 2732.38213115795 27 30 23
246.930189739909 236.789801974752 2745.09721870626 27 30 23
255.840402994471 238.122357831549 2761.55835098255 22 25 18
245.152258367914 238.503693639031 2762.19643442271 20 23 16
216.297211604162 238.026889001761 2748.41007382274 17 20 13
210.255490448851 238.643291139486 2752.90157895853 16 19 12
235.914910858165 240.738465447922 2782.37524682332 23 24 18
214.848297634179 240.64799808766 2774.96786280651 24 25 19
208.041610343256 241.223557378176 2778.80778001851 26 27 21
212.406237473096 242.307186567142 2791.31774401725 32 33 27
212.816374536585 243.204795034876 2800.69684661875 35 36 30
214.056854753924 244.134531082963 2810.66356706913 39 40 34
206.482435934545 244.669509399036 2813.85494157063 41 44 37
213.409050801471 245.84060709966 2828.05895186062 39 42 35
163.442276316581 245.412068767151 2808.30641114905 36 39 32
189.069741097639 247.374421835157 2836.4145330287 27 30 23
194.496178942269 248.460541432147 2849.2866445277 23 26 19
182.023775574383 248.79075143707 2848.86992316804 20 23 16
156.431582285088 248.583884828926 2838.88848854187 19 22 15
138.121602579348 248.69105992198 2834.38249033549 20 23 16
131.254893424692 249.272551241489 2838.28147123617 23 26 19
140.031037770775 250.483743607506 2853.47676407369 29 32 25
146.397153919956 251.587956734327 2866.82999622719 31 32 27
131.30212380705 251.837060166079 2864.77850371583 37 36 32
106.207818295718 251.703128459718 2855.70912657909 40 41 36
114.278473399941 252.866202808415 2870.19518316706 38 39 34
113.245096002945 253.67048279962 2878.18769223953 37 39 34
101.372944393625 254.060573973711 2878.58297091733 36 38 33
86.1219864941756 254.328628658927 2876.68385385805 51 56 52
86.7697242243395 255.194662144579 2885.83168225373 44 49 45
67.2586288114783 255.314592206622 2881.09927736172 40 45 41
48.5261066114324 255.473194423476 2877.00560703406 20 26 22
292.699647596134 212.865923702616 2591.23946491109 164 150 141
295.520499494849 214.040768896442 2603.85169169013 150 123 114
296.141512412584 215.07425178439 2614.4185564308 150 120 110
293.795140163919 215.92349431817 2622.29099619673 130 102 90
287.706514509901 216.546694045637 2626.82807351232 107 81 68
272.570816132903 216.635769566433 2623.42370792603 93 71 58
249.073380323451 216.243797345564 2612.80641600261 47 29 17
237.603747141709 216.567961907583 2612.81206969798 46 29 19
236.736309327645 217.508929359735 2622.03650528224 29 16 7
243.507227157628 218.882249968059 2637.78214589182 20 18 6
241.180466491087 219.727796547147 2645.63565732729 17 18 10
244.99271352809 220.915676724917 2658.67873467327 20 21 13
255.7577387613 222.482891901749 2677.51439448573 17 18 10
244.29757779046 222.804813940109 2677.51063573767 15 16 8
249.001774786774 224.019443418985 2691.08094937132 24 25 17
245.253011614583 224.764482709221 2697.52756661391 21 24 15
249.263457481748 225.926816571348 2710.37760532592 20 23 16
259.537424047118 227.415903424106 2728.29553166919 21 24 17
250.415776305354 227.860926043274 2730.20246629815 22 25 18
248.303674261985 228.678232115597 2737.84699248213 28 31 24
246.208088355208 229.493369317529 2745.47577629842 30 33 26
251.191948530042 230.672020440963 2758.77369784683 26 29 22
257.013843816231 231.884556759512 2772.65133924191 25 28 21
246.328484566976 232.24686305014 2773.28946931551 22 25 18
227.710323853558 232.213198648442 2767.6934061036 20 23 16
216.952500604717 232.584210949334 2768.4018694135 19 22 15
213.319291127151 233.313223381835 2774.73610889171 16 17 11
205.7121999316 233.845111631029 2777.96038425626 14 15 9
213.26431302812 235.11809264529 2792.94511656617 12 13 7
217.677981770502 236.228340769485 2805.40244725168 13 14 8
220.53454789263 237.255597909448 2816.5841134111 16 17 11
214.58399297997 237.857424268234 2820.98690557203 19 22 15
216.692492039195 238.839262662356 2831.50121693646 24 27 20
211.563580366381 239.476924438761 2836.50005591474 30 33 26
191.044198399394 239.401984805032 2829.96387749668 45 48 41
187.50430143286 240.118290211618 2836.2073343649 50 53 46
218.973057576614 242.424833058199 2868.3831373803 47 50 43
174.739103684634 241.289943299603 2844.45912882332 45 48 41
156.490524359244 241.34686137521 2839.89958709682 41 44 37
139.000683740167 241.447589211018 2835.99737871502 30 33 26
138.709315068283 242.312261480692 2844.66070767789 25 28 21
136.795149063225 243.102287005962 2852.11305034473 19 22 15
138.199617293536 244.032372145993 2861.9168766784 24 27 20
121.43042623111 244.181311740654 2858.7088362745 27 30 23
113.732047756161 244.722703261811 2862.02235667753 28 30 25
115.168405602278 245.648576560378 2871.79513865962 27 29 24
109.969991037265 246.293614513278 2876.86190484163 23 25 20
92.2434254044604 246.423035406357 2873.19052707657 19 21 16
79.4828812657316 246.764184054013 2873.05831703524 52 57 51
62.4926731240261 246.940072346524 2870.06576685253 27 32 28
36.1971574053488 246.752434912756 2860.77989973217 20 25 21
2.2186982453376 246.276007705848 2846.41313248273 18 24 20
290.72963485243 204.227969438882 2580.30229585238 171 161 151
297.228075608268 205.680515388836 2596.30680075364 148 134 125
296.331245833 206.642864070455 2605.5572628535 142 113 105
294.710409038553 207.554061327314 2614.11698762472 150 120 110
287.861770372525 208.128542326279 2617.99906038537 124 96 85
277.999023609445 208.513822874808 2619.23383783218 100 76 64
262.084395385588 208.523894000545 2615.19739075389 85 65 54
242.338178935119 208.305623267866 2607.91496966427 44 27 17
233.123449768133 208.750822389696 2609.91430943745 46 32 23
233.763075534839 209.802804312447 2620.45995719467 30 20 11
249.66251889051 211.775857140604 2644.05612219127 22 19 10
263.381840100628 213.596968571057 2665.5889096256 16 17 9
261.127597897905 214.444414958269 2673.37012836366 18 19 11
245.846204998517 214.515650729144 2670.11307629911 19 20 12
238.206938439206 215.045830991397 2673.36955471525 15 16 8
234.412501048286 215.802466156459 2679.85981326699 20 21 13
245.315369282275 217.409076270501 2698.55277038747 19 22 13
235.374451916496 217.802191783273 2699.86401439404 18 21 14
244.058912653838 219.261539554379 2716.5309203096 20 23 16
250.477181515109 220.579675038657 2731.21765573574 21 24 17
245.241341744896 221.232865967477 2736.32038069348 28 31 24
247.834616335681 222.321693936239 2747.75439909408 29 32 25
244.974179299493 223.102003355111 2754.73059175986 26 29 22
234.258907851178 223.44960856882 2755.40059790206 26 29 22
248.754739228629 225.171870311012 2776.17690920205 26 29 22
245.955040774393 225.944213080193 2783.09396502542 24 27 20
237.619703799621 226.418245844231 2785.63270306992 24 25 19
218.941205166469 226.346295506837 2780.10221494885 23 24 18
206.56903489291 226.617431586729 2779.59469174513 22 23 17
212.525894464983 227.850621554759 2793.33559685081 18 19 13
222.539449067366 229.283804576212 2810.10313152506 17 18 12
219.791393755126 230.048973507471 2816.96996523511 16 17 11
221.077111286665 231.01705809099 2826.88643430896 20 23 16
211.108301064681 231.41153757932 2828.22517473909 20 23 16
194.652256838519 231.485205961898 2824.71729994989 21 24 17
199.203854986313 232.610526527614 2837.03509915459 29 32 25
201.367168617078 233.609970963634 2847.49237667387 35 38 31
200.310632536897 234.445991488773 2855.50319142403 49 52 45
188.667851909865 234.766257182621 2855.68102150118 50 53 46
157.367518335174 234.148586328549 2841.50953034035 51 54 47
151.356381847656 234.754852602909 2845.97216252509 46 49 42
146.163867877819 235.400163904287 2851.03302892807 39 42 35
138.501440521351 235.929725823443 2854.312597749 27 30 23
128.351604238547 236.345714466735 2855.82792068987 29 32 25
129.764648004484 237.296804054054 2865.62046478375 24 29 22
125.403428952942 237.979312207486 2871.26725468331 23 28 21
120.215680808557 238.623595176848 2876.32354053819 31 36 30
94.1958735523754 238.335083218161 2866.77913789158 35 40 34
95.6435953356865 239.281504541949 2876.53759832689 29 34 28
85.4025228942841 239.708375780038 2878.14191167921 16 21 15
67.5870605662432 239.808698321162 2874.56311037036 21 26 20
30.3697731467953 239.080145951964 2857.78149849523 40 45 39
18.2965633626062 239.452803524366 2858.37934543358 30 35 31
41.6806769081823 241.335328307461 2883.05863388367 42 47 43
290.795365489459 196.723934380631 2581.34611746258 148 135 126
296.549335877147 198.168862486103 2596.67377119909 153 135 125
294.158814661844 199.046110041398 2604.58625025358 140 111 103
291.036498537003 199.870490135447 2611.81597909913 139 109 99
280.429302309395 200.188827564821 2612.38265287328 132 102 92
268.29229664818 200.410004352289 2611.64932953672 76 52 40
253.106269098843 200.43553186337 2608.30433393064 54 36 24
237.870104945557 200.467188241331 2605.0082188696 42 29 21
226.371166939153 200.752248812018 2605.04841439991 29 18 12
220.917293945475 201.434665873442 2610.36332996203 91 84 76
239.828544432884 203.683893400201 2636.59622040914 13 13 3
256.575162412039 205.771057927589 2660.75150998148 15 16 8
258.129702636674 206.874255646991 2671.7979738024 17 18 10
252.81476938172 207.538685396076 2676.97757866698 20 21 13
261.345762331811 209.066779650354 2693.78638182176 16 17 9
252.982761912258 209.535367758246 2696.35373263566 16 19 10
234.554897966799 209.388021840179 2690.58550399855 13 16 7
265.663080779584 212.273713750607 2725.86758231857 14 17 10
243.3438953671 211.891783668624 2716.91294258691 15 18 11
250.538824877274 213.297922260533 2732.23268284638 15 18 11
259.358575071902 214.789114545245 2748.7605377257 20 23 16
253.375503030248 215.391782177155 2753.1954955366 25 28 21
263.084664233925 216.915704845338 2770.25222391736 25 28 21
242.973677962544 216.689490448426 2763.3328608803 26 29 22
233.830802974231 217.110197823284 2765.26480610337 28 31 24
253.130538477244 219.164665404418 2789.72346346232 27 30 23
240.850268456478 219.400718624155 2789.13020502244 26 27 21
232.507970026989 219.865073570233 2791.67728627166 26 27 21
227.33684661593 220.509531027623 2796.71703773133 25 26 20
225.3601548374 221.331188614998 2804.22679421057 24 25 19
225.00018966586 222.238887389245 2812.95188121305 23 24 18
228.675975225625 223.362846490402 2824.72300501269 21 22 16
220.332297249614 223.826846335099 2827.27184649782 16 19 12
203.912331614018 223.858696435438 2823.73398801671 21 24 17
192.287594757009 224.155976329367 2823.89763549668 22 25 18
197.643244062333 225.357827233482 2836.82293602501 23 26 19
202.238101220444 226.510525207733 2849.09373202395 25 28 21
202.811188438127 227.445161240508 2858.30588789755 25 28 21
185.463447735545 227.448277050682 2854.27666137081 29 32 25
180.325306474594 228.08747091849 2859.2844390241 49 52 45
165.351299125556 228.226127079738 2857.12909317753 54 57 50
159.370094053942 228.826364465919 2861.56289409083 50 53 46
156.68038824797 229.591740266773 2868.37175530336 40 43 36
153.177740958076 230.314480125745 2874.57727168278 34 39 32
148.85613859252 230.995340447327 2880.18496517633 24 29 22
138.733487674486 231.392083555729 2881.67613712976 29 34 27
111.129862775109 230.946360232493 2870.89356810956 42 47 41
95.9219987047288 231.11352476366 2868.96623191969 57 62 56
112.407775199705 232.797414322155 2889.1890790109 53 58 52
102.20545090424 233.203788743954 2890.75794430199 46 51 45
89.463748279548 233.495020207334 2890.61473993873 58 63 57
94.349811619665 234.610328873763 2902.60189001749 46 51 47
46.175677001647 233.275038482713 2878.36943034084 58 63 59
49.344956236733 234.316475829251 2889.23847192801 50 55 51
72.8782253837505 236.272719267547 2913.7587510759 45 50 44
282.700768823581 188.624021370341 2574.99431919657 136 122 111
292.151977384474 190.381883687969 2593.68953150455 148 130 120
290.495077956778 191.32528359238 2602.28030746644 133 104 96
287.362821787947 192.159246133654 2609.5184906411 140 107 98
275.996489215816 192.406967039573 2609.43286364305 129 99 89
263.847706192315 192.605479111951 2608.71424739435 59 37 26
250.91086836217 192.755505315324 2607.36843809078 39 21 11
242.468765769513 193.224645238987 2610.01425697379 40 30 21
229.466773631591 193.382531365156 2608.73198516785 21 12 5
216.426422141436 193.545061648493 2607.48711836132 124 119 113
226.188664815547 195.262563281904 2625.87943448845 8 8 0
239.846002447786 197.227248003695 2647.45221462015 15 16 8
239.826737761253 198.258110807862 2657.23802457442 17 18 10
256.714156122779 200.406145397731 2681.244500717 18 19 11
262.947039764928 201.8299885628 2696.10004069916 16 17 9
271.552182100674 203.39767923481 2712.82936008461 18 21 12
263.221060117967 203.851641541547 2715.3672168265 15 18 9
231.625019369425 202.808156636632 2698.71848375598 15 18 11
249.621990643765 204.9636385447 2723.03896606127 17 20 13
254.495308470855 206.263062058889 2736.4288076885 17 20 13
266.447448089534 207.999096345646 2755.47760329441 21 24 17
270.658253233186 209.234251638038 2768.11791930742 22 25 18
267.853910763286 210.024531436376 2775.03693562192 24 27 20
257.981784981433 210.376512337963 2776.2859482463 27 30 23
252.030367282463 210.972544915219 2780.69079132716 31 34 27
246.866379887338 211.616854616951 2785.72347845575 31 34 27
240.118099431423 212.165384694237 2789.50939172308 31 32 26
245.279838163039 213.427814255706 2802.61829481853 29 30 24
231.379334356858 213.548515242585 2800.81684501124 24 25 19
220.630224434632 213.862572573622 2801.52541162066 21 22 16
219.458167374255 214.741577623935 2809.64424947583 18 19 13
223.922190901586 215.943992523122 2822.03795490642 16 17 11
218.783550394401 216.584377107656 2827.04605233119 21 24 17
200.747848145795 216.487115464472 2822.29790821564 20 23 16
198.004040288199 217.26851082551 2829.15812588121 17 20 13
199.322778642666 218.276259485605 2839.03560461457 13 16 9
206.357252396233 219.597494177588 2853.11031925393 15 18 11
205.311773413934 220.460048185994 2861.10589466321 15 18 11
197.760319848639 220.960931190871 2864.27984144201 17 20 13
184.473532293619 221.150599857828 2863.27567824964 21 24 17
172.788219267357 221.433666685899 2863.50124160409 29 32 25
170.932567881029 222.250309337889 2870.89120654783 32 35 28
168.269909397314 223.020884842674 2877.67244085555 34 37 30
165.619730034928 223.789850300415 2884.44152117557 31 36 29
150.5701040151 223.905658139806 2882.36464275893 53 58 51
123.86351449225 223.42240261835 2872.11409875144 57 62 55
104.538807246385 223.338029697264 2867.22680354596 55 60 53
110.981138380162 224.585667894387 2880.48349277233 45 50 44
119.98411821753 225.953787341671 2895.43034085968 41 46 40
103.102199375917 226.004491883074 2892.34875990491 48 53 47
80.2932609166263 225.767822777175 2885.2758919975 34 39 33
80.9527047777272 226.710005607978 2894.40084119215 57 62 56
84.1691380123235 227.773162194354 2905.21984806658 35 40 34
57.008968729872 227.345781219099 2895.41111938999 43 48 44
44.9921812513767 227.669200007938 2895.96021561542 37 42 36
267.930039386953 179.952499231823 2562.60296781536 111 97 88
281.804429597968 182.109191988215 2585.34907998376 129 111 101
285.340350819267 183.46418187459 2598.64185420763 131 102 94
284.437363664046 184.47652364859 2607.89104171958 124 94 84
278.310795538617 185.094747286677 2612.46653193401 83 56 47
266.167972445961 185.268404507248 2611.74567092212 198 176 165
248.715822518171 185.058686880697 2606.43467167075 81 64 56
239.512233125019 185.462876718946 2608.42901063804 30 21 14
232.562232708315 186.03393429208 2612.41224309636 16 9 1
220.289132618718 186.223336856628 2611.81842191331 129 126 119
229.299251845374 187.939722840689 2629.54086331696 4 4 0
248.30687595086 190.35046413556 2655.65418167227 17 18 10
247.543454350025 191.344000888584 2664.76722005745 18 19 11
243.7355071744 192.119793949308 2671.2680624965 24 25 17
263.779188297979 194.550122618001 2697.76657522953 23 24 16
270.072689813934 196.007167220339 2712.55701360898 24 27 18
263.283607172912 196.556949118829 2716.38325903067 23 26 17
240.98788607695 196.053902200855 2707.4232199013 23 26 19
244.432006629709 198.31529273481 2729.17531951653 25 28 21
246.988496444787 199.49104900639 2740.63301777799 20 23 16
255.846746637802 201.075362755467 2757.10854043602 29 32 25
260.852374430577 202.393399338811 2770.36424530793 36 39 32
265.122766854597 203.653689324269 2782.94167537402 35 38 31
256.03423723384 204.04129539885 2784.82420935946 31 34 27
250.089368064171 204.634077336947 2789.22303009697 27 30 23
240.971522232098 205.025167128081 2791.13449846382 31 32 26
244.545864257713 206.222459336882 2802.99518074921 31 32 26
235.421709569791 206.614084766626 2804.91249689404 29 30 24
225.480875789846 206.958180980464 2806.23124077161 27 28 22
218.718423157812 207.503043069286 2810.03176934644 27 28 22
217.564521789805 208.393631722523 2818.13086627924 26 27 21
218.039505510545 209.379679994122 2827.43284166909 29 32 25
212.093498906281 209.971733829435 2831.83256166725 25 28 21
203.720526925259 210.418441117801 2834.41304836467 29 32 25
190.473008878659 210.577013935814 2833.37448592282 32 35 28
189.366472400532 211.461264641215 2841.42782340771 32 35 28
197.232494796628 212.868982547231 2856.08058724695 36 39 32
197.819663529045 213.840504818188 2865.27330819836 34 37 30
193.528186145335 214.524378306601 2870.85064179487 32 35 28
180.22503918171 214.689440685177 2869.86636053576 34 37 30
169.348898401491 214.999750346326 2870.701624569 38 41 34
170.799964689412 216.012502753743 2880.44696015661 42 45 38
160.725919185775 216.371945981454 2881.8953791211 40 43 34
150.629553118569 216.734099875415 2883.36556209988 60 63 56
122.264653953814 216.089269410701 2871.95146830974 44 47 40
114.575014464472 216.599109216092 2875.26097410069 47 50 43
114.374022412998 217.518913988407 2883.82674702566 35 38 31
105.010025576189 217.93876302075 2885.97805853372 37 40 33
74.6994721514787 217.23759023679 2873.67019907852 41 44 37
61.0549232097202 217.444512382834 2873.01874817519 41 46 40
72.6027037663775 218.989504046135 2889.6634956881 40 45 39
89.286593430701 220.789928733091 2909.6723896324 38 43 37
63.8283526290246 220.379361598543 2901.00529221439 35 40 34
20.4950915192823 219.061926933856 2880.46492826252 35 40 34
49.9807764667208 221.505725909624 2908.92168878221 39 44 38
254.644304357286 171.291204065615 2551.56997781318 96 82 73
270.714168593156 173.700864146726 2576.34962915486 104 86 76
280.931804045448 175.623711855319 2595.67629277879 125 96 88
280.01685743968 176.65402098178 2604.93470063508 126 96 86
278.376266932778 177.622624931924 2613.50589429258 79 52 43
261.724090876726 177.422246362231 2608.81603816997 193 171 160
245.76763711224 177.287081407754 2604.84292814305 36 19 11
238.822670392542 177.85246823554 2608.82166235752 33 24 17
236.4150629905 178.764116648847 2616.74568597424 21 14 6
237.820572388231 179.960329082315 2627.92639207524 23 20 13
253.726907784236 182.236720197182 2651.47121774959 12 12 4
262.110169249375 183.93071299663 2668.40220072028 23 24 16
249.138252233067 184.030733261963 2667.09861642294 22 23 15
247.635565314314 184.98087609254 2675.53559832422 33 34 26
256.920388839109 186.71402086293 2692.98243951565 43 44 36
262.424925544264 188.158326230147 2707.14130515093 28 31 22
261.027367634721 189.094911959149 2715.47555828368 25 28 19
247.250857141171 189.142656548356 2713.5617642077 22 25 18
230.324473302014 188.974959224259 2709.13937019343 21 24 17
238.26370842005 190.571176905032 2725.10881969283 21 24 17
240.804323044125 191.776325516585 2736.57793807863 18 21 14
250.429370424744 193.466124359905 2753.69367630287 24 27 20
256.990446639926 194.929778968234 2768.21743209451 31 34 27
262.823904155315 196.332012506216 2782.05555485888 31 34 27
260.826813743722 197.190390282749 2789.57980241238 26 29 22
254.893594017529 197.77940383916 2793.96761204547 22 25 18
244.202408263221 198.049509782796 2794.62515509574 25 26 20
246.195529497218 199.17009647584 2805.23353140824 26 27 21
240.260699733851 199.758979599074 2809.62262126801 26 27 21
235.121219506632 200.400634677984 2814.63136476868 25 26 20
223.580774658318 200.624243178261 2814.72219763776 25 26 20
219.229611310074 201.319407664666 2820.3571314748 24 25 19
224.532880859536 202.634794465007 2833.31766531913 24 27 20
218.602559165803 203.222690825841 2837.70276228417 22 25 18
202.164762558317 203.144504786788 2834.19887351508 25 28 21
182.433954242188 202.86883665482 2828.32654454855 27 30 23
180.495781040888 203.718725541963 2835.79354109542 27 30 23
181.829590855958 204.768618251547 2845.65016261549 29 32 25
195.432011349443 206.568763843934 2864.46797645382 28 31 24
193.587844653111 207.40668377977 2871.84339215736 28 31 24
183.563430004053 207.744442530432 2873.24573190581 29 32 25
175.981572682389 208.233581566304 2876.45126797563 31 34 27
165.094865412156 208.5267070899 2877.29956449769 33 34 28
153.356472675647 208.773958010357 2877.58346820657 32 32 24
137.450853910962 208.780681574986 2874.95581652992 21 21 13
133.936038173792 209.522467497252 2881.17026351553 20 21 13
132.924022639681 210.408188259396 2889.12952303199 26 25 20
123.59976925259 210.810164423129 2891.24401030914 26 27 21
100.894615266781 210.448379940366 2884.0869127254 30 31 25
83.1314221390538 210.382386976344 2880.48045084499 32 35 28
61.1160520658527 210.086474578284 2874.04556109152 34 37 30
80.2322007138612 212.110421494224 2895.85721521695 32 37 31
80.9174805346244 213.088178264032 2904.95125110908 33 38 32
61.3543195193902 212.942392541668 2900.31015864878 32 37 31
41.7263637074132 212.804627810915 2895.73222288043 36 43 36
248.777521713976 163.154388991933 2547.26244719361 142 129 121
265.574679242649 165.70682010243 2572.7156933661 104 85 78
275.032403962949 167.626769708882 2591.38047860096 115 86 78
275.59681120926 168.798548349144 2601.98277571634 126 96 88
274.693843455093 169.843681715959 2611.22709737966 138 111 102
255.777695669269 169.421086059863 2604.56751428754 181 159 148
239.80569787772 169.250190521459 2600.61478283198 30 13 5
233.600649438043 169.872956429154 2605.26753381314 23 14 7
232.69406174111 170.918037541145 2614.51545785638 18 11 3
234.848829473405 172.200170176488 2626.35634970449 19 16 9
258.359382833911 175.151715758862 2656.42005585483 19 19 9
260.647932003563 176.416850438468 2668.13061304842 22 23 15
262.210978629042 177.617586410964 2679.15421377634 22 23 15
259.973938017974 178.518361301047 2686.91046915017 25 26 18
266.213269146334 180.064098414835 2701.74159081083 28 29 21
267.885470291924 181.250815737062 2712.65887143707 28 31 22
273.458284191626 182.724627949946 2726.74523786796 23 26 17
261.262853585209 182.855213833906 2726.08298281965 14 17 10
248.25625940206 182.93215571839 2724.81724443622 16 19 12
250.788034347137 184.16592766949 2736.29091023685 19 22 15
276.78265507283 187.115566705087 2766.72233903651 21 24 17
259.101638773288 186.846743649729 2761.64768107411 17 20 13
249.990196784414 187.21115185776 2763.55639601434 23 26 19
258.165597022812 188.823762392633 2779.28890720138 23 26 19
262.465258792458 190.145950589257 2791.828123846 21 24 17
251.00217384425 190.339143738053 2791.84629472436 17 20 13
248.225833764339 191.150969883653 2798.73431971093 21 22 16
239.106910276866 191.515873320453 2800.65072853726 21 22 16
244.303389930697 192.880524132737 2813.71002512715 23 24 18
243.963305985801 193.852456236132 2822.40621396168 23 24 18
233.24429846857 194.10710200194 2823.09333159935 22 23 17
226.510016839115 194.63844866089 2826.86822136879 21 22 16
231.026225839976 195.932812585594 2839.19617798491 21 24 17
209.796339610572 195.486589331368 2832.00350704186 20 23 16
209.497522131448 196.452928472579 2840.65954430321 23 26 19
188.164598136733 196.019414663947 2833.56731293378 23 26 19
172.437966546779 195.969755429226 2830.77025769982 23 26 19
167.24147377756 196.618273516402 2835.83460114787 25 28 21
176.729680718943 198.220515702355 2851.68225546915 26 29 22
186.28846892383 199.813836180948 2867.46080233485 26 29 22
186.08242683698 200.768155181277 2876.02648883177 29 32 25
174.398583317737 200.987610114952 2876.26033259623 30 33 26
161.861019607174 201.158732684597 2875.93182947356 30 31 25
131.954841234993 200.246570089355 2863.2536038154 25 22 15
122.618162547464 200.637272197671 2865.38209590003 29 26 19
127.361883707302 201.902359244646 2877.48879453077 35 32 25
132.152886864766 203.161447084726 2889.54909027707 36 33 28
126.159818816591 203.75394399515 2893.99581534041 28 27 22
110.141955423156 203.739827151314 2891.48270444266 29 30 24
87.3780465973084 203.329156533735 2884.39117663301 33 34 28
77.1190255424084 203.679839827218 2886.0245737688 32 35 28
75.2472752476279 204.531777791658 2893.42530853485 31 34 27
73.3919792261526 205.381626691293 2900.81001272714 30 35 29
64.7945706090294 205.834426020621 2903.612467921 29 34 28
41.7876389128677 205.453824722365 2896.75782118185 31 38 31
41.6152985367004 206.403143234027 2905.2907804519 37 44 37
259.971847552423 156.467833942412 2558.38957720342 182 169 163
267.129044302781 158.256820572502 2575.10711119605 108 91 84
271.370437172829 159.779416278744 2589.09147889466 108 81 74
269.682070758634 160.78167740744 2597.70514021807 130 100 92
268.013584911252 161.781297890643 2606.29911228899 116 89 80
254.340873024471 161.758528750286 2604.2926665605 179 157 146
245.146521368325 162.12188274699 2606.28386783794 14 0 0
237.44433212703 162.614023546059 2609.60878946549 36 27 18
233.517614292228 163.422419510381 2616.22241638796 35 28 20
228.080777551261 164.104126246602 2621.52051968506 9 6 0
233.30231296881 165.660825161781 2635.94346022317 17 17 7
269.108078690329 169.701224175505 2676.30948281621 15 16 8
265.335913942117 170.489782454556 2682.7725682402 16 17 9
278.449015880705 172.636359701976 2703.4423273494 22 23 15
274.736621170231 173.417213482687 2709.84719896384 24 25 17
279.513974191976 174.871129859151 2723.30950108382 29 32 23
271.202346616383 175.280700379387 2725.83456067793 23 26 17
258.226373806894 175.327187012425 2724.54291609065 14 17 10
235.889800193739 174.651661355797 2715.64893639701 15 18 11
273.436333552874 178.631019181448 2755.71228217129 20 23 16
283.871404387276 180.48083072466 2773.41691464213 21 24 17
268.556129804641 180.346335086763 2770.22391460227 24 27 20
246.129211681483 179.681712298318 2761.41803690345 22 25 18
240.922414951984 180.333151006138 2766.49218066992 21 24 17
241.236318756395 181.398106231959 2775.94244838451 25 28 21
237.625676683257 182.165137377004 2782.24832110541 24 27 20
229.269160147452 182.579364393881 2784.81726787242 26 27 21
231.224733491058 183.754144698331 2795.45492000303 25 26 20
238.790337956636 185.331237245281 2810.3813076323 25 26 20
243.225845454572 186.668797419552 2822.78301764699 25 26 20
246.908841438247 187.94274875917 2834.52481260176 26 27 21
232.186029650416 187.890978905503 2832.14817073139 26 27 21
218.221655617953 187.902044713812 2830.42634903449 25 28 21
213.887634521098 188.601173533901 2836.0436744357 27 30 23
211.982310879784 189.469646323554 2843.47530419122 29 32 25
195.515092907828 189.320339578472 2840.01148072327 27 30 23
191.983943991649 190.076545897727 2846.24001546871 27 30 23
175.44085631204 189.936567859508 2842.85015296321 28 31 24
175.974818782443 190.972843359476 2852.08580017837 27 30 23
178.172214431503 192.11648209173 2862.48792189565 27 30 23
181.22503151175 193.310787417147 2873.45001830368 30 33 26
168.708007884879 193.455570888008 2873.10501148156 31 34 27
152.039626527196 193.33090898703 2869.83730373218 33 32 27
139.444883427211 193.485283841497 2869.56805589346 36 29 23
130.125901065184 193.860827835892 2871.68155346988 76 67 62
129.081446907067 194.778639119198 2879.6679442125 37 30 24
123.901068610487 195.425074123326 2884.71659362976 38 31 25
133.719207733356 197.034711467995 2900.2355274163 37 32 28
116.884015302336 196.930533291685 2897.13043804311 36 33 28
101.669444601713 196.939032624528 2895.23321228323 33 34 28
83.8923988450606 196.794765306957 2891.65207518339 32 33 27
70.2629458020612 196.920382850243 2890.99765061422 28 31 24
73.4532038240321 198.0968971816 2901.82589563653 28 33 26
63.1663480815243 198.435302280738 2903.48908558234 29 34 28
41.8493847014978 198.102645351887 2897.78300780152 23 30 23
28.9466135700285 198.294893790656 2897.81403865233 31 38 31
16.0099570071042 198.49133294434 2897.87809885167 31 38 31
268.683672386085 150.817278668631 2577.49706004953 97 79 75
269.200208647297 152.038957643001 2588.13951851319 71 44 37
269.000911413186 153.189593840983 2598.08640099328 80 51 45
266.580939247427 154.136591871095 2606.01781618722 127 98 90
261.17093459408 154.815667848864 2611.28966364961 117 93 83
251.240790871069 155.097337744844 2612.60668088315 79 59 50
243.554003607538 155.579655466153 2615.91742212371 23 10 1
234.341333454021 155.931814939255 2617.92846848553 126 116 107
228.147109559226 156.548130179789 2622.5714239394 11 4 0
249.354576663405 159.512714548466 2650.66947370807 14 14 4
256.961456053867 161.290410161894 2666.94213499887 15 16 8
263.870156726096 162.994888931483 2682.50201017769 16 17 9
268.540572725007 164.49790359003 2696.06324563752 24 25 17
288.643140339645 167.279280177032 2722.4513984854 29 30 22
288.058269750447 168.316347156832 2731.38103717004 26 29 20
271.265638795916 168.011403297122 2726.84610954213 21 24 15
248.216299629259 167.205516130329 2717.26227463629 13 16 9
274.018545416442 170.396567158254 2747.84905400667 14 17 10
261.038375123856 170.416693165857 2746.56547367108 18 21 14
273.003275588688 172.450512552637 2765.55792290238 19 22 15
263.922302461194 172.784890146499 2767.44082032451 24 27 20
249.330512399792 172.685498570694 2764.94144825467 23 26 19
234.692573966659 172.591768232947 2762.48672762965 22 25 18
231.048095578152 173.368963570126 2768.82503589074 26 29 22
225.040622601716 173.960311562815 2773.28589722833 24 27 20
225.369362801389 175.042530105169 2782.71854283047 26 27 21
222.548862982472 175.876839969637 2789.64709600684 25 26 20
231.685296858486 177.622009875594 2805.82294152759 23 24 18
256.857028775395 180.569997679136 2834.23759865285 23 24 18
242.968834606072 180.542388173794 2832.44584542017 25 26 20
214.600485557455 179.438065704254 2819.68584297364 26 27 21
202.201782623223 179.544870493809 2819.22929302913 23 26 19
197.82885111525 180.25202256618 2824.8840712106 26 29 22
205.579965361297 181.849144456169 2839.62328455738 28 31 24
202.865550217503 182.669601540007 2846.44854151806 25 28 21
201.787268741779 183.606183625506 2854.46574897076 25 28 21
189.336552559134 183.719116283191 2854.05960541259 27 30 23
182.561954027038 184.245071190525 2857.87532736089 26 29 22
174.14514600761 184.655495810084 2860.50470645507 26 29 22
172.270398801816 185.531030558203 2867.90492960374 29 32 25
158.910675126244 185.596978247175 2866.99147896379 31 34 27
144.689563736632 185.610157166461 2865.52395109893 34 33 28
147.760455910077 186.829538003562 2876.46439252255 32 23 18
139.288230011185 187.246595114422 2879.14782211094 121 110 106
133.289312378961 187.835554217942 2883.60087878403 50 41 36
117.312683056447 187.747230895095 2881.05778952949 43 34 29
113.784161737022 188.508407491606 2887.2833182697 38 33 27
106.923814883307 189.044492491563 2891.18235450369 40 37 30
96.7085739496825 189.358439982603 2892.77770686742 34 35 29
74.7254504312878 188.898133525836 2886.33509317842 31 32 26
59.3929750574778 188.889410203454 2884.55749400288 27 30 23
60.8721892190718 189.986626801962 2894.26273240726 25 30 23
79.2788289732198 192.175277997032 2915.33734897253 25 32 24
44.4516809824447 190.914743601024 2900.51232366036 22 29 22
10.3384792132415 189.725252322645 2886.38441053007 28 35 28
271.72559636327 143.528465633805 2581.22164306853 134 121 115
267.776072758197 144.351745859428 2587.85605441268 96 71 64
266.825086658595 145.452459144805 2597.13984431517 56 27 21
264.398904603869 146.411258125244 2605.07534400336 103 73 63
264.994729389109 147.644546225119 2615.63735196688 107 79 68
258.088222542889 148.184675693983 2619.58196582706 132 105 96
250.418981585891 148.656923828426 2622.87677160639 65 46 39
245.010614246862 149.33574917009 2628.14703023537 130 113 105
247.195627583778 150.696131359539 2639.94632250105 11 2 0
252.465073101131 152.323184560083 2654.31128926916 23 23 15
266.947887485521 154.75544818025 2676.41249798592 20 23 16
272.351156688131 156.365527583451 2690.64708457612 20 23 16
267.070663325309 157.027834339001 2695.79280389621 19 22 15
264.0979718221 157.890809622358 2702.8682489285 19 22 15
275.014946708958 159.952900391396 2721.47987809226 19 22 15
262.054171645799 159.944163287889 2720.18130396235 17 20 13
248.280329935733 159.8739212546 2718.2822981162 13 16 9
256.991905231967 161.722185149507 2734.86479724069 14 17 10
251.756590922806 162.378295132453 2739.96656897291 17 20 13
255.89036626847 163.820078575465 2752.65249932162 18 21 14
258.50642544803 165.125361363771 2764.03190036096 21 22 16
246.254832490995 165.190554716666 2763.43508034458 24 25 19
239.474954856131 165.713283196237 2767.25652138458 24 25 19
235.053391911032 166.430325296668 2772.95812956019 24 25 19
240.912196904423 167.98221058053 2786.74896344152 25 28 21
225.43208577597 167.798388644796 2783.72693893367 26 29 22
221.817190551086 168.577471334866 2790.03559172603 23 28 21
234.932477345646 170.689719093814 2809.29100796464 19 24 17
242.550515758368 172.347534340603 2824.1533971295 21 24 17
235.828766370828 172.862417149451 2827.91793770532 24 29 22
209.84986101116 171.870676333559 2817.01960862911 25 30 23
201.459758862994 172.267864346374 2819.62442476303 24 27 20
192.249043205737 172.604506202406 2821.63616162019 26 29 22
196.754297389806 173.998751209364 2833.96023415099 28 31 24
196.448050981359 175.015973481186 2842.6161279445 24 27 20
201.036891439648 176.399668072238 2854.85909525821 26 29 22
199.163102355646 177.286558841734 2862.25668856278 22 25 18
190.780401557986 177.68244524155 2864.85434742408 25 28 21
181.565227887357 178.019241986023 2866.87015041998 26 29 22
175.610056380483 178.600799192898 2871.280860541 26 29 22
159.793795017516 178.458079134559 2868.58656334571 29 32 25
152.985870628252 178.983029592481 2872.43518897801 33 34 28
151.949043477287 179.928060802599 2880.41032073848 34 31 26
144.313830856915 180.393254960781 2883.67237845112 120 117 112
135.838723130706 180.800341084924 2886.36014344412 35 32 27
109.893645632349 179.966630533364 2876.82177531522 34 31 26
96.3498354039292 180.028784905913 2876.09168599406 31 30 25
101.975131810765 181.445365647358 2888.71748598829 35 32 25
98.4445801314071 182.212636116821 2894.94413023416 36 37 31
82.3383583061506 182.105755185015 2892.53247105708 32 33 27
61.1374132783675 181.657244937651 2886.72830840729 25 28 21
63.4630382484578 182.833868843381 2896.99822131898 22 27 20
54.8426113318552 183.258788267682 2899.82765466228 22 27 20
11.2504902048589 182.347235465723 2887.98648496243 16 23 16
10.1814216284573 183.295754569457 2895.99277958383 5 12 5
268.074764929165 135.605387284729 2578.93311574105 50 39 35
261.132824260971 136.145146601805 2582.91263277653 106 83 77
260.911556687365 137.336919102904 2592.87525220088 71 44 37
261.467785745648 138.597210692093 2603.47292604467 61 31 23
264.309891588991 140.069019209145 2616.02015629302 74 44 34
259.66144867614 140.819078425368 2621.94217971522 101 72 64
255.017659142662 141.568515857962 2627.86001200426 129 106 100
247.349011517404 142.032750515246 2631.15541298483 123 104 97
250.298762993077 143.490679003585 2643.59780099116 21 12 5
229.694829236399 142.753234605556 2635.82659234729 21 21 13
259.381460476386 146.671497829499 2670.95076948659 19 22 15
281.597079188656 149.865593127214 2699.43069750783 19 22 15
268.669432799613 149.826217367058 2698.10375449487 18 21 14
248.013599659922 149.094939784637 2690.38317125289 18 21 14
248.095955229442 150.247543860671 2700.05007748386 19 22 15
249.752140737932 151.534920312928 2710.96838449904 17 20 13
239.046491667663 151.714834400437 2711.65328231082 13 16 9
235.305581012665 152.516194084345 2718.08377775817 13 16 9
238.58171051497 153.932350892712 2730.20824139536 15 18 11
260.6378728871 156.979698050161 2757.45129191289 18 21 14
260.917404788363 158.107113216928 2766.92612204143 24 25 19
252.594780442941 158.486145806296 2769.46661508338 26 27 21
247.403385479001 159.13681488227 2774.52557842023 27 28 22
251.674424090938 160.593971914816 2787.07326994858 26 27 21
255.202427503426 161.97812539718 2798.95234914718 25 28 21
238.172783830525 161.621676404951 2794.6603910884 23 28 21
223.468764301006 161.471847529652 2792.27991915029 22 27 20
231.013656895976 163.182572498327 2807.20712315968 19 24 17
228.24496093874 164.02728875401 2814.08235843354 19 24 17
220.688357699694 164.475837466496 2817.26915390006 21 28 20
212.318590608673 164.860133302213 2819.85534463779 23 28 21
217.60256960279 166.355860933062 2832.80837999276 22 25 18
210.848700319997 166.86965701036 2836.60531455983 24 27 20
202.471813288484 167.254666150125 2839.19847007769 26 29 22
197.319923424836 167.899625241269 2844.21904819921 22 25 18
204.345739027403 169.508930595929 2858.25978379237 24 27 20
195.96987096634 169.893687673818 2860.85230255413 22 25 18
194.920267767219 170.854539290694 2868.83744502808 25 28 21
183.262258445666 170.986382506981 2869.0585840259 25 28 21
177.310976193864 171.565238080464 2873.46583135938 25 28 21
169.713650299505 172.018240684907 2876.69206889934 28 31 24
164.575964329095 172.661062707762 2881.69885820267 30 33 26
156.13760220454 173.053305782572 2884.35199022424 36 35 30
146.857623620033 173.384983821176 2886.43323984211 53 52 47
132.583706814988 173.346243248412 2885.02616005563 25 24 19
105.80028450916 172.384564925687 2874.92228497653 38 37 32
89.7475869870177 172.236542836963 2872.46355602025 32 33 27
91.1817131800046 173.383793714652 2882.20583455737 31 32 26
91.8107475994563 174.465888076968 2891.34030191386 28 29 23
49.6825639271563 172.438320155096 2871.12548279728 26 27 21
71.2907857286118 175.042219112755 2894.62782057838 21 22 16
52.5693103724674 174.73030786715 2890.59238441371 20 21 15
26.1841181931364 173.884391922564 2881.49286062086 19 22 15
15.7900418694177 174.189196082973 2883.2671505509 5 7 2
13.0111712383236 175.034017345733 2890.1528117483 28 30 25
250.016692948325 127.437583081745 2573.98276060636 75 58 51
252.756181699961 128.95252185718 2586.62585435237 86 63 57
254.040099181081 130.312266286905 2597.90313306639 89 64 57
257.61376280119 131.891155435693 2611.12499847512 59 34 27
258.974807544372 133.241051439777 2622.32714427077 76 51 44
255.83955282011 134.141857235155 2629.55842565153 57 40 33
248.930051358188 134.671858696397 2633.50717228248 59 44 37
238.217356952986 134.834714028057 2634.20192533466 20 13 7
250.313240482051 137.201327984187 2654.43202887259 19 18 13
267.078256585488 139.995147965347 2678.46460546809 17 20 13
278.601439989405 142.264596180256 2697.86086043276 17 20 13
277.938396194698 143.361278748881 2706.8589772661 17 20 13
258.075448747944 142.64560166839 2699.76598822237 17 20 13
235.826195804778 141.722669199585 2690.82186443139 19 22 15
228.176481544013 142.17608446325 2694.10006340278 18 21 14
223.615019500488 142.917352834301 2699.937012819 16 19 12
212.067480750168 143.015441211876 2700.05344185696 13 16 9
224.629451722499 145.322884658173 2719.8294590492 14 17 10
258.359385371582 149.533365032322 2756.56336267096 18 21 14
263.328535947811 151.104811740642 2769.81783605233 27 28 22
259.719079827172 151.895186788076 2776.11941872828 28 29 23
252.972098712552 152.403697507149 2779.90995657418 29 30 24
253.314125884109 153.542399020692 2789.32105985834 25 28 21
250.522685359482 154.398781706589 2796.21749437254 23 26 19
239.820503562493 154.55912132376 2796.90218007086 22 25 18
228.297651203328 154.653530014524 2796.99463901356 22 25 18
231.872574691187 156.061768866331 2808.82356607664 22 27 20
233.894910604397 157.327067636696 2819.38154339897 22 27 20
219.950783735754 157.218481916811 2817.6569625707 21 26 19
220.401742885497 158.343119123997 2826.96197348855 21 26 19
220.076929385967 159.396187422765 2835.63100665085 21 24 15
224.6119151243 160.852591033885 2847.91670613619 23 26 17
212.22883624513 160.885652025817 2847.45520273313 25 28 19
211.95912602081 161.931659429089 2856.07056112584 21 24 15
197.101792999306 161.768480350236 2853.84396706392 23 26 17
196.03186319958 162.745952856403 2861.84717543457 21 24 15
188.457075708789 163.188658265958 2865.05255392752 24 27 18
181.689056646794 163.69894030573 2868.86372096572 24 27 18
174.094712241113 164.144004294155 2872.08817116733 24 27 18
167.311299989537 164.656162254429 2875.91468445211 26 29 20
167.931566149576 165.759050212108 2885.0547855355 28 31 22
155.374384639749 165.813499403159 2884.7630074519 35 34 29
145.26509805023 166.067356870594 2886.26202686489 18 17 12
124.353891861801 165.481315914408 2880.19081408519 30 29 24
107.525441783867 165.22721285972 2877.10085044527 34 33 28
104.806502397391 166.073427356246 2883.92679311147 32 33 27
92.9148468312215 166.213032237112 2884.37879911349 31 32 26
61.7426381096227 164.887827054488 2871.60156066199 24 25 19
30.451549916295 163.577492284837 2858.94051128473 22 23 17
13.0221246511599 164.410061255479 2864.78918467126 16 19 12
-4.16161504471368 164.200202640808 2862.04548956518 16 19 12
-14.6253186408081 164.498083975181 2863.88994359663 12 14 9
22.4096954416577 168.292917990586 2897.40362368227 14 16 11
231.446100851568 117.868252680674 2558.41287809947 87 76 72
243.106438383348 120.352657012641 2579.05807588516 79 60 54
245.863524430238 121.895283916783 2591.67926512153 85 65 58
247.912677224573 123.355102911471 2603.59877219799 70 50 43
250.001424724585 124.809864024445 2615.47970869911 80 60 53
247.597868548259 125.798825825127 2623.38828250392 62 47 40
243.696079173265 126.632592292893 2629.97374318995 71 60 54
267.886044199225 131.491212399699 2670.41720679882 18 19 13
274.774783881884 133.372711068953 2685.97074007149 17 20 13
276.371194244039 134.717238024573 2696.93995787118 17 20 13
283.372286280797 136.5844881267 2712.38402952736 17 20 13
261.985248675725 135.665775497168 2703.99999878709 17 20 13
238.204533373742 134.532694711665 2693.77388095158 18 21 14
225.923576549349 134.53005697454 2693.21624509505 18 21 14
216.707619647075 134.829059319987 2695.23874968922 17 20 13
213.686718635907 135.723177614645 2702.35746455211 12 15 8
242.604295395681 139.643808971476 2735.41081767253 16 19 12
252.17826518611 141.702458307524 2752.52276075716 18 21 14
264.957246001847 144.045146995327 2772.07807473561 25 26 20
258.997835890987 144.621428411878 2776.49343577056 25 28 21
249.10324237772 144.833675237633 2777.78574966174 25 28 21
241.551201130669 145.266576913526 2780.96998978596 21 24 17
245.843581787014 146.786677727391 2793.48684744333 20 23 16
239.091436686565 147.290699808667 2797.28351446419 20 23 16
238.686072123711 148.370753058983 2806.02820981708 21 24 17
235.916515274793 149.232746847648 2812.90208419927 22 27 20
229.966884485614 149.807472801065 2817.30830196199 23 28 21
221.614033854208 150.168991292182 2819.88139872882 23 28 21
213.246494050875 150.532306303546 2822.46881653562 22 27 20
214.511779507203 151.745632748123 2832.36899048024 20 23 14
229.509669449509 154.152433631604 2852.54557561741 23 26 15
224.409194861931 154.791920851398 2857.51590634994 24 27 16
218.499705611756 155.361282406468 2861.88271798476 20 23 12
202.846486619721 155.094447950682 2859.04486135867 22 25 14
192.839591044215 155.320085641044 2860.44671369384 20 23 12
186.888181259917 155.894580837913 2864.85439428874 22 25 14
177.663773978511 156.193494910252 2866.88530328103 21 24 13
164.323322174695 156.15098712356 2865.96874505948 20 23 12
155.052064887545 156.455661942727 2868.04498752219 22 25 14
156.466564302554 157.64989551372 2877.80014956042 23 26 17
164.515467861822 159.384160420894 2892.22338403898 27 26 21
151.118472948863 159.348546897491 2891.36161714957 26 25 20
127.733613353334 158.507390847194 2883.53341887479 22 21 16
115.900060512834 158.618668978648 2883.9315768505 28 29 23
99.0381899023225 158.331475663567 2880.8800288615 27 28 22
86.2980222246699 158.384874918573 2880.77011392767 17 18 12
7.4053498460267 153.184868494794 2835.18345867508 18 19 13
-0.522296612254891 153.663742779366 2838.73388559502 15 18 11
4.99258573874872 155.200998656195 2851.45149264661 15 18 11
9.71590638239039 156.665965501494 2863.54856930261 13 16 9
-25.2135507026576 155.042612600075 2848.87876285011 13 16 9
-28.1058446133811 155.918988422302 2855.87239129077 23 25 20
47.9306408541298 162.847864395311 2915.37604427171 0 1 0
238.68981357351 112.245472143736 2576.1399564038 86 75 71
240.68551684375 113.739398206805 2588.10749863801 75 62 56
241.969389324343 115.148306197537 2599.37755568538 57 42 37
241.782238634121 116.393154391556 2609.29845197595 47 34 28
243.133576117884 117.793457836768 2620.50278702592 63 54 49
243.006056678827 119.03068536863 2630.36559493312 33 25 22
279.347123044391 124.057021883466 2671.47124425907 30 27 22
253.49049912711 122.597199168047 2659.10342304352 18 19 13
274.077257719656 125.940456228252 2686.34496856384 17 20 13
303.977402686686 130.206243645803 2721.20575949183 18 21 14
283.437094631755 129.299122550405 2713.39644772733 18 21 14
262.050498680336 128.323843679887 2705.02033888416 18 21 14
249.062467834476 128.21170951504 2703.7641121899 18 21 14
236.036214706461 128.104323850705 2702.54513896055 19 22 15
232.268954994921 128.926360514603 2708.99874336195 15 18 11
233.170385285768 130.208108574787 2719.25011817975 12 15 8
234.88252835499 131.562377595791 2730.10297181747 12 15 8
252.242591303574 134.438533409575 2753.53248889922 18 21 14
257.977972987693 136.159182859435 2767.42094068116 21 24 15
253.570092493558 136.88702357404 2773.10736595024 21 24 15
246.021139903144 137.311877299348 2776.28972847634 20 23 14
242.40337316468 138.114776840064 2782.59771260401 17 20 11
237.213456406058 138.766343116957 2787.65507545522 18 21 12
243.116272023372 140.465733751504 2801.38040490998 20 23 14
241.926482816874 141.486639904851 2809.49621596932 21 24 15
233.591203492964 141.835629375634 2812.0533781098 22 25 16
226.039635733331 142.260571242463 2815.2386623523 23 28 21
214.476720194937 142.317398053256 2815.37612136768 22 27 20
214.913677673239 143.482528170396 2824.68905131785 21 27 17
210.555266903715 144.203739790442 2830.32767003837 19 22 11
221.513314578002 146.314121128794 2847.47446667427 21 24 13
212.354099579432 146.591981882859 2849.44341259524 23 26 15
204.796053198244 147.017447619999 2852.63471493492 18 21 10
187.486771289329 146.575238086392 2848.63345499087 21 24 13
183.952090704275 147.367108760241 2854.86022555968 19 22 11
179.610752557914 148.085950657317 2860.48224115704 21 24 13
174.45657665054 148.732443657056 2865.50486264276 20 23 12
156.191643576123 148.235701161825 2861.04339122137 19 22 11
141.972588727113 148.102569780506 2859.59544577983 21 24 13
147.472517225872 149.677622843344 2872.32231582017 23 26 15
153.849229622137 151.316926521436 2885.58627743587 29 30 22
152.008597555818 152.244564196685 2892.94492295685 26 25 20
131.942668302006 151.6250727725 2887.45585312588 20 19 14
103.49693160382 150.314373995489 2876.22044724719 30 31 25
66.6130391172235 148.31968014198 2859.2949044337 14 15 9
31.2529343639185 146.482309506 2843.66712204991 14 15 9
11.655882560222 145.978149029824 2839.11265127565 14 15 9
-3.81183045017952 145.827144476773 2837.49037417619 13 16 9
-0.827293568463894 147.194799783868 2848.49499062114 12 15 8
10.624168271971 149.242694639071 2865.16105517097 12 15 8
