ply
format ascii 1.0
comment KinectMotionCapture
element vertex 770
property float x
property float y
property float z
property uchar red
property uchar green
property uchar blue
end_header
71.2782885803667 467.59951372837 2759.5170836962 159 157 160
64.4050497304907 467.031328234444 2755.76697930642 174 172 175
56.7966506666053 466.377985261083 2752.71825240116 208 206 209
49.9322780209228 465.810383604991 2748.97457826927 201 199 202
43.0713747767548 465.242918227152 2745.23312539384 173 171 174
38.4100229883462 464.930209356498 2739.38206033675 217 215 218
34.4687647878361 464.701292618574 2732.81839428355 209 207 210
31.968480736952 464.640158323352 2724.83009773609 198 196 199
30.1706620318223 464.661422526136 2716.11611956753 168 166 169
27.6219501835731 464.596245551615 2708.09269619928 150 148 151
25.0503190368567 464.529156692077 2700.05235398136 192 192 192
21.7364883155646 464.376271187424 2692.70887198181 196 196 196
19.83740952531 464.389078282813 2683.92144537963 149 149 149
17.9107964455811 464.399565177961 2675.11404683113 207 207 207
16.6688858656125 464.491051812777 2665.56837738742 221 221 221
17.5252933450034 464.829228344266 2653.83966865362 166 166 164
21.8759119381056 465.578438824584 2638.47029799425 171 171 169
21.2195555738366 465.742758658741 2628.11444158317 157 157 155
19.8233534367853 465.821477109557 2618.45685822363 124 124 122
9.27892535721808 464.825998305227 2618.21874371235 136 136 134
-6.13344877207833 463.256642413113 2623.09468978036 151 151 149
-24.2767700876696 461.363307586166 2630.92971392837 124 124 124
-41.6514347994728 459.557549678289 2638.08736061757 147 147 147
-54.8018801322954 458.247480795226 2640.89893611729 146 146 146
-65.1483889758671 457.266855715921 2640.80437272104 151 151 151
-68.5891272910493 457.10178205634 2633.3685364859 148 148 148
-73.4203295325244 456.772665163361 2627.39455457774 137 137 137
-76.8940987425455 456.604627272228 2619.93505300463 144 144 144
-83.7932613308661 456.030716807182 2616.16583246848 152 152 152
-90.6889940331572 455.456875097802 2612.39909867818 159 159 159
-93.519563977789 455.366071450743 2604.17122055657 162 162 162
-95.0236152704207 455.433932011749 2594.43540004518 168 168 168
-86.4713346509767 456.701265764845 2573.46868289469 175 177 174
288.205003810936 480.557454256158 2738.97958641898 162 164 163
269.319921389461 478.679371114364 2745.04193273496 154 156 155
252.83283732536 477.063477552255 2749.13826843629 158 160 159
233.305433239418 475.11030278185 2755.96993282219 151 151 151
220.026489296369 473.84487330175 2757.45325193822 138 138 138
209.864298215523 472.922723978244 2756.25756398374 154 156 155
196.653399958532 471.662608212606 2757.79053226179 156 158 157
180.419988167484 470.066603174105 2762.07115562381 155 157 156
165.005857607905 468.559577384036 2765.71081302605 151 153 152
151.925648591354 467.309645633609 2767.33857230759 153 155 154
138.8840099182 466.06273395947 2768.99430735148 143 143 143
127.393834702023 464.986884509273 2769.30523009366 140 140 140
114.424766191711 463.745582980481 2771.0136012138 166 166 166
102.998397002067 462.674663554758 2771.37080327785 189 189 189
90.1020850824468 461.439006787579 2773.1316513181 201 201 201
84.7207055437864 461.039668708979 2767.9935150909 197 197 197
77.8430435459572 460.473534156878 2764.23992017818 191 189 192
72.4551228178125 460.07354668135 2759.0970388138 189 187 190
63.3564257784913 459.258950755173 2757.43751405905 197 195 198
56.4907713751532 458.693530463347 2753.69292180272 185 183 186
49.6284867812302 458.128298125519 2749.95047886815 179 177 180
45.7074419466603 457.892445658182 2743.40143078447 194 192 195
41.7720065512963 457.65533777921 2736.84194431724 195 193 196
36.3621570462684 457.25311081363 2731.68315497107 174 172 175
33.8583434655648 457.177491072645 2723.69193194345 195 193 196
29.8800211346686 456.936714706207 2717.1013372398 210 208 211
26.610845045469 456.776125271777 2709.7901873141 193 191 194
22.6016472625905 456.53266841795 2703.17719675919 141 141 141
22.8924307981719 456.77448453657 2692.27329817924 223 223 223
20.9920250148334 456.770246759113 2683.48482327581 202 202 202
19.7786417785957 456.844418583626 2673.95974620946 160 160 160
14.9712034921632 456.513138962266 2668.0026858678 177 177 177
15.8356787548177 456.824023904617 2656.27968740498 184 184 182
20.1951957648814 457.53228394485 2640.91655997591 160 160 158
23.0757513888311 458.075011710509 2626.95083115727 147 147 145
20.9724174009573 458.053896765128 2618.01545825851 134 134 132
11.8275879939405 457.233547248922 2616.32246202283 130 130 128
-3.59345170416914 455.698768071964 2621.19230137295 142 142 140
-21.0491809749274 453.930220311336 2628.29137111009 123 123 123
-39.8247859861451 452.0087039742 2636.90293319783 148 148 148
-52.981323765483 450.725190547353 2639.71022666168 145 145 145
-61.9524793353043 449.917805288244 2638.14319596348 149 149 149
-64.7135854077974 449.819306118723 2629.96563470588 148 148 148
-68.8695862033415 449.561910358005 2623.24615291085 135 135 135
-75.7747611898192 448.990022061894 2619.47258410165 147 147 147
-81.9949357413008 448.496379554121 2614.96094642756 155 155 155
-88.2160624749078 448.002465741578 2610.44861712212 155 155 155
-89.6983350501066 448.052614137826 2600.72849475217 162 162 162
-91.8873300854557 448.022473236325 2591.73068413673 165 165 165
-88.0496294675972 448.686648501341 2575.98935204778 171 173 170
287.099116561153 472.398241689405 2740.60665038901 169 171 170
268.215933260238 470.563492239986 2746.6705929117 200 202 201
250.954812882011 468.899968183768 2751.44090301855 190 192 191
234.528154792371 467.323855609976 2755.58153877389 172 172 172
218.929505840271 465.834661613316 2759.08781965415 153 153 153
207.231575641703 464.761278944903 2759.24814887063 143 145 144
195.563261543902 463.690176023311 2759.42995897795 144 146 145
183.924705507662 462.621409156807 2759.63335317175 146 148 147
167.736546045512 461.064005257548 2763.94697643509 151 153 152
152.365372045901 459.5925970229 2767.61824885136 149 151 150
138.563585636898 458.288221571869 2769.95768214301 168 168 168
127.831050996035 457.312394426324 2769.58330471058 197 197 197
116.369462779412 456.257366488658 2769.91505624389 240 240 240
104.937586954608 455.204626098462 2770.26835851099 227 227 227
91.2853212889218 453.91184073676 2772.71624128649 216 216 216
82.9106625012077 453.18664383271 2770.34700350654 228 228 228
76.0393804864972 452.623191843695 2766.59804716744 240 238 241
72.1450926831357 452.381008436577 2760.06836375925 244 242 245
64.53031876377 451.737181412204 2757.01535826239 244 242 245
57.662417664301 451.173809147628 2753.26885322473 246 244 247
50.7976098096039 450.610563405169 2749.5248856641 243 241 244
46.1401896504774 450.286269085156 2743.67661204639 206 204 207
42.937521310741 450.119835682892 2736.41364540678 193 191 194
38.2559411752896 449.793419839865 2730.5478469607 195 193 196
35.7482492818333 449.703247370749 2722.55403322599 176 174 177
30.3144368007535 449.295693252931 2717.37755114698 196 194 197
25.598499292705 448.966250526722 2711.48712545355 199 197 200
23.0371056388048 448.871552962241 2703.45406476912 192 192 192
22.6099523859919 449.009886854392 2693.26423096105 147 147 147
22.1467079069604 449.145316468249 2683.04792466511 142 142 142
19.5024743354795 449.04366439375 2674.95507080758 203 203 203
16.1225680036323 448.862260363405 2667.56354473586 149 149 149
16.2759945734003 449.067547556112 2656.55959365681 186 186 184
20.6377177722703 449.734315011145 2641.19785537297 178 178 176
23.520224034284 450.241025920142 2627.23335818101 149 149 147
20.7139516022945 450.125903363895 2619.02297066478 138 138 136
15.0784467400387 449.700989691429 2613.70048402178 146 146 144
0.345872536991365 448.277346776036 2617.83463852271 150 150 148
-17.1234778031684 446.551189054341 2624.92404876986 145 145 145
-36.6080434882752 444.601129832962 2634.25685666601 144 144 144
-48.3895300396073 443.496298316327 2635.59149143377 150 150 150
-57.3748424293228 442.698351210592 2634.01454043784 136 136 136
-60.8366633952941 442.508822163542 2626.56329706786 136 136 136
-67.0616740963841 442.014743065855 2622.04815135429 140 140 140
-73.9716675087516 441.44480479068 2618.2713939196 144 144 144
-80.8780470830259 440.875014494731 2614.49696250579 151 151 151
-84.3836404879477 440.681307504326 2607.01426087558 158 158 158
-86.5532249987311 440.636040675441 2598.03044474783 156 156 156
-89.4253000991203 440.513530785155 2589.77202357766 166 166 166
-88.2834059160527 440.83706755245 2577.01515946544 166 168 165
281.306501640235 463.766492227024 2746.24491516423 206 208 207
257.766306356499 461.49436195001 2756.34118914712 222 224 223
242.863061012467 460.111200975378 2759.11708339248 215 217 216
228.781660134861 458.811790212615 2761.2538433357 187 187 187
217.05949304088 457.75509909167 2761.39668725542 170 170 170
205.367037513458 456.700710387293 2761.56108138602 150 152 151
192.936512833731 455.569228359773 2762.42507957325 150 152 151
179.774427277793 454.361115930665 2763.99369662716 159 161 160
162.070689285025 452.681440136767 2769.67839307378 219 221 220
145.193083186308 451.085817076328 2774.72706479837 248 250 249
135.206405814143 450.20360603305 2773.65881277222 255 255 255
126.754456621457 449.480202800904 2771.23326013653 255 255 255
118.314361508806 448.757665688142 2768.81659964051 249 249 249
106.124468266598 447.644896243485 2769.85542595207 251 251 251
94.7190095916195 446.612861327608 2770.22798345217 246 246 246
87.0829595075349 445.972463600674 2767.15957177951 243 243 243
80.2005756983268 445.410367571517 2763.40257438087 219 217 220
74.0649803332523 444.925981609658 2758.95229685025 213 211 214
67.1869378740273 444.364087918728 2755.19844761374 187 185 188
60.3122705532124 443.802378035927 2751.44704601812 184 182 185
54.1777467686408 443.317854844732 2746.99754460397 210 208 211
48.0421679087986 442.833171500906 2742.54727753205 248 246 249
43.3705016909309 442.501624644532 2736.68893438383 254 252 255
39.4194722663741 442.24573360148 2730.11804833162 212 210 213
37.6385934636927 442.217528138552 2721.41609968626 204 202 205
30.0223765803054 441.577915644602 2718.36206950141 177 175 178
25.3090756584249 441.24270177138 2712.47323141654 201 199 202
22.7504004541368 441.133970954135 2704.44236479008 200 200 200
23.7654693593501 441.401389361196 2692.82831470601 184 184 184
24.0182543883152 441.589707974562 2681.89630474525 143 143 143
20.6554426758006 441.398307602234 2674.51712029445 210 210 210
17.2740464127079 441.205316635901 2667.12416097263 195 195 195
17.426415105946 441.385316597177 2656.11960940852 150 150 148
18.9548858138671 441.711468048586 2643.642701636 181 181 179
21.8458913307833 442.182677675963 2629.68418591431 187 187 185
21.1588087722538 442.277147194087 2619.30570162366 151 151 149
19.031927738157 442.220120086137 2610.35278258937 171 171 169
9.88240509398119 441.420285764743 2608.65648803942 160 160 158
-10.4073759314014 439.439670749378 2618.64046000934 136 136 136
-30.6098526123701 437.465829640479 2628.68775507286 129 129 129
-45.1820691802662 436.086911806137 2632.93867726409 134 134 134
-53.4861160601474 435.372110207647 2630.62068021733 140 140 140
-59.7124599812651 434.877654257101 2626.10456611528 136 136 136
-65.9397818077942 434.382954789819 2621.58774187527 142 142 142
-72.1681288599998 433.887993036378 2617.07017309875 141 141 141
-77.7155770965976 433.465448363364 2611.81153258236 147 147 147
-81.9091363246429 433.18723616573 2605.06471843872 159 159 159
-84.7618813555728 433.052356981751 2596.82024739551 156 156 156
-88.9882344292978 432.77117446186 2590.04964524801 164 164 164
-87.1718247484026 433.136186651767 2576.54692526704 165 167 164
-82.7260585452136 433.78380949585 2560.01097795016 175 177 172
271.605690603653 454.789081877393 2755.22377195265 228 230 229
254.321569500957 453.1992704322 2759.97778171238 222 224 223
237.874379281276 451.691603894023 2764.10387998114 221 223 222
226.13023895688 450.651772766703 2764.23088043639 220 220 220
212.871142238518 449.460161892183 2765.72925561197 233 233 233
201.190802989086 448.425350003927 2765.90253225149 243 245 244
189.540126335424 447.392851501011 2766.09732365746 247 249 248
175.622021211573 446.13306134579 2768.35266086367 211 213 212
159.456181613572 444.647530163713 2772.68282832235 199 201 200
144.10767601886 443.242586194751 2776.3708702037 194 196 195
137.161258675472 442.677916527118 2772.5674404936 188 188 188
126.433421854238 441.734208859175 2772.19663130237 195 195 195
118.749943954613 441.095186175705 2769.09355068192 208 208 208
105.053875814564 439.852696438523 2771.50993486621 197 197 197
98.1535049527613 439.291498560632 2767.74019729561 157 157 157
88.2641442455281 438.429886326779 2766.74230205672 147 147 147
79.8874367517799 437.719817871382 2764.37165575461 143 141 144
70.7791074957429 436.93586687502 2762.70530362301 143 141 144
65.3948642005089 436.526259839248 2757.56503938326 141 139 142
61.4838807976814 436.265099476897 2751.02315685669 144 142 145
56.0842840311273 435.854159022998 2745.8717558039 170 168 171
49.9442092012305 435.36857376112 2741.41822493894 204 202 205
45.2686317779536 435.030725313593 2735.55672007863 167 165 168
40.5829059291927 434.691960537123 2729.68814824374 152 150 153
37.3442418270118 434.499554541577 2722.39866147442 154 152 155
31.182133676563 434.011870679982 2717.92914755535 229 227 230
25.7428432591826 433.597236647168 2712.74895301927 221 219 220
23.9067019548611 433.547407830342 2704.00683388055 201 201 201
23.4819555695993 433.641069100397 2693.8185185865 185 185 185
23.7383010140872 433.804449321163 2682.88896332906 184 184 184
21.808548986491 433.746887632237 2674.07894461077 153 153 153
19.8511896258697 433.687014761681 2665.248901041 127 127 127
19.2876047469448 433.769189590117 2654.95988057884 198 198 196
18.687624325922 433.848371165888 2644.64446105008 143 143 141
20.1703451807815 434.140093112019 2632.13421384049 168 168 166
20.1949896919382 434.284369804623 2621.03689134562 124 124 122
22.9865546695778 434.711289015411 2607.00606471515 137 137 135
20.1223245160214 434.562888399362 2598.75319937272 162 162 160
1.19325635699807 432.776278442426 2607.25449055399 188 188 188
-23.2191625545413 430.428024434981 2621.65852642702 103 103 103
-37.1223667059342 429.150522273497 2625.15990705758 121 121 121
-46.1420966557164 428.370925913762 2623.55780451098 134 134 134
-53.7679558327497 427.733385053668 2620.49679491493 125 125 125
-63.4450473369879 426.885563595085 2619.65284800433 136 136 136
-71.0485720815643 426.249488546163 2616.60803653963 142 142 142
-75.9160849622817 425.893537137958 2610.60730187505 146 146 146
-78.7542079047641 425.74581306802 2602.37366011095 153 153 153
-80.2599583464052 425.735276158681 2592.63591627451 160 160 160
-83.148571916529 425.583207873602 2584.3656507726 154 154 154
-82.6943292445272 425.77518677008 2572.34466366745 165 167 164
-76.9175451084874 426.515657102873 2554.30370221085 180 182 177
268.931455727334 446.557375747529 2758.18390779924 226 228 227
247.758678590122 444.63154721705 2766.29301791877 225 227 226
236.76738036882 443.68312453165 2765.73090157656 234 236 235
224.251730357593 442.587608012758 2766.53366724374 224 226 225
210.997899254638 441.420500469333 2768.0359836905 228 230 229
197.012248046257 440.182212660529 2770.24246421215 223 225 224
184.605654702028 439.095311486168 2771.12403654601 211 213 212
171.467195960057 437.93726660753 2772.71003478361 212 214 213
157.60356119529 436.708579708302 2775.00501625969 222 224 223
144.544218757216 435.556705157349 2776.64839884833 231 233 232
136.079050648559 434.847625436377 2774.21363056677 237 239 238
126.868917055273 434.066330399617 2772.47349175144 231 233 232
117.675302329077 433.286283959592 2770.74533413978 187 189 188
104.734659244872 432.14365198123 2772.47481123866 178 180 179
96.3354678377395 431.439603453845 2770.08789636004 157 159 158
87.2001697228169 430.664057270391 2768.40203649912 167 169 168
78.0812958344557 429.889722144827 2766.72808904479 177 177 177
69.7228014264932 429.188716617026 2764.37069170277 179 179 179
63.6014260418172 428.704302691816 2759.93072239777 180 180 180
59.6974765096481 428.434914874645 2753.39389720047 171 171 171
54.3046082669609 428.021248532336 2748.24735999106 157 157 157
48.90639631869 427.607049316181 2743.0966518393 179 179 179
43.5023682170406 427.192299669392 2737.94201912282 192 192 192
39.5544244022341 426.919153657291 2731.37328249515 181 181 181
36.3204959259997 426.715581230397 2724.08746659898 158 158 158
30.8890347774984 426.298429969426 2718.91293491673 170 170 170
26.9002759353132 426.021753445617 2712.31459272195 193 193 193
25.0627860409294 425.954833198487 2703.57140939005 223 223 221
25.3568237780395 426.096099833162 2692.66906607025 185 185 183
24.1750433393557 426.094059616389 2683.16651251727 195 195 193
22.2461565906453 426.019600781188 2674.35703547073 175 175 173
21.7157284375311 426.0820876154 2664.09195130313 148 148 146
19.7272698526407 426.002653437566 2655.23926416013 189 189 187
17.7112761530149 425.92091392859 2646.36660454787 161 161 159
18.493462744678 426.113307084794 2634.58335308706 148 148 146
20.6387898873492 426.439844498736 2621.31887751125 126 126 126
24.1343688200146 426.899476256235 2606.56324021046 117 117 117
26.8671280825741 427.285396924368 2592.48957639645 154 154 154
10.7057941062947 425.819577510318 2598.05844102668 209 211 208
-15.8256963482952 423.334971996058 2614.63103043229 91 93 90
-30.4459012320075 422.017287331514 2618.84747502734 110 112 109
-40.1772803468576 421.178729791188 2617.96451526985 125 127 124
-48.5097765638431 420.477131576735 2615.6256670922 120 122 119
-60.2631449506779 419.438693417087 2616.98131608994 139 139 139
-67.8759053520899 418.806948401254 2613.92983143297 139 139 139
-73.4341812446517 418.377243108381 2608.66301097073 141 141 141
-74.9183136734217 418.348931629985 2598.9411429385 155 155 155
-77.1119674015863 418.251111914596 2589.93961233068 160 160 160
-80.6842443565237 418.01762024732 2582.40836885474 157 157 157
-81.5818898680121 418.048386834277 2571.87692031795 164 166 163
-75.1336040185697 418.805339564089 2553.08779164133 179 181 176
286.721109947111 440.154987622231 2753.75588771825 208 210 209
265.474221648419 438.274748623156 2761.81120951815 231 233 232
248.205338474962 436.761638417135 2766.57694856189 231 233 232
232.551105504754 435.397246624726 2770.04327307196 245 247 246
222.371854797348 434.539358798157 2768.83554372726 254 255 255
208.350628609685 433.325118543986 2771.01635699282 253 255 254
195.142704548427 432.185687252801 2772.55209261949 223 225 224
181.204973431769 430.978016863145 2774.79346652156 197 199 198
170.374301985185 430.058050514085 2774.34793609324 177 179 178
158.041073848979 428.998252408722 2775.2831241915 176 178 177
147.265205592936 428.082571792165 2774.87763795067 171 173 172
136.514712505038 427.168902039357 2774.49055689619 163 165 164
125.789593382597 426.257172950677 2774.12158532359 156 158 157
115.089614854926 425.347416209157 2773.77114317202 150 152 151
103.662142732904 424.369562977451 2774.12801709547 152 154 153
94.5161127325473 423.603612917627 2772.43472054505 158 160 159
85.3867407068645 422.838927301381 2770.7532116436 180 182 181
76.2738385774844 422.075501250645 2769.08364850141 227 227 227
69.4096326323681 421.521360035153 2765.33986891708 236 236 236
62.5485174562388 420.967389949072 2761.59862524098 233 233 233
57.9097550567065 420.620619973864 2755.76376318776 225 225 225
51.7862012893313 420.135372393393 2751.32221050402 218 218 218
47.1320389234759 419.787235361537 2745.47617776214 210 210 210
42.4678692676688 419.438253178105 2739.62318071838 184 184 184
38.524648338258 419.156692495605 2733.05782518916 169 169 169
34.5671796341085 418.873917840639 2726.48213499497 192 192 192
29.868977315874 418.521974106232 2720.60415747006 181 181 181
27.333384882521 418.372471102765 2712.58981751769 157 157 155
24.7748490779363 418.221054264118 2704.55854125491 165 165 163
23.6326968278413 418.202538785461 2695.08463157109 164 165 160
21.023259060283 418.046874254931 2687.01672835068 194 195 190
21.9678580893881 418.224658691733 2675.35113913578 171 172 167
22.1541487367851 418.331880168823 2664.37051520578 168 168 166
22.2996152789268 418.435734694288 2653.36027995638 158 158 156
20.9866326582038 418.403126139242 2643.76246030698 139 139 137
20.3482134024977 418.434221583834 2633.4189320809 139 139 137
23.1954111990129 418.793312849142 2619.42809130618 145 145 145
28.0907160625175 419.34570784133 2603.21754180995 124 124 124
32.2144252043182 419.826448515129 2587.68231979435 158 158 158
13.2442923922484 418.134476784293 2596.15432169353 211 213 210
-18.8628919472316 415.204227706811 2618.56389080293 99 101 98
-27.2338418452829 414.50761996068 2616.19748648597 113 115 112
-37.6659836650768 413.616454301108 2616.04129904735 122 124 121
-43.939032468282 413.11697505008 2611.49130213554 127 129 126
-56.3934799968795 412.034152360349 2613.57324123742 136 136 136
-64.0176915745978 411.406572831773 2610.51347647739 137 137 137
-70.951623951435 410.843945166478 2606.71910772913 141 141 141
-71.7613653567017 410.859787498568 2596.25130716061 151 151 151
-73.9630424324138 410.744455110711 2587.24387155179 156 156 156
-76.1922264237902 410.626744996382 2578.21648354912 160 160 158
-77.7754230705323 410.570453777259 2568.42266002825 156 158 155
-69.9929807646742 411.401266165124 2548.13099069453 164 166 161
272.281714653361 430.870640493114 2766.70860320917 220 222 221
261.233347219917 429.949358761229 2766.10554812846 238 240 239
247.093007788011 428.75250308226 2768.20010171757 254 255 255
233.772573005906 427.628257964761 2769.65435284257 254 255 255
221.265730480661 426.576116612081 2770.46342847104 209 211 210
207.247309550794 425.388883780237 2772.64641212576 184 186 185
194.812843333189 424.342451778525 2773.50827828024 174 176 175
180.107557872135 423.09313220731 2776.42806132552 171 173 172
169.280202336994 422.189321761322 2775.98531098203 174 176 175
154.658363801418 420.946568154298 2778.96561974234 173 175 174
145.416025481165 420.18358486919 2777.2025222628 166 168 167
133.911632879034 419.218379266354 2777.50369895139 152 154 153
126.223918812798 418.593814936359 2774.39762067777 158 160 159
115.523015711783 417.699845277021 2774.04658824793 149 151 150
104.094417372234 416.740540879475 2774.40273970576 150 152 151
94.1970519178636 415.91781106396 2773.39953307898 153 155 154
85.069223913266 415.163645954485 2771.71919675981 147 149 148
77.4506221620208 414.544347324206 2768.66354062708 151 151 151
70.5840320637137 413.992208550925 2764.91804286199 156 156 156
62.2365861833947 413.307362621862 2762.568736685 174 174 174
56.120715613595 412.822229643652 2758.13275429563 188 188 188
49.2661734505253 412.270857784134 2754.39599422048 204 204 204
46.0918600024112 412.049262830053 2747.15330324279 218 218 218
40.6991240503349 411.628856153642 2742.00682779255 223 223 223
36.0320600220025 411.273550202184 2736.15140604822 202 202 202
32.8125470025706 411.048129283254 2728.87592955741 180 180 180
28.8477423800022 410.755933188389 2722.29487367794 185 185 185
26.3174584219512 410.592600972323 2714.2840174279 201 201 199
23.7638798339517 410.427332246004 2706.2565590717 171 172 167
23.3473068117309 410.454239331749 2696.07353622282 160 161 156
20.7407747468942 410.284561295621 2688.00766842714 153 154 149
20.9735699687505 410.370353207818 2677.06064811065 187 188 183
19.7387768021366 410.324453027257 2667.51944234048 182 182 180
21.316641979118 410.53188760754 2655.07803482537 174 174 172
20.7181161444323 410.543815511019 2644.76303462716 150 150 148
20.0830564853267 410.552719445891 2634.42182943998 133 133 131
24.3436083044459 411.00291939943 2618.98565290676 145 145 145
28.5366438277097 411.447600394603 2603.50079889222 135 135 135
34.0627267167215 412.013044287343 2586.51254331421 153 153 153
13.6896007749119 410.243607906127 2596.43716643696 212 214 211
-14.2490697441273 407.790614773031 2614.4601888415 125 127 124
-24.7143155045879 406.912957898997 2614.28007207448 113 115 112
-34.4627207443344 406.099626563964 2613.38460301438 118 120 117
-42.1229301492412 405.474522689248 2610.29875520085 121 123 120
-51.8359249424067 404.663726826737 2609.42926324886 124 126 123
-58.1043852060816 404.163917308755 2604.88259099441 136 136 136
-65.7386496414849 403.540486700832 2601.81526524138 141 141 141
-67.2429038361904 403.471278512455 2592.07860336171 149 149 149
-71.4911916690202 403.153981274671 2585.29191731105 152 152 152
-73.0503691808331 403.080129517686 2575.5154168261 160 160 160
-75.3150128676554 402.942564593099 2566.46222276493 158 160 157
-66.864575815798 403.775838774594 2545.41947844155 165 167 162
274.297250634621 423.09690710555 2765.66025950509 177 179 178
257.771779663028 421.723117687714 2769.7302885002 193 195 194
243.640841426021 420.553803775537 2771.8317967206 227 229 228
227.998352777811 419.254901660549 2775.30696665844 228 230 229
217.057930184913 418.35800260821 2774.78228659939 225 227 226
201.50529467039 417.066225662006 2778.32292355881 227 229 228
189.087411999956 416.042440360253 2779.19663171352 230 232 231
174.397736424133 414.82390916691 2782.12818112396 237 239 238
164.353490504608 414.002921499054 2781.01821206069 233 235 234
149.745142625845 412.790799524719 2784.00875011831 228 230 229
141.279808108221 412.10466746133 2781.57368296072 229 231 230
131.306882595804 411.289243860908 2780.51573824275 231 233 232
124.385122691725 410.73515989428 2776.73023685528 214 216 215
113.689841158422 409.857537499461 2776.38336242197 212 214 213
102.26685862555 408.917298243318 2776.74368146661 203 205 204
93.877182563971 408.236992061983 2774.36378472471 196 198 197
85.4996424760657 407.557609286044 2771.99269028634 201 203 200
79.3739227049146 407.071305013838 2767.54956206789 225 225 223
69.5251925637197 406.265434801121 2766.58169761477 229 229 227
61.9239916331815 405.652314978218 2763.53839252818 240 240 238
55.0703840571889 405.1032741597 2759.80232176232 238 238 236
48.2199145704474 404.554423240017 2756.06882130324 230 230 228
42.844058043507 404.132162396843 2750.93427823976 220 220 218
39.6625845978709 403.898412038918 2743.68633525754 214 214 212
36.462385018289 403.663099847442 2736.42480939021 198 198 196
33.2434360572598 403.426209003155 2729.14968369993 192 192 190
28.5523744731613 403.062805369087 2723.27682459894 184 184 182
23.8512350313442 402.69852099476 2717.39694985971 182 183 178
21.3073943070672 402.519781885701 2709.37618798157 201 202 197
21.6208508785072 402.58695612058 2698.48754649658 193 194 189
20.457603908635 402.527211200616 2688.99813596497 181 182 177
19.9781300971513 402.526434881221 2678.7696692467 174 175 170
17.3218080790751 402.338389365538 2670.66732013942 173 174 169
21.0440552711124 402.699729403182 2656.07579610727 178 178 176
22.5761008525276 402.872684020405 2643.60099834169 163 163 161
22.6448701654722 402.919811819208 2632.53487630199 136 136 134
26.1961824432131 403.267199670797 2617.81936723196 141 141 139
30.3872774857639 403.670071667825 2602.33260027369 134 134 132
36.6117005715303 404.248556255417 2584.61561583212 182 182 180
18.3230721036969 402.71341350421 2592.34711803794 204 206 203
-8.24207700088975 400.463707711281 2608.89679186028 212 214 211
-18.7258356839277 399.600596876012 2608.70303388213 109 111 108
-29.1842803112841 398.739382824449 2608.52793068778 113 115 112
-38.9280871968469 397.939578005107 2607.63615806425 118 120 117
-47.2766461695038 397.259974038657 2605.28607153444 122 124 121
-53.558444534664 396.758680714951 2600.72972268981 128 128 128
-60.5238326941617 396.198164798041 2596.91256166982 135 135 135
-62.7229274473373 396.049375967248 2587.90682857824 148 148 148
-67.6623729503372 395.663784726491 2581.85409276607 147 147 147
-68.5555513388714 395.627915089065 2571.32525053941 156 156 156
-72.1802449478923 395.355943882135 2563.75581420584 154 156 153
-65.0785213257232 396.011758715627 2544.20482760315 161 163 160
277.962546609533 415.430750794316 2773.21892117935 189 193 192
264.552494586707 414.3475037476 2774.60841451732 223 227 226
250.399083555664 413.20317932555 2776.69375830643 231 235 234
236.288621635127 412.062274516619 2778.81025414334 219 223 222
222.998318264611 410.988534278816 2780.2866039888 207 211 210
210.522005487751 409.981463516466 2781.11803957484 222 226 225
196.533555059259 408.850248831701 2783.32303322857 222 226 225
182.587911780479 407.722397451785 2785.55907573448 228 230 227
170.222397917031 406.72410389211 2786.4711707527 229 231 228
159.424150018558 405.854297885009 2786.04939891839 229 231 228
147.886737101651 404.923749684942 2786.32681402269 227 229 226
139.427389146713 404.245737762685 2783.89642225929 224 226 223
132.499831260811 403.693390038454 2780.1070210625 227 229 226
125.575735761699 403.141304979813 2776.31983667721 226 228 225
115.632995545319 402.34134051834 2775.28355775108 217 219 216
101.191160108494 401.17187782657 2778.39502030909 213 215 212
92.8054423432387 400.499546987703 2776.01803341735 204 206 203
84.4318609642887 399.828132119684 2773.64984909061 171 173 170
79.0572788999264 399.402949991548 2768.51621511537 96 97 92
66.9764471899828 398.426889915737 2769.63479491907 68 69 64
58.6412974946824 397.758379339342 2767.29448525079 28 29 24
51.798545785231 397.21241355229 2763.56629970991 20 21 16
44.9590729231382 396.666623772719 2759.84049196697 12 13 8
39.5941891185281 396.241938951082 2754.71418546317 17 18 13
37.8913519472852 396.11814771788 2746.06832670115 21 22 17
35.4296113297186 395.931992854994 2738.10733785723 23 24 19
32.9448551226315 395.743918306441 2730.12936032068 17 18 13
27.5292839819672 395.314948013857 2724.9662877785 16 17 12
21.3835037512276 394.825853616307 2720.50860317225 20 21 16
19.57165217671 394.693029365301 2711.78367178879 17 18 12
22.0539830633002 394.913292715655 2698.76266464286 15 16 11
22.3278931236113 394.951994498671 2687.84550530644 21 22 17
16.8341937952601 394.516385874121 2682.62546787218 29 30 25
12.7621940132281 394.197627439169 2675.96656939047 19 20 15
18.6364045276721 394.696960471739 2659.23034409301 69 70 65
23.0159836534938 395.073470700734 2643.88037421863 126 127 122
25.2072353533217 395.269996563239 2630.64823732322 151 151 149
27.3444461756625 395.462099704125 2617.37690264048 121 121 119
28.7248499452275 395.591971706699 2604.79195826735 112 112 110
30.7560957652289 395.775430756824 2591.44376350898 201 201 199
-0.840840273629517 393.207123703023 2601.87410056242 197 199 196
-13.4291667241258 392.186835668568 2603.85930472706 103 105 102
-23.9040262651931 391.340362912217 2603.67237667902 113 115 112
-34.3535032107614 390.495767197731 2603.50385852373 119 121 118
-42.7158550040438 389.822872298778 2601.14380726665 119 121 118
-48.3260595344219 389.376484108119 2595.83955260149 122 122 122
-55.3071290902472 388.817057703923 2592.01102932125 131 131 131
-60.2430580432434 388.425960770438 2585.96052036679 149 149 149
-65.1889179415939 388.033950190373 2579.90310210732 148 148 148
-68.1160271397849 387.808150718123 2571.60426236307 155 155 155
-71.066306477801 387.580350140941 2563.28891043101 159 161 160
-66.6506144039636 387.959467564188 2546.72980170307 163 167 166
261.860912569073 406.222707842774 2777.55651657233 76 81 77
248.496766762683 405.167151917396 2778.97942856728 135 140 136
234.391372527047 404.053445280595 2781.09973584122 164 169 165
217.995936166123 402.760015700417 2785.26443673911 169 174 170
204.758418493307 401.714528476234 2786.7789006934 127 132 128
191.559137823675 400.672059618394 2788.32139323296 103 108 104
176.085222422435 399.451101051939 2791.91945479152 20 22 17
163.738459067472 398.475622272279 2792.84496353783 30 32 27
153.725463430981 397.68332943934 2791.75808829367 41 43 38
147.555590218182 397.192649172419 2787.28293013781 48 50 45
139.860366914808 396.58226310473 2784.17148007363 61 63 58
135.97297821756 396.270671126581 2777.64644640659 51 53 48
127.524142127355 395.601060907245 2775.22371747456 49 51 46
116.820461592633 394.754519405395 2774.87091185672 38 40 35
99.3609645404101 393.377845407456 2780.73419853733 33 35 30
90.2302052124995 392.654711247378 2779.05189441721 27 29 24
86.3592934262773 392.344252447401 2772.53881095438 26 28 23
83.2209173795637 392.091208661906 2765.32201247138 28 30 25
68.1494501875157 390.901894097183 2769.21168313154 27 29 24
65.0088166652663 390.648570347293 2761.99324673827 25 27 22
47.0443073841813 389.23226356266 2768.72527515801 26 28 23
38.7438875786033 388.574101683343 2766.41019434616 27 29 24
28.983754854301 387.801375005139 2765.50672392984 28 30 25
32.4504113767032 388.066106642762 2751.9644640553 29 31 26
30.7385990884184 387.924523997772 2743.31200892239 33 35 30
27.5406395116855 387.666279883005 2736.05199072621 34 36 31
19.2348398212907 387.00736562759 2733.73271163309 34 36 31
13.840255707632 386.576690120781 2728.58484439742 33 35 30
18.5571807929414 386.938880227518 2713.47935127415 34 37 30
23.9274809172181 387.352151706512 2697.61243129134 24 27 20
21.325567023923 387.140128075519 2689.54940234097 27 30 23
15.1202483800983 386.645456136851 2685.04852881711 44 47 40
11.7690829964094 386.374486988092 2677.67738400708 36 38 33
21.9200441561203 387.161942967124 2656.63211719304 18 19 14
21.3271738770739 387.106918496614 2646.32117217785 13 14 9
29.1843972596344 387.7141430399 2627.31761735523 19 19 17
29.9024698456201 387.76154629665 2615.486859404 122 122 120
30.5751955000884 387.805256432693 2603.623504265 123 123 121
26.9989903589427 387.515757834788 2596.0891294769 204 204 202
-0.398650003753609 385.349779882462 2602.15485473037 202 204 201
-9.51866064845186 384.625552407673 2600.48033702224 97 99 96
-17.9303266174533 383.956742861525 2598.08455755989 110 112 109
-28.3983850254161 383.126712927645 2597.90264308451 125 127 124
-37.4662558558316 382.40630608854 2596.26594199275 112 114 111
-45.8323306273885 381.740801603033 2593.90322930317 118 118 118
-52.8202460502034 381.18316555201 2590.06975237633 127 127 127
-58.4433816642229 380.732316933922 2584.75610109974 150 150 150
-62.7148628669902 380.387204490743 2577.95246079075 149 149 149
-66.3243174535151 380.09379503672 2570.39396296085 154 156 155
-69.2781308602897 379.851590793815 2562.0756816725 154 156 155
-66.20833553696 380.080921866589 2547.01051270528 159 163 162
257.59896232113 398.001700684257 2781.83610559032 0 5 1
245.028905373505 397.029819638265 2782.59976226922 28 33 29
232.492751093807 396.060628233054 2783.38830381621 34 39 35
218.435229629629 394.977520245978 2785.54347007203 44 49 45
200.542924802872 393.607146225136 2791.09274259391 53 58 54
188.128781189957 392.64765981319 2791.96978143479 65 70 66
172.664199923875 391.459716185585 2795.57448225728 19 21 16
164.940926756079 390.852034329073 2792.44300642215 44 46 41
154.925179511435 390.072629462221 2791.35390728158 50 52 47
153.340525337216 389.924779492239 2782.79389451103 47 49 44
150.966365700064 389.717667053864 2774.89599435761 33 35 30
106.572744782829 386.27649118325 2774.80998908907 27 29 24
95.9187476376293 385.449709617363 2774.49330010857 28 30 25
66.721085583862 383.116210308802 2750.84510440737 25 27 22
46.5516073580927 381.578482010158 2759.68349312345 23 25 20
31.6165570957008 380.432177101654 2763.67256765661 20 22 17
29.9419852693141 380.27662170195 2755.04703815452 21 23 18
17.9973759773744 379.353863020042 2756.2643440012 26 28 23
14.1102921905878 379.03285622024 2749.73948368234 27 29 24
6.57279650828224 378.439208767043 2746.74275299815 29 31 26
4.11817592582064 378.22488357292 2738.78648845432 29 31 26
12.4823313354483 378.81770313146 2720.1503465125 26 29 22
24.3601196409569 379.672130417282 2697.88715951323 20 23 16
24.6324076155555 379.660236782957 2686.96827353947 22 25 18
21.2829809040942 379.377982481382 2679.59833196853 37 40 33
22.9127645469989 379.46678686198 2667.19366589499 34 36 31
8.12191315656818 378.331237641121 2671.28732774747 25 27 22
2.60733592559337 377.887182044928 2666.05240716749 23 25 20
31.0507104651219 379.939091769658 2615.04458463021 24 26 23
30.3167220729739 379.850044528073 2604.63116775118 13 15 12
-9.07746115252195 376.778217560164 2600.76042365444 129 131 128
-15.4139008440781 376.271556714554 2596.16443695864 80 82 79
-25.8896341022055 375.456946246597 2595.97703692322 108 110 107
-36.3396792110622 374.64427949123 2595.80797414369 111 113 110
-45.3938713198159 373.935431371211 2594.18154207339 124 124 124
-51.6990144962999 373.430835409806 2589.60825334832 134 134 134
-57.3240984743826 372.976659639894 2584.29287833133 145 145 145
-59.561570094248 372.77396756644 2575.25934647655 144 144 144
-64.5321008970419 372.368036586446 2569.18367876537 153 155 154
-65.4671283695092 372.26153046493 2558.62443593396 158 159 161
-64.4222170006259 372.301654240669 2545.79553689033 168 172 173
278.514129459326 391.66607035855 2774.73343919622 228 233 229
264.317710653273 390.598677002338 2776.7879954024 51 56 52
264.245548554828 390.541573002479 2766.85451232657 62 67 63
212.615122441021 386.695799843591 2781.28240161723 44 49 45
191.658321880475 385.147324336899 2789.54969465679 47 52 48
130.369563054126 380.306226194985 2753.74178413564 26 28 23
116.640249800727 379.275844652411 2756.13514259761 27 29 24
102.953742459148 378.248848718334 2758.55954912735 27 29 24
120.691169156048 379.456947078556 2731.89979062714 25 28 21
36.9710665671268 373.451075520194 2799.63211336289 26 29 22
41.3540462371067 373.710179772664 2785.5187560833 27 30 23
57.5233506630526 374.805998509219 2760.19203130048 26 29 22
54.3618966744472 374.527852276924 2752.95837597605 26 29 22
38.6669426457189 373.359770413451 2757.63150637647 29 32 25
28.1658274475949 372.560698278862 2757.4257851358 29 32 25
19.8852721651734 371.919313108537 2755.12518951805 27 30 23
15.2647297377406 371.537478343296 2749.30335790136 26 29 22
12.0889183389821 371.257915089446 2742.05928740642 24 27 20
11.795118617874 371.182322853618 2731.96474636435 23 26 19
7.85007719281028 370.847733946244 2725.39780252057 27 30 23
41.5925966066468 373.124297175 2670.8220668541 21 24 17
24.5824459469346 371.863678687714 2677.01168216821 30 33 26
8.35164168608626 370.658708335151 2682.53121308149 30 33 26
3.75108838964211 370.218786753611 2665.60765917443 19 21 16
-21.5815764588889 368.371626392006 2680.58245837305 37 39 34
27.9484101630882 371.751056240363 2607.81374592689 18 20 15
-9.33089445638036 368.88154180352 2601.77174285363 197 199 196
-12.2049206114028 368.618262209416 2593.51148877304 69 71 68
-23.3802386812851 367.770339213306 2594.05181267238 97 99 96
-32.4627331062011 367.06986713863 2592.40461159839 106 108 105
-43.5848371653367 366.22601609559 2592.98353209501 126 126 126
-48.5278807580656 365.81671837146 2586.92777339578 132 132 132
-53.4809275144381 365.406501150263 2580.86505300934 144 144 144
-55.0496803889944 365.233744465654 2571.08111016662 145 145 145
-58.6801437574962 364.915855736451 2563.50725862997 149 151 150
-59.6315370943168 364.785646848216 2552.93573729802 153 155 154
-58.6028624060779 364.793824520907 2540.0952006018 144 148 147
177.363329975048 376.48859912209 2812.49173108564 47 53 49
106.215321977715 371.586330708335 2864.64062953698 18 20 15
9.64102592934601 364.756359531802 2911.93428579101 21 24 17
93.8688366344227 370.388388449715 2827.27642720014 26 29 22
64.4298656029774 368.177183044055 2824.45131047247 22 25 18
94.6163138716964 370.142748841846 2787.05789165456 21 24 17
83.2461115029925 369.299791551923 2787.45696491893 20 23 16
56.9150586627538 367.447546016598 2801.70828007532 19 22 15
56.1107786753294 367.318435663642 2792.4784465434 19 22 15
58.2549682485598 367.387663205288 2780.44687962319 19 22 15
45.4911699354454 366.451814858281 2782.30560267055 18 21 14
30.5438648634651 365.369373662499 2786.28582243599 18 21 14
48.1429470214945 366.477883956009 2759.52556507096 19 22 15
37.6200050768891 365.693032550077 2759.30409318675 18 21 14
32.2613357150576 365.255622490123 2754.18193273228 18 21 14
18.1139125330456 364.227601238625 2757.50753744565 17 20 13
11.3110890599879 363.693301429933 2753.80835582592 17 20 13
16.8792486082952 363.989186321562 2738.08427377591 18 21 14
6.41898663455542 363.209076633336 2737.90826395797 18 21 14
-9.07768918904828 362.09164171676 2742.72538699752 15 18 11
-18.7508662817208 361.364991639327 2741.88489148434 16 19 12
50.653771407692 365.932929598989 2662.53266268943 14 17 10
20.7180104550178 363.847725560553 2681.5801822783 29 32 25
-26.2163850112562 360.627658310916 2717.9425155505 31 34 27
11.4010687878938 362.896140857523 2647.64873976179 18 20 15
-61.1854737096507 357.97057718362 2711.10594558205 24 26 21
-8.19617694302144 361.082285082969 2601.31978239306 205 207 204
-11.7638877729345 360.758681314633 2593.79139256304 127 129 126
-18.1102623686704 360.250214922082 2589.18819469772 79 81 78
-27.8966436310211 359.513341059674 2588.26558328056 104 106 103
-38.3476085745151 358.732588022902 2588.09630981957 121 121 121
-46.0395444616695 358.134950152388 2584.98760192271 126 126 126
-48.9552796890442 357.853659001125 2576.69672633634 140 140 140
-50.5362599952517 357.66027844692 2566.90381510351 145 145 145
-53.5026111656534 357.374722544296 2558.57622533803 144 146 145
-57.1665754987636 357.042641582853 2550.97801635073 146 150 149
-55.4706505014906 357.064171686012 2537.38621464685 147 153 151
292.782335692837 376.728463523837 2764.0040093885 23 29 25
141.320905876771 366.482142289759 2844.36396824746 28 34 30
173.956659279838 368.487266690562 2806.27623010592 30 37 30
116.861969788295 364.720603842267 2846.38629941015 15 18 11
40.3666663049482 359.620640042944 2894.65782788064 18 21 14
77.369185178652 361.902322953267 2852.32624331429 15 18 11
70.641809852209 361.376766904141 2848.68209443207 23 26 19
116.40351916955 364.213682879243 2797.88142885516 20 23 16
54.9220589326191 360.180776510004 2843.45593121025 20 23 16
79.9745060538539 361.688295583397 2810.98458513402 20 23 16
78.4534413910505 361.494289181313 2802.47014148891 21 24 17
75.4010549007993 361.201999667822 2795.31547988314 21 24 17
52.8386598738217 359.664113306119 2806.12430122963 22 25 18
55.038377009609 359.707056198814 2794.13285428761 21 24 17
45.2642020679357 358.986050284893 2793.21946634411 22 25 18
39.2263529503296 358.50328735465 2788.84005537526 22 25 18
28.0013098666458 357.690378661102 2789.34450990526 20 23 16
30.8408102173559 357.77224176294 2776.5817215017 14 17 10
42.4639671564746 358.411263106723 2755.36789234648 20 23 16
24.6093898771136 357.176977212724 2762.18053479202 20 23 16
13.4129082315568 356.366180678814 2762.70570481656 18 21 14
6.62539449885413 355.835309247061 2759.01763891974 17 20 13
-1.6142840392277 355.212462753797 2756.74676962838 15 18 11
12.6476595740197 356.013855069525 2732.50594021787 15 18 11
12.3197141874805 355.890467643692 2722.38669863919 15 18 11
-10.3972588124694 354.35175829635 2734.31879005185 18 21 14
-15.0425665476255 353.95561750704 2728.47893307224 23 26 19
-16.8314334484996 353.739441076936 2719.77053605103 27 30 23
2.0712171935271 354.826909254829 2690.24945787548 30 33 26
-32.5995213866785 352.537772402675 2714.50930353126 20 22 17
-17.1834915074638 353.297078726429 2677.51859635827 27 29 24
-0.115613686115346 353.711564784709 2593.55364016506 207 209 206
-9.24610112940116 353.028498832851 2591.8720305703 209 211 208
-16.9794059231372 352.432861268581 2588.73304912513 73 75 72
-24.7050457102569 351.837757930008 2585.59992138982 70 72 69
-33.1085713222226 351.200472992087 2583.21020272436 111 111 111
-38.7657013303064 350.734301843843 2577.87183057439 129 129 129
-43.746818202296 350.309978464425 2571.7883956346 138 138 138
-45.342239809103 350.095779756596 2561.98491014672 140 140 140
-51.0308964364619 349.626805266957 2556.62337500114 149 151 150
-54.0263305152648 349.324662250841 2548.27491287472 149 153 152
-54.3547687678352 349.187250142357 2536.91991186293 155 161 157
290.933952903846 368.760788869242 2776.21000576766 204 210 206
281.421632720804 368.059254260589 2774.25150392374 11 17 13
269.571299732794 367.215293550719 2774.30251517316 19 25 21
168.81493960448 360.715827955432 2830.91742772496 27 34 27
203.062339552645 362.68251433663 2791.52744412663 37 42 38
135.688247936992 358.467091489099 2840.2401364876 26 31 25
117.2827474456 357.232504581728 2846.65340141477 27 30 23
126.651910349469 357.684658258438 2828.74509835303 33 36 29
103.037488451056 356.018414893217 2830.14478745708 28 31 24
123.705922277636 357.151469525524 2801.90428857709 25 28 21
104.657363488644 355.880240780512 2809.08623785186 25 28 21
94.7858157122994 355.164733773229 2808.10199563849 23 26 19
79.6401193788148 354.131366725635 2811.93894039184 22 25 18
78.8763028180903 353.966031654106 2802.73855065314 22 25 18
69.056469526454 353.254602077167 2801.79181802637 24 27 20
55.5083190200674 352.319222297013 2804.3169864325 25 28 21
55.460224322422 352.196199050967 2794.40061643516 23 26 17
47.9215929399808 351.62257832316 2791.40316389701 20 23 14
38.9042949100658 350.960366469556 2789.80341887668 22 25 16
32.8674902716068 350.477083247644 2785.42476243767 28 31 22
46.7779629616305 351.18810514061 2762.16401761637 38 41 32
27.4203631635532 349.906718649173 2770.3569216466 39 42 33
15.4849387319218 349.070387032746 2771.58161804168 38 41 32
8.70931434405309 348.542704227634 2767.90218713569 33 36 27
-3.17307527936928 347.710531708148 2769.16505618468 29 32 23
-9.92680683233882 347.184520805543 2765.50179880746 20 23 14
-5.79277325475958 347.306434450194 2751.20728029525 18 21 12
12.7465659873027 348.283342954144 2722.65760103209 17 23 13
-0.598202276199444 347.363722478065 2725.33028539046 29 32 25
-14.6189391929432 346.404846334349 2728.74778343772 27 30 23
-20.7075718053793 345.916916389929 2724.33153225775 23 26 19
-8.21774576490864 346.528557028048 2701.27546360563 29 32 25
9.14299804844232 347.425700593449 2673.10602796779 17 20 13
-1.34018843357975 346.675233690951 2672.91354983112 24 27 20
-20.2938331394813 345.425536908627 2681.39974452014 23 25 20
-52.5786730912796 343.391876907314 2703.68506868525 26 28 23
-11.5754069280176 344.997873381469 2595.08323137974 192 194 191
-14.4679990455658 344.690407358968 2586.8090001467 82 84 81
-21.51252944511 344.139964753412 2582.93481272825 92 94 91
-27.1816731206691 343.669703327354 2577.58741641927 104 104 104
-34.2238593843101 343.119286327457 2573.71492844466 113 113 113
-39.2179621033595 342.688003779878 2567.62204453764 132 132 132
-42.8634624889732 342.334760762186 2560.03711326993 141 143 142
-47.881653378689 341.901369976629 2553.92675665529 143 145 144
-51.5599807606233 341.545318246601 2546.31801417071 142 146 145
-49.8758019889203 341.499122702636 2532.71705985646 153 159 155
264.544967118514 359.153982261878 2789.14471460897 18 23 17
178.477610789663 353.780978045931 2832.94653690293 28 33 27
163.792102504794 352.799217707856 2835.88201208555 17 22 15
150.706369529138 351.910221325262 2837.50759514004 30 32 27
142.304010793707 351.290252072084 2835.11881007564 35 38 31
115.387127588284 349.611701521303 2848.94602962039 21 24 17
152.477020475296 351.592184614732 2806.67625870449 18 21 14
170.898796410803 352.501793066181 2780.51108766184 19 22 15
126.421964185193 349.681909238626 2800.12996615902 34 37 30
106.603282409282 348.412697587646 2807.98868369151 44 47 40
97.4853005934078 347.752993495534 2806.31596354835 45 48 41
66.4744197017031 345.710936397403 2814.70344230935 38 41 34
46.9127120212507 344.462246685337 2822.74884427242 40 43 36
54.4284469144203 344.7457201282 2805.96617055136 43 46 39
64.1071498104564 345.149373676102 2787.04697734393 35 38 29
60.27204573317 344.788890147605 2780.55959826837 34 37 28
59.3960374585718 344.594653753341 2771.27773197111 37 40 31
51.0763174904425 343.980998295106 2768.94888549334 37 40 31
50.1586596571224 343.783362527767 2759.63651484659 34 37 28
37.4203819360184 342.921841777802 2761.51411479967 19 22 13
36.473892737225 342.721820962884 2752.18112607708 17 20 11
17.9184451038452 341.53576578891 2759.72097357299 16 19 10
