ply
format ascii 1.0
comment KinectMotionCapture
element vertex 758
property float x
property float y
property float z
property uchar red
property uchar green
property uchar blue
end_header
42.017238127392 924.887473592187 2724.56472334235 119 91 70
36.5863927823669 924.66748200044 2719.39163672178 126 96 72
33.3249371807858 925.191659375337 2712.08955202121 144 108 84
33.658369669018 926.954891032801 2701.22398236983 151 115 89
28.9085693040141 926.979390550185 2695.31080155596 161 126 98
24.8676243253141 927.250862746642 2688.67740499844 160 124 98
22.9609370254829 928.263837052154 2679.88952886939 154 120 93
28.8791455223811 931.996119130444 2663.20157417265 157 123 98
33.2987672256917 935.228002761809 2647.89480056943 140 108 85
36.9421505775955 938.207514686266 2633.25936801329 113 86 69
31.3293962991472 937.972189004054 2627.95433405457 119 96 80
23.5966266473961 936.996146177105 2624.81381371759 103 89 80
108.344857259049 924.970204518285 2755.35575828396 95 96 90
119.341562072158 930.186107034555 2734.94602004809 0 1 0
92.9988524804628 923.042031880385 2749.16178633928 27 23 12
82.3678648434991 921.091391503501 2748.8560848759 23 16 6
71.0223801794121 918.895999525027 2749.26622618353 14 4 0
64.8741366809631 918.428631555497 2744.80686595058 45 33 21
57.9892471149335 917.714847511094 2741.04757822266 93 76 58
55.5109078537539 918.47857117211 2733.07907351272 103 84 67
50.8151184850445 918.50236795825 2727.20504286325 109 84 64
43.1926142344881 917.542008909629 2724.14453571021 120 92 71
34.8509605486771 916.33629274559 2721.79679010821 132 101 80
29.4216665730951 916.113618872756 2716.62481452217 141 107 82
28.3240479085149 917.362636329446 2707.18960848909 148 114 89
25.7539947207803 918.118870395772 2699.15458046025 155 121 94
25.3161797654462 919.608208685348 2688.96386086011 156 122 97
26.991319319293 921.829367003856 2676.60287504743 156 124 99
37.8989200695434 927.227608943098 2654.89443033075 153 125 101
55.1063353314771 934.818477357572 2626.64774858979 147 121 104
55.1379498350579 936.533181634786 2615.56313883947 104 85 71
31.0782601028818 929.941761173057 2628.96664099545 116 99 89
105.796188248249 916.360873519461 2758.40500676176 252 253 247
107.09294012963 918.336618839186 2747.00380769113 250 251 243
95.6813906686946 916.155301973706 2747.36642298787 33 29 20
86.5283882859811 914.708877161927 2745.66433079288 75 68 60
72.9491531537625 911.799649850379 2748.15696736349 85 75 66
66.7965666548072 911.332109280819 2743.69445792254 109 96 87
59.9072324840231 910.6207627748 2739.93166607537 106 89 73
56.6912109978124 911.127113046268 2732.66242723685 107 88 71
50.5301126438411 910.65870369008 2728.19374296997 120 97 79
40.7207953276378 908.974451196322 2727.24970605835 131 105 88
31.6598563661596 907.534539005717 2725.61468006688 138 109 91
26.2418728949863 907.310142323633 2720.45060050348 153 122 101
26.6020064212769 909.026318517616 2709.60444313624 157 127 103
24.7599240307874 910.011966161999 2700.86326206979 159 129 105
22.1721903471503 910.753026833485 2692.81534021591 157 127 103
23.8597520551478 912.945210448165 2680.46350720231 152 124 100
39.0669302405517 919.731232098544 2654.46813857449 147 122 100
66.9563856872992 930.859853737034 2615.45599332396 138 119 104
66.2441783826107 932.305813875624 2605.06614113507 86 72 63
109.242076951483 909.708205298622 2755.92886695174 204 206 203
99.3224408155475 908.029364624178 2754.90517946233 190 191 186
87.1891527373867 905.627373344847 2755.97821542555 198 193 187
80.2905091653319 904.918200120448 2752.20868600283 203 195 192
69.6920983638627 903.002759209827 2751.92677847496 198 187 183
64.2888876782743 902.777179893895 2746.77369650584 208 197 191
54.4628761548829 901.105386162862 2745.81791519027 219 205 196
49.062941463442 900.879942392983 2740.66691426877 222 208 199
40.7302847641051 899.691623609625 2738.32577889543 225 208 198
33.1397438068035 898.744498701704 2735.28880412635 226 208 198
27.0124568164802 898.278589467786 2730.84464310216 236 216 205
23.0603938336142 898.532767132917 2724.27559140005 245 226 212
19.8174985475621 899.025768233451 2716.98680355432 226 207 193
17.9981371692906 899.996767240222 2708.26201923628 163 144 130
19.026557089024 901.924069193139 2696.66605522495 146 129 113
24.309262867857 905.284471662886 2680.75056403126 148 131 115
35.9496364503062 910.79283897836 2658.3385486793 148 134 121
51.039736604896 917.48812441389 2632.25784809155 142 132 123
119.632408948831 903.742909981353 2757.25534733746 205 210 206
107.441906236418 901.358388890193 2758.28699568123 184 186 183
95.2858004387487 898.976365972033 2759.34388621333 184 185 180
83.1644030618084 896.597144464655 2760.425657333 186 181 177
71.0774877848377 894.220537160484 2761.53243850428 190 182 180
63.4700612639429 893.277899227487 2758.48324575721 197 187 185
58.8254773511014 893.289583550502 2752.64597920644 199 190 185
50.489187502627 892.109215088043 2750.3022503557 211 202 197
42.8996328751281 891.167845746279 2747.26601975123 216 207 202
31.658001479546 889.037444433746 2747.75177570006 225 214 208
24.8256765950692 888.33585428381 2744.03036051905 230 217 211
17.9968424984978 887.634198822111 2740.31177003088 232 217 212
15.5248152803988 888.357389827973 2732.34763574979 227 212 205
13.7531142969691 889.315760565256 2723.65733750441 251 236 229
9.7913000069294 889.56090361926 2717.08117110954 243 230 221
7.97196683000623 890.515366232224 2708.35661795218 255 246 237
11.1423366210333 893.124870400928 2694.61145023812 130 120 108
15.6837633150988 896.202863797509 2679.39219618777 142 133 124
-5.48278945087999 890.765159431163 2689.95810340178 153 148 145
131.554219362719 898.225105592781 2757.22392800504 218 222 223
115.570073372146 894.676239431309 2761.67535783883 193 197 196
103.39150950648 892.314492012426 2762.71577626054 196 198 197
93.4902476920168 890.664372684289 2761.70525971115 197 199 198
79.1377910353579 887.598727654401 2764.87191031697 206 205 203
67.0628179061805 885.244834546114 2765.98746365792 214 210 209
57.9863591276126 883.836991767744 2764.34105498071 228 222 222
51.8819313591425 883.373113617174 2759.91347538212 232 226 226
42.0938490456821 881.731576011057 2758.98534301351 235 234 232
33.0615595210095 880.326952971951 2757.37096987968 238 237 235
20.3850215991843 877.747444608036 2759.28462438489 242 240 241
12.8575414413934 876.816062727254 2756.2934434767 243 241 242
6.7938263520646 876.354945063399 2751.89539135048 244 242 245
5.80885224835948 877.536605543944 2742.54120811015 238 233 237
3.345350107538 878.246577225577 2734.58348135805 240 238 239
-1.30432763990385 878.251575790586 2728.74248831319 246 245 243
-1.64951649611189 879.660952881744 2718.61851032981 238 237 235
-3.46413959138703 880.599297412479 2709.89699549287 245 244 242
-3.87672558232222 882.00309509646 2699.7241316274 244 243 241
-24.2727781669194 876.860681949464 2709.61504994523 255 255 255
158.835576522323 895.957520820264 2753.52181744221 222 226 227
150.317205900454 894.779727490943 2751.04610739659 220 224 225
131.250598201547 890.324729990851 2758.19884621497 217 221 222
114.514567041641 886.577372018839 2763.33924967253 203 207 206
102.338994759611 884.237624058702 2764.38224266567 202 204 203
92.4414030928968 882.601543130957 2763.37445779198 204 206 205
79.5827074153932 880.032967797884 2765.15611763061 216 216 216
64.5330824308408 876.767517867196 2769.05110613819 225 223 224
53.2410297990982 874.671696479028 2769.50078028805 242 238 239
43.4572937691144 873.04412220183 2768.57557488308 246 242 243
32.9579307139998 871.185276985028 2768.36575584868 248 248 248
22.4843354185946 869.328340012686 2768.17462607883 250 250 250
11.3041632543158 867.240795162134 2768.70515221247 252 252 254
3.0746652295397 866.084671164135 2766.43896183677 252 252 254
-2.23045601623362 865.858016870659 2761.35698155094 252 251 255
-3.91170220918324 866.79079661258 2752.73212629014 253 252 255
-3.44926756430342 868.416851916065 2741.95937822989 252 251 255
-7.35546094243023 868.649712872166 2735.42347040982 240 240 242
-9.83719395166016 869.344406828831 2727.45245032745 252 252 254
-19.5113064800132 867.724040450997 2726.60674984772 239 239 239
-23.4459373589511 867.954298933313 2720.05021389439 247 247 247
-33.8077260988094 866.104447992971 2719.94017097488 255 255 255
-40.5918453214682 865.41046715579 2716.25373964954 231 231 233
160.97101659543 887.322322027858 2762.43691326872 232 232 234
150.18280322301 885.457870012553 2762.01737759836 237 237 239
144.717064639747 885.216531096659 2756.81888799633 233 234 236
132.455679280842 882.891936531901 2757.79975001364 223 227 228
119.476855889125 880.338890789724 2759.49411089201 212 216 217
102.786159712946 876.633093394193 2764.66788363631 218 222 223
90.6440461252309 874.31779235179 2765.73496090244 220 224 225
77.7905448102834 871.774132784243 2767.52051244861 233 234 236
64.2324747249185 869.002895719984 2770.02919096117 241 241 243
48.493725802861 865.543630490138 2774.65896821334 253 251 254
34.2897513054377 862.549150189731 2777.93332269152 254 254 255
22.3440523007277 860.248456913472 2779.1431535488 252 254 253
14.1068110491585 859.100178891128 2776.87109520714 253 255 254
6.61431294590598 858.182444577445 2773.90534266446 253 254 255
0.590709682077861 857.724456931164 2769.53638431073 252 253 255
-4.70549392872832 857.495717106258 2764.46085804517 252 253 255
-10.7327430483699 857.037195129737 2760.08925402627 254 254 255
-14.5894687363215 857.265818873925 2753.58918492818 246 245 251
-19.9032048862318 857.035359998747 2748.50094024353 252 251 255
-23.7833193968258 857.261909756017 2741.98390558362 255 254 255
-33.4142867123481 855.658421236194 2741.16956747912 243 241 244
-38.7345442454641 855.426956105726 2736.07659020773 255 254 255
-46.9108260166644 854.281834525053 2733.84903315935 246 246 248
-47.9692700530658 855.418421281116 2724.4416561666 255 255 255
-58.2673890928078 853.589370817752 2724.37757965298 238 236 239
-58.654206767359 854.950627392788 2714.22318031088 252 250 253
-60.4846964947248 855.853752062344 2705.48998501818 255 253 254
175.29248663703 882.387153687975 2760.44260521354 230 231 233
162.185086228483 879.848604944439 2762.04383129859 243 243 245
149.116553666533 877.313036056874 2763.6735430857 243 243 245
136.08683630192 874.780432401728 2765.3314078572 234 235 237
129.888013592485 874.309444902555 2760.83536334117 227 228 230
117.668949005781 872.009955438858 2761.84673727468 219 223 224
103.983821944687 869.25632570428 2764.26339865861 226 230 231
88.8457827399769 866.04950153464 2768.0948852392 228 232 233
73.7598053544284 862.846596233886 2771.96413239341 238 242 245
58.7260264198406 859.647670256156 2775.87094499772 245 246 250
43.0027552598857 856.224967492433 2780.51212760605 254 253 255
28.0752228705135 853.034061589986 2784.49629569868 255 255 255
16.8851866068094 850.983953679096 2785.01986076162 255 255 253
8.66479176269941 849.845056433246 2782.76035673275 255 255 253
4.12039140089382 849.842333322846 2776.99564239966 255 255 255
-1.89449422162768 849.384992158918 2772.63300692472 254 254 255
-10.8232937824893 848.020536670717 2771.0938593308 254 253 255
-17.5570304982822 847.33686109363 2767.4442980351 255 254 255
-23.5630375376863 846.879880731061 2763.08810066207 255 253 255
-27.404682309818 847.10124257586 2756.59892725876 255 254 255
-34.138166296481 846.417278395199 2752.94925323295 250 245 251
-41.5853979506275 845.507393235782 2750.01635506277 255 253 255
-48.3093260157585 844.823784984629 2746.37361013126 250 246 247
-53.6038914644767 844.591234777318 2741.29925210402 241 241 243
-56.0606688567156 845.259681234309 2733.3458954552 252 250 253
-63.4997417750307 844.349620610071 2730.41891083798 255 254 255
-63.1614765333644 845.915551489987 2719.55584518537 255 253 254
-68.4963308498947 845.679139996917 2714.45226133986 254 252 253
-70.3267662047908 846.565600546811 2705.71902105588 254 252 253
-79.1812150593973 845.20430059187 2704.23378785905 253 251 252
175.110459129988 873.090354073815 2771.37947808299 254 255 255
170.401714500163 873.069607841863 2765.49583026909 248 249 251
157.308277542052 870.556565770135 2767.10730795368 250 251 253
144.253660285011 868.046499654055 2768.74723641885 245 246 248
131.237944613221 865.539585000223 2770.41538143615 235 236 238
125.809341053845 865.295758004408 2765.24379920282 235 236 238
118.870544488005 864.599880976522 2761.44522936585 232 233 235
107.43291901626 862.550207707198 2761.78931392961 237 238 240
89.2913282497037 858.473277733171 2768.37949562044 237 238 240
69.7273434805457 853.950872731212 2776.40637038295 242 243 245
52.4731495420934 850.109879033485 2782.40600340702 247 248 250
37.5091367982696 846.948876913843 2786.36387758073 253 254 255
25.5550950241319 844.691229894563 2787.56758414718 252 253 255
15.109949628294 842.885468122196 2787.39733752915 253 253 253
6.89551579896497 841.755059456259 2785.14219776344 253 253 253
0.8922780927616 841.298721647269 2780.78801119381 253 253 255
-7.30374764028863 840.169505523347 2778.5462218904 253 253 255
-16.2156197189742 838.817234980532 2777.01940710872 253 252 255
-22.9318433784829 838.137716013438 2773.3822679783 254 253 255
-28.1964222925548 837.905563760137 2768.32964984568 255 253 255
-32.0222771701577 838.11996011599 2761.85188759231 255 254 255
-40.1800532134398 836.993006230099 2759.63783776398 255 253 255
-48.3253463612243 835.866824622696 2757.43284096474 255 252 253
-55.0275823751731 835.187542653659 2753.80584297754 255 253 254
-61.0130648460183 834.73108987755 2749.4645269746 255 255 255
-64.8668252880356 834.942448901877 2742.96651999737 255 254 255
-71.5691856950358 834.26245028821 2739.33972268206 255 254 255
-71.9096488114739 835.583540036869 2729.21842881848 252 250 251
-76.5115282368094 835.568632760585 2723.41198497037 253 251 252
-81.1231427243473 835.552767962624 2717.5987735949 253 251 252
-91.3429351680519 833.761199713155 2717.59196203414 252 250 251
-95.2582284889956 833.966319267936 2711.04931695565 249 249 249
-93.6238975839721 835.942029947801 2698.65750484187 248 249 251
184.87108857502 866.754545183342 2773.48263355492 227 228 230
177.861225101853 866.055599415085 2769.63253025641 255 255 255
170.854970444799 865.357075847188 2765.78533968128 255 255 255
160.806397215178 863.763608551401 2764.66832089697 248 249 251
147.741657441237 861.277336850422 2766.30103185702 243 244 246
133.201573800856 858.347215229731 2769.33205963394 235 236 238
123.99372328918 856.983762667827 2767.59092160758 236 237 239
116.308679125407 856.067984299196 2764.48530374671 234 235 237
105.629243399388 854.260926566502 2764.14520850405 238 239 241
91.9820426855247 851.564616673212 2766.58965384276 238 239 241
70.1700324637287 846.422630778097 2776.68915304466 245 246 248
52.1695069718495 842.399845492386 2783.38187021711 250 251 253
36.4639961608479 839.04925844837 2788.03629296176 253 254 255
25.2524927258801 837.035647498923 2788.54448087842 253 254 255
14.0711864390419 835.024303623796 2789.07457083538 253 253 255
5.86068160925057 833.90239815332 2786.82232235565 252 252 254
-2.33734362608984 832.781324437725 2784.57912481326 251 251 253
-11.9845453970773 831.218172543524 2783.75351679552 251 251 253
-21.6103170094561 829.656567141344 2782.94315731335 251 251 253
-26.1301441379564 829.64425479512 2777.19650254716 251 251 253
-30.6593674488653 829.63123063877 2771.44273820533 251 251 253
-35.198205458161 829.617258711556 2765.68229363982 251 251 253
-44.065323871346 828.278590931891 2764.18799064603 249 249 251
-51.480315667594 827.382001345056 2761.27823670455 249 249 251
-58.1719942138723 826.70603450344 2757.65920331976 249 249 251
-63.433349701784 826.470608140133 2752.60861085652 250 250 252
-67.9891061923583 826.454309726212 2746.83588993877 249 249 251
-73.2629771815001 826.217391517207 2741.7762171651 249 249 251
-77.1289856587163 826.419046075448 2735.26957664775 253 253 255
-83.1220496797842 825.961082951992 2730.92275696706 249 249 251
-87.7113525661299 825.941339621734 2725.12540562489 254 254 255
-95.8102812601356 824.825007921307 2722.95406929938 249 249 251
-98.3142488692943 825.46101415697 2714.96633913912 245 245 247
-101.536645784051 825.876156836162 2707.69201663195 245 245 247
-98.5368562031581 828.257063089863 2693.8220337897 240 240 242
184.556334831883 858.814255006798 2774.44927934341 247 248 250
175.250041917182 857.453880118198 2772.63679390725 254 254 255
166.724705021143 856.316207981125 2770.15623708257 255 255 255
159.735488567204 855.621683067187 2766.32112364143 246 247 249
148.192850231879 853.601977601761 2766.58923393213 242 243 245
137.43758237604 851.805385401471 2766.1942193702 237 238 240
125.952921157519 849.79019749764 2766.50438139251 238 239 241
116.757220615088 848.438651978548 2764.77181697264 236 237 239
103.824619821494 845.98698253471 2766.50049356678 238 239 241
87.9367903761996 842.658069375309 2771.02285942506 243 244 246
64.6417992363828 837.134117263202 2782.51574711234 247 248 250
48.1446494401219 833.595499239888 2787.83037807738 253 254 255
33.9341493346881 830.720336385734 2791.10060636943 252 253 255
23.4701033035911 828.945783061851 2790.9168163545 251 252 254
13.0316805956245 827.173126281456 2790.75161083969 251 251 253
4.089744658474 825.84058518626 2789.20310205895 250 250 252
-2.63602543566455 825.165859384686 2785.55936126969 247 247 249
-10.819953062279 824.053933403855 2783.3264297198 246 246 248
-18.9912064139786 822.942725103186 2781.10239518046 245 245 247
-24.9704313365744 822.4876754155 2776.76562251471 248 248 250
-31.6749395441975 821.814134369516 2773.13730092175 246 246 248
-38.375566637548 821.140718147248 2769.51149898659 246 246 248
-45.7926149380399 820.249468750009 2766.60057576743 246 246 248
-53.2014490268924 819.358695205698 2763.69531513885 246 246 248
-61.3178696188106 818.250804195972 2761.51134131702 245 245 247
-66.5684361610732 818.013215281387 2756.468853514 250 250 252
-71.8240995270312 817.77509397961 2751.42266821807 248 248 250
-74.9578532607849 818.187609400972 2744.21229725995 248 248 250
-80.9371509623773 817.730821246735 2739.87546302947 253 253 255
-86.9172057882051 817.27373278173 2735.53807842235 248 248 250
-90.0885269648475 817.682677485294 2728.30075041379 248 248 250
-95.3787201715701 817.440623748839 2723.22951378082 248 248 250
-98.5801781120688 817.846649087914 2715.97032420183 254 254 255
-105.27870346347 817.170654914685 2712.34603280643 252 252 254
-106.425190321304 818.221844822427 2702.87439914163 238 238 240
-105.529192293017 819.917486496743 2691.18126627019 234 234 236
202.810537838729 854.857913784185 2769.13537367271 249 250 252
187.314899773179 851.754094206522 2772.70815094611 250 251 253
176.469165645885 849.966652163951 2772.24730732369 255 255 255
167.941261404379 848.83689720213 2769.76492947755 245 245 247
160.187780606294 847.92651817945 2766.61002226573 245 246 248
147.124618926152 845.489364250127 2768.24412601085 242 243 245
135.615403054905 843.49136491026 2768.53657490484 242 243 245
123.381029817828 841.277741757707 2769.53728620079 244 245 247
112.687177592588 839.502136250894 2769.1868994419 239 240 242
99.0154901186395 836.858388760224 2771.61386004458 237 238 240
84.6383882456903 834.000557113545 2774.76340294589 245 246 248
64.3367421953256 829.408614973688 2783.49051019009 248 249 251
47.0950459243822 825.690989059922 2789.49982792219 247 248 250
34.3714911202264 823.27972363357 2791.37995659263 244 245 247
22.4265179826717 821.087942391927 2792.59086530744 243 244 246
12.729348924013 819.548393618231 2791.72886001394 240 240 242
3.78870097777151 818.226721109775 2790.18163445386 239 239 241
-2.93491118192635 817.554848238263 2786.53917797095 237 237 239
-11.1171660466465 816.451123184851 2784.30750058118 236 236 238
-20.7447700517251 814.916433286709 2783.49594909078 236 236 238
-25.2641342242681 814.893165583086 2777.74957444019 237 237 239
-34.1401225612068 813.575764964667 2776.24894917173 237 237 239
-40.1099326978029 813.121000029122 2771.9190029276 238 238 240
-48.2409112068443 812.020532775143 2769.72451336375 242 242 244
-54.2056670286175 811.56575908876 2765.39823105597 242 242 244
-61.6024871265366 810.68115652362 2762.50171088304 243 243 245
-67.5643070366438 810.226202472117 2758.17755596671 241 241 243
-72.1043318373311 810.200066150896 2752.41618945574 244 244 246
-75.2355445527162 810.60174517565 2745.2079001246 246 246 248
-82.6265825162633 809.716655126835 2742.31556907507 241 241 243
-87.8955351688941 809.47399210335 2737.25972708691 252 252 254
-93.1696710331336 809.230610462844 2732.2001240381 255 255 255
-96.347763154029 809.627704704963 2724.9575331256 251 251 253
-100.242609806478 809.809577855362 2718.42988700286 228 228 230
-104.847123036554 809.776773042223 2712.62144319893 219 219 221
-107.380025175196 810.382534896615 2704.61258458699 217 217 219
-108.552882142943 811.412171791429 2695.12172549649 222 222 224
-104.932131899944 813.928986391255 2680.46754206353 204 206 205
225.772885415571 852.123612991763 2759.82958914703 210 211 213
204.036953044346 847.316083594024 2768.75119074231 254 255 255
188.537479389535 844.244682543204 2772.32105724441 247 248 250
176.155571713555 842.041282769563 2773.21516393751 255 255 255
166.101084809249 840.488141425952 2772.09406246312 245 245 247
157.591941690428 839.368031483164 2769.62533380911 246 247 249
144.536147523618 836.955849881184 2771.26490491164 243 244 246
133.034647706451 834.977414417166 2771.56304643278 243 244 246
119.296782309342 832.355787931671 2773.94214529392 245 246 248
107.862025395812 830.382520411925 2774.28869634693 238 239 241
94.204149524165 827.76701550717 2776.72581232914 239 240 242
80.5894318503611 825.154648434863 2779.19423050376 246 247 249
61.7913548871818 821.044260496409 2786.54337849856 248 249 251
43.8116373052426 817.153701119656 2793.25184951928 244 245 247
32.5820463546784 815.195859454683 2793.7472078923 241 242 244
22.1225564627692 813.454235608166 2793.56688751419 239 240 242
13.1644938315785 812.142134819633 2792.00679168296 235 235 237
1.2804532504358 809.976558592807 2793.26200444184 234 234 236
-5.43458651399686 809.307949164967 2789.62577880119 232 232 234
-12.1459672184305 808.639636161793 2785.99220719267 232 232 234
-18.1246559381443 808.18451042489 2781.65582284663 232 232 234
-23.3773033578604 807.942152662255 2776.61180241599 232 232 234
-33.7079039700872 806.209596177057 2776.52496255532 236 236 238
-40.4002275790756 805.542110085363 2772.90521003046 237 237 239
-49.2499217933651 804.237175264148 2771.42370907438 238 238 240
-53.056271643773 804.41958607897 2764.96021889543 239 239 241
-60.4557687383727 803.540083846796 2762.06178394467 241 241 243
-67.1335576303418 802.872998559679 2758.45256997652 241 241 243
-72.3848839443999 802.629493201216 2753.40950143075 242 242 244
-77.6413278538697 802.385394029006 2748.36272002308 244 244 246
-83.6099962627275 801.929227990761 2744.03359434489 243 243 245
-90.2842177145344 801.261475805039 2740.42696311227 255 255 255
-96.2521823766065 800.804829083795 2736.09834516039 243 243 245
-99.4190399105899 801.191731461497 2728.86414129292 217 217 219
-103.302455041328 801.366215943952 2722.34445022215 214 214 216
-106.503833883107 801.749903504024 2715.08520483825 217 217 219
-111.805201430368 801.500492189325 2710.00583041977 219 219 221
-114.344958889026 802.091658889773 2701.99192831273 218 218 220
-113.460243891087 803.731362459006 2690.29033279427 209 211 210
-103.685983018409 808.096775675521 2668.99011096176 206 208 207
220.819394128006 842.81127248957 2764.83766859487 229 230 232
201.408857119336 838.700079154094 2771.74282715265 248 249 251
188.991457141917 836.515659986198 2772.61100638248 250 251 253
176.60830304057 834.333846243117 2773.50431885274 240 240 242
165.788787238252 832.58114830036 2773.06265743933 246 246 248
152.708141324541 830.19150813777 2774.684327157 246 247 249
140.426295313668 828.017722248392 2775.65112068672 243 244 246
129.694854184184 826.271860617295 2775.27334111053 242 243 245
118.233098301914 824.315474515404 2775.60070001965 243 244 246
105.294892060682 821.936825502104 2777.32538849102 232 233 235
93.8978557672567 819.985373331229 2777.69939452559 239 240 242
80.2837479184086 817.400358585088 2780.16839332025 245 246 248
62.97868547763 813.759627563146 2786.13216505133 245 246 248
44.2495760194701 809.700590524183 2793.53156916479 237 238 240
33.0188390451007 807.761654551731 2794.02619252175 234 235 237
22.5583516764738 806.036259960024 2793.84523125586 232 233 235
13.5995985658806 804.734857121694 2792.2846890686 230 230 232
1.71426011279774 802.590922501497 2793.53907059142 229 229 231
-7.9355649499302 801.081914604858 2792.71154066651 226 226 228
-16.1013721056154 799.99553334178 2790.49187442174 225 225 227
-21.3377389258869 799.751746273767 2785.45964890537 225 225 227
-25.1252036357081 799.927969685052 2779.00952315042 225 225 227
-33.2756774067053 798.84241239043 2776.800976577 236 236 238
-39.9683629166034 798.177525708595 2773.18097486897 237 237 239
-47.3779634204323 797.302831264603 2770.27553457066 230 230 232
-53.3429982122242 796.847855747091 2765.94904900925 231 231 233
-60.7406980706053 795.973876054461 2763.05194488613 234 234 236
-68.1306221892397 795.100178178955 2760.16077346717 241 241 243
-74.800712872948 794.435986797537 2756.55715475268 245 245 247
-80.757805583777 793.980818263743 2752.23642559758 242 242 244
-86.7156280450318 793.525291892951 2747.91516561832 253 253 255
-92.6742109315684 793.069524687784 2743.59335317067 224 224 226
-99.3365377095461 792.404956982835 2739.99565524799 208 208 210
-103.192515029437 792.573479331283 2733.49582423247 220 220 222
-106.364092819072 792.948707734564 2726.25813941996 222 222 224
-106.769006268477 794.154050229375 2716.08953785191 218 218 220
-112.068220627216 793.902005387645 2711.01171098641 218 218 220
-113.913464913221 794.687135614702 2702.26722213417 224 224 226
-115.096291402771 795.677250874822 2692.76893573968 223 225 224
-108.749014281599 798.944396156864 2675.15433492966 222 224 223
241.540017385033 839.295935783036 2757.60825853272 212 213 215
218.183880613261 834.169455252137 2767.8237970892 236 237 239
199.550578426189 830.315862675251 2774.0586579256 246 247 249
184.831715947596 827.521394182446 2776.96077221721 242 243 245
174.760813059856 825.993997267761 2775.82819532372 241 241 243
162.417858026506 823.837176487853 2776.75048107352 243 243 245
150.871547059913 821.893227375076 2777.0163127163 239 240 242
138.595053861823 819.741502384329 2777.98709835704 246 247 249
130.901106515078 818.851947219238 2774.87515921453 241 242 244
117.924617127794 816.494821654399 2776.57249891386 244 245 247
107.247759467908 814.769403593921 2776.23468608739 237 238 240
90.5855699350777 811.370718141154 2781.43038501133 244 245 247
77.7300102758431 809.022732050966 2783.21543554453 242 243 245
57.4435259497763 804.58710276573 2791.95403112465 239 240 242
43.1979095984905 801.828891811873 2795.19968976212 236 237 239
31.9704111442558 799.909156985086 2795.69675804903 233 234 236
22.9941482603482 798.617388265653 2794.12357145214 230 231 233
12.5582484957474 796.909937142737 2793.96052515233 228 228 230
2.14806834532988 795.204390363958 2793.81613319561 226 226 228
-7.50269203494169 793.708749054586 2792.98799294345 222 222 224
-14.2059266585286 793.046244301292 2789.36065049974 220 220 222
-20.1760771148551 792.591511539869 2785.03045771354 219 219 221
-26.8740518745776 791.929123816755 2781.40663437315 218 218 220
-34.2936257579296 791.059416567868 2778.4939894203 238 238 240
-40.9821890326987 790.397373073289 2774.87699040979 227 227 229
-47.6670866453761 789.73550705059 2771.26264961489 234 234 236
-52.9117016416834 789.487407415605 2766.22442297568 232 232 234
-59.593762934794 788.825412703531 2762.61213763753 230 230 232
-67.700298369167 787.750285442937 2760.4354957322 237 237 239
-75.7943990535694 786.675926560506 2758.26787193449 242 242 244
-82.4567981311097 786.014748037575 2754.66984429018 255 255 255
-88.4081832614643 785.559563930931 2750.3532526031 239 239 241
-94.36040103539 785.104133139426 2746.03605606541 211 211 213
-99.6103531782926 784.85416728448 2740.99395096196 200 200 202
-103.463894385111 785.014522851129 2734.49584457043 227 227 229
-108.029936413776 784.968225853724 2728.71522102085 224 224 226
-108.427365053863 786.152079848319 2718.55223098434 218 218 220
-113.025782613356 786.102682121332 2712.74812201573 222 222 224
-115.55799229406 786.666868991728 2704.73984927286 223 223 225
-116.733304346147 787.638355496593 2695.24691589614 223 225 224
-114.502341290565 789.629770631562 2682.05265807802 218 220 219
232.692185104486 828.946521443283 2765.96347172496 226 227 229
212.45311438402 824.715164409017 2773.50243648966 242 243 245
196.920066383975 821.739033677095 2777.04874127235 241 242 244
184.515628269765 819.599038574504 2777.9265418501 238 239 241
175.213126524149 818.293218197076 2776.11708104267 237 237 239
162.868876919906 816.157979547403 2777.03853764814 238 238 240
150.559102813541 814.025474053725 2777.98500012175 236 237 239
137.523331025958 811.688220149 2779.63946539783 237 238 240
129.07516119752 810.597066736434 2777.21508425379 241 242 244
117.615827025482 808.678863528165 2777.5440976392 232 233 235
105.432665021957 806.55602794706 2778.58268738522 238 239 241
88.0233464526423 802.989048147338 2784.47096071124 242 243 245
74.4257883373476 800.459621498377 2786.95223832562 237 238 240
57.882910522324 797.107941509851 2792.23466695198 236 237 239
42.8906173779096 794.173287943112 2796.17318655982 232 233 235
31.6641394485528 792.272634323452 2796.67109129707 229 230 232
21.2082181222528 790.57999077993 2796.49360594321 228 229 231
11.5162060153344 789.094878544148 2795.63590924291 227 227 229
3.31780471349319 788.02240582854 2793.39268525554 224 224 226
-4.86793221657256 786.950829222275 2791.15835200348 219 219 221
-12.3097806614174 786.085112635568 2788.22957995914 216 216 218
-19.7435822012773 785.219928450276 2785.30664398467 214 214 216
-26.4418433425733 784.560086511115 2781.68262593506 212 212 214
-34.5869428755847 783.490975932176 2779.47805856732 230 230 232
-41.9965020100321 782.627207599368 2776.57240912444 220 220 222
-47.2358683345102 782.376904437468 2771.53797619815 226 226 228
-53.9174763556298 781.717634917164 2767.92603325016 223 223 225
-61.3119284261474 780.854503345238 2765.03163294267 223 223 225
-68.6984199795939 779.991717944897 2762.14300513731 232 232 234
-76.0766699475912 779.129350871252 2759.26005947502 242 242 244
-82.0274872347695 778.674391997684 2754.94388057042 231 231 233
-89.3942651260726 777.812367210417 2752.06954747212 231 231 233
-93.9314828707911 777.763446564808 2746.30980597181 196 196 198
-99.1814932183352 777.510608291508 2741.26764412521 205 205 207
-104.436731621968 777.256988024469 2736.22168838822 227 227 229
-109.696950989213 777.002834397821 2731.17182466582 224 224 226
-111.479886944265 777.760283042218 2722.47265871676 219 219 221
-113.984125496049 778.313163681574 2714.48431109687 222 222 224
-114.434964717136 779.470346636574 2704.28246749628 222 222 224
-115.611463705084 780.422608607158 2694.78828183134 219 221 220
-117.507619097153 781.170108544901 2686.006990304 217 219 218
-115.317607863034 783.125167795822 2672.78286148683 217 219 218
225.392332390162 819.073177989105 2772.97289199776 234 235 237
209.814332521395 816.126134906847 2776.48646306915 245 246 248
195.831047855313 813.594028007568 2778.68840017607 237 238 240
184.199043585372 811.681372823265 2778.89226942439 236 237 239
176.432521187411 810.796751900195 2775.72774407133 235 235 237
164.849776392967 808.887967795134 2775.96734217246 236 236 238
151.771524993765 806.571946763796 2777.59112062021 236 237 239
136.450676254869 803.644849992039 2781.29150154254 234 235 237
128.764903807652 802.766591484083 2778.18554577896 241 242 244
115.038366196623 800.254556675428 2780.57341149742 225 226 228
103.616523022885 798.35804108485 2780.93000723667 240 241 243
82.4527807986595 793.812351053288 2790.26743347165 240 241 243
71.1197814234894 791.922663979939 2790.68817408727 234 235 237
56.0802669685248 789.017033700398 2794.59231449099 233 234 236
43.3280083671916 786.725689150622 2796.45253706619 229 230 232
29.8716496848646 784.234048252934 2799.03636455515 227 228 230
19.4212404310368 782.557982078856 2798.86295898791 227 228 230
8.25806490148162 780.680917498443 2799.40687246885 226 226 228
3.7516745444921 780.631278407394 2793.66976923775 223 223 225
-3.70059926297062 779.770322810299 2790.73316926389 217 217 219
-8.94921105464408 779.517119885101 2785.69201941325 214 214 216
-18.5812740271332 778.049698759669 2784.87757625181 211 211 213
-26.0096301393529 777.190093682852 2781.95861604333 210 210 212
-35.6058705046669 775.725096637585 2781.17015373276 226 226 228
-42.2885746110884 775.068676127469 2777.55772511698 217 217 219
-48.9675179670532 774.412370690259 2773.9477288553 222 222 224
-54.9241523299442 773.957657494466 2769.62733427279 219 219 221
-62.3146821589933 773.100101123578 2766.73580552133 220 220 222
-68.9828046055567 772.44401511874 2763.13365467927 236 236 238
-75.6472613900285 771.788106585782 2759.53416205283 241 241 243
-81.5982339823633 771.332896155503 2755.21786929003 227 227 229
-87.5500425193154 770.877498516757 2750.90096958488 221 221 223
-92.0916637235165 770.82261558157 2745.13830019968 201 201 203
-97.3459702847039 770.56649146173 2740.09271281564 221 221 223
-103.306694276991 770.109654645892 2735.76934281694 226 226 228
-109.268216936947 769.652394666174 2731.4453917036 223 223 225
-112.443750977568 769.993905776311 2724.20466813558 220 220 222
-114.943195730362 770.533264816283 2716.22002163034 221 221 223
-115.38837781102 771.669029468011 2706.02187604663 220 220 222
-116.559827449238 772.602294110675 2696.53154901488 218 220 219
-118.45069831439 773.333782246477 2687.75371277392 213 215 214
-118.311869189021 774.659587372016 2676.74514981716 219 221 220
225.073240562458 811.081216442081 2773.93613129048 241 242 244
208.721773955962 807.963875211347 2778.12346832962 244 245 247
193.970025599388 805.256537549907 2781.0021842813 230 231 233
183.882289905632 803.76840278454 2779.85760379803 228 229 231
176.117503631426 802.889190320971 2776.69465887007 230 230 232
165.30098892669 801.201796515333 2776.25550379468 234 234 236
151.458632053838 798.707920953621 2778.55950163871 233 234 236
136.898694745854 796.015355815034 2781.57763481572 233 234 236
125.420310582007 794.133666155254 2781.89302340384 230 231 233
113.971886139705 792.254164591779 2782.23014151662 213 214 216
99.5373865313223 789.571332740697 2785.33896198305 239 240 242
82.1428313500285 786.086990118535 2791.23865065473 237 238 240
68.5619225603871 783.613099891011 2793.73227902351 227 228 230
57.2665026697883 781.745156989167 2794.180371948 228 229 231
43.7653044355901 779.277186511255 2796.73181418422 226 227 229
29.5642902627771 776.611895476609 2800.00998207341 225 226 228
16.8924606960212 774.350993973589 2801.92866357226 226 226 228
7.95294487228748 773.094224860789 2800.38229298341 224 224 226
1.97610218780486 772.638949954251 2796.04724611213 222 222 224
-4.00146102904864 772.183586804648 2791.71167646459 215 215 217
-8.51580891401538 772.127448171198 2785.96877173018 212 212 214
-15.9591127672787 771.272177977091 2783.03870306523 209 209 211
-24.1221586527887 770.217953476912 2780.82120140449 209 209 211
-34.4492947731303 768.566750011411 2780.73728509701 224 224 226
-40.4110665377111 768.111799860233 2776.41316510215 215 215 217
-47.0946567464265 767.457746703995 2772.79981164599 219 219 221
-54.4936990839775 766.604997155982 2769.90213634296 217 217 219
-63.3179402237478 765.355565160354 2768.43936799654 220 220 222
-71.4109771577165 764.305608186355 2766.2726389347 240 240 242
-78.067137663731 763.652801727367 2762.6794706472 234 234 236
-82.5892677661595 763.594319590403 2756.93061806994 229 229 231
-87.829014895584 763.336935808863 2751.89587322528 208 208 210
-92.3681380331887 763.276599096016 2746.13469264038 212 212 214
-98.323880614027 762.820195701967 2741.81493596852 225 225 227
-104.280426814104 762.363458358629 2737.4945950444 225 225 227
-109.538775867704 762.103581840825 2732.44635264173 222 222 224
-114.1052459446 762.040163435594 2726.66533206754 221 221 223
-116.597550523966 762.566329959842 2718.6857948037 221 221 223
-117.72753346279 763.483885232183 2709.22515381921 220 220 222
-118.889278042098 764.39869858436 2699.74176873235 219 221 220
-120.770637239909 765.114348490671 2690.97074747829 211 213 212
-119.250075619404 766.808660126057 2678.49533071759 215 217 216
-111.626035609593 770.263158941635 2659.3371582972 208 210 209
244.275051526015 806.982541823469 2768.07311479763 216 217 219
225.529996923242 803.294288251161 2774.22780139763 238 239 241
209.95051191766 800.412435204642 2777.74092053906 241 242 244
195.966577926415 797.934632216231 2779.94236751931 225 226 228
185.10415707475 796.259720433026 2779.47029179925 224 225 227
176.569708409944 795.186012692919 2776.98345365122 227 227 229
163.456684029496 792.916094488567 2778.58196346566 234 234 236
149.619279982107 790.44974385305 2780.88969113773 229 230 232
135.064239942503 787.787447355414 2783.91152776574 232 233 235
126.625758515798 786.72127505659 2781.49429648515 220 221 223
117.443297689213 785.457072171274 2779.77177222551 207 208 210
102.998240635269 782.803256956958 2782.87308634933 235 236 238
84.8404943110128 779.160311640081 2789.45375474945 234 235 237
66.7523862240644 775.522649334162 2796.08493215344 223 224 226
53.219586807205 773.079451603479 2798.6135914968 224 225 227
42.7116493513164 771.431733461356 2798.39862609655 219 220 222
29.9997429455212 769.192249124721 2800.28806904464 219 220 222
18.8084224234197 767.350971654686 2800.81205536563 223 224 226
7.64724640018688 765.511946635417 2801.35761100925 219 219 221
0.935960431078353 764.859353930257 2797.7241877028 216 216 218
-5.77170637094215 764.206905058455 2794.09338873635 210 210 212
-10.2791945154479 764.14567634995 2788.35543099196 207 207 209
-16.256344509197 763.689838853597 2784.02015849601 205 205 207
-25.1455682813821 762.447091303075 2782.51031671059 203 203 205
-34.0180225557063 761.20543342173 2781.01263701145 216 216 218
-39.2565557391031 760.946654387976 2775.97876511495 210 210 212
-45.9426229508388 760.294969550923 2772.36362802244 214 214 216
-53.3443182123074 759.447322286038 2769.46405540231 213 213 215
-62.8883587659808 758.012512695365 2768.71358675462 218 218 220
-72.4113403662181 756.579150625984 2767.97868600069 234 234 236
-79.0632677285912 755.929275596424 2764.3883067806 201 201 203
-83.5810114309061 755.865483502722 2758.64290157944 212 212 214
-87.4002213612859 755.995880674909 2752.16953091769 189 189 191
-93.3509825306753 755.539910702649 2747.85338757267 222 222 224
-100.70971132384 754.693971399948 2744.98467643651 225 225 227
-105.254874183736 754.627091763374 2739.21937886385 224 224 226
-109.11029148077 754.753719321654 2732.71974161547 222 222 224
-113.676736831417 754.684627257082 2726.93871022767 220 220 222
-117.558005940466 754.808682579759 2720.42031942018 219 219 221
-120.068141369322 755.319334937865 2712.42777761071 221 221 223
-120.529676552101 756.40947476698 2702.21754621556 213 215 214
-122.403742077826 757.109166505262 2693.45173146878 215 217 216
-120.189150984776 758.967381215019 2680.24522505623 217 219 218
-113.925325995788 761.981023986923 2662.56884397444 204 206 205
250.962221838519 800.734118412733 2763.00825578439 218 219 221
223.657735972435 794.913658814913 2776.53351430269 234 235 237
205.760545303192 791.472178710132 2782.06904888948 237 238 240
194.104118114462 789.614421109098 2782.25549150983 223 224 226
184.787047691462 788.350545182519 2780.43538753715 221 222 224
176.25422694407 787.284974993114 2777.94977071949 224 224 226
161.611231987083 784.645832922195 2780.90766975556 233 233 235
150.068489590132 782.797046081884 2781.17657034629 226 227 229
136.272733511861 780.361043728896 2783.51464324003 231 232 234
127.831646497302 779.302606275819 2781.09556229171 213 214 216
118.646325341584 778.048985302493 2779.37101811791 203 204 206
103.44287029018 775.228721403583 2783.15704135918 232 233 235
84.5304447095758 771.433269765009 2790.42489081533 232 233 235
66.4419555729583 767.839070087279 2797.05601213507 220 221 223
53.6574283577207 765.618506696871 2798.89320102393 222 223 225
43.8942221759482 764.182192563849 2797.9838469144 217 218 220
30.4351056589516 761.771609711366 2800.56608576513 217 218 220
19.9839302228431 760.144202549268 2800.39237124349 221 222 224
9.5583299643387 758.518688030334 2800.23720630051 216 216 218
0.631984684403619 757.28428454858 2798.70049660626 214 214 216
-4.60460178184707 757.023542315186 2793.66802598257 208 208 210
-10.5788132479685 756.567913000435 2789.33488474249 206 206 208
-15.8236177445075 756.306236167769 2784.29645195933 203 203 205
-23.9856706349246 755.268103453739 2782.07975164999 200 200 202
-32.1353128481341 754.23073716771 2779.87205198753 213 213 215
-37.3780509056914 753.968769302656 2774.83482125893 207 207 209
-44.7903530060565 753.125759196528 2771.92758300305 212 212 214
-52.9138175374979 752.089886284604 2769.73886766499 211 211 213
-61.7418452618663 750.861625434956 2768.27346157862 216 216 218
-70.5531259106131 749.634422566126 2766.82020116365 229 229 231
-77.2099313980648 748.986701824556 2763.22659107551 190 190 192
-81.7317970436489 748.916919658567 2757.47787297178 202 202 204
-86.2632386973976 748.846272113399 2751.72220863206 187 187 189
-92.9224824163732 748.197607050192 2748.12682623467 222 222 224
-99.5779653848925 747.549057059892 2744.53387619139 224 224 226
-104.826765150652 747.284427837994 2739.49253219787 223 223 225
-108.681957727777 747.40264972315 2732.99301527737 222 222 224
-114.642694519518 746.94473648174 2728.66963054777 220 220 222
-119.214253511044 746.869315517523 2722.88486011544 219 219 221
-121.024331391504 747.558030266673 2714.16537577766 221 221 223
-120.790085157835 748.817632270805 2703.22564738715 210 212 211
-122.661259026084 749.500949484968 2694.46184592439 219 221 220
-122.501144901419 750.754236884073 2683.46805112426 209 211 210
-121.013678882235 752.385227434239 2670.96832192209 210 212 211
299.151781336788 803.714489879187 2732.49533906996 209 213 214
252.201196538704 793.075789597215 2762.63258741113 231 232 234
224.890291254768 787.328294847645 2776.15356193777 237 238 240
206.988816053955 783.927322059239 2781.68590127671 230 231 233
197.645207158186 782.672030593605 2779.84689695777 216 217 219
186.009060355377 780.834884591328 2780.04814566449 213 214 216
177.473773505141 779.777150163233 2777.56078080593 221 221 223
160.530297460844 776.585213104012 2782.55361635613 229 229 231
152.044029358474 775.531330253537 2780.101805743 225 226 228
138.242391711724 773.122004991915 2782.43575008695 234 235 237
130.555449043561 772.264830865498 2779.32905280178 200 201 203
115.309017292702 769.473884729183 2783.08406981669 214 215 217
100.114552720476 766.686819922909 2786.87677860813 227 228 230
81.9627381755605 763.131312269325 2793.46218997069 224 225 227
68.3813294394153 760.738752616851 2795.95586787297 220 221 223
56.3390151078158 758.734885648828 2797.09686922467 218 219 221
45.8224999655745 757.118853766284 2796.87584617367 213 214 216
31.6138895202731 754.542503327824 2800.14895786448 212 213 215
19.6767193383534 752.546477513029 2801.36651464817 214 215 217
9.99161600763632 751.129365374144 2800.51387622405 210 210 212
3.27542747905962 750.481453731284 2796.87692265812 209 209 211
-3.43732996080037 749.833681043714 2793.24275154248 208 208 210
-10.1462851067697 749.18614628216 2789.61104351894 203 203 205
-16.1213466871328 748.730149379599 2785.277284151 200 200 202
-22.8253711831414 748.08265559279 2781.64915066839 204 204 206
-30.9778630128823 747.053064127278 2779.43942463909 205 205 207
-36.9466135431686 746.597070667726 2775.11024030347 203 203 205
-45.8023694460887 745.377825235546 2773.62477913359 192 192 194
-52.4834740987215 744.731362156624 2770.01356043234 211 211 213
-59.8778972241631 743.89462933751 2767.11902034561 221 221 223
-67.2645271391881 743.058299238469 2764.23042624031 207 205 208
-73.9303137794443 742.412409549036 2760.63002032044 186 184 187
-78.4609674284509 742.336369640328 2754.87519438581 195 193 196
-84.4178862736373 741.879811211933 2750.55458422954 202 200 203
-91.7878078730308 741.043838541467 2747.67780967224 206 204 207
-98.4460007674213 740.397588615563 2744.08320127316 214 212 215
-102.995212698812 740.319049147686 2738.3146149058 217 215 218
-107.554000638366 740.23964430063 2732.53908230244 216 214 217
-112.819869114613 739.970167181546 2727.48534028087 216 214 217
-119.481136553112 739.322582436231 2723.88820184101 218 216 219
-120.595491427416 740.183462613727 2714.4388973805 216 214 217
-120.360067841599 741.418366313209 2703.4998973759 213 213 215
-122.918971658414 741.897037680307 2695.47154585419 211 211 213
-124.814447838932 742.561627995987 2686.69003227119 210 210 210
-124.684850288048 743.787470297535 2675.67397634065 202 202 202
-115.731106056712 747.450070906117 2655.01071570594 197 197 197
291.029046175698 793.598248794782 2740.14204060072 211 215 216
247.988762225388 784.064489400253 2766.94377411979 233 234 236
223.793318571861 779.160081154305 2777.78704267509 234 235 237
205.893742027973 775.799928202899 2783.3212596285 225 226 228
197.326424420698 774.747694213226 2780.81070285139 208 209 211
182.611223916567 772.16259586246 2783.71653228749 207 208 210
170.247030572547 770.155873935313 2784.62447668993 218 218 220
156.385963628934 767.769067033322 2786.91545352824 225 225 227
150.966473004861 767.48904625073 2781.7499996505 221 222 224
140.973938398524 766.062333525015 2780.67474358193 237 238 240
131.002875494229 764.637290144433 2779.61476678694 199 200 202
114.240687216437 761.497240299413 2784.73957900394 216 217 219
96.7847649824392 758.171315237772 2790.59528932863 227 228 230
80.8989157037647 755.23107652415 2795.12105936464 216 217 219
68.8207794089868 753.246214044257 2796.23648334925 220 221 223
56.7771705064941 751.26392920647 2797.37665555663 213 214 216
44.7679025684389 749.284187394522 2798.54173514292 210 211 213
30.561741774457 746.737857927297 2801.8170691774 209 210 212
19.3692514200809 744.953291697672 2802.34020023861 210 211 213
13.381989215286 744.496664871358 2797.99759318695 206 206 208
6.65679831435151 743.8506227919 2794.35412307888 205 205 207
-0.799863627940045 743.015669087824 2791.41476823417 205 205 207
-8.24838357688207 742.181185386188 2788.48102359783 201 201 203
-14.2279144385749 741.724677062458 2784.14402176202 198 198 200
-19.4800888136364 741.456369062106 2779.10021280847 187 187 189
-28.3679989824814 740.24572074114 2777.59148587108 194 194 196
-34.3434816338339 739.789032545166 2773.25741775825 205 205 207
-44.6501483635162 738.203831417552 2773.18867446375 184 184 186
-51.333519518558 737.559773224242 2769.57553043073 207 207 209
-58.0135716960823 736.915695544426 2765.96508677367 226 226 228
-63.9747603580472 736.459388651406 2761.64138261017 188 186 189
-70.649668083953 735.815329036368 2758.03437389035 189 187 190
-76.610345581237 735.35852585905 2753.71103776726 195 193 196
-83.2802919823261 734.714390216131 2750.10762523258 204 202 205
-89.2403926987331 734.257215557791 2745.78470534864 200 198 201
-95.2013435293813 733.799673311641 2741.46116733683 214 212 215
-99.7594107309137 733.714781035967 2735.68642389396 209 207 210
-105.726377416741 733.256273487935 2731.3585199709 208 206 209
-111.694190915764 732.797338875699 2727.03000001172 212 210 213
-118.35801087662 732.152176075475 2723.43102346156 215 213 216
-119.473634570964 732.99365621209 2713.98070094129 211 209 212
-120.620904045712 733.832393456124 2704.50742382616 212 212 214
-121.799819300863 734.668387807575 2695.01119211617 213 213 215
-124.383268617563 735.130971175058 2686.96496554887 206 206 206
-125.621089239057 735.96174545629 2677.42600564102 206 206 206
-121.433979582803 738.269763834345 2661.94599953319 197 197 197
