ply
format ascii 1.0
comment KinectMotionCapture
element vertex 803
property float x
property float y
property float z
property uchar red
property uchar green
property uchar blue
end_header
262.915303901764 193.461157385515 2687.44942356558 15 16 8
287.622354539166 196.205850311596 2717.77247228246 16 17 9
287.807633090004 197.230012681401 2727.35649594159 14 15 7
271.786905938627 197.139103966042 2723.44033144317 16 17 9
274.312015132108 198.319140592137 2734.92855849125 21 22 14
279.984611320557 199.703870685091 2748.92934377476 24 25 17
281.817813922644 200.820564048292 2759.69675924323 28 29 21
282.125461353294 201.828806012513 2769.16162182475 28 29 21
279.329716750186 202.626565430877 2776.07065700386 25 28 21
276.546597694806 203.422675933808 2782.9677363784 29 32 25
276.13591526705 204.370780399034 2791.73755226456 32 35 28
271.806287273771 205.060856516496 2797.35185323448 32 35 28
264.319347199954 205.547311648469 2800.46386959587 29 32 25
259.198851555223 206.186499708071 2805.45412574986 28 31 24
257.256904339502 207.026456371824 2812.92633792712 28 31 24
246.571206025431 207.314195099255 2813.57582575037 27 30 23
251.027150002115 208.550642021609 2825.97218653402 22 25 18
253.129959101815 209.632493858227 2836.47736616925 20 23 16
254.466264387988 210.660502421446 2846.33440627491 19 22 15
252.618153042443 211.488292216317 2853.71557414583 16 19 12
246.755670310604 212.069934478024 2858.03389252999 17 20 13
244.930625934799 212.894661521671 2865.39260723226 17 20 13
235.022027859146 213.23413200463 2866.67968641795 20 23 16
229.962573868836 213.864718148073 2871.61059866619 23 26 19
212.695941524236 213.777706201084 2867.51415118412 23 26 19
197.003733389125 213.792907260788 2864.67332662745 23 26 19
184.533075919968 214.003597564659 2864.27287436616 24 27 20
196.618724792262 215.631482438644 2881.78816842786 28 31 24
208.78677130359 217.249046120914 2899.22316588357 30 33 26
200.448286388962 217.690786593907 2901.77014050739 33 36 29
193.746026077967 218.227043271989 2905.51216909356 27 28 22
187.037109717954 218.764089157384 2909.2610284323 29 30 24
174.515566916614 218.980632457762 2908.90990314577 46 47 41
166.116774649788 219.429621817785 2911.5156924795 44 45 39
163.536118996863 220.198240507242 2918.21578598047 47 48 42
152.616148011853 220.513530200493 2919.09383800843 32 33 27
134.972848132989 220.47255844495 2915.36462223587 32 35 28
114.755262688189 220.304620544442 2909.95974767283 33 36 29
123.903949573176 221.700846109553 2924.75775243602 39 42 35
111.202990641232 221.939322151392 2924.58154836983 40 43 36
112.831141319954 222.929420262241 2934.15472267671 42 47 40
100.941970902615 223.215881595001 2934.58221772775 33 40 33
74.594183460599 222.766783670653 2925.38690094772 29 36 29
293.960292952542 171.088195337901 2556.4858539695 198 193 187
320.988446062476 174.412604005995 2591.50389200004 145 134 128
321.553271396325 175.562990595597 2602.10893568406 144 121 113
322.149918840341 176.709300866946 2612.68331986233 138 111 100
315.340339584034 177.258541341668 2616.52999874819 129 102 91
302.557738060033 177.336162230654 2615.04173198643 44 20 10
275.530796010965 176.301189286822 2600.9394427301 38 15 7
268.631166875275 176.861341417772 2604.87426758133 39 19 10
266.233557796892 177.772149536403 2612.78848691005 47 30 23
260.084587047853 178.390440588521 2617.38621329713 40 25 18
244.555002490346 182.623146530297 2653.43671937624 5 5 0
232.303416211793 182.785379616339 2652.82555029786 15 15 7
252.238391524845 185.319044995964 2679.41673638695 22 22 14
283.839428552647 188.678188723335 2715.55667437368 22 22 14
290.954141213555 190.225704531432 2730.93517565948 30 30 22
282.671722474037 190.652593087102 2733.4286708495 28 28 20
272.04932263693 190.915057723078 2734.01870000709 24 24 16
273.831084298702 192.06303413 2744.83291131152 23 23 15
283.437103368036 193.755438185198 2761.96715988098 24 24 16
285.309874210031 194.891808759018 2772.69271306115 24 25 17
275.477193819127 195.207379186697 2773.90793728135 25 28 19
271.114755347403 195.904849613968 2779.55372666563 31 34 25
275.410081619023 197.19485667031 2792.10200488236 36 39 30
270.289835624827 197.834610316864 2797.09192953618 34 37 28
265.960903161216 198.527584048601 2802.70511156873 29 32 23
248.164665109528 198.315499130259 2797.73614679563 27 30 21
250.167501445948 199.434868451379 2808.33505579485 27 30 21
243.446099757079 199.969830539322 2812.09628339207 28 31 22
243.902664430222 200.977822701548 2821.41330587101 27 30 21
243.586800918318 201.929930470189 2830.08803564356 26 29 20
243.295254700355 202.878966990738 2838.73940975487 26 29 20
241.419577878873 203.721397369066 2846.14544883705 24 27 20
249.233282517347 205.179703208576 2860.84302595053 23 26 19
251.45385243151 206.271269939619 2871.22983149902 23 26 19
245.610755285456 206.848103920348 2875.52994821374 25 28 21
230.021773602847 206.815942304088 2872.59361844659 26 29 22
212.755443398507 206.688822949925 2868.50279879204 31 34 27
196.247728447587 206.619047522633 2865.06743472882 31 34 27
183.775101958879 206.806109344786 2864.67209217033 30 33 26
187.661843566354 207.993475255592 2876.22436199732 30 33 26
185.019119510076 208.778784386503 2882.98328565841 30 33 26
191.448247915263 210.105033944802 2896.24146666459 30 33 26
188.852141602248 210.884438388332 2902.9553087697 34 35 27
188.750678177604 211.808714169037 2911.42124964184 42 42 34
181.209551252302 212.292550660189 2914.58746138176 38 38 30
169.500945983418 212.535867786273 2914.84202926605 15 16 8
160.262148009808 212.927234805875 2916.8735639232 27 28 20
147.664145635881 213.129313542447 2916.60050197874 31 32 24
133.358051982899 213.240341342868 2915.20323857778 32 33 25
119.010104325387 213.35647426592 2913.84644444514 34 37 28
114.712312256725 214.043568913696 2919.42957253121 36 39 30
124.749163375944 215.527451039945 2934.74990863858 33 36 27
120.493888730743 216.209156206507 2940.2916128576 34 39 32
99.3077151744668 215.961666027957 2934.44307123986 29 34 28
85.6874742801628 216.138877219914 2933.77187335212 38 45 38
38.8540592084472 214.528878354076 2911.08281761655 25 32 25
309.248042289558 165.972766671046 2581.7374524804 90 77 69
315.700212585674 167.648932366054 2597.75485373151 104 80 70
319.247920289257 169.068052236427 2611.02610757862 133 106 95
314.661917278828 169.799103878016 2616.88927440791 93 69 57
300.386039637966 169.726585931516 2614.07188688176 173 153 142
265.698611689334 169.10843237663 2603.26390184768 184 170 161
267.050819846981 170.336462885103 2614.49283417042 43 33 24
263.917690195323 171.195184512236 2621.72822534437 37 28 21
247.701292754602 174.314472294905 2647.2893592614 172 169 162
243.856674269145 175.106556813456 2653.82420898287 27 27 19
246.907122686376 176.431280684287 2666.18629102196 24 24 16
258.439746501898 178.400227764303 2685.61758545486 24 24 16
280.826017508999 181.181824195826 2713.98902037691 24 24 16
291.016577726987 183.008312062435 2731.9399027336 49 49 41
281.961060794321 183.366355541126 2733.79402397051 44 44 36
266.687364839544 183.261881614765 2730.55529854269 25 25 17
257.578892225138 183.626381569768 2732.46138913201 17 17 9
271.816325755922 185.721356324251 2753.43886865113 19 19 11
272.878897126323 186.828750378253 2763.5563352828 17 18 10
279.452207596565 188.331888521065 2778.06176878716 22 25 16
275.884172084606 189.088132375447 2784.32726476181 27 30 21
276.257671549176 190.12637119295 2793.72196393637 30 33 24
266.407940789763 190.42790414763 2794.95619415692 28 31 22
260.488262385782 191.012925563188 2799.33114709356 23 26 17
256.942870691426 191.765938878297 2805.57463489488 22 25 16
254.200374535517 192.573468975106 2812.42968731875 22 25 16
249.877708964299 193.268461055841 2818.03634792341 23 26 17
253.54253026607 194.514568828269 2829.79996803106 23 26 17
255.650627104362 195.64525839125 2840.29267866907 22 25 16
248.168470123463 196.115106168777 2843.40206206623 22 25 16
238.26324035446 196.422854318508 2844.69048502063 22 25 18
246.068723004284 197.925870457442 2859.38961852764 20 23 16
259.593145979988 199.79868016089 2878.27414533027 22 25 18
251.339623228845 200.209675144385 2880.7412954397 23 26 19
230.081316705137 199.766769360116 2873.57635594841 24 27 20
212.001530844784 199.546299352929 2868.8901976534 25 28 21
206.912712162775 200.181309750471 2873.84961557176 25 28 21
198.554048460772 200.605124526348 2876.41927743995 26 29 22
191.000299727415 201.083216244867 2879.59853405474 27 30 23
180.971140060317 201.405754792744 2881.00783521558 28 31 24
179.978299715555 202.303312227094 2888.94596618857 29 32 25
179.005886345125 203.198288849951 2896.8645321589 33 33 25
181.363395339406 204.296821050653 2907.11432568313 26 26 18
173.804632543645 204.775220542863 2910.29851584719 26 26 18
166.235177356735 205.254894269839 2913.49313538239 28 29 21
163.654364459557 206.040751679765 2920.19083715387 31 32 24
153.569681831753 206.369803286244 2921.65431080825 33 34 26
141.788628157177 206.600930787444 2921.9829604936 34 35 27
130.816297591384 206.885823966003 2922.9171611089 37 40 31
117.295105458943 207.02438844206 2922.15331830415 36 39 30
113.008123195727 207.713350589645 2927.72577391995 32 35 26
115.484260462992 208.796616520976 2937.85968632141 31 37 27
102.754694506809 208.991090680783 2937.71873075412 33 38 32
89.1424332552808 209.140848393301 2937.0436665754 24 31 24
70.3885345617699 209.003400306465 2933.01464168537 25 32 25
301.935801090254 157.838477081703 2576.03075383183 95 81 72
308.367973761528 159.560660675704 2592.06121159466 98 74 64
312.637680700307 161.079944932307 2606.01795243527 120 92 81
312.496188060447 162.20439443382 2615.91130448106 106 82 70
303.434357325456 162.551594895489 2617.7732980102 151 133 121
268.934326538744 160.717442057679 2597.03990807904 159 145 136
265.015328899197 161.525382450249 2603.64627390879 162 149 140
267.116760260018 162.842020671072 2615.53502965176 41 32 25
262.476434336663 163.5821596901 2621.45045898422 37 30 24
243.158434035593 167.584094272946 2654.21214137524 19 19 11
252.32805459411 169.435372140158 2671.75625863707 15 15 7
250.83274654054 170.412285353773 2680.18195656522 18 18 10
278.582047094156 173.724903795592 2713.06837995425 22 22 14
286.453170309063 175.422760872194 2729.09044332202 31 31 23
282.023769974567 176.135365868053 2734.80048994328 31 31 23
271.39981500032 176.36085578408 2735.39786606449 24 24 16
259.972459073507 176.529040016906 2735.38459164527 19 19 11
235.274918908479 175.675513896453 2724.61032923481 17 17 9
285.432966935647 180.600984770829 2774.68265770934 19 20 12
269.338762002451 180.406163177159 2770.8548160125 22 25 16
291.638536548003 183.137684873278 2797.90263490583 20 23 14
278.678725305623 183.181581251236 2796.59532448207 19 22 13
267.257922271008 183.348364441821 2796.57575001747 19 22 13
260.549598359209 183.871955382901 2800.32567183928 20 23 14
255.419142997553 184.513571028501 2805.32545934325 19 22 13
256.644382693976 185.621943217167 2815.28091151263 20 23 14
253.920134290301 186.435620179256 2822.11693514477 21 24 15
257.59456259621 187.710703208515 2833.86707066699 21 24 15
262.112489328323 189.037902613143 2846.18846848098 20 23 14
252.239691658844 189.325915033374 2847.44794065531 20 23 14
232.695094422849 188.930820679899 2841.40801463489 19 22 15
232.426289726505 189.910145492988 2850.03232948264 17 20 13
249.148970147777 192.076429594033 2871.36553908795 19 22 15
244.109804635908 192.705932273059 2876.27646471274 23 26 19
224.458256547852 192.323924438584 2870.34114612965 23 26 19
218.571986515369 192.901467095014 2874.68369157485 26 29 22
212.682993136004 193.479317921371 2879.02923363839 26 29 22
205.155525022577 193.946563282584 2882.18399629596 26 29 22
195.158480892673 194.249433788789 2883.56431318158 26 29 22
183.49613105151 194.445090376252 2883.78033079115 27 30 23
175.921045946714 194.91809536942 2886.98152655397 28 31 24
169.986137406478 195.501365976202 2891.37186200982 29 29 21
170.667232171852 196.518908834969 2900.46417335725 25 25 17
162.254095912768 196.93883630247 2903.08850182235 30 30 22
162.138574268447 197.898164876586 2911.56322192689 36 36 28
162.047518593479 198.854418201917 2920.01443932462 30 31 23
165.321128803736 200.020719509661 2930.76142387221 38 39 31
150.219139191726 200.015219560428 2928.75481035686 35 36 28
140.944379880879 200.38489935922 2930.82492267327 33 34 26
136.696783516074 201.072189467377 2936.35817679442 31 34 25
104.639584168934 200.032491193058 2923.00097784456 27 30 21
95.2689084468532 200.414012162023 2925.16458645545 25 31 21
94.3473706134341 201.316130574049 2933.03157671212 20 25 19
93.4459889678831 202.215654676305 2940.87859717214 28 35 28
74.7020882903597 202.034333832456 2936.84612847875 31 38 31
66.1278609960752 202.473861758657 2939.62752578394 22 27 21
303.995508113445 151.689452527168 2589.06436415667 98 76 65
308.994799630664 153.313316746974 2603.69806917048 105 78 67
308.843310647801 154.458176572757 2613.59833109563 142 118 106
301.263108370165 154.9276619935 2616.805128478 128 108 97
277.972165645198 153.992812720693 2606.06336070234 175 158 148
268.82959884682 154.336666975719 2608.00635874579 28 15 6
267.934305897791 155.413654630142 2617.23801332237 42 32 23
263.296022703544 156.156537874052 2623.15134644137 48 39 32
224.907121947276 158.561365480314 2639.66133093886 23 23 13
230.203618671367 160.146634482591 2654.00561114504 23 23 13
260.869628977305 163.853021955845 2689.6058126971 18 18 8
250.191036867182 164.067060445962 2690.25913681767 17 17 7
271.096408431599 166.908338895183 2717.25814932444 23 23 13
280.54097396467 168.776479591794 2734.52674984328 25 25 15
281.536392309699 169.936542153917 2744.70277819736 22 22 12
274.795516532444 170.459845301589 2748.4854048805 17 17 7
265.711097832624 170.794841542174 2750.37163237117 13 13 3
269.099555018969 172.136601004904 2762.39554885279 13 15 4
296.794607746653 175.411443107737 2793.92451514358 21 24 15
293.269174764703 176.173918352895 2800.14678517932 21 24 15
292.898467995131 177.183448489767 2808.86782595851 22 25 16
279.147134216899 177.13912194375 2806.94230126362 22 25 16
264.563530861713 177.03846242824 2804.43498707442 22 25 16
260.235109496431 177.740585607049 2810.04630929449 22 25 16
259.08873148048 178.686334660614 2818.12978274441 22 25 16
259.555501035708 179.751154113801 2827.4282725758 22 25 16
256.857028775395 180.569997679136 2834.23759865285 22 25 16
249.370352784775 181.025173412294 2837.35397585721 22 25 16
249.893887278541 182.082621276727 2846.5968489411 21 24 15
228.735855007895 181.520259671502 2839.34999115237 26 29 22
221.203032059127 181.980941671343 2842.51104130254 23 26 19
226.586620112354 183.392892397386 2855.37754557927 24 27 20
227.972037084058 184.5026911414 2865.17372850218 29 32 25
215.58836930927 184.607296590676 2864.70223564162 27 30 23
215.377301272787 185.59581719629 2873.26785799851 27 30 23
215.190447159506 186.58124102552 2881.8098932739 27 30 23
201.945304993179 186.632987141036 2880.7847604878 26 29 22
193.579857696033 187.036936925463 2883.3640946033 26 29 22
186.842763427737 187.557992584754 2887.14296052796 26 29 22
172.68776268495 187.562942106296 2885.6113379569 27 30 23
175.824598224123 188.774090816487 2896.48751334828 26 26 18
174.86428375648 189.695454844342 2904.38982704036 29 29 21
168.119492913215 190.217305577019 2908.17655610822 37 37 29
161.367711526052 190.739932679086 2911.96977430047 34 34 26
160.441387408813 191.656961789762 2919.83931361298 34 35 27
159.53524093996 192.57137177192 2927.68886548642 39 40 32
147.768050034343 192.758611053199 2928.01023589701 33 34 26
134.292791309976 192.838541453686 2927.20944662978 28 29 21
124.143324413911 193.144197082186 2928.74070993556 27 28 20
98.8003965554896 192.462320535087 2919.99920447295 25 26 18
82.6581036516068 192.394387875036 2917.61760787261 23 26 17
74.0866931352917 192.823364761443 2920.39742967271 21 26 20
88.4146108102599 194.719983556421 2938.48055538781 20 27 20
39.8889795829311 192.605726369325 2914.71226799254 16 23 16
77.2716271563749 195.950512451808 2947.94692192862 23 28 22
299.623459269018 143.785353568662 2586.07196407383 115 96 89
303.868976057085 145.378457341007 2600.04181559952 84 60 50
303.703568389117 146.544236706813 2609.95280708585 122 98 88
301.329074477902 147.496748079674 2617.8379089891 142 115 104
289.999851861658 147.611415550752 2617.73509649583 156 129 118
281.638012306139 148.007443594369 2620.3120189004 31 11 0
271.758066626867 148.266937357204 2621.58246635723 59 41 31
262.608631929722 148.598122370021 2623.53381899215 55 41 32
233.434378579208 150.624911912911 2638.03461853146 26 27 19
264.658347551402 154.552388993326 2674.46499125011 16 17 9
240.981216552615 153.600423049464 2664.10924397578 19 22 13
271.019185007644 158.493393807021 2708.65951762704 20 21 13
261.908544190846 158.818855300138 2710.57319329901 21 22 14
280.604248951688 161.539330058454 2735.53356438622 20 23 14
286.248614302459 163.11872798829 2749.53327364561 16 19 10
288.064252659384 164.361243339381 2760.29987207631 14 15 7
244.179930604139 162.837758969789 2743.17133032332 13 16 7
284.333840189283 167.278436627532 2784.82805804451 20 23 16
309.80714752204 170.455637592841 2814.32661587823 21 24 17
299.252073700983 170.634829204841 2814.86243486518 22 25 18
282.362558884437 170.301130503161 2810.42796429755 24 27 20
269.36775577262 170.295923952229 2809.16265870886 24 27 20
257.919642489684 170.423478716495 2809.17600166883 21 24 17
263.121949650718 171.894187423657 2822.21383614738 21 24 17
258.024204979073 172.532364879638 2827.18164961555 21 24 17
244.945157357241 172.537424874824 2825.99848267963 21 24 17
237.429154288457 172.988526904987 2829.14424635568 20 23 16
238.725337119902 174.131828391146 2839.02408840833 20 23 16
235.229470889567 174.89566233875 2845.21679740701 21 24 15
225.294210741716 175.159763245098 2846.54149201504 20 23 14
226.647641345424 176.295738877681 2856.36590678351 24 27 18
223.173633402708 177.056609145627 2862.53701036803 24 27 18
209.966699498783 177.07720892154 2861.47853962793 22 25 16
211.369429954437 178.206836844582 2871.25493710333 23 26 17
203.831471487448 178.660190724314 2874.42216999197 21 24 15
202.823641669141 179.601778417601 2882.36867808074 23 26 17
192.820975015982 179.873890492169 2883.75912429783 24 27 18
183.617619067152 180.209140160504 2885.76375862046 24 27 18
170.278439728499 180.245954566352 2884.83421303677 29 30 22
173.409178079746 181.485366139308 2895.71226578713 30 25 19
182.370922588583 183.137341144489 2910.65810743779 28 23 17
172.326357837864 183.414455038063 2912.08941981846 56 51 45
163.090818826583 183.753496533068 2914.12545196753 27 24 17
150.504101431813 183.85907275711 2913.85544690116 33 30 23
152.915056109053 185.025182743829 2924.04218010487 36 37 29
124.391984746096 184.024371795944 2912.83742956372 28 29 21
89.049905430493 182.571361563501 2897.13493935404 20 21 13
93.0912872025713 183.859705936927 2908.5187246389 20 21 13
81.1623040706166 184.045926939695 2909.00056978109 19 22 13
79.3404985350987 184.92557147321 2916.34761364407 18 21 12
57.2144980224971 184.429526846447 2910.05216100834 20 25 19
35.8608311471924 184.000013330295 2904.39718354421 11 18 11
26.3422221054959 184.37401622801 2906.70880329598 18 25 18
12.5428044003106 184.467774811763 2906.22786488921 17 22 16
302.649338898763 136.581723966309 2589.7998892929 48 35 27
303.935497204065 137.916957087961 2601.07856559602 98 78 69
300.795307706421 138.810542136013 2608.315814503 64 42 31
297.667289484617 139.702511719215 2615.54121591815 136 108 97
293.056269604219 140.448148011702 2621.42673142211 151 121 110
288.449871417269 141.193144401765 2627.30808993544 41 14 3
280.841903573188 141.650038994809 2630.54431985458 45 23 12
273.222786547804 142.108235923863 2633.79142859087 95 82 73
276.889294179051 147.132928728735 2676.16927081457 27 30 21
258.618364416098 146.601113427116 2670.3020286213 21 24 15
259.409190112633 147.831209505492 2680.67086957665 21 24 15
253.32851247654 148.428094890243 2685.20394364131 21 24 15
252.62760768688 149.512915562995 2694.24174802734 19 22 13
274.307983834737 152.607738036161 2721.8506051478 19 22 13
266.755626011314 153.05672282789 2725.03278255953 19 22 13
280.1130947841 155.368093350466 2745.43552541587 16 19 10
285.796716314897 156.980709987994 2759.39134299769 14 17 8
278.29718787304 157.422835776963 2762.52207381018 14 17 8
254.392507299083 156.434130159685 2752.39771673548 15 18 9
293.005183343487 160.893175598485 2792.74837876078 19 22 15
299.669047949354 162.548661755894 2807.14137369981 20 23 16
281.223626647443 162.037804559751 2801.44430658534 22 25 18
271.385890101218 162.274492933638 2802.67621037561 24 27 20
255.202427503426 161.97812539718 2798.95234914718 23 26 19
261.943356403385 163.623682613822 2813.27028559607 23 26 19
267.949450070363 165.195279663844 2826.91228409876 22 25 18
258.085823202452 165.434944451132 2828.1694574486 21 24 17
249.796132499085 165.809375594323 2830.67792698888 20 23 16
237.491000687077 165.856779967665 2830.13690105035 20 23 16
241.193220427588 167.218720096186 2841.84626398383 20 23 16
241.7230132124 168.314047811557 2851.07732386678 21 24 15
245.50488645768 169.665925941147 2862.70941469357 20 23 14
235.595854904002 169.910916670947 2864.01088839561 23 26 17
228.903830349972 170.41681133777 2867.74724021581 23 26 17
211.651847499536 170.087641583452 2863.67237422964 22 25 16
195.96987096634 169.893687673818 2860.85230255413 23 26 17
196.551664855972 170.982172350634 2870.03273596938 21 24 15
200.431927804954 172.321379830708 2881.56865924041 23 26 17
188.78456943441 172.451836098765 2881.77942667677 23 26 17
178.749946582578 172.712180485546 2883.20334513065 22 25 16
170.339939804598 173.100961189218 2885.82916945285 27 28 20
158.613716987237 173.241107252091 2886.11648046129 28 23 17
174.158664142712 175.442802288885 2905.78014425337 31 24 18
169.899497878915 176.141435616187 2911.32321093241 42 37 31
163.982911778977 176.715681313122 2915.69668581192 25 22 15
148.065863958379 176.550698475095 2913.10576148807 30 27 20
127.924295684013 176.084900923038 2907.66942427747 23 23 15
128.63853374005 177.156335095269 2916.72085873473 17 18 10
79.0451862006813 174.569967594728 2891.24845064179 16 17 9
52.7916678304674 173.707651094082 2882.02059680501 16 17 9
60.1545841231568 175.274083624173 2895.73292301436 16 19 10
38.8552941630929 174.787059107598 2890.03211072831 16 22 12
36.1103091653945 175.627667516674 2896.88474564875 20 25 19
15.5570135480998 175.213094892469 2891.84935091217 14 19 13
5.99226125754893 175.579995040083 2894.20817921754 12 17 11
298.278106533736 128.63904662262 2586.81271814443 20 11 2
297.327064650074 129.772927829959 2596.09132339494 109 92 84
296.400063968104 130.903743110607 2605.34684636139 84 64 55
295.496947903332 132.031481015817 2614.57910638463 72 44 33
293.122593064033 133.00599234204 2622.46081860391 85 52 43
290.014940246169 133.903576467157 2629.66516704505 150 120 110
283.162438313319 134.426696151606 2633.55866726662 148 121 112
276.302510304994 134.950617626709 2637.45908534461 95 80 73
303.595569640723 142.335794450205 2699.95376338129 16 19 10
264.788864942931 139.775831543323 2676.51935428882 23 26 17
251.058743828023 139.641624985075 2674.58638717422 17 20 11
238.053333572799 139.585280748645 2673.33917276332 17 20 11
255.768518846589 142.428488851456 2697.83782710148 14 17 8
256.640991086373 143.670081067129 2708.12389270835 16 19 10
264.501196626088 145.554535574139 2724.12921847025 17 20 11
265.455129686262 146.785801094514 2734.33625640132 16 19 10
271.87807848889 148.512722933457 2748.95792613182 15 18 9
276.80290398947 150.089860717305 2762.25557383007 15 18 9
288.804981917716 152.298656566176 2781.18524384594 16 19 10
284.458764246323 153.012649913065 2786.8124836554 20 23 14
285.609171061838 154.218929347192 2796.82811317563 24 27 18
277.353333346399 154.579040579693 2799.30474483301 26 29 20
254.891073269853 153.682262494076 2790.56861250988 26 29 20
256.0553665412 154.886568482402 2800.57040640662 25 28 19
261.213358774336 156.434020736164 2813.64090360099 23 26 17
251.331444602605 156.660235195346 2814.91822446648 23 26 17
256.55527528851 158.199317440526 2827.9245801876 20 23 14
239.482034631854 157.808031567811 2823.68140129588 20 23 14
239.153478646708 158.861678547355 2832.35406527295 22 25 16
235.64073505718 159.639347447567 2838.56115109685 22 25 16
236.156766846065 160.755766472421 2847.80275856585 22 25 16
239.118652967454 162.071825223312 2858.83715565712 19 22 13
247.775547102731 163.855326515504 2874.06661654946 22 25 16
239.492908649031 164.218123523199 2876.56946477972 21 24 15
218.207606277996 163.510633476939 2869.47043800227 20 23 14
192.777094230724 162.478907553817 2859.4507032012 20 23 14
186.01013772736 162.989096182259 2863.26082890913 20 23 14
189.047345040489 164.295434681476 2874.22186759251 22 25 16
193.763434313663 165.728819351278 2886.33113078003 23 26 17
179.63315237913 165.643012237172 2884.78803801608 22 25 16
164.638000614072 165.496858977683 2882.69612143718 26 27 19
158.675709522238 166.074716134157 2887.11411043515 26 23 16
157.674404630748 167.043294133827 2895.05048786163 31 26 20
164.15630584834 168.592646426474 2908.22295235627 28 25 18
159.057221953651 169.230985341696 2913.19207182911 25 22 15
142.295860888283 168.968477952994 2910.03706780684 26 23 16
98.7600479989719 166.661678891564 2888.42715907438 16 16 8
102.754153764494 168.016453984061 2899.84773385936 14 15 7
52.2631636600481 165.231276164235 2873.87917286378 15 16 8
40.2424734050952 165.386895596089 2874.45660743361 14 17 8
13.0221246511599 164.410061255479 2864.78918467126 15 18 9
29.6268793982466 166.71540792582 2884.80169566758 15 18 9
23.4739646036024 167.316800383742 2889.40583615509 8 13 7
20.7124467104727 168.168117217857 2896.27330578456 13 18 12
27.3191589863315 169.701521331448 2909.32418818719 9 14 8
281.332295389668 119.324688206828 2572.42553802022 17 13 4
292.202588846377 121.736870174216 2592.44868852568 90 76 67
291.261736734155 122.885887635877 2601.71527589273 95 77 67
289.599250283748 123.953817056526 2610.29353228464 82 53 45
287.956591051771 125.019134670403 2618.85214813746 80 47 40
284.83515008455 125.926819527536 2626.06869553096 73 40 33
280.974568340898 126.755623308364 2632.61396991287 87 58 52
274.108809421772 127.275123775657 2636.52083159451 98 81 74
251.11870821712 131.022472441068 2665.88170772325 22 25 16
262.600191487208 133.356977677292 2685.30941829592 17 20 11
245.789308723489 132.893572689244 2680.81637331191 20 23 14
246.606307597485 134.164175689697 2691.15323700973 17 20 11
252.080555986075 135.879724989822 2705.30175181429 17 20 11
249.881828023597 136.842383836592 2713.01115358193 18 21 12
259.320999089055 138.918098700522 2730.25409367358 17 20 11
264.174559896718 140.539789790285 2743.61592330623 15 18 9
267.522266238508 142.007253700064 2755.66206475852 13 16 7
269.352027828346 143.321937482899 2766.40363430547 14 17 8
282.173844475007 145.659248146891 2785.91720654015 20 23 14
284.887133150864 147.034542496319 2797.18970957419 24 27 18
267.192057364178 146.509923399749 2792.16681943354 25 28 19
252.588964309962 146.283484081897 2789.69711116145 25 28 19
253.747167654537 147.510601086706 2799.70158098723 24 27 18
254.937532640689 148.733665309864 2809.67505066883 21 24 15
255.365460338396 149.88075047796 2818.99961436021 20 23 14
249.451968490816 150.450990569046 2823.37060862818 20 23 14
257.103527945791 152.235632782836 2838.18062809022 21 24 15
243.216213238206 152.090656581462 2836.40534828545 23 26 17
237.307229555241 152.660180924701 2840.77197166653 24 27 18
228.983312486752 153.017981854995 2843.31688643154 21 24 15
221.450556774284 153.448013702172 2846.48239989425 18 21 12
237.334867184451 155.915099232262 2867.18675567642 21 24 15
236.315279330946 156.90029506813 2875.13849440352 20 23 14
212.587386452559 155.930995049729 2866.25262571239 19 22 13
199.34893151788 155.875824271257 2865.23665467665 21 24 15
180.363300901015 155.340786514946 2860.07959727393 20 23 14
176.846085446232 156.124503265691 2866.29022985647 22 25 16
179.893880800599 157.457021321475 2877.23722297334 22 25 16
179.695239151505 158.510519999898 2885.78056417107 21 24 15
186.931552944627 160.175229582905 2899.60408322851 23 26 17
166.991246217164 159.588174798792 2893.9854742506 21 22 14
158.563826387207 159.958448950702 2896.63132525109 26 27 19
154.267927727672 160.668149657627 2902.20956983023 22 23 15
144.158763863077 160.906224863655 2903.71079998689 19 20 12
113.200387338202 159.471115709432 2890.73746676203 12 13 5
114.688485293414 160.655923592934 2900.42093747435 9 12 3
47.5786447799762 156.379388750637 2862.83501127494 10 13 4
41.4218369856609 156.979237558512 2867.44324571949 11 14 5
31.0578922382092 157.24908550127 2869.19278106257 12 15 6
52.6964989140377 160.023049346458 2892.63981069815 13 16 7
47.4298106136555 160.682712794379 2897.77221206687 12 15 6
37.93085802491 161.015509907081 2900.07040286732 14 19 13
25.8680109855183 161.15532367922 2900.69237365888 13 18 12
33.3363882805435 162.790525648666 2914.28947359881 14 19 13
67.2891577801149 166.421344939422 2945.21979646902 3 8 2
275.212569023131 112.363064462584 2578.11419455778 77 70 62
280.175172194303 114.182008398688 2592.7554989447 80 67 59
282.21099676041 115.671062516791 2604.68425805234 87 62 57
284.286110604002 117.155069754098 2616.57441041142 98 69 65
285.651246143616 118.553779452897 2627.76494150099 87 56 53
279.538337883185 119.148031372613 2632.33041027705 95 65 63
272.668682583774 119.662866953786 2636.24183059005 82 64 60
250.446025163772 122.282126588003 2656.50522317157 31 34 27
274.077257719656 125.940456228252 2686.34496856384 14 17 8
257.310707810481 125.431214451098 2681.81433721532 13 16 7
263.495732974707 127.270231398077 2696.65603886989 17 20 11
250.516757744185 127.157014597856 2695.39097982877 15 18 9
238.27030957148 127.126092524418 2694.80325678354 17 20 11
241.445931164687 128.645418672622 2707.01227787687 18 21 12
255.511944017198 131.238012855666 2728.08677057135 18 21 12
262.68561005757 133.126915689941 2743.35627342647 15 18 9
255.906341993495 133.629656269092 2747.17972551462 13 16 7
254.584428172385 134.667498931411 2755.4242350608 13 16 7
278.324404552986 138.137189105564 2783.76662989859 18 21 12
281.027663809975 139.541175698018 2795.04485159283 22 25 16
268.041720107882 139.428361948199 2793.78665277632 19 22 13
257.38286032694 139.54631828041 2794.43458330329 19 22 13
260.923558056319 141.01933699335 2806.2879226153 18 21 12
264.507857362936 142.486833235817 2818.09878113528 16 19 10
251.457077053737 142.381968351885 2816.90379118918 17 20 11
246.329959074268 143.025514649387 2821.8999792738 21 24 15
235.61689231134 143.150042958823 2822.60076679985 21 24 15
239.278656196075 144.607675754759 2834.33649750371 23 26 17
230.151752854777 144.881614218631 2836.27393718413 23 26 17
226.634138066557 145.671582113882 2842.48438023624 19 22 13
226.348479117763 146.75299687209 2851.11000491453 17 20 11
230.93420358079 148.268787472248 2863.33654272515 19 22 13
212.893779478345 147.74405532569 2858.65626743398 20 23 14
197.227207830112 147.444234199964 2855.83654560829 18 21 12
193.716014882327 148.233200871503 2862.04075965835 23 26 17
184.504165296028 148.51751645965 2864.06101848136 22 25 16
169.551325908095 148.302320606799 2861.93728955162 22 25 16
166.025234663267 149.09301263349 2868.15570498215 21 24 15
197.007624660947 152.872998297481 2899.17979324776 17 20 11
191.110360451352 153.438342001225 2903.53505907324 18 21 12
172.831012115558 152.943348457556 2899.08798156721 18 21 12
161.108110079241 153.01973599247 2899.38141847358 21 24 15
147.697005066718 152.959400173663 2898.53765490808 20 23 14
83.5503313643766 148.634745930544 2862.26777592516 12 15 6
98.2689699015142 150.969870337404 2881.31500842799 8 11 2
67.1572721885041 149.470759432199 2868.5033848403 8 11 2
42.6219552740612 148.540615778157 2860.41351285934 10 13 4
28.0648692437513 148.449658036433 2859.29534197433 11 14 5
37.0083804006782 150.289451258997 2874.23153016248 12 15 6
39.2769753417164 151.572627178679 2884.54232639494 12 15 6
43.2705721251816 152.98785788587 2895.95447129317 12 15 6
30.3758582230489 153.036782081098 2895.99902229874 4 9 3
24.2353153670809 153.632301059835 2900.59140752393 9 14 8
54.5661704961304 158.190163539844 2937.81548480472 0 5 0
269.833180812722 105.480297858961 2584.47327647086 78 69 62
274.823189314947 107.333866037333 2599.08224951103 77 56 51
278.373503027531 109.014064205398 2612.31266613629 86 58 55
280.472305103752 110.522343504632 2624.17570833004 98 68 66
279.605208406747 111.694786937424 2633.36559313117 89 61 60
277.255403145135 112.699240684339 2641.2185017802 87 72 69
257.362713780977 115.555496575939 2663.38423949082 40 43 36
272.616831112779 118.421308833411 2686.07236399731 16 19 10
275.736755004453 119.977944425393 2698.33117941213 16 19 10
297.307171585085 123.46691334436 2725.99131117778 19 22 13
288.258516826671 123.7186481041 2727.85433055645 16 19 10
250.669941313715 121.003326886529 2706.06741954408 17 20 11
239.193247041425 121.028718758495 2706.12390563786 18 21 12
258.675962995414 124.248472835154 2731.64587902862 18 21 12
255.760030456833 125.146352264643 2738.65980275242 16 19 10
249.741985081487 125.725538290339 2743.13329801383 13 16 7
244.501361197738 126.384090379874 2748.23998128981 13 16 7
261.954712679893 129.32727002514 2771.56661754365 19 22 13
269.323751167898 131.235102593062 2786.63931486378 23 26 17
264.173030614483 131.882232486063 2791.65841099939 19 22 13
262.176759131024 132.841437560062 2799.1672809566 18 21 12
271.260993645437 134.887831433278 2815.35010260227 18 21 12
262.986519797871 135.218911278304 2817.84986888273 16 19 10
251.520331537075 135.242510635527 2817.89618728469 17 20 11
241.616484053421 135.424044049473 2819.20222993412 21 24 15
232.487935092144 135.685176286998 2821.14319649417 22 25 16
233.741294552554 136.944229127165 2831.04845478774 20 23 14
222.19515154396 136.977762333008 2831.17303905971 19 22 13
228.304953682934 138.689208172801 2844.69104608458 17 20 11
228.828979731139 139.862703688327 2853.91627925549 16 19 10
226.957860351912 140.805818079111 2861.30324951907 20 23 14
198.381327185787 139.259708635269 2848.81527290062 20 23 14
195.667165355859 140.131543544905 2855.63268469667 18 21 12
203.542777271179 141.975208582406 2870.21183104791 16 19 10
199.247798980847 142.691373953128 2875.78786837035 15 18 9
184.329969306086 142.439801761401 2873.6344128429 18 21 12
177.561168132968 142.935445581937 2877.44885789342 19 22 13
182.284777161939 144.466568579407 2889.53587032813 16 19 10
175.529539432208 144.960450914666 2893.33710702562 16 22 12
164.641008142269 145.088063441449 2894.21167757485 17 24 16
142.145171029617 144.194478781511 2886.92498723374 14 21 13
135.322969825367 144.696688674637 2890.79148884191 6 13 5
100.236854977078 142.728307943039 2874.91099366704 12 17 10
80.8394541453374 142.153751180869 2870.16833322458 10 15 8
53.8629336430159 140.937502480164 2860.2941707418 7 12 5
30.1339800504929 140.021575511914 2852.8183761597 11 14 7
19.7421745579844 140.263660152931 2854.59968103836 11 14 7
16.895129636985 141.151779022562 2861.54664094604 11 14 7
18.2741535278512 142.3944444029 2871.32953466191 13 14 8
7.01557815776033 142.568271970649 2872.56473389012 14 15 9
6.73644413085661 143.665038063735 2881.18194814592 16 18 13
9.02709138260915 144.970256129651 2891.46758828826 13 18 12
53.0252483169513 149.713675525377 2929.26217646662 12 17 11
267.436236409723 98.9422790434707 2593.4877691349 70 55 52
272.461650973193 100.829523518067 2608.05694393298 66 46 45
273.045720036357 102.195790411 2618.61097129477 66 45 44
273.66167434594 103.558043051836 2629.13426728221 70 50 49
275.815861327877 105.086583801508 2640.93931681232 73 62 60
277.217513385925 110.30865135646 2681.28595640391 49 52 45
256.659299255993 109.296235837934 2673.50998810634 18 21 12
277.33251273005 112.813190408063 2700.63967239318 17 20 11
288.935876216951 115.31193671391 2719.92241719247 20 23 14
297.549994458394 117.466931007628 2736.55602015208 19 22 13
278.485506425489 116.626323924447 2730.10552302455 19 22 13
251.623661527069 114.967218277735 2717.34844571567 18 21 12
249.444550103043 115.960837768457 2725.03345415899 15 18 9
258.155180473062 118.103582111462 2741.57336752756 13 16 7
249.807138750353 118.433742120218 2744.14632374697 11 14 5
237.541381825171 118.357021407324 2743.58454359729 9 12 3
252.629150041387 121.136863110548 2765.0336523273 17 20 9
256.836424516763 122.766351443059 2777.61885425299 21 24 13
268.169059869483 125.118891752809 2795.77513595627 17 20 9
263.817139754871 125.845806844804 2801.40612854787 15 18 7
258.67968155812 126.491592821115 2806.41225359755 16 19 8
236.906225155973 125.451555828485 2798.43021196497 18 21 10
230.141103654095 125.942149237437 2802.24141165418 18 21 10
226.55375918969 126.752716173833 2808.51805277626 20 23 12
227.763315670977 128.039371215485 2818.46272848229 20 23 12
231.405012951973 129.559895690674 2830.20909025758 19 22 11
223.862857673871 129.96819205671 2833.38715012254 18 21 10
227.564464917516 131.481084828295 2845.07481053974 18 21 12
220.833762633835 131.967165926967 2848.85249835397 18 21 12
215.711804363077 132.610732531603 2853.84355977018 19 22 13
208.161593127612 133.019930226968 2857.02948610381 19 22 13
215.210684697065 134.831394854661 2871.0172292655 18 21 12
210.114768822737 135.471608375949 2875.98292578133 17 20 11
209.913093491662 136.575732642647 2884.52213487227 16 19 10
196.655766110352 136.443226239196 2883.53633462662 15 18 9
180.082925458067 136.008038142338 2880.21964918056 16 19 10
167.563368977562 135.962590527976 2879.90527359086 17 20 11
153.363193975394 135.76863724938 2878.44756963217 17 23 13
144.073030357571 136.036656167553 2880.54834192887 14 21 13
144.690525557539 137.217518537735 2889.67967003246 8 18 9
101.392563745909 134.386111423251 2867.91110850492 7 17 8
79.5248464690359 133.537183739679 2861.41133275967 9 16 8
72.5745257294759 134.050523710316 2865.40307609776 9 14 7
48.9189380594683 133.066587070506 2857.86481771181 8 13 6
36.8950620250543 133.138474347301 2858.45779138369 10 15 8
16.4532663106249 132.469936107992 2853.34954944428 12 15 8
14.4390445218887 133.441880422248 2860.87402362386 12 15 8
10.7561696663105 134.263871309688 2867.24383938159 13 14 8
2.01398544908837 134.642600816095 2870.20066853201 14 15 9
-47.3769841585088 131.497697008861 2846.02709474304 13 16 9
-25.6953483287115 134.527046389609 2869.39331208002 14 19 13
42.0340901814349 141.480636122603 2922.97222610424 11 16 10
267.297709874446 92.690056386771 2604.46878256043 72 58 57
260.374325924824 93.1962707687534 2608.43483042681 53 37 37
262.459417204545 94.7608762939596 2620.30316265257 61 47 46
271.986125596972 103.609950716868 2687.47086684154 14 17 8
270.51377842179 104.708616685156 2695.85543143207 15 18 9
234.551063090001 101.927423907825 2675.29757164838 18 21 12
293.001737652925 109.733551480828 2733.71336492194 18 21 12
280.092266474937 109.531354715864 2732.39243852912 20 23 14
252.462305955791 107.710823050254 2719.00506076384 18 21 12
253.383920815005 109.05613965476 2729.22733444577 12 15 6
251.230706768677 110.057648691615 2736.88546033873 11 14 5
258.43697815661 112.073385068505 2752.10383965952 12 15 6
254.778830102018 112.898905642198 2758.44857965226 13 16 7
254.258952879363 114.060105360545 2767.2949943566 19 22 11
254.54796799555 115.302231792908 2776.74379107957 25 28 17
254.078303885409 116.457062652276 2785.54128473548 25 28 17
256.786254204018 117.942710160937 2796.80277868844 21 24 13
242.938423137438 117.675653543735 2795.00633447662 20 23 12
225.879623489968 117.081924286491 2790.77839865113 19 22 11
226.234966393249 118.31557663806 2800.16258336645 18 21 10
226.618224932355 119.545649107049 2809.51923870581 17 20 9
229.42368925287 121.018903916441 2820.6857314489 16 19 8
231.46898028457 122.405141522212 2831.20303929218 16 19 8
227.134550413076 123.132789075822 2836.81655555629 16 19 8
227.628162764435 124.348890724501 2846.0656928099 19 22 13
217.674267760951 124.504953050101 2847.42486016009 19 22 13
219.814415102195 125.879173542023 2857.84975040994 18 21 12
206.60607509158 125.714051354546 2856.82012557965 17 20 11
204.722720788681 126.68117172768 2864.2153593876 16 19 10
210.178113475334 128.368823430722 2876.96981211787 14 17 8
208.345184769751 129.329559214448 2884.31591620179 15 18 9
194.266786726688 129.09118040249 2882.74418983893 20 23 14
171.133081977739 127.982866737473 2874.70573902553 20 23 14
141.344270569753 126.250633562644 2862.03217231045 19 22 13
122.96594659734 125.639893581477 2857.70014850563 13 19 9
124.33201898758 126.928690916464 2867.48942281233 14 21 13
124.075518248158 128.056252949124 2876.07927241066 8 15 7
90.6794133165407 126.047170001188 2861.36074465283 6 13 5
60.4766358074706 124.366886112969 2849.09057431379 7 12 5
66.8094017489254 126.126623465743 2862.38003752225 8 13 6
49.8199601749962 125.706334266055 2859.47484089939 8 13 6
31.9402886299001 125.215344473191 2856.04685815499 10 13 6
29.1017162353104 126.119746823437 2862.98299802738 11 14 7
24.5944975470089 126.868797402607 2868.76527062504 12 15 8
18.4065637057786 127.463922134789 2873.40477406862 13 14 8
-5.52050958648653 126.455173562207 2866.1397721117 13 14 8
-24.452786094427 125.913888488266 2862.34756595863 10 12 7
-45.9913028760641 125.152510979314 2856.92485869527 11 16 10
12.3352925689031 131.512612064225 2904.34163622489 0 3 0
238.481390619164 92.3126850305362 2660.06255513267 15 18 9
259.871162763472 96.1095597548149 2687.85656115044 17 20 11
290.600409519083 100.955604594934 2723.22518927006 20 23 14
241.555695869974 96.5613048783716 2691.80721609289 19 22 13
268.596224090082 100.944627480096 2723.82230196172 17 20 11
253.301302825496 100.459738360063 2720.6608787798 16 19 10
249.576416274898 101.299466207289 2727.06945341482 11 14 5
257.509568867608 103.452819583616 2742.96293638129 11 14 5
246.82383720809 103.500065665552 2743.64766418304 13 16 7
259.527063846194 106.165323801519 2763.23052755617 15 18 9
266.843460063952 108.210815968169 2778.33515340027 17 20 9
249.906473493038 107.561717907074 2773.99477671605 22 25 14
245.493335706849 108.302564299371 2779.68450032038 24 27 16
233.990395310395 108.267230156612 2779.7763623239 22 25 14
231.939907964008 109.266852886747 2787.33275788054 21 24 13
230.697932734562 110.350074653647 2795.49084236965 17 20 9
230.270482793088 111.51618517525 2804.24508744488 17 20 9
225.88678892712 112.253233083094 2809.90613421551 15 18 7
221.508002954459 112.989691618938 2815.56273232645 15 18 7
223.53342780982 114.403162019205 2826.09540473938 17 20 9
225.594861806306 115.812127769334 2836.59332317018 17 20 9
221.261527058545 116.542814072245 2842.20564067642 20 23 14
217.738450570022 117.35683888035 2848.41761383446 19 22 13
218.262796177818 118.588417102687 2857.63394507928 19 22 13
199.383131282592 117.812793524474 2852.40722062791 17 20 11
190.177749245686 118.044257332958 2854.42920639071 16 19 10
188.275839642887 119.024979942335 2861.84085548118 14 17 8
198.622895544827 121.244928386341 2878.16127269105 15 18 9
182.068936957941 120.73266128265 2874.83689147648 19 22 13
155.629170488853 119.239930360193 2864.47025041366 19 22 13
116.769751015821 116.529471065481 2845.36149696781 18 21 12
101.626605963471 116.210390660943 2843.44176062546 14 17 8
103.767208365159 117.609215654164 2853.86256245901 14 19 12
98.4993456474213 118.271923999655 2858.99568000699 8 13 6
59.2405214413456 115.611661224653 2840.27612234166 6 11 4
57.2192250326298 116.607285173052 2847.80412188387 6 11 4
22.7292204981016 114.459098190876 2832.77516495833 8 13 6
37.3631160018739 117.066325668046 2851.86633183107 8 13 6
42.8859356930831 118.780965302679 2864.54983974455 9 12 5
40.9114266923667 119.770707401381 2872.03258587578 11 14 7
37.2716855223261 120.599177972149 2878.35827370978 12 15 8
-0.907253268370933 118.173647561503 2861.36549915783 13 14 8
-21.500127204626 117.428000932685 2856.41867671235 13 14 8
-24.3850369524332 118.346861662344 2863.39869331931 17 19 14
-33.1964675741636 118.713878727585 2866.42635410874 13 18 12
243.889827812983 85.4725735526343 2665.62190344505 24 27 18
283.650047371131 91.5667323767249 2708.84243454829 18 21 12
296.034110094882 94.3348897874173 2728.72702393861 18 21 12
290.826050508151 94.990921417099 2733.80174290914 13 16 7
254.018001465463 91.9121390974883 2712.71038628336 11 14 5
251.049590534793 92.8505634506841 2719.77042930427 12 15 6
258.938551229289 95.055814519356 2735.69978718068 14 17 8
261.458328982107 96.6201385092136 2747.13651092361 15 18 9
261.682176425104 97.9091179815086 2756.64275740857 15 18 9
236.958589162485 96.318905975397 2746.00357984524 15 18 9
258.301852153464 100.028363971084 2772.43944313439 20 23 12
258.600019842856 101.307945632395 2781.87327750839 20 23 12
241.627008772348 100.623133732406 2777.57361433262 19 22 11
226.961468648335 100.212233444185 2775.19351801682 16 19 8
224.893361699181 101.22530543833 2782.76542230414 15 18 7
228.386721530022 102.855063156817 2794.6426028926 14 17 6
234.306238825532 104.743783065035 2808.32370239205 14 17 6
221.175743173101 104.515803978506 2807.22606718557 16 19 8
219.977008378369 105.607488480434 2815.33996249526 17 20 9
221.998504986058 107.046277072043 2825.87313154056 20 23 12
222.451988588634 108.306196691105 2835.15564095804 21 24 13
218.914569723248 109.127947519796 2841.38105224785 21 24 15
220.220269614996 110.468663607973 2851.22226592698 19 22 13
217.519463243189 111.373178012146 2858.02158554067 18 21 12
206.734749995921 111.414178633696 2858.80586444058 17 20 11
183.749719789127 110.169269295026 2850.63996638993 16 19 10
200.543424716202 113.134425560581 2871.78457465401 16 19 10
199.502596256973 114.206182129489 2879.74494982005 15 18 9
185.40334613354 113.911951562701 2878.20218474622 13 16 7
154.05575225367 111.838588454327 2864.29277444653 13 16 7
129.155426752908 110.458547149997 2855.21494674612 13 16 7
96.7536424549111 108.329735507077 2840.9433112249 15 18 9
107.134068957817 110.597278406495 2857.22355649498 13 15 10
68.7894793336228 107.899813221266 2839.01855819266 11 13 8
55.1623641902577 107.734207801386 2838.40485468137 9 11 6
20.7225589168152 105.485726501108 2823.34087260391 8 10 5
-5.14760811727433 105.356496105063 2823.5433741673 9 11 6
32.9114460577475 110.347437577889 2858.69720177852 9 11 6
26.7195544102337 110.938811813381 2863.34118970403 10 12 7
29.772393205274 112.435691742466 2874.25854415467 11 13 8
21.9111856389369 112.86103943862 2877.75124532115 13 14 9
-40.0119832101646 108.052598390002 2845.01253389898 13 14 9
-44.6324418913715 108.822421375768 2850.90418533096 13 15 10
269.134582416521 81.1346901790829 2687.95634995251 20 23 14
276.83263212401 83.4103843682868 2704.06487379875 20 23 14
249.323445544756 81.3402390427051 2690.59445851572 14 17 8
236.308775167616 81.0711154575121 2689.38788823759 11 14 5
262.562698728141 85.5906192792776 2720.74670947697 14 17 8
258.070397869346 86.3477240941847 2726.51297803688 14 17 8
267.525605114275 88.7837803209166 2743.6867356692 16 19 10
282.491656647432 91.8618831118984 2765.21262800628 16 19 10
292.110126804508 94.2774001604724 2782.22763667692 16 19 10
269.023913203393 92.795407041404 2772.78034679408 16 19 10
253.672974338528 92.2478795984565 2769.6838078341 18 21 10
261.018526357295 94.3770295058345 2784.74711695925 19 22 11
262.136629888374 95.7635153163969 2794.76785185272 17 20 9
234.909998290999 93.8486679479376 2782.41114948522 15 18 7
224.959319745599 93.9570644983226 2783.77416782575 13 16 5
233.997517101223 96.2547616118007 2799.96590038348 15 18 7
231.989320596826 97.2715071327874 2807.47776976785 16 19 8
228.405422339676 98.1049462657584 2813.74727041252 18 21 10
226.42632590098 99.1180622815898 2821.23111728273 19 22 11
234.062315774711 101.210531681031 2836.0111008455 20 23 12
228.129985932332 101.767168352178 2840.40281210031 21 24 13
215.764212074272 101.607100722069 2839.95266888147 19 22 13
215.450531712004 102.792152076098 2848.59113963596 18 21 12
