ply
format ascii 1.0
comment KinectMotionCapture
element vertex 759
property float x
property float y
property float z
property uchar red
property uchar green
property uchar blue
end_header
-54.645684478533 624.318629607434 2690.02331105201 137 137 135
-67.7558149607305 622.418122513396 2692.86112096138 144 144 142
-82.2182340644439 620.235871972224 2697.18727416203 152 152 150
-91.0640928192348 619.195654478516 2695.71018893486 166 166 164
-97.8127233634636 618.582872761787 2692.04989539944 172 170 171
-103.866709818631 618.112028314321 2687.65884649967 178 176 177
-109.921621907375 617.640869904953 2683.26712499808 184 182 183
-113.916999228916 617.594104041658 2676.66514946919 187 187 187
-115.188222066494 618.11177337904 2667.1003896438 187 187 187
-116.491230169485 618.626598908276 2657.51257359673 189 189 187
-118.506090401059 618.997585302709 2648.64302880561 188 188 186
-118.514411570784 619.788880103409 2637.5247915824 200 200 198
-111.130213080664 622.124812241091 2618.18708716517 189 191 188
266.428373735359 654.052952632464 2742.59875879009 156 158 157
243.755591612454 650.500868414379 2752.08261371355 204 206 205
214.219356453868 645.646223861825 2767.70032595005 208 210 209
197.913568743046 643.272570026047 2771.92454351878 213 213 213
187.042572784006 641.919460677923 2771.44788151316 193 193 193
180.027940045068 641.293374463377 2767.59468992012 182 184 183
169.196914775996 639.943323955462 2767.1470190143 179 181 180
159.153195870217 638.739899076731 2766.03549487468 181 183 182
142.294042726398 636.237575304777 2771.09295092223 182 184 183
124.738121566577 633.595512440867 2776.87992826538 198 200 199
110.26796585955 631.535070817956 2779.96605339417 197 199 198
101.116119272593 630.486165855563 2778.26710705362 203 205 204
93.4827378254197 629.72614280228 2775.19972952993 179 181 180
82.1140623712022 628.248337005635 2775.59669405436 172 174 173
73.0145204293988 627.203240737735 2773.93538928209 151 153 152
64.6757113735816 626.302657581287 2771.59125137191 193 195 194
59.3171689209373 625.975458159916 2766.47003563225 190 190 190
54.6931587326691 625.790728564794 2760.64668853828 164 164 164
49.3216750365892 625.462301526933 2755.51608519695 140 140 140
40.2678628118012 624.420192950321 2753.88794600571 132 132 132
31.2305340649268 623.379191102366 2752.27205612221 184 184 184
23.6719935925942 622.623946510668 2749.25895662222 213 213 213
19.7653586279181 622.579829238008 2742.7213257373 165 165 165
16.5710669942514 622.676364727006 2735.46576353996 155 155 155
10.4605720168083 622.204168625056 2731.03374356004 157 157 157
6.51577745605492 622.156601536654 2724.46843249557 135 135 135
0.396754803448474 621.683386006929 2720.03022545833 161 161 161
-3.5698572482501 621.633752739369 2713.44908796346 171 171 169
-6.83507742564959 621.723855171432 2706.14207556637 148 148 146
-7.97866189658625 622.235225987445 2696.66981161365 144 144 142
-9.86521121869721 622.603045150458 2687.89326609643 125 125 123
-15.3242174402048 622.265675753688 2682.69917051379 115 115 113
-23.6157718179344 621.36587381859 2680.38929248527 99 99 97
-32.5995905065977 620.326567795865 2678.81190729759 139 139 137
-47.1859009512039 618.167717697383 2683.04866202613 134 134 132
-62.420362850991 615.872728041197 2688.04990498808 140 140 138
-77.5982094304983 613.581866420356 2693.09191603622 154 154 152
-87.8495522866478 612.27205547348 2693.06467310387 165 165 163
-95.3010387643714 611.521610459636 2690.12949811705 165 163 164
-102.053179104828 610.910635443801 2686.46666940673 170 168 169
-108.801933201048 610.299736006538 2682.80659031697 181 179 180
-112.799297195842 610.244325578796 2676.20313081982 184 184 184
-116.125876904128 610.326280423974 2668.85130184316 184 184 184
-117.423620205207 610.822055977127 2659.26720587147 186 186 184
-119.43336583248 611.176698571385 2650.40128598158 186 186 184
-118.079975936396 612.219821693187 2637.80138447203 193 193 191
-110.692835124124 614.500998009893 2618.46553565789 200 202 199
261.448358355898 645.11385328741 2747.58920642068 165 167 166
243.43839047487 642.477455556103 2753.0470643008 208 210 209
216.218417139232 638.132644112279 2766.64106220482 207 209 208
200.676912349102 635.936261743912 2770.18518605909 210 210 210
189.798339481472 634.598549924164 2769.70310938225 192 192 192
181.24434116274 633.689734585101 2767.2029344854 182 184 183
170.410258510294 632.355467251037 2766.75283268499 179 181 180
161.887325609687 631.44895945394 2764.27518946086 180 182 181
147.298558593537 629.409149721064 2767.27572970198 182 184 183
127.454476177681 626.38172582333 2775.10712807684 197 199 198
109.954484956792 623.784550855385 2780.93487759237 196 198 197
101.55743912292 622.887614004566 2778.54854106821 206 208 207
93.923727290754 622.132672282613 2775.48094977934 179 181 180
84.0513601396684 620.955386647474 2774.49406906097 174 176 175
74.2001309729874 619.779683578801 2773.52222525759 147 149 148
66.6029427113379 619.027262953146 2770.4814179313 165 167 166
61.2402791564852 618.696672383583 2765.35690306285 206 206 206
55.132113600413 618.225202685079 2760.92657540957 184 184 184
50.4985150905308 618.033821921556 2755.09653832417 146 146 146
43.6485020895048 617.421758795547 2751.36275412201 139 139 139
36.0683936556758 616.670064644458 2748.33433200716 114 114 114
27.0339010543164 615.6397373652 2746.72025769783 200 200 200
22.3898801709104 615.446964220473 2740.88236368174 201 201 201
19.9162565586448 615.670966298767 2732.91483812713 154 154 154
14.5213720499302 615.336760186122 2727.76724176518 158 158 158
9.1212434277308 615.001969523886 2722.61554639557 136 136 136
2.27521986019052 614.389134684277 2718.88494478702 143 143 143
-0.259430374786263 614.607704616644 2710.87285773933 173 173 171
-2.81727399708998 614.824256624817 2702.84424156603 159 159 157
-4.68446754225438 615.177064912908 2694.08165143155 155 155 153
-6.57898037254734 615.527600290417 2685.29924545152 130 130 128
-13.4650417292936 614.910645299671 2681.53930424873 126 126 124
-19.6407744555802 614.431431641872 2677.05995648713 99 99 97
-28.6364227108924 613.401801691425 2675.47404480534 137 137 135
-40.4256447380873 611.823869910901 2676.80097009248 135 135 133
-57.7832208379716 609.150806362308 2683.96661160709 138 138 136
-72.2784864894797 607.03101564301 2688.26927001558 153 153 151
-83.2422189208699 605.599248002333 2688.96001957149 161 161 159
-91.4011478818382 604.716134714684 2686.74636906924 161 159 160
-98.856251159444 603.97029569256 2683.80859551725 166 164 165
-105.614050374142 603.361072765964 2680.14167344291 177 175 176
-110.994204438661 603.02417663559 2675.00474186885 184 184 184
-115.694703076708 602.822526608186 2669.12586095995 183 183 183
-116.991516323765 603.298930894242 2659.54234108499 188 188 186
-119.681152843636 603.501221579003 2651.41811319123 186 186 184
-119.680503565686 604.243297256505 2640.30612953242 189 189 187
-113.636041967109 606.199517633765 2622.4656656716 200 202 199
262.685446401176 637.335286563266 2747.2115613423 185 187 186
241.569882889106 634.178202541499 2755.35591028789 209 211 210
215.125373730759 630.0470860697 2768.27810450122 198 200 199
198.815511407274 627.743360871522 2772.49972249861 208 208 208
191.01758044842 626.98111982231 2769.31304828766 189 189 189
183.227314083552 626.219420433344 2766.13222752509 180 182 181
173.916430473625 625.179547320258 2764.31774312366 179 181 180
163.097940016567 623.862445341128 2763.87932586137 175 177 176
150.78512472338 622.269210000501 2764.82631522338 178 180 179
131.686910145206 619.42853909155 2771.96461289991 187 189 188
113.418194332833 616.732285589925 2778.46933785355 194 196 195
101.998468169213 615.288202181786 2778.82975991682 201 203 202
92.8621151128159 614.261541960821 2777.14186336421 198 200 199
84.4911815320901 613.374248214434 2774.77450501384 174 176 175
74.639217882587 612.211778643342 2773.80219579846 167 169 168
67.7863037868582 611.60231832753 2770.06632171458 134 136 135
60.9366281977417 610.99298136571 2766.33309039509 188 188 188
54.8306489966315 610.52133032345 2761.90434675865 203 203 203
50.1995874808179 610.324230088658 2756.07582534712 173 173 173
44.8228688146046 609.989046115424 2750.94139283902 151 151 151
39.4408125970651 609.653310253377 2745.80308823062 140 140 140
31.1282381637898 608.769658501722 2743.47775964209 132 132 132
24.2858273172213 608.16013339547 2739.74979373652 188 188 188
21.8086899952827 608.369800669146 2731.77935393316 169 169 169
19.3083094899684 608.5774758565 2723.79234903684 147 147 147
14.6174957946164 608.374728487285 2717.92048339134 150 150 150
9.19646219213677 608.035028480864 2712.75390316561 138 138 138
3.77004454332797 607.694742947108 2707.58341696399 154 154 152
0.48613045827306 607.760827059374 2700.26243681975 166 166 164
-2.81650113068599 607.825285715826 2692.92817420125 166 166 164
-5.42632164920343 608.023318372004 2684.86178506248 146 146 144
-9.47767970074676 607.949135564045 2678.21908903548 124 124 122
-13.5432532016497 607.8735920428 2671.5660810336 115 115 113
-21.8524495189261 606.987983921522 2669.24348588106 119 119 117
-35.0682736561074 605.160644001885 2672.00504681047 136 136 134
-53.8448078742111 602.260777286751 2680.61097975877 132 132 130
-68.3533491497681 600.172451959601 2684.9044682395 149 149 147
-80.0254351532073 598.624431529758 2686.31616495993 152 152 150
-88.8876617840752 597.614571791131 2684.82707360109 165 163 164
-96.3499545336481 596.873228565889 2681.88411101954 175 173 174
-102.425303028137 596.399518422514 2677.47756180626 175 173 174
-107.814316025472 596.05885768521 2672.33418913426 178 178 178
-113.893653311466 595.584256838994 2667.92474384931 182 182 182
-117.24256212523 595.641650742396 2660.55689809858 187 187 185
-119.929262504773 595.830159004229 2652.43443438789 183 183 181
-120.603748612493 596.41480146224 2642.06756435583 187 187 185
-118.60944692852 597.526613960378 2628.69729029806 196 198 195
278.887359436013 631.560021644932 2744.10580355334 211 213 212
263.145080768838 629.412853574882 2747.50463141954 189 191 190
241.251230598081 626.169608077409 2756.31938396113 209 211 210
220.217378332389 623.070403771304 2764.52326030521 194 196 195
203.121371351143 620.663510706497 2769.40949932663 207 207 207
194.543204073003 619.76842016367 2766.89187335411 188 188 188
186.743894633405 619.01106640909 2763.70451908518 177 179 178
178.952572847438 618.254349385159 2760.52266398498 177 179 178
165.833186007228 616.542680140579 2762.11968363462 172 174 173
152.752277345671 614.833948826145 2763.74461181832 174 176 175
133.647130263578 612.038798302107 2770.87782006752 184 186 185
116.127134003778 609.521393292731 2776.69117707696 191 193 192
103.946250335397 607.959617219213 2777.73426031377 195 197 196
94.0536230565363 606.807445158605 2776.73252532458 208 210 209
88.6763192008542 606.469734410168 2771.59765580153 176 178 177
81.0529480887108 605.725498489744 2768.5379094253 181 183 182
74.1822806885004 605.116989710886 2764.78917041185 141 143 142
65.0874074018155 604.103667031001 2763.1314109868 164 164 164
56.7495272826388 603.226429344798 2760.78806473203 193 193 193
50.6380858999016 602.753857854388 2756.3553567813 195 195 195
45.2614940436211 602.415517731969 2751.22100021391 163 163 163
40.613289107446 602.210994563604 2745.38001357248 157 157 157
34.4922384257274 601.73728614992 2740.94033387711 123 123 123
28.3702314355754 601.263380776957 2736.4999599357 151 151 151
23.7012552430977 601.056767056855 2730.64419965526 192 192 192
20.4725132520238 601.116477221572 2723.36318265408 164 164 164
16.502205222988 601.041163775549 2716.77953026822 148 148 148
12.5178183763914 600.964550070377 2710.18537078395 144 144 144
7.80100908593173 600.753543155082 2704.29461854056 143 143 141
3.07440713244 600.541653309148 2698.39676291453 165 165 163
-1.66216896036286 600.328756701719 2692.49196619962 172 172 170
-4.98520304236139 600.380031972368 2685.14284660206 162 162 160
-6.90779729880142 600.694537185601 2676.33990129704 128 128 126
-9.56507518831762 600.87443613526 2668.23872296942 118 118 116
-16.4759513088923 600.259842528788 2664.46109945265 108 108 106
-29.7088973444199 598.458239236533 2667.21037871365 135 135 133
-49.2044868607371 595.474171615238 2676.52966326588 131 131 129
-64.4267205350437 593.285620415505 2681.54030986121 151 151 149
-76.1114506972329 591.758123671546 2682.94323899465 153 153 151
-84.9855326180358 590.757967793232 2681.44560263509 173 171 172
-91.7674029137618 590.151992552546 2677.76124737058 186 184 185
-98.545880363158 589.545973937645 2674.0796459101 180 178 179
-104.633376665337 589.070682248219 2669.66428248094 173 173 173
-112.092088976213 588.334009890481 2666.72364461766 180 180 180
-116.811044927804 588.119075569715 2660.83161079773 185 185 183
-120.858785121248 588.033296829386 2654.1914786976 181 181 179
-121.527644078312 588.596189963635 2643.82828326551 188 188 186
-120.203789539802 589.54539286721 2631.20649522051 190 192 189
-112.18755483833 591.787090902296 2611.09115892068 198 200 197
277.008535684959 623.199173445839 2746.40685914031 204 208 207
265.937723527478 621.894579309082 2745.78559184726 203 207 206
247.911970152865 619.378780159744 2751.2326173418 210 212 211
226.084369102989 616.194909988828 2760.09569603268 182 184 183
205.114747956582 613.152229056962 2768.34642118791 206 208 207
194.99383586325 611.995991511847 2767.1791770724 179 181 180
185.660697592905 610.975434961747 2765.34865763488 183 185 184
178.637851110255 610.358013735906 2761.48985009064 174 176 175
166.281778560267 608.80437923772 2762.40568193011 166 168 167
154.719979479315 607.386952278367 2762.66295284677 179 181 180
136.365718498478 604.770825761183 2769.10636461816 189 191 190
117.325008290362 602.026748720718 2776.28654322972 192 194 193
104.387091158848 600.353140378091 2778.01530692991 183 185 184
94.4935401161064 599.214126737372 2777.01296893457 216 218 217
88.3672151636499 598.740468999459 2772.56946606446 190 192 191
79.9986972066509 597.868904337484 2770.20393852219 168 170 169
73.1320012401473 597.262997912402 2766.45838614425 171 173 172
65.5262667247722 596.525049515566 2763.41116228393 132 132 130
58.6685871758723 595.919634545603 2759.67214858884 144 144 142
52.5526880654676 595.446343466647 2755.23620549134 181 181 179
47.1719767575016 595.10458245784 2750.09855084102 194 194 192
42.5194795076056 594.893837156775 2744.25471557047 195 195 193
35.6623514641319 594.287978556003 2740.51580494933 149 149 147
29.5380084505159 593.813465732382 2736.07373449781 127 127 125
25.5944214488379 593.731942495072 2729.50912682409 189 189 187
23.086594173479 593.91084520214 2721.51657786696 183 183 181
19.8332270526755 593.957209131836 2714.2176419824 152 152 150
15.1196021746953 593.740765013491 2708.32946512409 149 149 147
9.67801717046202 593.393086783453 2703.14765186035 147 145 146
4.94700584047969 593.174905577614 2697.24686239324 147 145 146
-0.507654940628655 592.825809600932 2692.05556303862 169 167 168
-2.40883447890439 593.125331735283 2683.26836030459 167 165 166
-2.91792207262831 593.681990367106 2673.02095496448 135 133 134
-4.87824299055806 593.976531800319 2664.19055967694 115 114 112
-11.8025891142972 593.363266597885 2660.40317819605 114 113 111
-25.0505801884473 591.587448694182 2663.14168159554 135 134 132
-42.4602680790196 589.040763489388 2670.27018629219 132 131 129
-58.4031195087333 586.756951688855 2675.99299581336 150 149 147
-72.8924181391133 584.734947526233 2680.30076962801 150 149 147
-83.8587256038459 583.359160337326 2680.98993603933 168 168 168
-92.0271573872342 582.498696790639 2678.7695114637 180 180 180
-98.8036803528722 581.895275648765 2675.0890455299 177 177 177
-104.889138037715 581.419850391002 2670.6751592614 180 180 180
-112.346113776999 580.688486554945 2667.73580716463 188 188 188
-117.062773909989 580.467913199107 2661.84540906979 184 184 184
-120.42717471666 580.501200069 2654.4662107359 187 187 187
-121.09502068881 581.041920695165 2644.10363733006 188 188 188
-121.799245320401 581.579435755417 2633.71497049784 191 191 191
-116.47074623202 583.256313629248 2616.58911183833 190 190 190
260.951698154715 613.036752498637 2750.77209436685 202 206 205
248.369174046126 611.48706770019 2751.52408112182 204 206 205
228.085566809143 608.621042620823 2759.03767609075 181 183 182
206.337312113824 605.497578926549 2767.9585806181 202 204 203
194.674986390168 604.091156080801 2768.14303336412 177 179 178
186.11040614838 603.212669759488 2765.63534102786 186 188 187
178.322674805615 602.466290920827 2762.45643555853 176 178 177
165.967487437603 600.934176161908 2763.37301808703 161 163 162
152.886021681103 599.273822078785 2764.99778746094 182 184 183
137.568509914853 597.224184205596 2768.70503192826 192 194 193
117.766994825667 594.395272292652 2776.568293769 187 189 188
106.335245999723 593.006513102227 2776.91998609882 183 185 184
94.9333108082211 591.61996004533 2777.293302143 220 222 221
88.8068628759871 591.145904009885 2772.84970810478 205 207 206
81.1850024941112 590.411917052136 2769.79110880217 153 155 154
75.8059400493285 590.067551762513 2764.65493073379 172 174 173
68.936080971171 589.463648996711 2760.90680102061 141 141 139
62.8100396599489 588.989237567304 2756.46349995049 129 129 127
56.6830901858202 588.514633078943 2752.01953955582 160 160 158
51.2912424878431 588.168843706428 2746.87408597129 169 169 167
44.4261280796345 587.564847361284 2743.12939529661 184 184 182
37.5643921108826 586.960975347876 2739.38715435457 177 177 175
32.8946601011424 586.742710097999 2733.53078714877 147 147 145
29.6700317671066 586.780240454863 2726.25293435729 153 153 151
25.7016021713681 586.687982093364 2719.67026338145 200 200 198
20.9960153965554 586.466473258291 2713.78759338485 171 171 169
17.7220577043413 586.499648924115 2706.47395863152 152 152 150
12.9924113705639 586.275952021186 2700.57383626418 146 144 145
10.4019948968808 586.433706078852 2692.52130951256 142 140 141
3.50347119919769 585.825629100921 2688.75237906175 145 143 144
0.88035019136834 585.980454521045 2680.67583478424 179 177 178
-1.05627074642123 586.26022787899 2671.86283979189 165 163 164
-3.02014160426078 586.537693715411 2663.02978458589 124 123 121
-8.53845330582614 586.179657930429 2657.79259251578 113 112 110
-21.093660669822 584.556549344355 2659.79875200809 126 125 123
-37.8161590220314 582.178500430627 2666.19123261331 138 137 135
-55.870898550763 579.553101619018 2674.08676354063 142 141 139
-71.0654050670878 577.437025483063 2679.11787724499 131 130 128
-81.3430666712918 576.205378111699 2679.07195120443 172 172 172
-89.5187965808244 575.352239390916 2676.8462731631 172 172 172
-96.9921441030603 574.625254792207 2673.89507499318 158 158 158
-104.457765681599 573.898577848493 2670.94977356008 183 183 183
-111.915266038504 573.172309480664 2668.01006696635 184 184 184
-115.948516216955 573.070837323732 2661.3806539741 185 185 185
-119.314541348135 573.0927802815 2653.99992619654 188 188 188
-120.662580258629 573.486591088184 2644.37885339268 188 188 188
-122.71902026481 573.753242009486 2635.47863805584 189 189 189
-120.08153808334 574.886859906743 2621.33969308631 188 188 188
259.853489994275 604.863878674353 2752.40495035268 202 206 205
246.498320099445 603.206563393601 2753.83132114771 191 193 192
226.218472359654 600.389563956723 2761.34788978094 182 184 183
206.788235422773 597.707698825048 2768.24600726948 200 202 201
196.663365203303 596.577557752266 2767.07632048466 177 179 178
189.628218703203 595.963819618953 2763.20832057383 184 186 185
181.066534667745 595.093274874812 2760.70276798501 178 180 179
167.940681634327 593.453670531928 2762.29546517613 164 166 165
153.332392815479 591.560732337698 2765.28230310214 181 183 182
138.012995591032 589.543322869203 2768.9883440038 189 191 190
121.989312218849 587.402163678483 2773.41824265923 183 185 184
108.283526049682 585.64813679648 2775.82499100033 185 187 186
96.8760286501409 584.279892696671 2776.19436761968 214 216 215
89.9957228338373 583.677742484535 2772.43867372011 215 217 216
83.1187905054209 583.075805818724 2768.68542641555 146 148 147
76.9903551220699 582.600961467515 2764.24038763862 163 165 164
70.8609119837122 582.125975733096 2759.79461760244 170 170 168
66.2118891207753 581.904041083605 2753.95324431289 138 138 136
61.5532824448937 581.681289808099 2748.10462489941 154 154 152
57.6211187619848 581.583903974937 2741.54821788607 144 144 142
48.5354608188571 580.602434854837 2739.89759468181 141 141 139
40.9305478613189 579.874082151872 2736.85101499038 192 192 190
35.5225237956138 579.523487299978 2731.69381047095 176 176 174
31.564338140825 579.423545318274 2725.11852662747 127 127 125
27.5918582162946 579.322355725584 2718.5328742434 164 164 162
21.435729656913 578.844132785784 2714.06774297895 196 196 194
18.8834097273811 578.991132036798 2706.04248427297 170 170 168
15.5891425321335 579.01119159386 2698.71406029179 153 151 152
13.7093699799284 579.279130397473 2689.94192148598 146 144 145
8.94473099188264 579.046425572804 2684.01668104691 139 137 138
6.30680900167446 579.186042023627 2675.92933018497 166 164 165
0.805935042708317 578.826640802861 2670.70477219041 166 164 165
-0.453875915467528 579.211020148913 2661.14760993986 119 118 116
-4.56766750652648 579.09715798707 2654.45945352393 115 114 112
-15.0256417038368 577.868467966428 2654.28283001613 126 125 123
-31.768166524194 575.529621224745 2660.66069709691 135 134 132
-51.9400881341641 572.578725695362 2670.72519321021 145 144 142
-68.5413448054073 570.250377706559 2677.20581624238 145 144 142
-81.6047621209708 568.542086893096 2680.0784631365 170 170 170
-89.7788591615198 567.696996508424 2677.85400956315 153 153 153
-97.9407315048735 566.852537997668 2675.63842113425 139 139 139
-104.026582886896 566.37636392026 2671.22424567334 184 184 184
-110.798960634457 565.777550270066 2667.54680803444 182 182 182
-114.83403183003 565.667406738396 2660.91573654876 186 186 186
-117.52075913301 565.799853606949 2652.79326383572 189 189 189
-120.23034686053 565.93019919253 2644.65391399262 188 188 188
-120.932476605052 566.423434563494 2634.26654150338 189 189 189
-120.996067421735 567.03508304026 2623.10732818953 187 187 187
243.850127672255 594.814971637654 2756.80952586922 183 185 184
225.12395017316 592.300152128184 2762.9838405594 182 184 183
208.010473884316 590.04332429806 2767.85817581694 195 197 196
198.652237129649 589.052368840969 2766.00961188789 178 180 179
191.612583946893 588.440535881078 2762.1383546367 166 168 167
184.576116173653 587.828911589444 2758.26970209083 160 162 161
169.914373895832 585.961485104596 2761.21791968551 171 173 172
154.539150067977 583.972262797447 2764.8836334645 181 183 182
141.491134463333 582.362742192809 2766.53290904893 190 192 191
129.238221930509 580.881360816836 2767.5238897627 191 193 192
112.49468705243 578.652919155585 2772.66654722539 185 187 186
99.5712071387382 577.052919764531 2774.40614961674 182 184 183
92.6840803534699 576.452546986632 2770.64552005425 226 228 227
87.2952988025149 576.101180984239 2765.5022609384 185 187 186
80.4105410511742 575.500820893062 2761.74334880342 140 142 141
74.272310388829 575.024705064492 2757.29120277942 173 173 171
68.8738631407504 574.672346929484 2752.1409317681 180 180 178
64.9475638064212 574.566892808385 2745.58873507874 134 134 132
61.0069702023512 574.4601910763 2739.02616984878 147 147 145
52.6462973521933 573.611964605244 2736.66644760443 149 149 147
45.0297957612884 572.887731804496 2733.61178241049 138 138 136
37.4212419311055 572.163983143088 2730.56258669316 165 165 163
32.0035295900603 571.809317523009 2725.39833831694 175 175 173
28.031428725158 571.699555528989 2718.81291730038 138 138 136
23.3218702859599 571.465955413215 2712.92730691479 175 175 173
22.207876056028 571.843268494848 2703.47581453041 200 200 198
18.9053532099925 571.851307927241 2696.14134496748 199 197 198
17.7343164345345 572.223820695084 2686.64847690996 148 146 147
14.3878242038866 572.228089013609 2679.28211390034 134 132 133
9.59825683767868 571.987409844311 2673.33846747928 150 148 149
2.66850886691161 571.381194522453 2669.54691131621 161 159 160
-0.010642461318433 571.503053164102 2661.42987695748 126 125 123
-2.0069984104385 571.744102218354 2652.57308815736 116 115 113
-9.65883704274662 571.014796202001 2649.49278069114 110 109 107
-25.7180515282294 568.83605671805 2655.13176836186 127 126 124
-49.4063118045598 565.33474465491 2668.82017966532 147 146 144
-66.7133699462867 562.925977453016 2676.02348696199 159 158 156
-80.4777264639371 561.123911091781 2679.62286418432 152 152 152
-88.6546889411646 560.286444886479 2677.39637201274 177 177 177
-96.1290359025932 559.569625386355 2674.44450081625 189 189 189
-102.219515172148 559.092747807463 2670.02696693753 154 154 154
-108.996785214412 558.495908065914 2666.34628724506 164 164 164
-115.086851260863 558.018556140272 2661.92905051793 186 186 186
-117.089319231837 558.256451452814 2653.0678150084 186 186 186
-119.119148031374 558.491951001661 2644.18673291533 186 186 186
-120.49939571069 558.843930724194 2634.5420994049 189 189 189
-123.260905586805 558.955641905317 2626.36501570128 187 187 187
245.081429069937 587.063985851754 2756.4278256294 179 181 180
232.542826622721 585.582013696846 2757.21170063489 184 186 185
212.320137565451 582.867057041377 2764.77022168371 195 197 196
203.719983698751 582.009108435273 2762.23684529516 179 181 180
192.062263227264 580.659128236868 2762.42492237989 165 167 166
185.025668363738 580.049793786389 2758.55618930205 157 159 158
171.125189445352 578.334749827049 2760.82199817049 165 167 166
161.072001918278 577.236573284456 2759.70414312879 193 195 194
147.246409099568 575.527237471451 2762.02426744192 196 198 197
137.246056573287 574.433082664365 2760.94502846776 193 195 194
116.706929197547 571.629600376885 2769.50903933283 185 187 186
104.523193659794 570.174882803853 2770.55030298406 166 168 167
95.3730997013049 569.210198885419 2768.85275928046 205 207 206
89.97779922713 568.855168227246 2763.70475589585 217 219 218
80.8498670654481 567.892010814341 2762.02328548376 170 172 171
75.4547225815143 567.536783689764 2756.87539418466 151 151 149
70.0542388957315 567.18103441457 2751.72362973939 178 178 176
63.9094469572701 566.703759739402 2747.26672143652 145 145 143
59.2371033277797 566.467976726324 2741.40807780389 145 145 143
53.0858714424562 565.989971240287 2736.9464973444 155 155 153
49.1305026108919 565.873260337256 2730.3731705383 128 128 126
40.0503338319918 564.913046261893 2728.7263397303 144 144 142
33.1701780774156 564.314383706088 2724.97106675636 185 185 183
27.0192407019043 563.835864384294 2720.50969719065 172 172 170
23.0376863406869 563.716494466995 2713.91737446684 146 146 144
21.205718929838 563.954819611781 2705.1797406292 177 177 175
19.3463600155708 564.190865995495 2696.42223856379 202 200 201
18.8930787039112 564.663157119905 2686.21515552748 168 166 167
16.9743214143754 564.894152597533 2677.41456872838 148 146 147
13.603088641752 564.884975715634 2670.0302026693 143 141 142
8.08262123998782 564.517763492332 2664.79110692863 151 149 150
3.97266082925185 564.387154839584 2658.10564299279 136 135 133
0.554319994751751 564.373683728788 2650.68710554321 125 124 122
-4.99365243490413 564.003715955521 2645.42835134045 109 108 106
-17.5613637519243 562.452193503641 2647.42610352526 122 121 119
-38.480942646482 559.488473984261 2658.18357859033 134 133 131
-60.7030629175294 556.29613100195 2670.46602332649 153 152 150
-78.6556751846563 553.81692423486 2678.43632897678 156 156 156
-88.915549753199 552.634692095351 2678.40354743586 165 165 165
-95.6978006031 552.040365941403 2674.71897530442 168 168 168
-101.788452648482 551.563115902851 2670.30131429024 186 186 186
-109.252046383466 550.851748294231 2667.35756042901 195 195 195
-115.340070511534 550.374203323859 2662.94180295428 184 184 184
-117.339590426891 550.595579321623 2654.0826208796 183 183 183
-118.68716102916 550.930849255699 2644.46159104131 183 183 183
-119.389244924691 551.379598712155 2634.07373198204 188 188 188
-121.477672884643 551.593125343185 2625.15035328687 186 186 186
249.418291352368 579.791523921481 2753.35910109771 184 186 185
234.544952325626 577.967028146352 2756.15414514592 193 195 194
214.31490235166 575.300266358021 2763.70786870266 190 192 191
203.400419472406 574.087616678995 2763.20039355643 187 189 188
192.511645101507 572.876979573664 2762.71127077362 187 189 188
184.709561286376 572.149571690398 2759.5220569824 171 173 172
172.336012935536 570.701771964096 2760.42605079189 192 194 193
161.518849118001 569.496607521227 2759.98886774757 227 229 228
149.209206385794 568.053686143655 2760.93921281363 228 230 229
137.690494538253 566.733039698154 2761.22820879769 195 197 196
119.41171274419 564.339360191679 2767.72746378034 194 196 195
107.220098252104 562.905482237039 2768.7631213662 155 157 156
95.8125857847301 561.593276615218 2769.1327709085 168 170 169
88.1739607026031 560.878154811226 2766.06211407263 229 231 230
81.2888076351577 560.282303224991 2762.30293820104 234 236 235
76.6372423069628 560.042568053886 2756.45963166101 156 156 154
71.2347625242211 559.683480291995 2751.30610881534 138 138 136
65.0877308533482 559.205605966817 2746.84757384531 187 187 185
58.2027481830174 558.609390208227 2743.08881413064 183 183 181
54.2597466471291 558.485078084682 2736.52441413942 164 164 162
49.5701649567484 558.241834599186 2730.6532364798 146 146 144
43.4102085476722 557.762435275551 2726.1853243668 133 133 131
37.2491530441068 557.282797553467 2721.71661428921 146 146 144
31.8129208687163 556.920239032041 2716.53890051074 173 173 171
27.09493730395 556.674186855544 2710.64711949968 180 180 178
23.8098665240973 556.66099719397 2703.32519378243 138 138 136
21.2255144317259 556.762983373773 2695.27648627793 150 148 149
19.3348673895564 556.97947844124 2686.49649822664 188 186 187
17.4169654757672 557.193755201773 2677.69644682407 192 190 191
14.7589448111489 557.289444814666 2669.59430350603 152 150 151
12.0777066864406 557.383114553202 2661.47561360165 126 124 125
7.95712408257288 557.243042274961 2654.7824014762 131 130 128
3.8222745827734 557.101664859502 2648.07884036263 129 128 126
-1.73448126036169 556.727878853399 2642.81369953589 133 132 130
-12.2076766840236 555.545919668893 2642.62598406015 125 124 122
-33.8456202193065 552.522680004547 2654.09773089145 126 125 123
-57.4791573318665 549.161628691803 2667.82652263253 147 146 144
-76.1383391665753 546.612883963749 2676.51930533006 163 163 163
-86.4059400318551 545.446126866232 2676.48100121589 169 169 169
-93.8858557537412 544.739112657089 2673.52543724885 157 157 157
-101.357650253994 544.032507023831 2670.57546812118 177 177 177
-108.135641762469 543.440388340688 2666.89428933555 195 195 195
-113.542051073857 543.076292353661 2661.73789252306 172 172 172
-116.227027234923 543.16673182262 2653.61647647439 179 179 179
-118.934867121575 543.255129485 2645.47818120394 190 190 190
-119.63383589702 543.681827344326 2635.09276314303 189 189 189
-120.368910068308 544.105440546014 2624.68086140872 186 186 186
-115.084340928122 545.543876794689 2607.52194923842 187 187 187
254.532857346846 572.609627155966 2749.61957268512 180 182 181
240.418968623174 570.931840725654 2751.73086494805 189 191 190
217.08217690763 567.83997951916 2761.97073289662 178 180 179
203.080488717038 566.170894248525 2764.16340579355 182 184 183
191.42508138288 564.858530940259 2764.35335025786 184 186 185
183.627055027741 564.136440365071 2761.16710473919 175 177 176
173.54697934766 563.062641708073 2760.02988138036 188 190 189
163.487570854711 561.990378322559 2758.90794236001 232 234 233
148.136687413508 560.100141455677 2762.59150790848 226 228 227
133.593993976503 558.330730715652 2765.62681749459 228 230 229
119.098779078358 556.564946805041 2768.69626918035 197 199 198
108.412788079272 555.385743470321 2768.35460208664 157 159 158
98.5023786040404 554.324793510859 2767.34043846175 163 165 164
90.1088434135064 553.497921837448 2764.9570017718 206 208 207
83.9648099694501 553.020051426818 2760.50064030019 233 235 234
79.3068808672155 552.773856209433 2754.65268780314 190 190 188
73.1564490197307 552.295377841046 2750.19168491292 152 152 150
65.5267112527711 551.585595795997 2747.12720325139 172 172 170
59.3786052452572 551.107036999418 2742.66788600481 194 194 192
53.9641422593098 550.743493809615 2737.50594818881 195 195 193
50.0095381490935 550.609519151136 2730.9330883012 173 173 171
44.5798229344478 550.244561129265 2725.76008665271 156 156 154
40.6011094692178 550.108424240802 2719.16973842702 135 135 133
33.7042807069135 549.512941157006 2715.40210046159 153 153 151
28.2581693246011 549.146266527901 2710.2172041863 188 188 186
23.5283881434158 548.89319461566 2704.31683527498 176 176 174
20.9467487238251 548.981251626388 2696.2703181679 151 149 150
19.0592668399772 549.181144992716 2687.49224603951 174 172 173
17.1443436566618 549.378785435846 2678.69426971601 188 186 187
14.4890373153475 549.460516141466 2670.59431784127 174 172 173
11.1003855260767 549.427006013452 2663.19690663557 160 158 159
7.69282530132021 549.391825090131 2655.78607431558 134 133 131
4.26659286497522 549.354982149895 2648.36169769248 121 120 118
0.821713940327928 549.316449404709 2640.92379527287 120 119 117
-6.15050962634611 548.713096058385 2637.10146214032 138 137 135
-25.0116006016441 546.197950626066 2645.64834125696 145 144 142
-49.3727956622692 542.790406411375 2660.08414487896 142 141 139
-72.230175192237 539.615743576861 2673.14149728088 146 146 146
-85.9743775556363 537.904437340776 2676.75564992064 158 158 158
-94.1454280342518 537.090720289312 2674.53356377717 177 177 177
-100.927087216968 536.50098259696 2670.84944379937 198 198 198
-105.646521980296 536.245443436586 2664.95685720708 192 192 192
-111.743731315662 535.766527051927 2660.53443423308 172 172 172
-116.478048515789 535.509353683116 2654.63075629014 187 187 187
-119.183228826756 535.583907490687 2646.49461335803 196 196 196
-119.201386002045 536.099315068186 2635.3678483813 187 187 187
-117.234443176757 536.942931728416 2621.97638283821 182 182 182
-111.28324725604 538.444294601292 2604.06600475419 185 185 185
260.425585898819 565.510028336496 2745.20953114339 182 184 183
240.098746951422 562.93331580309 2752.69354642494 206 208 207
220.622323339921 560.478021443251 2759.55932983301 168 170 169
204.300003965234 558.489361739278 2763.77351331697 169 171 170
192.641255719338 557.195367850243 2763.96112892779 222 224 223
181.012314505792 555.903699047522 2764.1703640695 213 215 214
172.467128662519 555.073115217463 2761.67697378219 179 181 180
161.650132410997 553.899877905 2761.24036840428 145 147 146
149.340379514005 552.499803431875 2762.19055616053 139 141 140
133.279979774652 550.531346494517 2766.59471310878 190 192 191
121.804180947296 549.251367007188 2766.91502364314 236 238 237
109.605389556051 547.859754317547 2767.94598710056 225 227 226
101.192733659455 547.039209478934 2765.54842697238 161 163 162
92.043803187968 546.105935933461 2763.85218028209 151 153 152
83.6575968932305 545.287305190688 2761.47409820705 175 177 176
78.2585948300922 544.922196190367 2756.32306593578 238 238 236
72.8539210501546 544.556548460386 2751.16821386421 232 232 230
68.9226980074755 544.416073923096 2744.61227048828 149 149 147
62.7657546799241 543.936410870238 2740.14654128653 144 144 142
56.6076657628805 543.45647578041 2735.67998024459 161 161 159
50.4486653818841 542.976407108022 2731.21275778636 185 185 183
44.2884214698194 542.496088336211 2726.74463259912 196 196 194
41.0406512320853 542.463486631931 2719.44964851505 163 163 161
37.0480740033146 542.317474155082 2712.8492001295 140 140 138
32.3173355166593 542.058559412257 2706.94810765193 155 155 153
25.4113493140906 541.464346249859 2703.17413217205 194 194 192
21.3869436259504 541.315396849949 2696.55059578095 206 204 205
17.3483416096447 541.165177901504 2689.91676173808 158 156 157
16.1558878536221 541.457392538095 2680.40796132843 152 150 151
13.5058560117081 541.525470510134 2672.31146942005 180 178 179
10.1219091735278 541.480910953398 2664.91770744329 187 185 186
6.71924032770965 541.434715217619 2657.51036519608 152 151 149
6.12332394531112 541.827900569135 2647.19918778966 126 125 123
3.37857592079072 541.887778138118 2639.03428703953 118 117 115
-1.49483647675397 541.615901237709 2633.02970154326 109 108 106
-18.2730082886997 539.477634613178 2639.38303781395 118 117 115
-40.5659735641519 536.467745413282 2651.61504965889 143 142 140
-64.8441533797679 533.137374675738 2666.11171817953 136 136 136
-79.9986300178972 531.235466945882 2671.17293520207 151 151 151
-90.2603928030521 530.101105508807 2671.13873285015 157 157 157
-96.3647807734071 529.621697190379 2666.7111034387 172 172 172
-101.097303864309 529.359302579433 2660.80899411423 173 173 173
-107.207950067998 528.878939195696 2656.37682313829 178 178 178
-113.319520254742 528.39823211186 2651.9439806064 186 186 186
-119.431992002299 527.917213016282 2647.51048293344 193 193 193
-120.124289967318 528.299872041136 2637.12938314297 184 184 184
-118.151409935197 529.11067286274 2623.74234986615 193 193 193
-112.86634738942 530.455261677195 2606.58332002033 189 189 189
258.551792397891 557.241533375345 2747.51470105338 191 193 192
242.10204496011 555.278038403368 2751.63663667928 195 197 196
225.708396963607 553.318908880327 2755.79926209925 148 150 149
210.141095202524 551.476659167705 2759.32647893046 147 149 148
194.625649922147 549.638450690425 2762.89101362383 217 219 218
180.693559302122 548.028534057593 2765.13443898576 241 243 242
172.91371688406 547.317774313609 2761.96143278404 237 239 238
164.380286023957 546.495849720442 2759.47660779564 127 129 128
154.340458511331 545.451479404922 2758.36871025268 125 127 126
139.021929355855 543.628427146703 2762.07636489365 137 139 138
126.774800710788 542.254575246968 2763.07208312909 121 123 122
116.067018413987 541.105509771422 2762.71477171282 196 198 197
106.135071093425 540.069351618615 2761.68541489661 197 199 198
96.2242136117406 539.034772131949 2760.67106007392 142 144 143
87.0804319215544 538.112330632557 2758.97830623451 162 164 163
80.9287480100318 537.632884547699 2754.51639079467 211 211 209
75.5176051029234 537.263546324066 2749.35683042168 240 240 238
70.1010283534362 536.893648410971 2744.19332810545 192 192 190
64.6792506844203 536.523259063199 2739.02575856542 158 158 156
59.2518029491282 536.152301247571 2733.85437027097 152 152 150
53.0860869522973 535.671240456791 2729.38227449423 159 159 157
44.7270867732716 534.861714123457 2727.0239608287 181 181 179
40.0229526444296 534.599219224056 2721.14213628367 190 190 188
35.3087174103681 534.335826765136 2715.25327916261 171 171 169
32.7571495526575 534.398259828134 2707.22813730513 136 136 134
25.8508694009834 533.806293117558 2703.45396011399 154 154 152
22.5466974685591 533.757252741306 2696.11771149564 192 190 191
18.5060268948205 533.598213721814 2689.48262771298 190 188 189
15.881952559587 533.654324872903 2681.40489234085 163 161 162
12.5215933846965 533.600414470787 2674.02818220072 146 144 145
9.85350482037006 533.65269113129 2665.91852055216 158 156 157
8.57960480795494 533.918413022339 2656.35054382211 160 159 157
8.68677083832292 534.396476844062 2645.31443915821 124 123 121
7.34466016880297 534.656463807825 2635.6969860186 115 114 112
2.4602615788587 534.377852367798 2629.68469676226 109 108 106
-7.33275589705173 533.349264478785 2628.7557970232 118 117 115
-24.7789941841021 531.146998697694 2635.8595501097 135 134 132
-51.1963113687404 527.563434950052 2652.50963419219 136 136 136
-70.5543380946421 525.054402660366 2661.93134157156 139 139 139
-81.5370295373765 523.827424394102 2662.6093846341 142 142 142
-89.0455939207415 523.13328376647 2659.63282337118 160 160 160
-95.1731566748326 522.651430465861 2655.18838168011 163 163 163
-102.670565228471 521.957666248891 2652.22020389984 187 187 187
-108.79555151182 521.475573592532 2647.77762873501 183 183 183
-114.92143770546 520.993139186236 2643.33439947498 196 196 196
-116.30382294879 521.247264604405 2633.68772074743 195 195 195
-117.042352859821 521.603744523434 2623.27297383032 186 186 186
-115.123909663011 522.376738561588 2609.84628663104 191 191 191
-109.232311454296 523.77372980065 2591.89188175379 186 188 185
273.956952555747 551.031509803788 2745.06448906828 206 210 209
253.568670501152 548.547490472929 2752.50413796249 192 194 193
244.105598207588 547.611191380686 2750.57985335925 145 147 146
230.795983805112 546.126432496507 2752.04012233505 136 138 137
216.75454192902 544.534900372142 2754.20436975894 142 144 143
201.987822021413 542.837095713534 2757.07734599745 139 141 140
184.970156801511 540.814648297914 2762.0226184036 162 164 163
175.651502650738 539.889510991498 2760.20308213076 220 222 221
164.826054713333 538.74743245172 2759.76050777071 248 250 249
157.823218907745 538.151904980767 2755.91602281247 207 209 208
142.493947167756 536.360333729323 2759.61604938218 158 160 159
131.746753866343 535.224266096798 2759.23023392423 134 136 135
121.025033297225 534.090102321753 2758.86259935993 135 137 136
111.829675810071 533.174246852728 2757.13278496118 141 143 142
101.154286091962 532.043567546143 2756.79875426904 130 132 131
91.2501727414283 531.022628663218 2755.78965198031 144 146 145
85.087440116705 530.541839430758 2751.31972028918 173 173 171
77.4400610952828 529.845803176416 2748.24251973094 191 191 189
70.5398342317132 529.25761275952 2744.47274982521 235 235 233
64.3804899495861 528.776769429615 2740.00527414192 231 231 229
59.6907727583109 528.509826544311 2734.13387821268 205 205 203
54.9910009568193 528.24201973801 2728.25548358301 171 171 169
48.0888187302622 527.653242349822 2724.48399874277 157 157 155
41.9187129575684 527.171109012459 2720.00871529116 177 177 175
36.473941614533 526.795103418678 2714.82474317576 196 196 194
33.1966022168544 526.737064683545 2707.50790045602 146 146 144
29.1784448884918 526.571385379777 2700.88880889401 133 133 131
24.426063916025 526.298629590037 2694.97225168599 148 146 147
20.3815343929117 526.13060474103 2688.33403047654 201 199 200
16.3227603961071 525.961306443165 2681.68547669386 193 191 192
15.1026060800645 526.211935723163 2672.15638491905 155 153 154
13.1396055669764 526.354779635863 2663.32327875795 142 140 141
13.275547889724 526.810171871534 2652.30791980645 146 145 143
11.9575269228993 527.052633886118 2642.70784103911 115 114 112
9.19862077898514 527.083105664949 2634.53252781996 120 119 117
4.31015994495976 526.798299885582 2628.51696790361 114 113 111
-1.28829743030168 526.408201054318 2623.2215141186 119 118 116
-14.5679860527979 524.872375185381 2625.93825489581 133 132 130
-37.5428504476445 521.884771432099 2638.91109302603 142 142 142
-58.3325301648661 519.216463577507 2649.76423109526 137 137 137
-72.1188713281013 517.590921631243 2653.34856530979 137 137 137
-82.4126551326216 516.485939433997 2653.29159352623 132 132 132
-89.933672670468 515.795718826723 2650.30602456153 145 145 145
-97.4469883373803 515.105803924283 2647.32633487292 167 167 167
-103.587626183262 514.622084853917 2642.87240531828 145 145 145
-111.089342596985 513.932651183353 2639.90083213635 149 149 149
-113.159904120685 514.063894237979 2630.98998841958 171 171 171
-116.609073687535 513.987992251034 2623.54849186228 180 180 180
-115.362382315871 514.625712925726 2610.86918887199 178 178 178
-112.151276611993 515.565262845736 2595.91005621382 185 187 184
262.571703559615 541.82709772617 2745.4103022944 181 183 180
250.758994240458 540.577119050443 2745.48653118326 127 129 126
238.976140099177 539.329469361355 2745.58441452447 134 136 133
226.452353218777 537.977027147621 2746.37968574522 137 139 136
213.962614680774 536.627263971994 2747.19994738287 140 142 141
196.910060038746 534.639946960262 2752.11981116775 141 143 142
184.501705595946 533.296448212984 2752.9991016034 131 133 132
170.604013215192 531.742938295288 2755.2677486942 209 211 210
161.306840284962 530.829847015423 2753.46384563206 231 233 232
148.239128129827 529.387865511344 2755.09969138527 203 205 204
137.475737842669 528.266441918572 2754.70191408462 176 178 177
125.984427242269 527.041225989755 2755.01155166891 134 136 135
115.273868277431 525.92379854016 2754.65209316254 137 139 138
106.085592372148 525.018897246133 2752.92746783867 133 135 134
97.6606352955987 524.220446859329 2750.52110223536 132 134 133
88.5032820223852 523.317811668097 2748.81890486566 147 147 145
80.1045371211093 522.521196399117 2746.43184479986 164 164 162
70.9782464128108 521.620828288426 2744.75188235256 213 213 211
64.0813137149428 521.035060090613 2740.98421824984 238 238 236
58.658458473714 520.658036922134 2735.81612843014 236 236 234
55.429807581362 520.592900251488 2728.53483957155 197 197 195
49.2584216857366 520.110304747 2724.05862579054 167 167 165
42.3572304443991 519.523713609152 2720.28787041042 160 160 158
36.1859532187503 519.040902868837 2715.81173431639 176 176 174
31.4625063331269 518.764760234132 2709.91584041334 199 199 197
28.8956890663141 518.797500355364 2701.87978801019 186 186 184
26.3058811080055 518.828307871992 2693.82676489808 158 156 157
23.6928772865856 518.857142071722 2685.75721109155 152 150 151
19.6255803786127 518.678460597891 2679.10243134104 175 173 174
16.9709609743736 518.703718945525 2671.00239692099 199 197 198
15.004342429394 518.829407065455 2662.16658107389 201 199 200
15.1370545500971 519.259440638777 2651.14904651039 185 184 182
11.6951899487341 519.175746787847 2643.71310048816 131 130 128
10.348501538755 519.39613073053 2634.09183377267 121 120 118
6.16035082679955 519.206941824994 2627.34939129829 118 117 115
2.6579646829159 519.117956719366 2619.86954511704 127 126 124
-10.6344131484604 517.608166831278 2622.57721909331 127 126 124
-30.8411849499588 515.08956225377 2632.61864119793 135 135 135
-52.347845247394 512.37557252009 2644.18712446194 139 139 139
-65.4622675907806 510.87915349438 2647.02386989527 126 126 126
-75.7769944642692 509.788590569132 2646.95178907052 140 140 140
-84.6922573052089 508.90085221896 2645.42486920006 143 143 143
-92.9061996215124 508.11448825894 2643.17182839689 125 125 125
-99.0602270154515 507.62934095892 2638.70818523886 146 146 146
-104.534942992366 507.243904553512 2633.50245785039 157 157 157
-108.658726452504 507.057376065118 2626.80669004605 155 155 155
-114.824343854273 506.570617727287 2622.33463688377 166 166 166
-117.622417276584 506.580849302147 2614.130533471 175 175 175
-116.414854922853 507.18466189709 2601.42269326945 181 183 180
270.023309600432 534.836430743956 2739.66050833823 163 165 160
259.739948055841 533.812758505233 2738.37646709509 138 140 135
244.840180685294 532.163814781857 2741.15324187861 141 143 138
231.529008860223 530.727157923893 2742.61262549178 134 136 131
219.025033305204 529.397679062389 2743.422374679 136 138 135
205.022421532588 527.862867875725 2745.61505817631 136 138 135
194.119273787773 526.74660708568 2745.11628833967 138 140 137
178.669695850419 525.010470192933 2748.7293831654 138 140 137
167.070633925159 523.79563286761 2748.96066760742 141 143 140
154.743822898169 522.479834190751 2749.89891643472 158 160 157
141.695629084749 521.06348077564 2751.5490412617 153 155 152
129.439177652701 519.753038483707 2752.53832239206 141 143 140
117.967876343394 518.547998562812 2752.86227285692 138 140 137
109.521259156403 517.755630263668 2750.44053066131 134 136 133
98.1005753004687 516.554392201923 2750.80119405551 133 135 132
88.9424982570341 515.662183416798 2749.09852482113 126 126 126
80.5432777247241 514.873266440468 2746.71115895362 126 126 126
72.1563363999795 514.085214370884 2744.33240444962 181 181 181
63.0434919383269 513.196236786672 2742.66254164576 210 210 210
56.1541445122584 512.613218921862 2738.90039019942 230 230 230
53.6683638222257 512.63878740964 2730.92275213742 238 238 238
49.6968643225171 512.459901153291 2724.33771141233 202 202 202
42.7954970201054 511.875610825372 2720.56684005583 171 171 171
36.6241507370368 511.39230160416 2716.0906513757 157 157 157
32.6253871476543 511.210927446944 2709.48553925143 190 190 190
