ply
format ascii 1.0
comment KinectMotionCapture
element vertex 781
property float x
property float y
property float z
property uchar red
property uchar green
property uchar blue
end_header
242.403443056102 355.778255422919 2879.37528361239 253 253 251
239.040993978828 356.379077222223 2885.45926268815 253 252 250
233.227035966905 356.999493895414 2889.72400230901 248 247 245
226.58783438653 357.627266686606 2893.38988660195 249 249 247
219.941934711176 358.255782387948 2897.06265024241 246 246 244
214.94089974454 358.869642584013 2901.93802362427 254 255 255
209.112664881848 359.491164493085 2906.21643917362 206 208 207
200.792233514202 360.137263168713 2908.71528230531 222 223 225
192.457135074622 360.785063439741 2911.22843856119 239 240 242
185.774638658064 361.417321247324 2914.93665238301 247 248 250
178.249697225461 362.059179104026 2918.0630983586 246 248 247
170.714210703186 362.702176392446 2921.2001851986 216 218 217
164.846591505484 363.327808274753 2925.51710252258 222 224 223
153.20780235847 365.689264230043 2950.89567674275 80 84 83
142.257412753541 366.375933998018 2951.74904509711 115 120 116
211.5615432486 327.277853947137 2544.37373365567 160 162 161
213.570732958405 328.005596907059 2556.44112518407 233 234 236
221.667004672127 328.757655104218 2573.79664858525 218 219 221
229.833774701763 329.500573546675 2591.08317912633 220 221 223
233.512465604494 330.215171195997 2604.32883063898 226 227 231
231.144194284871 330.899865152701 2612.24733671394 215 216 220
228.792081637878 331.582286176663 2620.15013292657 216 217 221
235.644326308265 332.292141811393 2635.91307461475 217 218 222
236.418621659963 332.976016615865 2646.37939955461 216 217 221
238.763777088224 333.659607209493 2658.11969785855 214 215 219
232.661725008612 334.318714508511 2662.66446284785 213 214 218
236.611624772896 334.997677235255 2675.64606677777 214 215 219
237.507211374047 335.665330887181 2685.99400735118 214 215 217
245.430978472245 336.338139323486 2702.11563414799 212 213 215
250.304300660584 336.999239483426 2715.59981535742 211 212 214
258.353838375166 337.655940213314 2731.59859294291 209 210 212
260.987972412154 338.301921085101 2743.05748991696 204 205 209
268.372577473032 338.943160528675 2758.30193131073 213 214 218
270.310425309922 339.577601538149 2769.03670920137 215 216 220
270.706095468077 340.208209651452 2778.46964018951 218 219 223
268.757068167256 340.837045532219 2785.98042439746 225 226 230
273.167338063113 341.456539590558 2798.51332558243 245 246 250
274.445823638968 342.074464968551 2808.48872947284 241 242 246
276.552956997968 342.686903153125 2819.05899418743 231 232 236
273.90318555099 343.304346680432 2825.84972647457 224 225 229
273.668091916313 343.914493095876 2834.49513014568 234 235 239
270.24666811538 344.529827559642 2840.63586487036 241 242 244
268.442870971981 345.139232759454 2848.00496738926 239 237 238
266.655337582454 345.746484459224 2855.3582380465 237 235 236
265.692814173808 346.34870927265 2863.31025172815 224 222 223
263.939999002484 346.95125986082 2870.62974150373 251 249 250
260.5789564265 347.558230459226 2876.71175295508 242 241 239
253.969279265123 348.178035472773 2880.34949669756 255 254 252
248.169093457968 348.79475522724 2884.60110671847 243 242 240
244.820069140941 349.39970779382 2890.67114428325 234 233 231
242.299880944794 349.999195354935 2897.33619021267 105 104 102
237.326070810946 350.610434249607 2902.18491636032 97 96 94
229.881228772511 351.235530827554 2905.23429976309 40 41 36
220.773866269761 351.871744496522 2907.09912882686 35 35 35
212.475806648872 352.504865477637 2909.57767458089 62 64 63
205.82256179011 353.128806608693 2913.25807037456 82 84 83
193.340336925457 353.793148537029 2912.80171735402 96 98 97
154.06911259896 355.238316019343 2901.98982398276 88 90 89
178.674959692115 358.482210469825 2969.18193254448 25 30 24
178.821500046084 359.04191658844 2977.45582307713 83 88 81
180.694333606219 359.582511979534 2986.85245997136 156 161 155
206.230338565427 318.062847827948 2519.85564055402 156 158 155
213.406572324286 318.878704461315 2536.69809870432 223 225 224
221.401546145239 319.692784875435 2554.1447077119 215 217 216
222.681704286923 320.438061564884 2565.51653756922 214 215 217
227.776957749806 321.210539691576 2580.18078544516 218 219 221
230.653894018862 321.957382038049 2592.80091609129 207 208 212
232.814372268537 322.692618129974 2604.7169683815 211 212 216
231.967233356734 323.400014500926 2613.95543071754 209 210 214
234.199027542112 324.125817819794 2625.80205938909 210 211 215
238.001799340501 324.856793173433 2638.92207612056 211 212 216
238.013835353792 325.556919532892 2648.72568671928 211 212 216
238.053786032851 326.253290929878 2658.50213262406 209 210 212
235.807360991247 326.93251795212 2666.30078939624 208 209 211
239.764426633773 327.643259073829 2679.27024282825 209 210 212
240.667590425188 328.3319545771 2689.60788700527 208 209 211
245.489142540664 329.035095153065 2703.13726310723 205 206 208
252.699646107749 329.742109732275 2718.54453047972 203 204 206
259.19213312727 330.437880107046 2733.24988931096 201 202 204
264.177337000338 331.120035965688 2746.61985833047 205 206 208
268.428796641379 331.792810702469 2759.3029234271 205 206 208
271.153500413968 332.454411026931 2770.66957476655 207 208 210
269.972726712438 333.099465206012 2778.83164621184 204 205 207
270.394158665922 333.745843082215 2788.23666459232 195 196 198
274.808080661253 334.397665107206 2800.76149897117 192 193 195
280.064167651243 335.044978961093 2813.86762668427 224 224 226
281.3876948169 335.67904289251 2823.79558049703 249 249 251
279.548371539312 336.304619000171 2831.19790878122 233 233 235
277.725209116052 336.927964422374 2838.5841809505 225 225 227
275.918395615601 337.549130865432 2845.95454044992 236 236 236
273.32348050923 338.167680344071 2852.69097396278 241 240 238
272.353837718715 338.784806060697 2860.6475171069 230 229 227
273.021579192591 339.399014004752 2869.81303903642 232 231 229
274.527491364956 340.009245102318 2879.56340432381 255 255 253
269.56678646452 340.62007021944 2884.39917793708 253 252 250
262.164204630023 341.233057812149 2887.40838603536 119 118 114
257.199421448455 341.844028506244 2892.24818792587 100 99 95
256.326190316246 342.448279337595 2900.11123361248 109 108 104
257.113222310043 343.04678371257 2909.16028143094 112 111 107
250.530105214039 343.657697338165 2912.77296477913 149 148 144
243.940165730309 344.269294127657 2916.39232188786 51 52 47
228.258739053474 344.906364502398 2913.44921701255 99 99 99
227.428352194039 345.504593255423 2921.27026992149 107 109 108
186.789740732806 346.231105238962 2900.58614108985 96 98 97
190.311587931325 350.359134441519 2961.66133224888 99 101 96
177.758033407888 351.007642730779 2961.2781508389 71 73 68
212.613238454248 351.387690033767 2993.21005171053 25 30 23
189.910590659143 352.092304488167 2985.89251430318 65 70 63
162.872306266799 352.833423517369 2975.79004833858 46 51 44
161.323957117165 353.419397051604 2982.90895041339 45 50 43
144.403392240864 354.107937552079 2979.77147366616 47 52 45
134.284322590239 354.754566595437 2981.22215633605 50 55 48
171.376306949175 355.057986965476 3013.77804634728 57 62 56
198.329993057883 355.41634596966 3039.38937114784 54 59 55
222.753124914568 310.548969524931 2535.73284943116 207 207 209
226.221546202419 311.356532867699 2549.17356149085 219 219 221
223.721237466374 312.081194409605 2557.21727548055 214 214 216
225.006826639613 312.850287978633 2568.58019211884 211 211 213
231.619236146282 313.678389620095 2584.56381696186 210 210 212
236.021026289405 314.47177512958 2598.49668474582 209 209 211
236.675060853259 315.215433672368 2609.07325657339 207 207 209
235.075818402284 315.929725977809 2617.64097815014 208 208 210
236.551195979807 316.673742106451 2628.81880069014 207 207 209
238.827991602256 317.4209684549 2640.61757595502 208 208 210
239.609338512506 318.147709167621 2651.07056303048 210 210 212
240.422312295808 318.870225230861 2661.49243071283 209 209 211
239.724265459181 319.57421874477 2670.58368319702 208 208 210
242.143883337841 320.302658741521 2682.24341046476 206 206 208
240.726426351592 320.992500911192 2690.63423010714 205 205 207
245.547506148519 321.731126552923 2704.15883055117 201 202 204
252.757484610822 322.481741066084 2719.56017530928 199 200 202
259.249492824746 323.218363487626 2734.25997168687 198 199 201
261.884807496555 323.918815397162 2745.7096454775 195 197 196
267.700072629788 324.636068072453 2759.66707341865 200 202 201
273.570714578558 325.346252871301 2773.5708938344 202 204 203
273.973559165978 326.014404208663 2782.9911516361 211 211 211
275.195245114705 326.683641286694 2793.01503670705 209 209 209
277.241764219395 327.353269417596 2803.63703962313 191 191 191
280.118859554579 328.022489180239 2814.85123773851 189 187 188
280.645348873005 328.674522415186 2824.15109674302 242 240 241
281.998438664126 329.326692715937 2834.0470183182 232 228 229
280.98165971668 329.964091823238 2842.04770980665 223 219 220
282.392702677644 330.608705588581 2851.8871998801 236 232 231
283.031332578148 331.246146417208 2861.07819622214 255 253 250
283.697793753302 331.879944287288 2870.24175628272 93 88 82
281.967008670548 332.502317435498 2877.53644008896 69 66 59
279.442300106018 333.120153962057 2884.20326284194 86 83 74
274.493156236599 333.729919667102 2889.02771276115 111 107 98
269.544821404752 334.339450700245 2893.8513939785 138 134 123
268.678140290377 334.956864447558 2901.70565208535 144 142 129
266.19557093761 335.568872679678 2908.33149139748 97 95 83
263.725460457295 336.179162850896 2914.94521279375 93 89 78
257.157968143496 336.783199273919 2918.54373479176 80 78 66
251.407321470336 337.388571325615 2922.74749106381 80 77 68
244.002012125788 337.993293315638 2925.76062927235 95 92 87
225.11020504073 340.417687216149 2945.57939578004 117 119 114
238.565014329685 341.006735567932 2963.3055422101 27 32 26
209.491305522834 342.234529062377 2959.40341829993 23 28 22
194.468417676771 342.85705555457 2957.22543352788 27 32 26
188.67594556716 343.466447279546 2961.47012897067 33 38 32
195.559235406059 344.047128945703 2974.38751556829 41 46 40
219.440669189221 344.577619961967 2998.77278767099 47 49 44
195.904814111465 345.22655604582 2990.87395733351 32 34 29
166.327403957322 345.904273201817 2979.05118575957 56 58 53
151.139282346063 346.546627565519 2977.03435000822 59 61 56
167.536889891168 347.079076993867 2996.09768535869 52 54 49
142.047083001254 347.763958017841 2987.30002677351 53 55 50
124.194289771228 348.427775312052 2983.67501132377 56 58 53
131.244503869991 348.987485529673 2996.42940139269 45 47 42
104.706913425962 349.699035244329 2987.25101858529 54 56 51
217.9049892774 301.999517551833 2521.97264323935 212 212 214
228.802364059415 302.974246414289 2542.18169437159 215 215 217
231.5357513552 303.800039514373 2554.93236454132 210 210 212
229.800870087433 304.546394587602 2563.63003860518 205 205 207
232.609368378815 305.362232260408 2576.30759385374 204 204 206
235.461289064081 306.172404201825 2588.9428674159 203 203 205
237.598849601281 306.965340959769 2600.87314920014 203 203 205
237.496719714418 307.719074014573 2610.78220517924 203 203 205
239.707562740329 308.502315341999 2622.64114934928 202 200 203
242.721786986023 309.291202481453 2635.11873680307 202 200 203
243.482484059539 310.042628555427 2645.58824314407 202 200 203
241.972461095503 310.758779148585 2654.06709379727 202 202 204
242.021478486444 311.492425732927 2663.8290270667 202 202 204
242.869777315874 312.232174298749 2674.21326949969 201 201 203
244.523454998201 312.977390554237 2685.21419786363 199 199 201
243.886825853634 313.68975462401 2694.24322450718 198 198 200
247.160578881326 314.444595533858 2706.46779021978 194 195 197
252.815607149132 315.22049628696 2720.57566757675 192 193 195
255.40111699849 315.954721101079 2732.06980667177 190 191 193
261.158951313621 316.717427347385 2746.07788408833 204 206 205
267.756820594979 317.481287889843 2760.66819523668 194 196 193
276.774992066791 318.261422692508 2777.10410883987 206 208 205
278.763311646836 318.963287385225 2787.7791401945 211 211 209
279.99634027418 319.653075168459 2797.78872443265 210 210 208
279.67566835358 320.324266268995 2806.51008622897 213 212 210
280.96856369196 321.006226800135 2816.46137880252 191 190 188
281.496662908094 321.677310403741 2825.75682351864 227 223 222
283.650188545145 322.357729075278 2836.27097252903 248 242 242
285.839493309848 323.033534023821 2846.750274243 238 232 232
288.064555674376 323.704757447709 2857.1947452791 207 202 199
291.129862736068 324.377139916539 2868.22157892119 64 59 55
291.815450203329 325.027853646474 2877.36364613426 70 66 57
287.67869475596 325.643115686129 2882.79747930294 117 113 104
281.926143130063 326.247535472947 2887.00360580755 138 134 123
278.607099769024 326.866634986896 2893.04178092718 130 126 114
274.4826966043 327.479943489772 2898.46397467047 99 96 81
274.443546540728 328.114197846486 2906.91090249371 106 103 88
269.520083167077 328.720711374786 2911.7103319713 104 101 86
266.23760628114 329.334731057217 2917.71328467949 152 148 136
258.853771233318 329.929418994235 2920.70658162258 110 106 94
253.930970779739 330.535421426935 2925.50542835045 95 91 80
251.486551111555 331.150640045541 2932.09290996812 141 136 132
254.849062101163 331.784567509038 2942.8302993493 147 143 140
236.678392985042 332.344073382527 2938.11910937624 94 93 89
210.129964797494 332.886660060598 2927.55955195366 14 15 10
226.828784303829 333.55547782603 2947.72087135295 23 25 20
219.398678353657 334.15501121766 2950.75939983001 30 35 29
212.79539981441 334.757455789479 2954.39369335382 33 38 32
206.185024707632 335.36066061224 2958.03458366735 38 43 37
211.346708603452 335.982004896272 2969.82138402186 47 52 46
198.003557256202 336.575322359594 2968.81353179257 46 51 45
203.217114934989 337.190095940332 2980.54945401885 39 44 38
203.39517153438 337.795834500295 2988.78524487917 29 31 26
203.597335494835 338.398519202139 2996.99754813247 24 26 21
160.421581603536 338.995449985061 2976.01783480718 40 42 37
144.367023853459 339.607733725442 2973.44858021523 45 47 42
166.732903227648 340.207031634482 2996.49483198591 47 49 44
171.230155598562 340.804815250048 3007.52765776356 51 53 48
114.799472061159 341.460897298542 2978.44655185574 60 62 57
95.1470921395328 342.096528766312 2973.77856196894 66 68 63
119.423129285822 342.670208629197 2997.76560380608 62 64 59
194.509419481323 292.966587133986 2491.27633557288 198 198 200
217.224251314481 294.267840210947 2522.37445531638 214 214 216
224.378650560595 295.225173595878 2539.21768525851 209 209 211
227.099870524453 296.082412518714 2551.97579008984 201 201 203
228.360710547733 296.903968276901 2563.35552911126 201 201 203
233.426538566709 297.794614440546 2578.03153170373 199 199 201
237.791700608678 298.663571744641 2591.98960225537 200 200 202
242.965845116807 299.540120627552 2606.56012854483 200 200 202
242.877163973399 300.311369054075 2616.45357880057 200 200 202
243.577793203249 301.092672592798 2626.97831752206 199 197 200
243.546644393871 301.85622418397 2636.81543706653 198 196 199
245.840128783139 302.655966523716 2648.58987829868 197 195 198
245.870623122256 303.411319492558 2658.36699703824 197 197 199
246.698627531843 304.17580047552 2668.76807453168 197 197 199
246.786906049201 304.923500275377 2678.48894386308 197 197 199
247.676439001433 305.679824864014 2688.82979027364 196 196 198
247.822522955609 306.419868814904 2698.49438948289 195 195 197
251.105799232087 307.203555489313 2710.70557291926 191 192 194
255.211569309037 307.993246657518 2723.51569186724 189 190 192
257.802548251939 308.754099314362 2735.00046448799 187 188 190
261.999453417384 309.532067285577 2747.72215547125 193 195 194
270.954145708173 310.369207742458 2764.21267942879 207 209 208
278.405297419478 311.176132194837 2779.36621300101 204 206 205
283.552863107446 311.94380149028 2792.56231548957 208 208 206
283.215584515859 312.633789045663 2801.29738984785 204 204 202
283.695184605555 313.330520158548 2810.6372042228 205 204 202
281.023712244584 313.984888312326 2817.44436623666 210 209 205
280.754911568656 314.665800872173 2826.11278229278 226 222 219
285.3021229721 315.398796354587 2838.49326091743 189 184 181
291.497885957626 316.143605554249 2852.0687760242 44 39 36
299.354016631511 316.898858505162 2866.82813436724 66 61 57
300.837128489694 317.57836284323 2876.59090214896 97 90 82
299.933024428483 318.229007479518 2884.47774812634 105 98 90
294.19869225107 318.828991091102 2888.66610027204 138 131 121
283.599688160642 319.382629790041 2889.19019954997 172 166 154
280.284585648883 320.007057373233 2895.2240117037 180 174 160
275.34961519218 320.615699693696 2900.03455325032 163 157 143
276.12842061246 321.273384421888 2909.08302334754 137 131 117
269.572520628227 321.866227886909 2912.67135046323 103 97 83
266.289884541021 322.486061326391 2918.67360198988 110 104 92
260.550010982543 323.085683782528 2922.8678480295 53 47 35
256.454797340269 323.697757984298 2928.26090073266 50 43 33
253.190255667852 324.314941780122 2934.24557585411 45 40 36
248.278720240733 324.919745210342 2939.03341345622 31 27 24
241.708584414321 325.513572508103 2942.63573156359 39 38 34
221.825451785041 326.026038660138 2936.79817698881 44 45 40
236.050040572816 326.747461849593 2955.15760321363 41 43 38
222.792605965106 327.304130267709 2954.07004970772 44 49 43
198.610476950012 327.807909656791 2945.41752372208 40 45 39
212.951923597619 328.514660025046 2963.66307700118 35 40 34
231.589758315817 329.229996747543 2984.72586878507 32 37 31
225.039186438552 329.820694299358 2988.30922217682 34 39 33
208.339489488027 330.370603205592 2984.97291000336 39 44 38
235.637164909993 331.094779429094 3011.60549002321 42 44 39
194.308546848048 331.55862205179 2991.64537036308 21 23 18
143.453364499833 332.012457731864 2965.55939502657 20 22 17
134.183953401255 332.614952076267 2967.59012444297 49 51 46
160.800170132922 333.315281711959 2993.48568037165 62 64 59
150.71805231229 333.91021000868 2994.90731067589 53 55 50
126.015173878073 334.477235156731 2986.76254886598 61 63 58
95.199572639924 335.044110986572 2974.76879232416 47 49 44
122.062680966371 335.713920444268 3000.42369211848 61 63 58
138.695394564064 336.352980196886 3019.23814456586 59 61 56
198.72931493669 284.401843530727 2485.51796373291 201 201 203
212.434867515584 285.592128261039 2508.5742310081 210 210 212
218.035738377627 286.566696305779 2524.12377169035 207 207 209
225.191502096559 287.569986041744 2540.95885436219 200 200 202
226.414381837612 288.421108945998 2552.37191849375 200 200 202
231.432358074544 289.35605835549 2567.08889061278 195 195 197
234.997858957846 290.248902969512 2580.42059666444 193 193 195
238.610505475487 291.135566547609 2593.70606211668 193 193 195
242.270620887236 292.016129683999 2606.94562973996 194 194 196
244.458642133522 292.85703009917 2618.81871428655 194 194 196
245.162980165736 293.659789449966 2629.33693679479 193 191 194
245.135376592345 294.442058976416 2639.16776936486 194 192 195
247.4323637914 295.268662297991 2650.93476221373 193 191 194
248.233861895516 296.058537458732 2661.35806976995 193 193 195
248.297770983092 296.828710156339 2671.0998168209 193 193 195
247.61825570934 297.579901286537 2680.16569140213 193 193 195
249.282857211103 298.372964648917 2691.14870047039 193 193 195
251.758424535446 299.176170575781 2702.74181873966 192 192 194
251.164735253284 299.915981772168 2711.72414879175 188 189 191
255.270078906991 300.738454396496 2724.52984609941 186 187 189
257.860638048323 301.526706769279 2736.01098592328 185 186 188
264.406418370197 302.378925419364 2750.64030073069 179 180 182
270.226144635308 303.210029963676 2764.57647144542 193 194 196
278.461988726435 304.074121512391 2780.35959177243 200 202 201
282.820226405105 304.864213295824 2792.91928529098 221 221 221
284.853335121793 305.609611607481 2803.54340612095 212 212 210
284.54375502256 306.312559630381 2812.24905991543 225 224 220
284.258116416874 307.012296094621 2820.93107627787 199 198 194
285.590256035488 307.733154287457 2830.83798748559 46 45 40
289.349995562707 308.485565023652 2842.58032059856 3 0 0
298.757478198636 309.314081696147 2858.62249164147 56 53 48
302.61794180656 310.053691366083 2870.26669624534 94 89 83
302.499737476627 310.731850033129 2878.78597492782 112 105 97
300.792708672861 311.385002720268 2886.05251919543 181 174 166
295.868742081482 311.99314236106 2890.85220803695 181 174 164
289.324956683988 312.580109638976 2894.42937368682 147 141 129
286.023278932476 313.208667989444 2900.44924432957 169 163 149
281.915913706013 313.826018611964 2905.85358388278 172 166 152
276.997224626833 314.432903250222 2910.6482175655 64 58 44
267.989240397831 314.992017843732 2912.42575774404 96 90 76
263.882495574285 315.608862730615 2917.82955597549 27 21 9
259.780449838667 316.225012027352 2923.22879075108 40 34 22
256.50718041214 316.849237204528 2929.2210919483 37 30 20
250.765076465694 317.446619919176 2933.41788382895 42 37 33
245.019766540581 318.044242929805 2937.61748593619 32 28 25
231.804449619429 318.56950803859 2936.49275034032 34 33 29
240.173328870845 319.302932252091 2950.74616804391 34 35 30
247.771614357006 320.020903228697 2964.35017141181 29 31 26
237.883377661592 320.577104530726 2965.58499872552 34 39 33
211.2241955939 320.993617274511 2955.1540552156 35 40 34
218.879285075098 321.704309267312 2968.70272720734 37 42 36
237.530031415452 322.4939996076 2989.74170812732 43 48 42
230.36538324518 323.706091321652 3000.92822884252 44 46 41
223.828058986706 324.290076965958 3004.49941916998 36 38 33
169.737701218562 324.55634352507 2975.98610621343 35 37 32
140.101962546159 325.008074271213 2964.25465641306 23 25 20
147.883031432289 325.702766620639 2977.68059373369 36 38 33
150.593697193504 326.3602991903 2987.64453907862 54 56 51
170.475764989132 327.108114278327 3008.88423589495 55 57 52
119.19781030692 327.468637588137 2983.23220910539 60 62 57
109.022726796553 328.059201939792 2984.746800703 55 57 52
72.9480448931232 328.531785523952 2969.48719376774 67 69 64
100.708676134058 329.301501882667 2995.65332100352 55 57 52
60.2834598268878 330.418921853519 2986.03546182527 66 71 67
208.879464342344 275.998530388862 2485.1825150871 199 199 201
212.896973587587 276.983551664398 2499.46865580085 203 203 205
220.686229237138 278.068760207554 2517.07981121664 206 206 208
224.069655235485 279.018065585226 2530.58363760242 203 203 205
228.248470127342 279.982073579461 2544.71270517834 198 198 200
226.478994743429 280.774230133517 2553.43796227206 198 198 200
228.488931797197 281.665635309994 2565.48042247272 193 193 195
232.799938041189 282.612374053387 2579.48077446955 190 190 192
237.917932183453 283.5723662124 2594.09472602261 190 190 192
242.333342665275 284.505574587534 2607.99340285042 191 191 193
246.040387422937 285.412698615378 2621.18244325131 191 191 193
248.271443957166 286.275240440056 2633.00959452992 190 188 191
247.487752413631 287.056871994925 2642.17441860558 188 186 189
249.024531501387 287.891345325868 2653.27789900324 185 183 186
248.294691568583 288.665789989958 2662.3903098527 185 185 187
246.819517919169 289.418736998572 2670.82911612717 186 186 188
244.592975164321 290.151004472899 2678.59985229704 186 186 188
245.475985669743 290.951950415463 2688.94058057708 186 186 188
247.941439550611 291.78374861144 2700.53951572034 185 185 187
248.115041422285 292.55859596427 2710.17198314511 181 182 184
252.991272504609 293.431836616035 2723.62158366578 179 180 182
258.700249959346 294.315278475749 2737.66033199601 177 178 180
263.681306249939 295.175114300018 2751.00815860491 178 179 183
269.498600760003 296.044678236426 2764.94105980699 175 176 178
276.945085314176 296.939304461334 2780.08660349355 183 184 186
283.665561976144 297.810083452469 2794.53936120047 179 179 179
286.491038611016 298.595536816347 2805.78763817283 203 203 201
288.563485251232 299.360536473919 2816.36979879285 32 33 28
286.697950818669 300.045494563828 2823.78904066837 66 67 62
286.442197618573 300.757932246926 2832.43984098867 21 21 13
289.404966048562 301.525650274561 2843.55440645388 25 25 17
296.410266445169 302.360096888586 2857.7300377333 16 16 6
303.474456359068 303.187044127911 2871.84796141381 92 89 80
304.162320066917 303.895496226809 2880.97923458061 125 118 108
304.071856611865 304.586624760586 2889.46904922361 166 159 149
300.772249117142 305.221010653624 2895.48600276252 93 87 75
295.860652459726 305.827870969616 2900.2735971604 93 87 75
290.137692945216 306.421557652449 2904.45192460903 74 68 54
284.41154897987 307.015452432926 2908.63304566568 63 57 43
277.050326855398 307.584689848903 2911.6076492175 66 60 46
269.678242944295 308.155149143605 2914.59285809088 61 55 41
266.395352095657 308.786616816424 2920.59364306478 77 71 59
262.299017769575 309.405156704835 2925.98685299787 55 48 38
259.855213924366 310.045978613103 2932.56993893919 54 50 41
252.469125457521 310.617672685141 2935.56887204389 45 40 36
243.416986161725 311.168496052193 2937.39148429614 34 33 29
224.390312401368 311.592287354765 2932.13346882547 43 42 38
242.720427597182 312.497907927749 2953.47370677402 46 47 42
251.991109648456 313.276682345361 2968.24182754361 43 45 40
212.871172560727 313.464029014475 2948.96347748439 42 47 41
212.951493526004 314.132064784515 2957.28711377374 40 45 39
213.055943245548 314.797029257277 2965.58724378981 38 43 37
207.295290698456 315.393593781247 2969.80223779134 40 42 37
199.845415338741 315.972223539167 2972.86348713226 40 42 37
206.75247938631 316.702770029008 2985.73511563373 41 43 38
214.56136412213 317.435084800778 2999.12753298484 39 41 36
188.468590482586 317.824640070664 2989.55536899529 38 40 35
190.361223979827 318.494813089891 2998.91285490044 27 29 24
160.728831528033 318.868356851835 2987.18963825566 30 32 27
154.065449289698 319.462707484296 2990.88481192186 47 49 44
136.257187205234 319.961177407013 2987.23967681359 49 51 46
135.565711698843 320.610594563923 2994.91556091372 49 51 46
128.009317282996 321.201812435609 2998.08072473431 54 56 51
107.874712546174 323.001966487895 3009.30649130906 52 54 49
80.3089684032074 323.459511761252 2999.76971275138 45 50 46
217.828794853107 268.479441601537 2494.41127881413 205 205 207
224.837673684587 269.594227608623 2511.37574125039 203 203 205
228.937058536857 270.604043099113 2525.57691370187 201 201 203
232.341633116769 271.583397022829 2539.05563591354 200 200 202
235.045395404257 272.532941130025 2551.81743380964 195 195 197
232.543113359887 273.313311620104 2559.85487356546 193 193 195
233.064559173515 274.183870038183 2570.54469007787 191 191 193
233.617578444497 275.05024002509 2581.20343488669 189 189 191
236.469868599823 275.980250717468 2593.82096728655 188 188 190
240.88072824038 276.949397647837 2607.71851362226 189 189 191
242.304391755341 277.823312387268 2618.9288278749 189 189 191
246.810171453506 278.780155769703 2632.73427349123 188 186 189
246.022290671296 279.578753005052 2641.90075002266 186 184 187
245.258401674244 280.374163530395 2651.04387335111 183 181 184
242.983529097486 281.123993183454 2658.86000606624 183 183 185
243.033163248537 281.934354169668 2668.60998852867 184 184 186
242.339422311715 282.720331729148 2677.68484798457 183 183 185
243.216216449574 283.543983004861 2688.02839337117 183 183 185
242.574498481972 284.3230484295 2697.0526148601 182 182 184
244.288441148418 285.158776711226 2707.98032156598 178 179 181
251.492155746037 286.127910237929 2723.35592726154 176 177 179
257.196578308223 287.050062698453 2737.39313941552 174 175 177
262.956274382521 287.965114374656 2751.3765136477 174 175 179
268.771367992426 288.873154531149 2765.30625144964 173 174 176
279.363088573822 289.886639688898 2782.97893708055 187 188 190
283.72230395996 290.742091394279 2795.52766171121 196 196 196
287.338395967811 291.573218098468 2807.40134259072 194 194 192
292.583397487546 292.434836400029 2820.48680423588 36 37 32
298.674412659442 293.307663031131 2834.14741454958 38 39 33
298.447567940445 294.033100292124 2842.76758698886 45 45 37
290.258886227114 294.582318515363 2845.14991965475 36 36 26
288.459686301088 295.269705381957 2852.50293141254 41 41 31
301.121328134299 296.257805497945 2870.95772517485 40 40 30
302.607683157735 297.002829835803 2880.70792646018 56 49 39
300.093957379237 297.662048949078 2887.35772681602 36 29 19
295.976072350721 298.287359752779 2892.77133617688 43 36 26
295.104030711128 298.975373269767 2900.62082059138 36 30 18
291.815472428762 299.613878115002 2906.62585547775 49 43 29
287.721421900106 300.235786161702 2912.01629975391 37 31 17
278.735890096825 300.766094502131 2913.77580189343 35 29 15
271.367660218449 301.328401987327 2916.75838848922 62 56 42
265.628655606527 301.921221937138 2920.95277705953 64 58 46
261.530273309339 302.543130610445 2926.34752275327 58 51 41
258.260596519954 303.178549221855 2932.33460202399 55 51 42
251.696334328527 303.756982301217 2935.93336278376 61 58 53
241.814397738626 304.28129806108 2937.16664666877 45 44 40
234.399045403173 304.848691032752 2940.19527492835 46 47 42
255.246704454372 305.867198204862 2963.27027365946 35 37 32
249.542594349776 306.454895075152 2967.43043081508 45 50 44
219.607590173862 306.67298060261 2954.61377942722 35 40 34
195.4189003794 306.992793522195 2945.99495855633 36 41 35
203.875717421127 307.802243478872 2960.14981616254 37 42 36
189.681357556003 308.278775167115 2958.58757814351 44 46 41
191.465924169642 308.984567106409 2968.04711160076 44 46 41
195.81785626978 309.721071956914 2979.20407745957 41 43 38
203.601282833398 310.497446790348 2992.61526309414 35 37 32
198.708664308855 311.100219257379 2997.38461610782 40 42 37
224.450613937543 312.093289562027 3022.68815593306 40 42 37
194.043283746223 312.368914348579 3010.3320269834 27 29 24
150.698650005688 312.503118992135 2989.58840456621 43 45 40
140.593788421978 313.053755886896 2991.03950385526 52 54 49
139.911626952326 313.715943284646 2998.70391370122 44 46 41
131.70787405985 314.957400036117 3009.50103130893 43 45 40
152.682471811797 315.843441580357 3031.05230923593 51 53 48
84.7037660935746 316.466927837886 3003.52399895846 49 54 50
102.30210161631 317.306149536373 3022.76690002928 56 61 57
216.121674084767 259.720128262712 2483.23099095592 203 205 204
221.59666633312 260.833500567842 2498.88501575333 204 204 206
228.614711131334 261.993303650315 2515.83372274504 202 202 204
231.235191973047 262.983715652676 2528.67218009087 198 198 200
233.153074921297 263.94192053342 2540.796178412 197 197 199
235.858349232716 264.921244932033 2553.55207333191 192 192 194
235.607637623791 265.790640786594 2563.59191608817 191 191 193
234.632554418825 266.630512063296 2572.93784926547 186 186 188
235.943052069382 267.54384336256 2584.25471314404 186 186 188
236.533477006844 268.427200003298 2594.87414079507 184 184 186
238.670940208119 269.356514443218 2606.78436267348 182 182 184
238.569029524434 270.206103175836 2616.67903355327 180 180 182
244.587678707631 271.248814303926 2631.80330482677 181 179 182
244.55710414121 272.089085656932 2641.6285149922 180 178 181
243.78901500694 272.901492721104 2650.77329703799 178 176 179
239.207847262204 273.591312650281 2656.63775640605 176 176 178
239.247420756014 274.422151037424 2666.39470269893 176 176 178
240.086215472644 275.272676569486 2676.7720100692 176 176 178
239.410373901147 276.072731994492 2685.82701448835 176 176 178
237.98327640803 276.846683226764 2694.21463817185 176 176 178
240.462306289694 277.731212921175 2705.79229845319 171 172 174
249.214101902932 278.790003076205 2722.45154208231 171 172 174
255.693267038283 279.773273083806 2737.12729957929 173 174 176
265.36375640453 280.836762684016 2754.29048147266 178 179 181
271.184220022558 281.782293438599 2768.20934568312 187 188 190
280.994169721082 282.828037979423 2785.23632627497 165 167 166
282.990483211075 283.652198728944 2795.88534425507 172 174 171
286.604071418856 284.513669247504 2807.75668880056 6 6 4
292.639610753982 285.431791446402 2821.46603061711 37 38 32
291.577980768518 286.158431346938 2829.49773225707 36 37 31
292.129966170747 286.922873521927 2838.75565928122 31 32 24
307.727242446011 288.796778923259 2868.33484755676 32 34 23
298.768630149612 289.311662287214 2870.06956019079 34 34 22
300.248874559862 290.079437595028 2879.82246682192 34 30 19
297.729161486445 290.747888270769 2886.47684822923 32 28 17
296.030160845657 291.43344946281 2893.73063044946 30 26 15
295.96809557851 292.153946785569 2902.18790457788 32 28 16
292.681290962933 292.798068467062 2908.19036788126 35 31 19
286.960989603279 293.386673056708 2912.36680687397 38 34 22
276.341343160631 293.8684511665 2912.9220252765 41 37 25
268.967273942331 294.423769877008 2915.911443361 39 35 24
265.682172273912 295.067147859811 2921.91266337302 40 36 25
261.583655008303 295.692213638043 2927.30707647366 42 38 29
259.961384380645 296.367246744756 2934.48622070299 48 44 35
253.401140057578 296.940236373049 2938.08213404176 41 38 33
247.661440549476 297.530370686423 2942.27727174815 43 42 37
245.237402920196 298.185462638028 2948.83862043868 44 45 39
266.940973715827 299.300983057966 2972.46625695692 39 42 35
261.264155570234 299.883073943096 2976.60047919796 33 38 31
240.546513408822 300.187265444528 2970.20514066759 34 39 32
219.756042054791 300.500343378765 2963.88080919121 33 38 31
206.446709506874 300.957100882864 2962.85955789658 35 38 31
203.194440640016 301.595293072669 2968.82894090923 36 39 32
190.675804086993 302.072871430954 2968.4363488076 36 39 32
190.948044716473 303.461022462909 2984.96510490237 34 37 30
202.156878891625 304.329722504383 3000.62913962931 36 39 32
210.036654324863 305.135024523822 3013.94071182858 36 39 32
189.831083835414 305.493864588321 3008.4457108421 32 35 28
163.573423741222 305.769728006964 2999.05408514545 37 40 33
149.214032492607 306.236916710799 2997.65710661885 53 56 49
142.540582786308 306.822510102763 3001.3632339039 39 42 35
147.908464717346 307.58192586558 3012.92486965701 42 45 38
157.636122662344 308.396040823479 3027.23398329236 45 48 41
116.427924854191 308.501162769988 3008.62421261707 49 52 45
107.114139342234 309.056840965446 3010.7055880463 51 54 47
97.7820694068963 309.61476693847 3012.80512579969 43 48 44
110.1873512403 310.454037368736 3028.70266715863 39 44 40
215.927488620478 250.961200762322 2473.38243542617 186 188 187
212.498291592716 251.758501382292 2480.92056603731 211 212 214
220.923483625967 253.03388047574 2499.28902941666 202 202 204
226.454951354696 254.180644733002 2514.88203791125 201 201 203
229.069121063967 255.201823259947 2527.72221502599 196 196 198
232.472770007894 256.2465723657 2541.19219102852 195 195 197
235.175655259719 257.256183591501 2553.9459819401 190 190 192
237.172119990861 258.231312805946 2565.98944598004 189 189 191
234.697104241747 259.030123380889 2573.99708446511 184 184 186
237.514830991958 260.024683769301 2586.63939842031 183 183 185
238.864298876674 260.957469414585 2597.91435109444 180 180 182
241.007220676829 261.913398278043 2609.8152189033 177 177 179
238.632082137971 262.698852853202 2617.72598969506 173 173 175
242.36549981817 263.700523960567 2630.87452953495 175 173 176
243.092435249936 264.587782124315 2641.35782360374 174 172 175
240.789158672345 265.363585964856 2649.19832293802 173 171 174
235.432442908213 266.030821114614 2654.41900381487 172 172 174
234.692650333621 266.855803664073 2663.53382830736 172 172 174
236.290853639803 267.755848194112 2674.56695999551 172 172 174
237.151431150439 268.62537241364 2684.9198287316 173 173 175
236.493531192167 269.439529862567 2693.95493259062 172 172 174
239.74540050951 270.37732355334 2706.17418880998 168 169 171
246.936436186635 271.435152416143 2721.54927572908 168 169 171
254.971416677639 272.509846066047 2737.50072968174 174 175 177
266.988420012106 273.699260600491 2756.56624266168 176 178 177
275.167003268463 274.755732902415 2772.37779005279 152 154 153
284.199455835492 275.827894266257 2788.7563609191 182 184 183
284.625495230118 276.627953751368 2798.13408996773 2 4 1
285.870267035431 277.448026963199 2808.11275692712 31 33 30
288.732431229607 278.310851430507 2819.31316719545 31 32 26
293.223637243643 279.214988041827 2831.72396541559 29 30 24
290.592829488909 279.906466197821 2838.4852620322 28 29 21
312.729392817025 281.300408436556 2864.47559857709 29 30 22
263.75520561126 280.677489304227 2835.26400183123 32 34 23
298.823678870788 282.415335554677 2871.0341700762 36 36 26
298.69481368196 283.161148637757 2879.55403585602 28 25 16
296.17104784414 283.838586997653 2886.21111334249 27 24 15
292.851553799343 284.492846225711 2892.24487724937 30 28 16
292.781449875543 285.230971415732 2900.7075284916 32 30 18
291.923209776996 285.944943931115 2908.53913320119 35 33 21
287.014921110739 286.55230123907 2913.32336925975 37 35 23
275.579348758655 286.995048184485 2913.27767362328 39 37 25
264.113424032704 287.441369207096 2913.26125225371 39 36 27
264.096088609217 288.172326111963 2921.67256306448 39 36 27
267.390259253501 288.979495183199 2932.45221038486 42 39 32
264.957637417222 289.644514634465 2939.02061603973 40 37 32
260.885985326263 290.269142071885 2944.38841641138 42 41 36
255.163884000632 290.854877712453 2948.56706682634 41 42 36
251.927563875738 291.497516396418 2954.51995531256 41 42 36
252.857491701006 292.232121509322 2963.40698982835 41 44 37
254.648773095398 292.981617892215 2972.85339591138 40 45 38
240.599350482099 293.382088486956 2971.15847485512 38 43 36
234.881590079632 293.966819876779 2975.33296309703 40 45 38
221.607214174209 294.392737764184 2974.28155742153 43 46 39
204.088811540135 294.736079987449 2970.37151540034 43 44 38
194.944842700891 295.258364679054 2972.2891959085 43 44 38
188.317773956669 295.833749024923 2975.95111294711 46 47 41
189.306911227233 296.560418095836 2984.78052455199 41 44 37
203.058553774058 297.530814724528 3002.1558859022 42 45 38
202.430769036995 298.214378396802 3009.76313944482 41 44 37
181.355355663706 298.51129358412 3003.72414845272 32 35 28
173.883687801657 299.069379651065 3006.81041226116 32 35 28
162.974184300465 299.566630531168 3007.65083829701 43 46 39
153.755962185522 300.097673301836 3009.64129680733 42 45 38
148.821969623366 300.706192343154 3014.45088551081 41 44 37
143.026369196922 301.299763719189 3018.70136350111 37 40 33
106.108191277934 301.369016256071 3002.9217255714 31 34 27
104.568799148701 302.043583389351 3010.01897693928 32 35 28
103.045481223966 302.716107667241 3017.10023047562 36 41 37
97.1871730039302 303.317317293029 3021.41151145998 36 41 37
209.369715088592 242.829426649917 2468.3430767621 200 202 201
216.99511815765 244.131346315898 2486.0845725612 207 208 210
222.470992469491 245.326102341106 2501.72569297824 200 200 202
228.005640453465 246.513255658084 2517.30923610498 198 198 200
231.367418166442 247.596143676361 2530.81515394421 193 193 195
234.030391623815 248.640919488357 2543.6033805472 191 191 193
235.988903458495 249.648297999381 2555.67976594242 186 186 188
234.987526416106 250.524626216861 2565.04675881105 185 185 187
235.513751559909 251.46018494389 2575.72222236067 182 182 184
238.332812356351 252.484531614133 2588.3584713468 181 181 183
239.684051134765 253.44171519948 2599.62839733441 175 175 177
238.797945098032 254.302745080372 2608.88318547788 171 171 173
237.93564264335 255.160551304127 2618.1144749256 165 165 167
239.382177840201 256.105190542294 2629.29162421 165 163 166
240.100962373888 257.015397917502 2639.77962035764 165 163 166
238.555035067748 257.832811479023 2648.27882008882 166 164 167
236.261873612528 258.618249380565 2656.10785104704 165 165 167
233.985154696642 259.40143923658 2663.92122442278 165 165 167
234.038409494461 260.268808904145 2673.65918567125 165 165 167
234.119620667442 261.132506804346 2683.36992851152 166 166 168
235.779251578165 262.049146791918 2694.33960887892 165 165 167
238.251701906246 262.98921427237 2705.9155942937 165 166 168
242.321898334985 263.979815225182 2718.7313440218 166 167 169
251.906812897878 265.157509468523 2735.96262356355 169 171 170
266.264314743662 266.489823708407 2756.93393220392 152 152 150
276.010160532453 267.647095629475 2774.00808522767 189 189 187
287.404638534179 268.848681077183 2792.27306689225 62 63 58
291.782130925999 269.800188678157 2804.78944516666 4 6 1
292.253591964045 270.613732842918 2814.12041466416 30 32 27
290.374744174691 271.345200343323 2821.54600282922 24 27 20
310.762043121183 272.799700061554 2846.43027791749 24 27 20
309.76707891373 273.545711703065 2854.39325416153 23 26 19
295.217220946232 273.8568951228 2851.79122225554 21 24 17
283.023137818363 274.249186027273 2851.08928709537 15 18 9
298.076651295152 275.493401424643 2871.38212902566 25 27 16
297.945572299797 276.256108060073 2879.90169628842 27 24 15
297.838622731843 277.015669602332 2888.39776751648 31 28 19
294.522692456978 277.675256801263 2894.42686723337 38 35 26
293.646145659219 278.405558709756 2902.27457513072 39 37 25
288.729136129779 279.014546140522 2907.0672302039 39 37 25
282.998948614338 279.599841695344 2911.25397536936 41 39 27
269.1055443567 279.952808706929 2909.41080894641 42 39 30
258.442232188561 280.402911730142 2910.01406962381 42 39 32
269.889444941414 281.471007623422 2926.82916743909 42 39 32
280.59333404636 282.506752813566 2942.97026872717 44 41 36
283.134236860116 283.310230566 2953.0815583962 42 41 36
271.673760096533 283.734282195898 2953.06301852597 43 42 37
256.872815309523 284.074703081249 2950.70633610085 42 43 37
243.685282848226 284.463829884431 2949.57413130773 42 43 37
242.101011673976 285.156215350599 2956.71297684694 42 45 38
242.200153253367 285.888645936965 2965.00840646252 40 45 38
242.323402059194 286.618037424391 2973.28034642338 37 42 35
239.958545960238 287.282502499406 2979.7812037939 40 45 38
234.249352507567 287.863854104851 2983.94768445867 42 45 38
205.824885479925 287.90177040557 2972.49183276319 40 41 35
194.998410272359 288.370775148812 2973.25398524278 39 40 34
194.286821833161 289.078851441086 2980.94117198793 44 45 39
195.289345041506 289.823219003554 2989.75467532939 41 44 37
198.017796676803 290.602434074326 2999.6833122599 43 46 39
190.571327159696 291.149882228659 3002.74578817615 42 45 38
187.378306961854 291.79213358789 3008.65573644114 37 40 33
177.355721329951 292.285545854678 3010.03325442682 35 38 31
167.310900168787 292.781658067791 3011.43245357086 43 46 39
155.526376099722 293.244541327138 3011.72995816741 45 48 41
152.317371605929 293.888571885547 3017.6555161097 34 37 30
140.492199898132 294.356433707851 3017.99298642496 30 33 26
93.3603389292075 294.843253663097 3003.79217671943 31 34 27
95.2848650684066 295.59734337054 3013.10558990978 37 42 38
46.7696602606038 295.387199824317 2990.46243107896 34 39 35
51.261970498643 296.19622838024 3001.46894255768 40 45 41
189.401977256574 232.996833444535 2440.02904620629 6 8 5
209.43816710456 234.9711765909 2469.43654882521 220 222 221
220.015454070469 236.464640509088 2489.88644523392 208 209 211
225.498609091983 237.699255628667 2505.51444464188 198 198 200
229.55658551373 238.855934430983 2519.73502994365 196 196 198
233.665733215344 240.005955889501 2533.90578536057 191 191 193
236.334130140209 241.08003363551 2546.68429556712 189 189 191
238.298079584446 242.113999731696 2558.75135170219 184 184 186
237.302260226357 243.006079617351 2568.11049761848 182 182 184
235.578619447488 243.861009251943 2576.78096243794 180 180 182
236.136069317618 244.814315687719 2587.42245842713 177 177 179
238.236696750775 245.830328983554 2599.35644471479 171 171 173
240.376898506108 246.841191142996 2611.25189445121 168 168 170
237.999137134647 247.649087973514 2619.16161495699 163 163 165
237.160705119876 248.520221018264 2628.36756884868 162 160 163
236.346286283467 249.388149913849 2637.55015087113 163 161 164
236.321278196754 250.285110934013 2647.36145473188 164 162 165
234.022041976545 251.082386053377 2655.19476848592 163 163 165
232.508503625613 251.909236780223 2663.66074853886 162 162 164
229.472529761679 252.670294031414 2670.81409733148 162 162 164
231.8614153006 253.648537818743 2682.46742137573 163 163 165
234.289970825292 254.621618409762 2694.08211565584 162 162 164
239.089515185826 255.681936060074 2707.58055516819 165 166 168
242.382205493361 256.674613881771 2719.75116369026 165 166 168
253.528690181165 257.96464784663 2738.24933372937 160 162 161
268.672092353956 259.394529303732 2759.84238281091 149 149 147
278.423394294288 260.602845497531 2776.9039113163 111 112 107
292.970434020633 261.979168079629 2797.68050162563 27 28 23
302.093895540749 263.137801835348 2813.95558083242 18 20 15
312.078957333422 264.316589916642 2830.78934659096 21 23 18
311.041347268418 265.082071295642 2838.79179318327 22 25 18
318.76448240779 266.159532521558 2853.63525797378 23 26 19
313.009326295898 266.746855356994 2857.84649769343 21 24 17
303.258452120051 267.193763303728 2858.9610755048 19 22 15
298.287733058574 267.810656824326 2863.80589642064 20 23 14
306.958692827688 268.897168254536 2879.12440472787 22 25 16
301.218276745758 269.482056224631 2883.32102940991 36 36 28
299.506234460127 270.202962207561 2890.5825382316 35 35 27
293.769538063015 270.787161823479 2894.77590879207 35 35 27
290.460377374453 271.451573062337 2900.79791106068 35 35 25
284.723261083917 272.035529064063 2904.99139674561 35 35 25
278.983315759435 272.61974021932 2909.18799183347 36 36 26
272.424435291216 273.178228487205 2912.78469413895 33 33 25
269.947993275011 273.86603358808 2919.39290832921 33 32 27
277.322605595042 274.857910479035 2933.17853928305 33 32 28
287.221522963521 275.918048593251 2948.69813698187 32 31 29
287.306371287274 276.669396773487 2957.00496399949 34 33 31
275.855906321123 277.071062379448 2956.98012875297 35 36 30
256.098935490732 277.231219714942 2951.0690268941 36 37 31
236.273277766171 277.399801953828 2945.22522478148 36 37 31
228.850977807768 277.937377509583 2948.26515913441 33 36 29
232.25260179083 278.785502317977 2958.93205046086 30 35 28
239.035239333504 279.722909976969 2971.8963244886 34 39 32
244.198520789955 280.60675898507 2983.64274035821 34 39 32
238.498956408175 281.184685362137 2987.80016546051 33 36 29
219.337377102615 281.397478980359 2982.7069607141 31 32 26
193.366278719659 281.437445100113 2973.06564051979 30 31 25
201.946119288283 282.405963197257 2987.07482374347 33 34 28
198.730811084344 283.056948976562 2993.00527554253 33 34 28
198.071135880942 283.772471134679 3000.63981118139 32 35 28
193.177267530561 284.377243937944 3005.41010964178 29 32 25
189.13700814019 285.003250505443 3010.74653276286 27 30 23
177.409177145965 285.438142926026 3010.99221517375 22 25 18
164.794408213187 285.855795134507 3010.70394100508 24 27 20
156.438747883634 286.38101148207 3013.25563337202 30 33 26
144.626185883072 286.826244817273 3013.5835887001 21 24 17
134.508803468969 287.315555166004 3015.05618539554 28 31 24
112.26728439848 287.528009563601 3008.7703907071 29 32 25
96.8801311693226 287.907760863029 3006.99000891276 31 34 27
82.3154676020095 288.31259359336 3005.80574717676 28 33 29
50.305782783278 288.337504366896 2993.66092616318 40 45 41
108.012525499343 215.35679835131 2308.07140741648 22 23 15
184.218570695474 223.738003700829 2425.28970540514 13 15 12
203.421494499525 225.780950981951 2454.09726670276 215 217 214
216.132209479818 227.459578294685 2476.65267412361 205 209 210
224.512026970688 228.895557488626 2495.04212062759 201 202 206
229.266362558688 230.131433683099 2509.97675280293 193 193 195
231.107576669928 231.208691062086 2522.15928850534 191 191 193
232.244189690316 232.24317137036 2533.63057877954 186 186 188
234.162405598873 233.310367636329 2545.73813758702 184 184 186
236.120121693839 234.372392627482 2557.80723643764 179 179 181
236.617831046548 235.35549274101 2568.50398999319 176 176 178
234.891782083923 236.224463997702 2577.17443298712 173 173 175
234.693300132429 237.163505720184 2587.15177945059 169 169 171
235.278429600759 238.135054419652 2597.76343083297 163 163 165
