ply
format ascii 1.0
comment KinectMotionCapture
element vertex 803
property float x
property float y
property float z
property uchar red
property uchar green
property uchar blue
end_header
7.36949498846684 210.333643910166 2719.29594172004 23 24 18
-4.5191562097604 209.886680562553 2720.55651725725 24 25 19
5.86371887149229 209.227789235747 2699.67204375998 21 22 14
12.5685316735997 208.596120179195 2682.296879932 13 14 6
-25.7213514343921 208.41705060648 2710.11959049002 14 16 5
20.7614489057195 207.36545840543 2652.4111543946 158 152 140
2.4420659020028 206.983149248444 2660.12649578748 144 132 120
-2.38339806212684 206.458187354767 2654.15538720847 113 95 83
-12.851686717412 205.99653406872 2653.97517172224 152 126 113
-21.1888508750162 205.512450017416 2651.63433588396 158 129 115
-28.8140720992138 205.02103904434 2648.5742344532 154 125 109
-30.1543770879342 204.453376921026 2638.95389808435 150 121 105
-30.1359760034627 203.86570514062 2627.8480476559 146 119 102
-32.9308026458584 203.310398829478 2619.64372781931 146 120 105
-36.4395326023568 202.762358554697 2612.15695766799 146 128 114
-39.2781568499103 202.203579672449 2603.92057594645 156 142 129
320.199787897966 222.55702878692 2842.38477225516 20 25 19
313.925040297628 222.043282502085 2837.83347158371 10 15 9
294.763570183052 221.568938551303 2843.7025687783 5 8 1
288.522236403228 221.057884222618 2839.17550413372 17 18 12
278.275266861418 220.56086406758 2837.92021734965 13 14 8
263.256544813473 220.083613082477 2840.61669420362 11 14 7
231.556478043256 219.677134921895 2857.15869730153 11 14 7
197.886514425337 218.76719531136 2866.09435790332 12 15 8
153.093030976018 218.451596733181 2894.1422192277 13 16 9
145.541456162775 217.970023243155 2891.13584995774 17 20 13
131.71270876998 217.521743300822 2893.46007494939 19 22 15
124.194401690149 217.042879804167 2890.47783589601 20 23 16
128.40279187518 216.498016890726 2877.46917382688 18 21 14
120.088179603522 216.022372687234 2875.1447290815 16 19 12
109.455280418202 215.562123008463 2874.84489654161 14 17 8
118.214256143159 214.979419997185 2857.72434512491 14 17 8
90.5826348067853 214.632394068719 2872.27521680917 16 19 10
74.6270196503378 214.215242666732 2876.76319200616 18 21 12
95.5957240054324 213.53768547021 2848.73090005749 20 23 14
88.0715398703464 213.058405610352 2845.74439849237 19 22 13
86.6647856200631 212.532724077133 2837.31114090488 16 19 10
60.101137349934 212.204800638089 2851.40126918521 17 20 11
66.3048160158195 211.618197493242 2836.13371300732 18 21 12
61.0808045932534 211.122079747462 2831.10887160077 21 24 15
46.0374162644084 210.71133150489 2835.02313529703 22 25 16
63.4122603960341 210.013281171022 2809.32591456764 23 26 17
43.1240942478368 209.652024322064 2818.08422293565 24 27 20
45.3676720912157 209.083338356182 2806.12147353585 20 23 16
34.1318019567298 208.64239129746 2806.61996336467 21 24 17
21.4377897951854 208.21890610759 2808.53187110302 23 26 19
11.7492662701131 207.767888041518 2807.68164676396 23 26 19
32.4014266375996 206.996331047392 2778.18437256658 25 28 21
27.6502330512121 205.923827957266 2762.38344877767 15 18 11
20.8424139659096 205.435188820183 2758.68117148934 13 16 9
35.9591249137319 204.689448622776 2733.81710800091 17 20 13
40.0196001671405 204.064602318362 2719.46548300333 19 22 15
29.4910470245395 203.613503245004 2719.2416339633 19 25 13
22.6082101945382 203.118913789586 2715.48494457135 18 21 12
38.3598335033923 201.741911612181 2678.7266954137 23 24 18
14.1771467404346 201.472771101154 2692.07276351452 20 23 16
-10.6118451194743 201.222446535693 2706.21473452406 14 17 8
1.79248367395379 200.460267259556 2683.08972842426 15 17 6
5.55059962279403 199.811116069287 2668.5190880821 161 155 143
8.53720078691245 199.167274619373 2654.62422373165 147 135 123
-3.37027408008894 198.740548029345 2655.87125609281 105 89 76
-12.4263679508432 198.273692105949 2654.24437665582 140 114 101
-22.167896118972 197.819186614171 2653.35571045533 146 117 101
-28.3893873319681 197.310927163016 2648.84304426751 143 114 96
-30.4262816791552 196.734932006562 2639.95302430452 142 113 95
-33.1859259598097 196.168224068761 2631.77385668427 141 114 95
-34.5823679254287 195.576395848947 2622.1127030168 140 114 97
-37.3926417659263 195.005668499909 2613.89681258903 143 124 109
-38.848548820726 194.409120028397 2604.19252750036 151 135 120
343.305751067946 214.609321682129 2824.51084544864 0 4 0
328.08488287924 214.145106388656 2827.06114275653 21 26 20
317.744559653562 213.653585035711 2825.73820974727 13 16 9
297.785548247478 213.228258426254 2832.26443715097 16 17 11
289.115841854862 212.73119612811 2829.68246861235 11 12 6
262.881772930249 212.36127074843 2841.54122998732 12 15 8
153.929527223398 211.549488009994 2903.35949802617 12 15 8
168.514387485335 210.893095358391 2881.81603602987 13 16 9
152.253388252301 210.485912706687 2886.08238780918 14 17 10
128.976097756867 210.144645233027 2896.37932176156 16 19 12
131.653038524804 209.580477663656 2884.73074928076 18 21 14
139.750762358424 208.962083132835 2868.36540362381 19 22 15
129.84652848321 208.506213894092 2867.35907615332 18 21 14
128.510575015071 207.969226090535 2858.97708629528 16 19 10
122.498246116177 207.476275632527 2854.61612387577 16 19 10
110.304010598948 207.046374327336 2855.65496676422 17 20 11
88.1280633678845 206.724201825686 2865.51534804337 16 19 10
93.6999848290676 206.112473994553 2851.02443247612 16 19 10
97.6728353245879 205.512145755995 2837.84474171659 17 20 11
72.5613618876153 205.23428332689 2850.51776283492 19 22 13
70.4082459147908 204.701625632884 2842.77845300017 19 22 13
66.7129200455516 204.185044014388 2836.39190594006 19 22 13
57.7028123626113 203.731367943811 2834.79842963056 19 22 13
47.19896952346 203.297744328745 2834.59258213349 19 22 13
41.9905931344955 202.799629689149 2829.5790647818 21 24 17
42.7817604539618 202.22356093408 2819.03376233738 21 24 17
36.0478740993204 201.742902232134 2815.38482640876 22 25 18
33.7948516204847 201.202233144698 2807.57305163642 30 33 26
22.5899164753098 200.78249944724 2808.09407434903 30 33 26
21.058680178355 200.229866210562 2799.57073503066 23 26 19
52.045274903314 199.208928003415 2760.27186448786 25 28 21
55.5245917981959 198.568506019509 2746.73419760598 22 25 18
48.6516590652419 198.076712856237 2742.98470206911 14 17 10
36.6509069415715 197.663165449611 2744.16388803442 13 16 9
70.7280377990229 196.539639129954 2700.92941583734 16 19 12
38.2544017903594 196.442251793832 2721.8526486853 18 21 12
27.0050877159393 196.019246921584 2722.34177807289 17 23 9
21.5797025220783 195.503858335693 2717.17085891139 17 20 9
27.7013323529798 194.795499689981 2700.60787596018 17 20 11
14.311325544285 194.410819817144 2703.25047551132 19 20 14
18.9049622012281 193.719783153309 2688.05027317399 17 19 14
7.69205003375006 193.300000666234 2688.56551292577 13 18 12
62.1254546017163 191.708987302635 2623.03162088263 16 21 14
60.7233182735913 191.096459558556 2613.36623440308 5 6 0
20.3047756929506 191.202905278018 2643.35239036037 155 145 135
-0.118251022910965 190.954267772764 2653.2485424932 104 90 79
-11.297138780578 190.53759552765 2653.78875749678 141 117 105
-20.3394222494413 190.082447992067 2652.17194882014 140 112 98
-27.2651491248408 189.587203969517 2648.38386972642 137 110 93
-26.5120147646101 188.938059538844 2636.57529512926 142 115 98
-31.3685863803412 188.398916332538 2630.58156411859 143 116 97
-31.3817268018561 187.758354330498 2619.45287515694 140 115 95
-36.9645695959737 187.231038868405 2614.16775120873 144 123 106
-36.3525368415962 186.570665269425 2602.25683216828 142 125 109
331.587791173206 206.834249908514 2834.50388579904 15 20 14
296.201871229997 206.595643978013 2853.3152265716 21 26 20
294.81071840063 206.037202231128 2844.89311285014 16 19 12
286.161147201175 205.549425784506 2842.32578777742 15 16 10
281.530374895523 205.021226351233 2836.4957989378 13 14 8
268.099968528362 204.585290100184 2837.87381573398 11 14 7
277.818070516912 203.901932086182 2820.21271447087 10 13 6
289.856337026007 202.594366761795 2790.6438074211 10 13 6
154.238121330134 203.014474481606 2885.01324560764 13 16 9
137.240831751381 202.655956871774 2889.98142240637 16 19 12
136.762604925865 202.098291794956 2880.9860755327 17 20 13
140.160529227079 201.488513247916 2868.62459726691 19 22 15
138.049182677265 200.944896249777 2860.9158059443 19 22 15
134.360652462042 200.419930564272 2854.53384825484 19 22 13
131.432959421503 199.883368381691 2847.46834230263 19 22 13
125.395532393607 199.387772321225 2843.08917231329 19 22 13
90.0751123343539 199.30252140955 2864.41884538137 16 19 10
94.1080255308129 198.67087657153 2851.28253673081 16 19 10
85.8238109241696 198.21305654639 2848.98021818449 17 20 11
72.2037785656227 197.835633514607 2851.45610406289 19 22 13
67.0063308797704 197.335016650731 2846.45079096408 20 23 14
63.3227044935061 196.810575185668 2840.07239082016 21 24 15
53.5654391828042 196.380039462155 2839.1727323178 20 23 14
43.8293513367864 195.951246330967 2838.28814016109 20 23 14
36.3729323656186 195.487470762147 2835.35084154176 18 21 14
35.6815648825415 194.912546383032 2826.200897035 20 23 16
39.4500184167126 194.259410151236 2812.87276707325 23 26 19
37.1889746692822 193.703805011781 2805.05510185807 31 34 27
28.9511060487109 193.250068119361 2802.786401188 30 33 26
28.8873570690473 192.6527550451 2792.85628069606 23 26 19
53.9409462201461 191.599435827175 2759.13746024462 25 28 21
68.4820096908267 190.720001901478 2735.0904570592 22 25 18
49.8052681419368 190.44629622705 2742.54699723729 14 17 10
57.5975499761645 189.679481401015 2724.72473622629 12 15 8
67.4982006236 188.86359203781 2704.72492934896 15 18 11
36.4879184417717 188.836517972532 2724.23896703067 17 20 11
33.2368826625653 188.274149756897 2716.93893231408 17 23 9
48.8014213048653 187.330968980174 2691.16347197384 18 21 10
40.4003460924072 186.86432418871 2688.77639398126 18 21 10
30.571447156222 186.428639634219 2687.82448617818 18 21 14
17.8921613560958 186.055255224568 2689.74732314052 15 20 14
11.6917399924183 185.547283750575 2685.24993239479 9 16 9
24.7512372150074 184.620979971862 2661.36400391911 13 20 13
46.9648164814629 182.818306447085 2616.93675870774 159 150 141
0.307335099758443 183.210488591652 2653.51783518778 115 101 92
-8.05414729186515 182.747611358495 2651.1594779594 142 120 107
-15.7012068593108 182.269414888127 2648.08390685865 143 117 102
-20.5398205056844 181.725632608461 2642.10317046539 139 112 95
-24.6904407460335 181.164345206104 2635.38604987857 142 115 98
-29.5512283308887 180.618911372092 2629.38952523567 137 110 91
-28.873708888935 179.935800671878 2617.52596372469 134 109 89
-30.3152556097004 179.300969693593 2607.83189484018 139 118 101
-28.3432621723034 178.576197602533 2594.43614639537 133 116 100
335.258436934096 198.945654815354 2832.1844169634 8 13 7
268.346615748128 199.212085091781 2876.314185023 14 19 13
306.517496275037 198.121272861229 2836.04781950659 21 24 17
276.13918842694 197.93089786264 2851.07872072458 12 15 8
281.154186515813 197.266895939768 2837.41914584704 12 15 8
270.921656742575 196.81032712551 2836.17453165338 11 14 7
268.68048693209 196.241794735965 2828.37150247718 11 14 7
265.621901989797 195.682923639393 2821.21070271595 10 13 6
237.179312558296 195.497804673402 2835.17480088885 10 13 6
194.848980791047 194.940001461734 2851.42044579032 11 14 7
146.294122429852 195.10063075204 2882.91979045744 12 15 8
136.386221435222 194.670659208289 2881.91064131373 14 17 10
139.788020938254 194.027748417683 2869.55209892012 15 18 11
136.900391269344 193.482898368271 2862.5152993043 16 19 12
131.662019177353 192.975493561838 2857.48028484785 19 22 13
122.542787169487 192.533499204472 2855.80776115655 19 22 11
119.62343410248 191.986089564401 2848.74824608464 19 22 11
92.7929378317312 191.856592400666 2862.64593562271 16 19 8
85.293169069752 191.394002372809 2859.67721781989 15 18 7
73.2032559506472 191.015411064727 2860.79194613635 18 21 10
62.6756622892817 190.611505186306 2860.56903168758 18 21 10
66.6503475169766 189.938908609525 2847.39030491119 21 24 13
61.4498560510448 189.434751787705 2842.38276738065 22 25 14
56.2438751698529 188.930165197984 2837.37124827899 24 27 16
42.7235974790987 188.587887355069 2839.91962646225 24 27 16
35.2714759054988 188.129370961778 2836.98517527987 21 24 15
25.5740900916939 187.71700154812 2836.12901671864 23 26 19
36.1142364896949 186.892308372057 2816.59274936536 25 28 21
42.8236407789706 186.1372081244 2800.45561990732 26 29 22
42.7578154903747 185.517181023701 2790.5238792037 25 28 21
32.265729330037 185.116492285391 2790.32642671863 24 27 20
40.2975534100079 184.316471155459 2772.67764679717 25 28 21
57.0980298999659 183.314686044703 2746.5625162302 22 25 18
45.0739530046329 182.942006129594 2747.72529504968 14 17 10
19.8837554732401 182.870990768759 2761.57703726526 12 15 8
21.1283975410979 182.205206038498 2750.12468280825 15 18 11
22.3278537946308 181.53578315728 2738.63955376218 16 19 10
35.1101086711902 180.588417980175 2715.78757634228 15 18 7
70.9620419384773 179.077288585043 2670.13262311467 18 20 9
63.9391930411293 178.577888180097 2666.27411714165 17 20 11
69.1619435276767 177.778176576091 2650.29409127914 13 18 11
42.7237584337545 177.758745028965 2665.71206417189 11 16 10
6.38787369460658 178.002078994787 2691.24800504046 9 16 9
-45.4613318349599 178.661582335507 2732.71268928183 9 16 9
2.85328891748282 175.410663879593 2651.61853942911 119 106 98
-4.10591850384834 174.917071748346 2647.80649241731 108 88 77
-11.0615966843002 174.423844782314 2643.99671120015 120 97 83
-14.5126059356289 173.834403110904 2636.55157431359 124 97 80
-17.2841655292917 173.224020539981 2628.36354780804 130 103 86
-21.4706329175074 172.651166265665 2621.62038227023 127 101 84
-23.5905664991769 172.017691634131 2612.66987424914 129 103 86
-25.7378533066728 171.382028067761 2603.69923172649 134 111 93
-23.0880696821627 170.60269712355 2589.55951487253 118 100 86
327.584987123116 191.217609392146 2838.93387508533 0 2 0
271.998047185771 191.504995941882 2873.98170667777 20 25 18
308.712428316085 189.665085509121 2825.24489060622 18 23 16
287.991593893439 189.394593477224 2832.45467714396 15 18 11
274.543124028147 189.00528018463 2833.81983547933 13 16 9
287.440780394923 188.153995945057 2813.52236946679 11 14 7
268.43229060725 187.864955753561 2819.50300948817 9 12 5
258.213775764895 187.422601622955 2818.2689214942 9 12 5
201.369626687674 187.845443503487 2856.11146582354 10 13 6
216.552194087523 186.943057040329 2833.76471737384 11 14 7
160.067720395806 187.395487607315 2871.86844241554 10 13 6
140.713129589512 187.157641842656 2878.83377683844 12 15 8
137.069238286913 186.618720257257 2872.48410816 17 20 13
126.394276215909 186.218469029921 2872.15438171762 17 20 13
105.637760468735 186.024637114588 2880.57372702954 16 17 9
112.097807623619 185.281161909953 2865.49122325259 18 20 9
107.663793906388 184.75692348171 2859.80388897602 21 23 12
107.074230174137 184.150598852402 2850.72758513237 20 22 11
93.3853263767337 183.821171732269 2853.15378774371 19 21 10
73.6074527694273 183.62825745094 2861.04753964687 18 20 9
66.1360549582231 183.172954395067 2858.09942546169 16 19 8
71.6282778971533 182.429614269955 2843.55006809258 18 21 10
63.375228808161 181.989725435656 2841.27043292013 19 22 11
54.376496002738 181.568204826806 2839.68565985287 21 24 13
35.5727845255678 181.375890056592 2847.05056908126 24 27 16
31.908949421418 180.835561904202 2840.68643559091 25 28 17
28.9818437558647 180.276217700164 2833.62124004394 25 28 19
34.2741693580129 179.516631385617 2818.92689053923 22 25 16
42.4863130079061 178.678580960244 2801.40834101932 19 22 13
46.1465447274381 177.944185902779 2788.0013471626 21 24 15
54.2023215758429 177.093381297311 2770.36967388585 20 23 14
48.1113021073587 176.592689385811 2765.95162778111 25 28 19
54.5637650272526 175.769424157801 2749.62759629492 22 25 16
38.1330925982342 175.5337169727 2755.00744249375 15 18 11
28.3646919748839 175.129011631576 2754.09954812456 14 17 10
18.6170175527698 174.726085317998 2753.20698210912 14 17 10
28.5761276881309 173.793181397887 2733.24896106038 14 17 10
36.9833021158574 172.892037120751 2714.63643730149 17 18 12
80.8113761592066 171.000828011362 2661.17505273376 15 18 11
60.7548952394126 170.865561672729 2670.10245935474 14 17 10
39.3405118604471 170.777994983023 2680.51580837052 12 17 10
39.5600802139988 170.079996712581 2669.55522956312 12 17 10
13.9670083042596 170.126861233193 2684.35114221216 13 19 9
19.1799987373744 169.282111192884 2668.36381295006 10 13 4
14.4965548781757 168.022985646223 2651.37572599848 161 152 143
5.39956118778218 167.594737026043 2649.71968744 127 114 106
1.25316746755955 167.016115317631 2643.00554294614 93 73 64
-3.61010391427685 166.458267235733 2637.00686038817 103 75 61
-5.68159697451698 165.811522653437 2628.0911062429 102 73 55
-9.87525708246517 165.229280943843 2621.34267899984 108 79 63
-14.0832458486884 164.645975536831 2614.58385921878 111 85 70
-17.6117971147201 164.038990388293 2607.08242160976 117 91 78
-19.0842186991944 163.362257155602 2597.36575863446 115 93 79
-17.8310579344274 162.591190130744 2584.68400965787 77 60 50
336.928529368205 183.21375064407 2832.0800863081 8 13 7
350.821685545274 182.295790399121 2811.26890499675 11 16 10
313.820062989064 182.382964949221 2831.38071186511 11 16 9
311.552256975081 181.783732122428 2823.55821803278 7 12 5
308.460283520915 181.199057731486 2816.37308352797 10 15 8
300.552450391355 180.712685166301 2813.10843069333 13 16 9
303.018047648872 180.008256944526 2801.30594034368 12 15 8
287.146209387265 179.690811739633 2804.61982112495 11 14 7
261.810178435322 179.583807670829 2815.89588451045 11 14 7
250.021611283795 179.190203484925 2815.99395227747 11 14 7
243.782905818116 178.676232996677 2811.46877818298 9 12 5
221.029175026175 178.534389209957 2820.91093075181 9 12 5
174.056483047033 178.955084515922 2851.0881711446 10 13 6
132.00287141542 179.28599227166 2877.42009433881 14 17 10
115.103980285852 179.048921942565 2882.4602174277 15 18 11
105.263907795318 178.650832516876 2881.50069458039 14 15 7
97.7712980927281 178.198580208077 2878.53692441806 14 16 5
100.338234668382 177.502488556847 2866.80793932919 17 19 8
99.7717158793265 176.878292961998 2857.74825073671 19 21 10
93.7916250736066 176.385691352066 2853.41066016592 20 22 11
72.4777412509003 176.280044368476 2862.66173524535 17 19 8
58.8950938304942 175.986251808283 2865.16514586806 17 20 9
63.6492274302358 175.22291229846 2851.31596159077 18 21 10
71.3810706038824 174.374877464429 2834.68421806171 18 21 10
37.3506956514023 174.624365931767 2855.71602572739 18 21 10
22.3734191596483 174.380809122279 2859.67876768581 20 23 12
30.0513421970496 173.528446386162 2843.00820885462 26 29 18
27.8828875403838 172.93755048801 2835.25748469263 28 31 20
33.9309622712145 172.116009658415 2819.87564341876 26 29 20
30.9451784192132 171.540381310545 2812.76782831978 18 21 12
32.4087038795704 170.836311281413 2801.47395318261 19 22 13
32.3421381160149 170.171244569121 2791.54144755838 18 21 12
45.5639545892721 169.115842247824 2769.0075704912 23 26 17
45.3852554543843 168.441643783645 2758.9934362619 21 24 15
31.9248107379582 168.158452995147 2761.58548793273 15 18 11
28.7783105170751 167.569924316668 2754.36110076537 14 17 10
55.6027677059459 166.067786521218 2718.21834262751 14 17 10
18.0535830981041 166.523001853373 2744.11114085526 13 16 9
32.3133836771232 165.388506011224 2719.85895225834 15 16 11
47.1735090101397 164.221046241711 2694.80674828916 15 17 12
44.5611708617157 163.594387888196 2686.73435684419 16 18 13
36.8827429554632 163.127963453871 2683.63581131586 13 18 11
29.9300771599458 162.638933974794 2679.82852957895 12 18 8
9.37626746181985 162.597027185184 2689.63092146872 14 17 6
-0.383029171401983 162.206919933917 2688.72970071848 16 18 7
2.68767301667605 161.388815568991 2674.89492031907 46 42 33
12.0845145315718 160.349478094766 2654.52905411803 158 149 140
12.1896951540044 159.617270099572 2643.48537992419 128 115 107
8.02402129853164 159.028334016261 2636.75720660449 92 72 63
5.2496853233297 158.38911670797 2628.56702138708 92 64 50
1.7514627793549 157.772878736376 2621.08752284855 104 73 55
-0.368588447899665 157.105270497386 2612.1364621732 111 82 66
-5.99716754304924 156.561236091508 2606.81839279658 90 64 51
-7.46738789617063 155.864883576346 2597.10322616533 93 69 57
-12.4282317230293 155.293567395452 2591.03374304108 96 74 63
-15.3305130915089 154.64448832827 2582.75105200286 89 72 64
354.380998516715 174.965501249144 2818.75243856339 188 193 187
356.1053283996 174.254673861069 2807.64759189061 14 19 13
346.49751054851 173.803687434916 2805.62083634802 11 16 9
274.189215552064 174.836548468583 2854.48860733429 18 23 16
296.058830358359 173.654058205532 2827.10684701255 9 14 7
313.775822671061 172.555665956471 2802.89096009692 12 15 8
307.43561625245 172.032785705189 2798.2921606658 13 16 9
290.755494450734 171.766298449398 2802.2556886775 12 15 8
276.510961473766 171.444680169774 2804.27914339217 12 15 8
260.727323362664 171.166756730966 2807.65745700738 11 14 7
242.629266372793 170.953911966123 2813.06343850914 10 13 6
246.619013752281 170.173749572126 2799.89508576595 9 12 5
216.03950930139 170.296634459734 2816.01705310212 10 13 6
160.56632101883 171.096711274811 2853.62031030939 13 16 9
124.867341204542 171.394626163446 2874.67779261952 14 17 10
116.555877377142 170.965075461258 2872.35586372124 15 16 8
109.032233235335 170.515185605692 2869.36960799791 14 16 5
99.1960556598581 170.130570286856 2868.41297690665 16 18 7
99.4064148843288 169.465336598452 2858.68092479332 20 22 11
97.2733798054031 168.862869904184 2850.95611290778 22 24 13
76.71466397501 168.788426256298 2859.51945232575 19 21 10
61.5903186024891 168.565003206585 2863.37597737237 18 21 10
77.776031481005 167.425695576731 2839.2848627005 19 22 11
61.9048275725778 167.226031651608 2843.83513102955 19 22 11
35.477707550045 167.350301918656 2858.02652200049 18 21 10
25.0400025636521 167.001585097183 2857.86904931399 19 22 11
27.4388755766801 166.261155166119 2846.01800677979 25 28 17
26.7827350098151 165.610073364486 2836.89321326402 28 31 20
24.5964353340358 165.003482920848 2829.12947337088 22 25 16
29.8569275372724 164.15792573834 2814.41190617356 17 20 11
23.8783391460071 163.665266609288 2810.07540444373 16 19 10
17.8985915484335 163.17258078339 2805.73806224527 19 22 13
23.7643426162566 162.291768029418 2790.22375043312 20 23 14
35.4641651291931 161.209642146959 2769.05677983846 16 19 12
24.2410649669442 160.881928483337 2769.56510044215 16 19 12
37.9971546559799 159.713543600015 2746.18262604588 16 19 12
39.9273853054667 158.935036391402 2733.99166179211 14 17 10
68.0665300887711 157.246714378584 2696.33093243011 13 16 9
2.1889370848025 158.810548547895 2749.86314601232 14 15 9
13.5211212193793 157.698532414692 2728.42922063436 14 17 10
41.3704141142106 155.986579806849 2690.55825175904 16 19 12
39.4674864485958 155.318929104324 2681.76458837208 15 21 11
26.7611164860821 155.04011315215 2683.66827045498 15 21 11
20.5389754249588 154.528313510838 2679.15511524662 18 20 9
-0.677588572482346 154.571547734143 2689.71253028615 14 14 4
14.4973603815037 153.265182865657 2663.65280846757 41 34 24
14.6379794994953 152.510606912306 2652.63500557436 163 153 144
17.5673761373938 151.644865405878 2638.69754847451 98 85 77
13.3867784915398 151.04598279614 2631.95850619956 92 74 64
10.597870567751 150.391351033532 2623.75767938838 78 52 39
5.68338379329258 149.817475272815 2617.72208299297 99 73 58
0.759210312744951 149.242894038222 2611.67916644721 101 75 60
-2.08606230055297 148.583975312712 2603.43775243244 95 71 59
0.598471694961411 147.698733260426 2589.32269040339 96 76 65
-2.31053386611357 147.03478298856 2581.03475505185 87 69 59
310.219653995671 168.213444182398 2854.63675768546 116 121 115
351.68700014836 166.437532219833 2811.8158648152 6 11 5
304.997133673695 166.98931414508 2839.72842769613 13 18 12
343.772234263051 165.25545556834 2798.66148593495 22 27 20
304.504828365045 165.626811586139 2820.83762190441 9 14 7
281.412676991165 165.571023289513 2830.03517653618 12 15 8
276.757733246288 165.010411290301 2824.18750112838 13 16 9
282.433797160849 164.157065311231 2809.77115128155 12 15 8
278.524227264749 163.569818227735 2803.22864174265 12 15 8
257.988132650213 163.460582380049 2810.57316690419 11 14 7
280.918143579327 162.092852567843 2781.48909882863 11 14 7
268.284234531858 161.754706617315 2782.20967775088 11 14 7
190.704664128644 162.664185308665 2828.4906003735 12 15 8
146.335655318792 163.319256577932 2856.85108905691 13 16 9
138.742371830455 162.868552362134 2853.81464063723 16 17 9
118.745557599511 162.80383318518 2861.55032714337 13 15 4
99.6000282621221 162.72131570134 2868.66829593206 15 17 6
95.1835780608872 162.180375333832 2862.99360922444 19 21 10
93.8338173515616 161.540129469708 2854.60108718017 22 24 13
81.7193514577528 161.245008063111 2855.69873393479 19 21 10
69.6392059320461 160.952708906543 2856.82098007492 18 21 10
79.7068457331718 159.933258140896 2838.1765272264 20 23 12
47.8621427469661 160.300600543579 2857.08767325676 20 23 12
34.3613477242699 160.06737266961 2859.65072720147 18 21 10
32.9986736981258 159.426267382232 2851.2488396651 19 22 11
36.8848313578285 158.601635269267 2838.00516727543 22 25 14
25.6817121122199 158.293829358151 2838.5280733087 25 28 17
20.5030259517667 157.778452197428 2833.53628607623 22 25 16
50.43523805469 156.019868477173 2795.93999696158 18 21 12
34.7129976185676 155.867884146027 2800.59819912026 18 21 12
12.3618642935979 155.961848661748 2811.56872870651 21 24 15
24.9125015709892 154.795366226062 2789.78306798012 20 23 14
29.230362947676 153.918633083752 2775.6167518197 17 20 13
42.3193035014799 152.708588288167 2752.98576686818 16 19 12
19.3288660139181 152.838124242612 2764.72806802909 16 19 12
43.2705743613067 151.202371264831 2731.43560241873 15 18 11
51.7101471090191 150.137487491548 2712.84573552059 14 17 10
60.7879662310191 149.0372648195 2693.48303693531 14 17 8
46.56731803468 148.833638536741 2696.75973499613 13 16 7
41.0693121754195 148.29272897822 2691.53633677274 14 17 8
38.4488643958201 147.636950303775 2683.45762450588 14 20 10
45.8646866869512 146.576135069045 2665.36067629099 18 21 12
31.7056155210338 146.377952759068 2668.68204043008 19 21 10
31.8765444685516 145.600430760099 2657.68579907587 17 17 5
24.1756421552224 145.142469052349 2654.57100423561 64 57 47
26.4181715457195 144.271855647931 2641.37092883874 133 123 113
20.8243712593896 143.723690604517 2636.07775596333 68 55 46
16.635328662284 143.115419088882 2629.33283868335 79 61 51
12.4321707959303 142.506068400412 2622.57738900021 71 49 36
8.2147095819578 141.895633661039 2615.81156502421 107 84 70
3.28434248723486 141.314576293104 2609.76412579246 91 69 56
2.52270375838526 140.54912491929 2599.32723847399 94 74 63
6.58462470081922 139.565214103019 2583.73980612549 98 80 70
5.04281872782464 138.823728519973 2573.9725169428 89 72 64
332.709202115985 159.087116899702 2827.6641631525 11 16 10
372.365516285642 157.181270739525 2786.00012414149 8 13 7
317.661065373907 158.116293880072 2820.45593463965 11 16 10
306.535791147247 157.74242777564 2819.79990095135 13 18 12
273.83653098709 158.040786148327 2836.85617420224 13 16 9
263.619207342527 157.650943357481 2835.62292123624 12 15 8
275.699683759164 156.557708872004 2815.96687514187 10 13 6
316.241143818472 154.542964800863 2772.47357795141 10 13 6
310.632472274544 153.988355390351 2767.16988641903 10 13 6
302.651237250727 153.510486988429 2763.85206606003 11 14 7
291.530781325579 153.13685150224 2763.19923195243 11 14 7
274.158228137712 152.974021778055 2767.89665782714 9 12 5
174.833632689989 154.858804154521 2833.00246927237 11 14 7
147.709556534783 155.072249110056 2846.68936803336 15 16 8
132.341223401624 154.893199893888 2850.36895143054 14 16 5
102.324504175634 155.231371500151 2866.89998425635 13 15 4
97.9018412390316 154.683863834549 2861.22076053962 14 16 5
105.777631718107 153.6978499069 2844.69296306997 15 17 6
87.4925391092205 153.641584002082 2851.19948266898 18 20 9
86.8693027792049 152.953487558927 2842.09806017323 17 20 9
83.1634164708506 152.37439191941 2835.70324650257 20 23 12
69.5565787136587 152.159281777115 2838.18981405288 20 23 12
48.4098902963588 152.230377185156 2847.56298788487 18 21 10
49.2769210022979 151.483729114704 2837.07152193343 18 21 10
41.8104878383789 151.048675242825 2834.1268148161 19 22 11
25.3310762675154 150.960052008488 2839.47207398006 21 24 13
12.6599007318644 150.731483556368 2841.40122929055 20 23 14
17.9624061434915 149.806002226044 2826.71371353304 20 23 14
37.3549540765206 148.317286770004 2798.7700545869 23 26 17
30.5951305821845 147.849970646711 2795.10238385498 22 25 16
20.1349947894194 147.531586320316 2794.92880423831 22 25 16
42.194529397193 145.899741150847 2763.97704039794 19 22 13
47.8868675820943 144.915869202742 2748.33649587101 15 18 11
55.7100478898258 143.835360465342 2730.53475042434 15 18 11
47.3465618183395 143.417733679294 2728.1751698881 15 18 11
36.0761595554702 143.123732428265 2728.64966542661 15 18 11
47.3881986606446 141.877131930282 2707.20045479058 16 19 8
54.2413082784283 140.807791497084 2689.93087207431 15 18 7
37.1522970155342 140.760563537879 2696.06917123943 15 18 7
33.1040580531536 140.154420569235 2689.42604182365 15 18 7
40.5402698959372 139.042633172771 2671.34391072286 17 19 8
41.4433883519418 138.209388161595 2659.64313029181 19 19 7
36.5872433233441 137.627704577302 2653.64949304786 26 24 12
40.9779936911332 136.628253478168 2638.30035745278 27 23 12
33.9435288261072 136.139564984659 2634.43377955186 55 45 35
26.2049551458317 135.683734252031 2631.29168672756 48 35 26
21.295666226417 135.098114241172 2625.25979888126 58 41 33
16.3766167320998 134.511812644146 2619.22053745651 71 54 44
14.9527666272382 133.759853687857 2609.53870395024 74 58 45
9.30400060410186 133.204415801898 2604.20594287783 77 60 50
8.52619519509679 132.415158309875 2593.7569209282 75 61 52
5.62861325912101 131.723668441503 2585.47742178983 54 41 32
6.16896040637949 130.861811578175 2573.51351577047 71 61 52
329.240051839572 150.62040429722 2821.40101214867 7 12 6
306.020866328607 150.667984536769 2830.50670612841 17 22 16
319.799496521059 149.464304308963 2809.61105525867 14 19 13
327.866992730371 148.444237894392 2793.22176240449 13 16 9
321.49183828842 147.916681873174 2788.59760472173 11 14 7
363.656318093772 145.686559223137 2743.80970498877 10 13 6
320.642006088395 146.439881967153 2769.44733559487 9 12 5
308.691622133075 146.107228742418 2769.42840763611 9 12 5
306.915496369067 144.647433354526 2750.84177129707 10 13 6
285.575486318082 144.662849431778 2758.8391890181 8 11 4
290.925913193453 143.699123416765 2744.18621883549 7 10 3
155.123183828814 147.27496604741 2840.90795680368 17 18 10
135.077317598851 147.303715274072 2848.6085579048 17 19 8
117.430610490338 147.249778171178 2854.34283194349 15 17 6
109.879917832495 146.812434292981 2851.33732619852 14 16 5
103.106474666493 146.34565777931 2847.65978500918 15 17 6
96.3363992115474 145.879198895653 2843.98468675432 19 21 10
84.9794905845713 145.595758923629 2844.39623100129 16 19 8
78.9920581230992 145.100374440472 2840.05330421176 19 22 11
74.5248091935702 144.543305725018 2834.34200520567 19 22 11
70.8063092548357 143.954465643751 2827.93799828764 17 20 9
63.2923795953819 143.520373403162 2824.95886481792 17 20 9
48.9994684804187 143.369210449701 2828.18344368397 20 23 12
30.2428145962552 143.411266720128 2835.58365310132 21 24 13
19.0564052382314 143.142221592548 2836.11886881971 20 23 14
29.575963638345 141.950430045448 2816.56581736177 21 24 15
28.0733825984862 141.264029261135 2808.0625732918 24 27 18
25.8004727140602 140.607660788968 2800.23579567453 22 25 16
26.4678382679637 139.819670532321 2789.59937878698 22 25 16
6.41200020375354 139.942071603271 2798.52855656393 16 19 12
49.0374250035197 137.282146375316 2747.89685655964 13 16 9
39.9734322538254 136.907940522058 2746.2647203476 13 16 9
34.5861946288286 136.36929818258 2741.12163186506 14 17 10
26.2740051872274 135.963713179234 2738.79929834455 15 18 9
17.246418022947 135.592755303477 2737.19356976996 17 20 9
32.1748511169515 134.110363399699 2712.18928836113 17 20 9
46.2510480619036 132.651329375887 2687.80265219872 17 20 9
34.9666171684717 132.375164888231 2688.26677395325 15 18 7
57.49687389355 130.490915662921 2655.18489488673 16 18 7
44.0184267070034 130.314679094217 2657.76443792698 21 21 9
47.7291668864166 129.310886301016 2643.15736307187 19 17 5
48.5280279623046 128.44127998169 2631.38082006382 31 27 16
42.1815780327908 127.918050763911 2626.77749281082 50 40 30
33.0027074140777 127.53554958939 2625.0623316395 55 42 33
30.190935608986 126.836274089779 2616.8447041835 64 50 41
28.0593580689716 126.099683885405 2607.88493843079 67 54 45
25.9002371616055 125.360937040873 2598.90519497947 59 46 37
16.7236502945221 124.979113762178 2597.19169278212 63 50 41
9.65416016292453 124.490534791938 2593.29943039572 57 47 38
316.906188655234 142.464278570559 2822.29950111155 20 25 19
320.2279600741 141.580673921127 2809.88172549 17 22 16
357.908455266571 139.390889211735 2769.25400819003 13 16 9
375.394751884741 137.942371755865 2744.86911158894 10 13 6
340.219625635432 138.504838148254 2763.83731879802 9 12 5
279.802639918548 140.066436813931 2804.03634109762 10 13 6
297.251385124563 138.614747428884 2779.623912133 10 13 6
283.783874712754 138.368083337644 2780.97599011618 9 12 5
295.543108549047 137.121017663908 2761.08628923436 9 12 5
298.566030502676 136.212515821053 2748.4517451485 10 13 6
244.395259030166 137.615530881881 2784.53183836198 10 13 6
207.663082268618 138.338667328843 2806.07752461576 11 14 7
165.6524588933 139.300539435755 2832.4438068732 11 14 7
142.470548072388 139.504566160564 2842.81264560976 14 15 7
130.993805341046 139.229714833061 2843.13736306026 15 16 8
123.405670797885 138.79419650715 2840.10442966333 14 15 7
97.3553711045287 139.146900467235 2853.33510616513 14 15 7
78.3246252880803 139.212052982256 2860.53673747839 16 17 9
72.375689986278 138.719264439983 2856.22173125043 15 18 9
68.7144890503459 138.126339042364 2849.85953538644 16 19 10
81.0160428258762 136.827821628625 2829.12738208283 16 19 10
82.5905780928902 135.992705129036 2817.91331654737 17 20 11
72.0177395894788 135.696451577482 2817.65814842729 18 21 12
52.4197138196296 135.811407191844 2825.68412976471 21 23 12
36.6599356400252 135.761530999582 2830.3156372099 20 22 11
40.4508992726749 134.820545871264 2817.00266176454 19 20 12
47.9218253355889 133.701592418088 2800.18040159745 19 20 12
42.6404627278187 133.167987314706 2795.11408968897 21 22 14
31.4080480944021 132.913989740679 2795.61603142026 24 25 17
29.0974564087652 132.240334658404 2787.76184990103 29 30 22
37.1068066791844 131.069724199985 2770.09490112741 16 17 11
34.7191813262064 130.389843467506 2762.1848447246 13 14 8
30.8395430749409 129.779585251731 2755.66391671789 15 16 10
44.5183218637979 128.306392901203 2732.22414856729 16 17 11
1.13748463382146 129.638555593722 2763.77448677751 14 15 9
9.65341930930164 128.413807521849 2745.23916652626 14 20 8
19.5312356797377 127.108875341007 2725.22062397296 16 22 10
40.8854259143467 125.209680797331 2693.75618676641 17 23 11
27.4540994667696 125.064086507011 2696.37004384513 18 21 10
17.6605449031229 124.737126703812 2695.44460312132 17 19 8
66.6636330612507 121.362817997581 2635.84600806915 13 13 3
58.8749458251976 120.91249687686 2632.66790924308 30 30 20
53.2310285635496 120.350297472787 2627.33862889294 24 21 12
46.8714397167487 119.825481097795 2622.72576891914 37 30 22
39.0950044546279 119.37651556407 2619.55626419974 44 37 27
37.6778221279932 118.585456750798 2609.87906625971 50 41 32
36.9321761085186 117.753618690162 2599.45343613591 40 33 23
290.773542584033 135.691259891451 2844.08052961218 14 19 13
320.655824424024 133.697383325954 2810.15196306731 14 19 13
363.947489857694 131.126085102111 2764.9441250239 12 15 8
355.879368478581 130.655695683518 2761.56335677422 10 13 6
279.472768536148 131.474221414761 2795.10754919234 10 13 6
271.580604200952 131.018355326222 2791.85440952244 10 13 6
299.911148102916 128.995007734844 2758.03613686023 10 13 6
273.877009129618 129.320309288031 2770.04305870807 11 14 7
222.134312898605 129.997951107126 2794.2936494481 11 14 7
197.983125682106 130.280650891815 2805.19527416387 11 14 7
159.181988521361 131.236654169506 2828.94741627447 13 14 6
133.723995340148 131.609805319986 2841.37253534722 14 15 7
126.900920489868 131.143249897259 2837.65901621063 14 15 7
96.2195994608326 131.778914130694 2854.94480849411 14 15 7
74.888205977921 131.997459930133 2864.18483254754 16 17 9
51.3475750232018 132.330950881032 2875.52931979466 14 17 8
56.1430688951181 131.337378633067 2861.70895228713 15 18 9
78.3778224238141 129.504346040393 2832.11822595714 15 18 9
84.5149700957721 128.423409759524 2816.79993614712 17 20 11
72.4239290674342 128.215885640766 2817.91471330715 18 21 12
53.5777476197432 128.342634911689 2825.25045126982 20 22 11
35.5573101083664 128.438528488929 2831.94959571481 20 22 11
33.3551187783545 127.759356759014 2824.17426246087 20 21 13
30.3823430530334 127.115693069783 2817.07523814109 21 22 14
27.390649814349 126.470522145325 2809.96278695472 22 23 15
28.8404824979764 125.597522471695 2798.65812996954 23 24 16
45.0682526222148 123.962572579646 2773.35995633767 28 29 21
54.5122373894742 122.659545645967 2754.26196627645 22 23 15
49.1278710210916 122.114389436755 2749.12063175805 14 15 9
37.8614543432163 121.876576107341 2749.59800665805 15 16 10
34.680516860794 121.216223648167 2742.34829138327 16 17 11
61.4167637466245 118.962594531333 2706.13807573956 14 15 9
20.2551420986907 120.32025664266 2735.59189548057 15 18 9
17.7680057377576 119.618359650334 2727.60988438476 17 20 11
24.6637791262994 118.402821778886 2710.37019455053 18 21 12
11.2817773835006 118.288242480159 2713.01996525743 18 21 12
18.7975082098499 117.024968810299 2694.99441737999 18 19 11
54.1882671485281 114.197983910189 2648.99848397207 15 16 8
54.3010770952614 113.31480898025 2637.95957576095 8 8 0
56.5106108946241 112.307529233049 2624.73459443692 16 16 8
73.5824767101074 110.446161259547 2596.34177256869 165 162 155
287.169626868415 128.10832862952 2847.6050427798 13 18 14
290.578323016816 127.165051524552 2835.24968401997 16 21 15
279.523203258341 126.860361454025 2834.64485719308 11 14 7
348.25537393787 122.143104777913 2758.4635157348 8 11 4
294.944572978077 123.746263909616 2792.6979604364 10 13 6
278.314803450654 123.693997151551 2796.69907495536 10 13 6
283.060658222706 122.65721164014 2782.84250412129 12 15 8
281.444956239787 121.90976387196 2774.25665257354 12 15 8
253.103841910849 122.418037465499 2788.29782438388 12 15 8
276.433741550316 119.653867440438 2748.38035782966 11 14 7
220.203078516881 121.52552653638 2786.67496982941 11 14 7
192.204528140536 122.062268556244 2800.96461775786 13 14 6
138.777411188511 123.860153035599 2837.58580209507 15 16 8
128.852630638649 123.547057428272 2836.56530307823 15 16 8
105.091148001005 123.924671010016 2847.74991371701 15 16 8
60.7023807440585 125.348920800301 2877.3350117505 17 18 10
41.0276728424992 125.554916879567 2885.30557123504 15 18 9
51.1990349219449 124.253401813717 2866.73488016834 15 18 9
65.8435483825013 122.710175528422 2843.99483895537 15 18 9
83.4041604973681 121.000305245381 2818.42716033399 15 18 9
69.0461197508965 120.932540823122 2821.60494777023 15 18 9
49.4540554359304 121.145635225323 2829.6354533088 17 19 8
44.9860101068507 120.570583425642 2823.92319141079 18 20 9
15.7546036921183 121.312002781093 2841.02555678223 21 22 14
10.5913590789037 120.78155902838 2836.04488714163 22 23 15
15.8626297272932 119.686814391244 2821.33357680863 23 24 16
23.2970876666978 118.465189608226 2804.48465454704 23 24 16
62.5274358914916 115.489253007158 2757.56566804215 20 21 13
59.3593029848147 114.818213137688 2750.32518094374 17 18 10
48.8035442342603 114.555799064198 2750.08256570464 13 14 8
40.47730087514 114.171991867503 2747.74986003126 15 16 10
59.6453105300738 111.371376222747 2708.52057036849 19 20 14
49.7910569946791 111.065413005743 2707.55123401652 15 18 9
28.3436305260611 111.432037880025 2717.94292996125 15 18 11
17.1192411572862 111.216866739842 2718.45088604168 17 20 13
29.0118038941634 109.651096493536 2696.18615056539 17 20 13
12.7414479002241 109.732537068299 2701.68352550823 17 20 13
7.28772331126359 109.17932293167 2696.49216539758 5 8 1
34.7123405900458 106.655423512004 2658.30922743449 14 17 10
61.9287869640814 104.114380721921 2619.97500062838 8 11 4
314.9626020001 119.067615490687 2825.71278042685 1 6 2
345.597619470253 116.783759519756 2791.0933825724 18 23 17
306.36747593247 117.828250707406 2813.29994038434 11 14 7
305.645526195886 117.033187169992 2804.12671110113 9 12 5
339.134678236615 114.56644594061 2766.63496896343 8 11 4
309.665948011239 115.162147781847 2781.09418741645 10 13 6
288.243319554386 115.376523994685 2789.03272106421 10 13 6
288.226302287231 114.534977729507 2779.13524029871 12 15 8
255.095450207889 115.351250889112 2797.11630332646 12 15 8
243.317925375043 115.107236142207 2797.22313360594 12 15 8
220.605365715983 115.424419049211 2806.69775154535 11 14 7
215.946993927041 114.827108016861 2800.84740518741 11 14 7
233.08519083195 113.101318636559 2776.2087592384 11 14 7
201.164492499627 113.913232502577 2793.83202983344 13 14 6
160.094680636188 115.224773932445 2819.64706094862 14 15 7
160.921180848144 114.348349847253 2809.12555623602 13 14 6
120.895917423796 115.641747285439 2834.46237979734 14 15 7
73.3844203313874 117.362990916385 2866.72598413394 17 18 10
67.4532427407279 116.870042799697 2862.42385004148 15 18 9
53.1232700875468 116.834100100209 2865.62185134382 15 18 9
82.2310938368203 114.423357983931 2829.89471546584 15 18 9
76.9788908495594 113.881958686425 2824.84950250944 15 18 9
57.3413846049529 114.140033123017 2832.84729405617 15 18 9
56.6478690681333 113.347631535782 2823.69469081448 20 22 11
28.0821104323956 114.123778381965 2840.04444326192 20 22 11
18.4031987162965 113.844730304473 2839.20235226722 21 22 14
15.477719743882 113.1820117209 2832.13781233321 21 22 14
18.5005160894138 112.173732108592 2819.50237732026 21 22 14
31.880523732597 110.556319918379 2797.08032971735 20 21 13
50.3350521735761 108.625804853816 2769.68947925017 20 21 13
60.5115669975502 107.162363633654 2749.88637222383 18 19 11
46.2674849705444 107.134360228139 2753.1469721652 13 14 8
53.3814149013421 105.836559002701 2736.06501198404 14 15 9
58.2169594433011 104.664511211931 2721.03773741893 16 17 11
59.3330856539525 103.708452829691 2709.4907487811 16 17 11
51.6653293736642 103.282405981856 2706.40014386262 15 18 9
41.8269972317624 102.991070382026 2705.44242336034 15 18 11
38.5240657259494 102.298057716899 2698.10410658413 15 18 11
33.7592562927278 101.693647515624 2692.17656534768 16 19 12
39.056481921544 100.45568434703 2676.24830827459 17 20 13
31.3719682146605 100.028857885377 2673.14584606807 28 31 24
65.8812624001359 96.9142953720118 2627.74420556404 16 19 12
317.118338666138 110.295523875456 2814.87983784529 2 7 3
325.212365405468 109.028355532708 2798.50852591853 10 13 6
320.420806776392 106.688883373324 2772.79104121299 10 13 6
289.461550205427 107.454986128835 2788.6406816813 10 13 6
267.326093016427 107.769328703083 2797.29830802416 12 15 8
258.668728571517 107.372299082004 2794.72579311205 12 15 8
241.382772571723 107.443246923954 2799.48688478891 11 14 7
224.940489577647 107.476606624112 2803.62434601194 11 14 7
231.988525178419 106.230049318305 2787.73020829147 10 13 6
238.182004408746 105.020243288235 2772.45180720258 10 13 6
220.224860569854 105.143210931074 2777.96193508779 11 12 6
199.234332302861 105.445072442279 2786.21444499197 10 11 5
173.69214087842 106.015058903668 2798.57922949396 7 8 2
142.132875389902 106.084447044627 2806.57986744401 14 15 9
83.3002687361266 107.765937915862 2839.28190738098 15 18 11
74.2598685326374 107.445122977125 2837.66743882171 15 18 11
85.7342391569045 105.920292322162 2817.56982758382 17 20 13
52.4439650631026 107.031867909376 2837.90718569149 17 20 13
35.1616665212378 107.211347247257 2843.90651510028 17 18 10
26.222730301392 106.899144935128 2842.36534909572 17 19 8
36.8104269150273 105.408638322729 2822.86047390923 18 19 11
33.8330595484702 104.730070734169 2815.75794421559 19 20 12
33.0748599659421 103.912833046471 2806.558324329 20 21 13
36.7475799603074 102.817499242172 2793.1585552633 22 23 15
46.2947422880164 101.348528260732 2774.13452027826 19 20 12
33.5664379754945 101.260579313678 2776.02326846175 15 16 10
44.466989305425 99.6887700099844 2755.50944541537 14 15 9
58.9402945778543 97.8752936028852 2731.40859175669 13 14 8
65.228323881473 96.5668237842406 2714.96319565299 15 16 10
59.0203784318319 96.0515141281875 2710.46031336743 15 16 10
58.6382997805446 95.1585723911151 2700.29793148558 17 20 13
37.1607072534665 95.6369537809821 2710.66832547953 15 18 11
30.9780167483313 95.124078391884 2706.18376337225 14 17 10
60.1613860249381 92.2713544299755 2666.80374896946 15 18 11
44.5140499318999 92.3727431313905 2671.51782874636 16 18 13
62.6392495879067 90.2173991195505 2642.65206538259 8 13 7
54.8676277590179 89.7884493708882 2639.48615140756 22 27 21
356.90071870471 100.287731209805 2783.14703070436 2 7 3
318.430908223584 101.508337468418 2804.67062560374 11 14 7
305.698074631059 101.332701311017 2805.32031515627 10 13 6
298.575620594669 100.850013416733 2801.38998242147 9 12 5
270.081032101378 100.688805585754 2805.43533001471 9 12 5
263.798648015623 100.165389472434 2800.87844451243 11 14 7
272.484941129132 98.7869448919137 2783.70087885462 11 14 7
233.946456755647 100.112269226092 2806.41025763075 12 15 8
212.823350599563 100.454531155535 2814.56686362986 13 16 9
218.346358144067 99.2550868237975 2800.0378068976 12 15 8
218.349104654529 98.3701740657087 2790.15413917942 12 15 8
222.976969165716 97.2068068292934 2776.21139352582 10 12 7
212.823171760471 96.9140710398328 2775.02468395252 9 11 6
222.002880530236 95.46615361689 2756.9694173111 9 11 6
221.849894796299 94.5683812573919 2746.97308530606 9 11 6
202.457802234979 94.8336918425201 2753.91378249252 10 12 7
147.140688716542 97.3059659188125 2792.87398274211 11 13 8
112.724372287046 98.5323852172814 2813.63066706494 13 15 10
83.8003414876001 99.4419663921026 2829.72137624617 15 17 12
61.081626282331 99.9834908235675 2840.42770486201 15 17 12
71.7727260863725 98.4405165245795 2820.99722861878 14 16 11
49.1486468300537 98.9900361143031 2831.7722013507 11 14 5
28.87859017468 99.4037988969675 2840.54726882675 12 15 6
38.7125723854682 97.9002464476107 2821.73098053404 14 17 8
41.7180769292771 96.8236081256425 2809.08266407465 18 21 12
37.2082233944453 96.2272864807646 2803.34028125712 19 22 13
38.6401147282429 95.2409929356692 2792.02204434876 20 23 14
28.9008516904086 94.9835566876747 2791.13601838413 18 21 12
14.7449616222124 95.0221429104849 2794.46088784815 15 18 9
30.1303976777652 93.0965525567139 2769.78565275155 14 17 8
52.1301587049572 88.8483280293351 2717.78021020824 12 15 6
51.7714657134265 87.9348619248561 2707.63467713025 16 19 12
52.1028278146733 86.968395237212 2696.75378015089 19 22 15
43.9801149272614 85.6314792823155 2683.44787175941 12 15 6
54.2917170543999 83.9480774506518 2662.50654162898 14 17 8
28.6249578452518 84.7988194066976 2677.25281410278 19 22 13
362.955986227429 91.9639755750997 2778.84861653567 0 2 0
322.061504730447 93.431628170902 2802.32117137364 9 12 5
291.741215899894 94.3063313996856 2817.39952664683 9 12 5
299.000295336083 92.983237503815 2801.65799143363 9 12 5
325.970888174742 89.5603454877888 2759.43566904815 10 13 6
253.209091359927 92.1137662137936 2800.57187457048 12 15 8
246.152276644751 91.6386109352968 2796.6888688576 12 15 8
188.946543167917 94.2415138389716 2835.51566648416 12 15 8
252.366112072916 89.4340861026918 2771.53930397647 12 15 8
240.586992447746 89.2458175629824 2771.64526052249 12 15 8
