ply
format ascii 1.0
comment KinectMotionCapture
element vertex 793
property float x
property float y
property float z
property uchar red
property uchar green
property uchar blue
end_header
-22.528760267273 169.777944805631 2813.51861879181 194 195 199
-24.7785243250664 169.180745722321 2805.70891978284 184 188 191
-27.7830329329445 168.603966391269 2798.58752487876 177 181 182
-32.9939544067346 168.092982772998 2793.57239183387 176 178 177
-34.5750875876361 167.468577359356 2785.01222318223 163 165 164
-35.4588893811394 166.819186125135 2775.72240174779 159 161 160
-33.4841310851344 166.0753454684 2763.56389212816 154 156 155
-27.956708265173 165.211738047203 2747.80440609726 147 149 148
248.195535194409 153.150986696724 2426.7085256207 86 88 85
246.190222978306 152.410023685049 2416.60523351759 92 94 91
239.202400364933 151.836180362927 2411.53670514808 97 99 96
231.508214091207 151.286773268391 2407.19157356716 96 98 95
227.331446137714 150.614718779482 2399.21960578171 101 103 100
224.536848432834 149.891658211542 2389.77927109221 99 97 98
221.714470724074 149.1664396596 2380.31908163145 99 97 98
220.953054567802 148.363616922039 2368.64683526105 105 105 103
218.068917465213 147.633534171596 2359.14155598254 102 102 100
219.99930936811 146.722753237393 2344.47967089689 98 98 96
218.423290981008 145.935732619682 2333.45231313196 113 114 109
161.948536916916 139.503219620021 2265.30710955194 130 127 118
140.143722835082 139.525770592972 2276.67331589289 43 34 25
123.076524490414 139.361314979497 2282.82683392676 61 51 41
112.021811810797 138.949955432962 2282.22176189809 60 46 33
106.261305978586 138.315055478255 2275.5725591332 77 61 48
103.773070524567 137.53748411641 2265.11870576331 82 64 50
99.2904182029379 136.843206520863 2256.92517778411 84 65 50
94.1373827844529 136.176336833226 2249.48085024697 82 63 46
90.2695541751366 135.450576074688 2240.49782500018 83 64 47
84.4364750544187 134.810466101771 2233.79569144287 91 74 56
79.2390504261236 134.140418599803 2226.31916912397 72 59 43
322.087679153447 178.955653274627 2891.7024576161 7 12 6
287.650769430553 178.419913962647 2900.08403801724 28 30 25
275.002613307213 178.059628824999 2900.7941767908 12 14 9
272.142545333446 177.482714052773 2893.77748929886 13 16 9
280.613136708648 176.645763063071 2877.68163072566 13 16 9
250.198873197164 176.697163517858 2892.68769155627 11 14 7
232.009146299956 176.476907404143 2898.02718204592 10 13 6
221.924840711377 176.071937037828 2896.89057456031 13 14 8
155.911567996147 175.746911688538 2923.1419963969 16 19 10
134.080679952615 175.652852311864 2932.01834277674 16 19 8
117.888475510545 175.426571389511 2936.33577614813 15 18 7
120.734359103729 174.722727699489 2924.80896643968 15 18 7
136.150945361598 173.690504511546 2902.63091112874 16 19 8
140.43647901319 172.934755073305 2889.67739830004 16 20 6
111.721947502375 173.040781766798 2904.68057671845 16 20 6
105.033600241512 172.574479400726 2901.06502024546 22 26 12
96.7889093075209 172.1504276633 2898.79152429596 25 29 15
97.1119212235485 171.494461990812 2889.1411834672 21 24 13
106.705494843458 170.579254216151 2871.38863456735 17 20 9
105.383150638271 169.958263849926 2863.01608486492 11 14 3
105.575797225427 169.291598130763 2853.27147970629 13 14 6
96.5044265992327 168.884764434308 2851.63382984767 15 16 8
81.3152851882979 168.655950291296 2855.44335555628 17 20 11
66.1779376704654 168.431433692523 2859.29015505423 18 19 11
30.5074634954052 168.817145599255 2881.60378304898 12 15 6
20.8539763228042 168.447726043249 2880.7796650991 14 17 8
27.8977093434758 167.578345926251 2864.88402434629 19 22 13
17.4819566539219 167.231444825525 2864.74247454524 19 22 15
19.1492345007731 166.515988118292 2853.59624618556 17 18 13
4.99188703388009 166.287184850312 2856.91870476967 10 11 6
2.86937564150946 165.685844116763 2849.2012329553 220 220 218
-1.51734135669068 165.153787206267 2843.54814547756 227 225 226
-5.16928355602841 164.597069823886 2837.19284487006 210 210 210
-11.0631942823023 164.111457229473 2832.91776347877 201 201 203
-16.9582144188352 163.625792100341 2828.64187758621 202 201 206
-21.3777994039814 163.091229343863 2822.9649507107 199 200 204
-22.8633323177549 162.457444546994 2814.47403722448 188 189 193
-24.3763326669135 161.82144204951 2805.96320077507 175 176 178
-25.1852791540925 161.15827251529 2796.72757375987 165 169 170
-27.4850013322463 160.542869873281 2788.88186131571 156 160 161
-28.3534108454522 159.874942914618 2779.60310418664 162 164 163
-28.5286265787004 159.178936369152 2769.5913846873 158 160 159
-23.6808693270238 158.300077476201 2754.57444843567 141 143 142
-5.20892981854137 156.92391961357 2725.96369644519 141 143 142
266.903969447553 145.498450636088 2432.82139301253 73 75 74
267.775947154372 144.633508256917 2419.86254632819 69 71 68
265.750936969879 143.871024927758 2409.74486574277 72 74 71
256.598215360587 143.3739577413 2406.81274914076 75 77 74
250.994390598557 142.743099892984 2400.27685382443 76 78 75
241.854607756915 142.247304930309 2397.35412325529 86 88 85
236.241555251409 141.615933929546 2390.81183042859 92 94 91
233.421516246862 140.873755473366 2381.35295596214 101 99 100
232.669420085967 140.046348913751 2369.68734133338 100 98 99
231.876372853908 139.215684604488 2357.99202389805 107 107 105
227.571799746312 138.522092333779 2349.9275928128 103 103 101
229.475548383589 137.572895970081 2335.24619887358 99 99 97
249.942274302365 135.851532443343 2300.66924733582 144 145 140
145.951097914911 130.472672033526 2270.95617383015 61 57 45
128.200817561135 130.378047154446 2277.85019595058 43 37 25
110.520456205385 130.289310533272 2284.79493367001 58 48 36
104.108329705976 129.680112286501 2278.90852399061 74 62 48
100.973573314945 128.914872772656 2269.2213873655 71 58 42
102.391423006802 127.928314593289 2254.18756566619 69 56 40
95.9258808366634 127.315192352232 2248.26241395132 53 41 27
329.434651984822 170.415765589756 2877.22312034671 0 5 0
319.943666058765 169.985012675166 2875.28116124663 14 19 13
306.393708474474 169.659745357963 2876.57307337413 10 12 7
319.710676548797 168.644316661419 2856.57844946589 13 16 9
302.922746258408 168.404142931318 2860.46395808659 13 16 9
270.827653252432 168.574602076535 2876.72252053712 12 15 8
235.646374704811 168.842735045076 2895.68477695704 9 12 5
244.049536592175 167.950248729756 2879.53975601171 12 13 7
250.769054765426 167.094987647715 2864.64448761883 14 17 8
212.62695378666 167.47109214118 2886.40136856221 15 18 9
158.706483146377 168.307070973749 2921.42500141117 15 18 9
131.297994174559 168.423629073298 2934.90493802368 14 17 8
118.285602303299 168.142403460429 2936.5867660887 16 19 8
110.058202675371 167.727466931769 2934.32585114631 18 21 10
127.876005718092 166.554570971839 2910.18266670428 17 20 9
132.187749611377 165.764782020935 2897.24768734528 16 19 8
112.906893137903 165.671029792292 2904.26720322178 16 19 8
88.2235351870331 165.748161254947 2916.01704140024 21 25 11
85.4874111975361 165.169644751724 2909.09019543452 25 29 15
97.5131044416107 164.135464957906 2889.39473497288 20 23 12
106.334038378011 163.189196362476 2872.31696237753 18 21 10
118.164711012907 162.13891153733 2852.48004573919 15 18 7
100.582852962759 162.009245189887 2858.26094666069 15 18 9
83.8350861468547 161.860307196834 2863.41106939737 15 18 9
77.8847597244354 161.369056381171 2859.09506250527 13 19 9
77.2866251802129 160.702801427745 2850.01224193822 17 20 13
58.3556520172226 160.638088171112 2857.28554278148 12 17 10
35.6965779751612 160.706269641084 2868.03270897392 11 16 9
35.1194278656823 160.041841616504 2858.96510972519 14 19 12
24.6830578446353 159.709154668861 2858.80868597803 18 23 17
14.2722452932738 159.378587546725 2858.67050564638 29 31 28
1.6318729461946 159.128388353445 2860.62217575869 1 3 0
-0.479063282878389 158.513769199598 2852.91332224643 203 205 204
-4.85437422960544 157.976617117094 2847.26847745077 187 187 187
-6.25981014835086 157.332204467036 2838.83557415343 215 216 218
-10.6637673058003 156.792816760138 2833.17024626142 205 206 210
-14.3370440426667 156.225675426777 2826.79913251597 200 201 205
-18.7628923844922 155.684586079176 2821.11763214106 177 178 182
-20.9902772341686 155.060690115903 2813.32431554972 171 172 176
-23.2405610232269 154.434951128717 2805.51409521622 169 170 172
-24.7823549755926 153.779671188673 2796.98228802532 165 167 166
-26.3515935284724 153.122197801825 2788.43057454757 161 163 162
-24.3117163036444 152.322163586695 2776.3189863977 155 157 156
-17.2453999717412 151.320302483783 2759.20430357467 154 156 155
-3.75285232922629 150.055947730412 2735.63029581829 139 141 140
272.202237101443 137.503460838405 2440.32683399357 132 134 133
280.987442884492 136.291621277078 2419.51670624048 59 61 58
279.676909003895 135.480087301109 2408.68138521802 68 70 67
272.634372705661 134.900437452579 2403.5731643195 72 74 71
262.041951285701 134.468463321454 2402.06807604461 73 75 72
255.715479491935 133.86003551217 2396.24376319171 71 73 70
248.678050885973 133.281157906569 2391.13924887989 79 81 76
244.451934178637 132.582007165697 2383.13136988176 83 85 82
241.608478014476 131.820929965434 2373.65571856772 88 86 87
242.231001461374 130.905503830867 2360.51578145657 90 89 87
242.107163215739 130.016740196299 2348.07025698338 101 101 99
239.160945140012 129.247596623957 2338.51977603182 100 100 98
236.879116424148 128.445324532357 2328.2157206743 103 104 99
248.361977731232 127.017306846213 2303.18431389655 148 149 144
113.645476894563 121.410940893283 2282.07491617246 40 32 19
101.953869861768 121.067542455322 2282.24352670079 38 31 15
75.8458562025548 121.472111851606 2299.13803219034 82 73 56
282.315125930277 164.014882320188 2914.66987919654 9 14 8
297.475384275945 162.903782618728 2893.54093789286 10 15 9
322.304793315396 161.500520594185 2864.59856743578 15 17 12
325.82629881908 160.700492234235 2852.32571216821 13 16 9
310.642824859848 160.446087102741 2854.90418008091 12 15 8
271.24479889748 160.918418077529 2876.98613823621 12 15 8
247.349815513437 160.944234440884 2886.83715278342 11 14 7
272.616700897937 159.485941104758 2856.97630841441 10 11 5
247.175072891903 159.565726946248 2868.17647389255 11 14 5
229.837604211097 159.405893395523 2872.89905397436 14 17 8
183.839901864276 160.151079851957 2901.31465551218 18 21 12
170.680401654982 159.881801586878 2902.88960764216 16 19 10
127.409631059833 160.579514915031 2929.576375377 17 20 11
100.959728141506 160.757730957 2942.51648715736 19 22 13
108.551138930113 159.839077884744 2927.01762012931 17 20 9
116.853752984376 158.888268736816 2910.79941449733 16 19 8
100.752756401977 158.739590587081 2915.183359466 14 17 6
81.5781085509224 158.700631878447 2922.28014577947 16 19 8
77.301940897188 158.165201067874 2916.70718079131 22 25 14
89.355219217774 157.069688553525 2897.03140667801 20 23 12
102.858237594832 155.912132171218 2875.93619254781 19 22 11
98.4562266132274 155.366342352151 2870.27194857522 17 20 9
81.7006948044798 155.254581097543 2875.41692508741 15 21 11
74.2372108965892 154.819542108987 2872.4743560241 13 18 11
86.7255458717797 153.669118806575 2851.87864900112 11 16 9
84.5746329840393 153.036643376352 2844.14043063326 6 13 5
77.824417235234 152.56971267522 2840.48002119038 10 15 9
58.1492249106681 152.580538742423 2848.44924093176 9 14 8
49.1683107769072 152.202107661464 2846.87730877979 16 18 15
30.3744918434536 152.194911435463 2854.25032698616 17 19 16
16.1776700795935 152.022071622193 2857.5444532759 10 12 11
3.53158204161685 151.7955608315 2859.49209994833 128 129 131
-0.0818389927785823 151.224359181128 2853.16435631269 213 214 218
-4.45676921355531 150.681218752292 2847.51975718124 215 219 222
-5.11612916557835 149.990549778206 2838.39242934763 214 218 221
-8.03607765697789 149.385902135026 2831.33219271809 155 158 163
-10.2339082199205 148.750058992531 2823.55994566808 174 178 181
-14.6705651669266 148.202085196365 2817.87086951054 172 173 175
-18.3806747970563 147.623274730744 2811.47299570826 166 167 169
-21.3708322221511 147.013078382103 2804.36154054204 164 166 165
-22.1841212617402 146.31008132682 2795.12256378368 162 162 162
-20.8402615999461 145.512668224206 2783.74146755427 156 156 154
-15.9040726630642 144.557533578081 2768.78825096675 144 146 145
-2.3314291983656 143.225062390339 2745.27196135804 143 145 144
276.042426344941 129.588052117503 2449.24634812426 120 122 119
284.891951054179 128.320399376859 2428.48226935162 92 94 91
286.478295090483 127.361953824022 2414.80606630066 83 85 82
283.010792849846 126.622416702438 2406.1128819249 74 76 73
278.095785570827 125.945264228119 2398.84105398149 71 73 70
268.907144052487 125.460596481081 2395.88296107646 82 84 79
261.145844640325 124.91216457562 2391.48888821172 87 89 84
255.503905845658 124.266235853078 2384.92558135981 84 86 81
251.961869518915 123.521183397676 2376.17833769815 83 85 80
250.499475400993 122.675386619229 2365.23305087796 95 94 92
249.699572627728 121.793534051297 2353.53250443589 97 96 94
249.555255994569 120.875091589633 2341.07198441345 100 99 97
245.893512111115 120.120755116249 2332.23820964088 100 100 98
242.208672167236 119.364641797696 2323.38738856412 113 114 109
246.65529180249 157.567488029199 2943.13238145866 1 6 0
319.465583500156 153.842387830825 2867.44201469058 13 15 10
314.05146966273 153.300896100486 2862.27942863535 14 17 10
302.954628905368 152.9453895745 2861.64409997063 12 15 8
252.247987086641 153.906225506297 2892.82236624463 12 15 8
268.737389004393 152.645615445054 2870.18611892383 12 15 8
269.817784300022 151.891279371125 2859.84928657563 10 11 5
273.264987847049 151.051491404417 2847.52236684374 7 8 2
198.609038679846 152.186766401525 2889.74835097331 19 22 13
162.331808481512 152.747578370089 2910.38797886511 17 20 11
121.459127509776 153.490611154367 2935.10770365607 15 18 9
95.8141544386093 153.712369077955 2947.39651017971 15 18 9
101.055950008523 152.833415387705 2933.89996238617 17 20 9
100.726465200911 152.149754520176 2925.01180358207 17 20 9
101.150066985195 151.434684039273 2915.43437759501 13 16 5
96.8422682339911 150.890581951941 2909.83843862752 14 17 6
80.0380971536683 150.812571253305 2914.94832644696 17 20 9
79.6370710175958 150.122969958358 2906.00798124062 21 24 13
77.6521763015374 149.489869605473 2898.39040430008 19 22 11
61.7155666425169 149.389906840328 2902.89376361073 16 19 8
58.1810706526844 148.816122490531 2896.62322134235 14 20 10
60.0184116096671 148.030555007308 2885.59992023563 13 18 11
68.7159949701024 146.968890613626 2868.43214367286 12 17 10
83.449344607156 145.656661381069 2845.7576717457 6 13 5
82.8061641817142 144.947214271218 2836.64197768124 9 14 8
63.8758284722938 144.974707490369 2843.91620767217 11 13 8
49.5698720180622 144.822357872934 2847.13102920568 18 18 16
26.2361177855355 145.048087098669 2858.6249399693 13 13 11
12.8050412500293 144.874463332781 2861.2388362398 0 0 0
4.67984476609251 144.483668381519 2859.05213281946 254 255 255
0.314978263678878 143.93531199117 2853.41509714938 209 210 214
-3.31221106846669 143.35425742216 2847.07732267388 209 210 214
-3.97264739860237 142.643770854476 2837.94911417079 188 192 195
-5.40793374904358 141.962960691658 2829.49438729789 143 146 151
-6.87076099105166 141.279949281387 2821.0196842952 147 151 154
-10.577060850262 140.692620301003 2814.6245291292 173 174 176
-14.2975901882789 140.104183382006 2808.21905309843 165 166 168
-18.0324950922044 139.514656561618 2801.80315039256 163 165 164
-19.5854581868002 138.824477565647 2793.2630696815 162 162 160
-15.3272614524971 137.865239384578 2779.05337792124 154 154 152
-5.3105258511823 136.632549287643 2759.13561232647 143 145 144
289.491944133821 120.342211658591 2436.71693240393 98 100 97
289.679159896757 119.421830499442 2424.49673747078 75 77 74
286.237900146898 118.670076219053 2415.82280943134 73 75 72
282.773472943586 117.916524373909 2407.13178322842 79 81 78
278.573383254756 117.195968342943 2399.14295782647 71 73 70
270.804294423521 116.648991863622 2394.74354009466 80 82 77
261.62308775792 116.172742503984 2391.79058503681 89 91 86
255.98157865999 115.520814466336 2385.22755929352 88 90 85
250.330212696106 114.868197041872 2378.65709012884 89 90 85
250.97934769346 113.893386032448 2365.53643797945 97 96 94
249.481983178947 113.022312100895 2354.56537786169 99 98 96
249.341546493525 112.076223852757 2342.10753046481 103 102 100
242.904665142339 111.452966872203 2336.2031042548 105 105 103
285.600770350824 148.753719881932 2913.26900779508 0 4 0
360.461191036466 145.395285290907 2845.24245261593 26 31 25
318.255828955692 146.148315628391 2868.99643354672 7 9 4
294.951118076232 146.245948023027 2878.04038188568 13 16 9
293.640894991859 145.558182648361 2869.67628081382 12 15 8
293.112508790139 144.838588539007 2860.64375213541 12 15 8
242.528143311842 145.959536527816 2891.91176461424 10 13 6
245.291257400658 145.126258852508 2880.32429791704 11 12 6
265.659963672728 143.626889709789 2854.32325964929 10 11 5
257.873535862492 143.174978826833 2851.14649619974 8 9 3
228.546501170301 143.545962413125 2865.70729452643 15 16 10
174.673027247621 144.877074172112 2900.76750424482 18 19 11
129.792312871044 145.890915401748 2928.75886388315 16 17 9
127.075714435311 145.279515972745 2921.84600584954 16 17 9
114.079500035543 145.071913335798 2923.53993422377 17 18 10
108.206105064505 144.585244402766 2919.27971979072 17 19 8
114.890865075683 143.593796922522 2904.35856465342 17 19 8
115.242579573104 142.850264441293 2894.7285873953 18 20 9
96.0444556942974 142.90142432395 2901.80881190369 18 20 9
76.9197491689546 142.95870648488 2908.94258370597 17 19 8
57.092779210107 143.054372846561 2916.80220633398 17 19 8
57.4668336091575 142.312735184652 2907.18872782196 19 22 11
63.9790540835237 141.307056166496 2892.14242300671 19 22 13
57.3372515306256 140.853363635099 2888.56037718011 15 21 11
61.4421552576188 139.938024836512 2875.47481903565 13 19 9
61.6629242040689 139.183790112008 2865.75015682116 15 18 11
57.2697581712136 138.626768069392 2860.09226784726 5 6 0
52.1058324052284 138.102497428442 2855.11113569251 21 18 13
35.5576366380048 138.083733051354 2860.40659109647 10 2 0
19.0699033991977 138.070016172903 2865.74590264418 10 2 0
10.9387974418476 137.686359824828 2863.55495147888 241 237 238
6.5797056148531 137.1324221863 2857.92207372412 231 229 230
1.46125471173209 136.612153748998 2852.97363306287 215 215 217
-1.42001050182494 135.987578770067 2845.9413378311 199 199 201
-2.82917841957442 135.29190231211 2837.50546946675 189 190 194
-2.03620646459868 134.489005530749 2826.96032631245 186 190 193
-2.76570433445444 133.753168518853 2817.78163074334 163 168 171
-5.00495057478156 133.085497739092 2809.9794938487 131 135 136
-9.47696054360758 132.522626152706 2804.26441959391 143 147 148
-12.4901560528887 131.887572451846 2797.13643219844 155 157 156
-14.0575624954389 131.179226268192 2788.58578917582 147 147 145
-6.89260087473498 130.035571321131 2771.54189821405 143 143 141
302.751675416702 111.946400283356 2436.40578616012 109 109 107
300.782598710862 111.108929171734 2426.32827311916 89 89 87
295.905556684697 110.416944097693 2419.08389186772 75 75 73
288.146979581624 109.872616077616 2414.69181324993 88 88 86
283.249826069828 109.179195916349 2407.43284548436 81 82 77
280.475107511968 108.372098444361 2398.00679042631 80 81 76
274.122128004482 107.751475895313 2392.16290532025 82 83 78
267.055477804395 107.168438700243 2387.03718658208 84 85 80
259.281703878023 106.623532172389 2382.63438300954 95 96 91
254.325466042494 105.925937896078 2375.33256261405 102 103 98
253.562781656305 104.99652729301 2363.65875568422 105 104 102
252.059970610813 104.102558815571 2352.68392577155 101 100 98
250.520825960948 103.205696296411 2341.68244771776 105 104 102
241.99788629818 102.696056836003 2337.97177317876 90 91 86
346.983288042825 138.065912489235 2856.43229794347 0 2 0
304.808752652409 138.941350547096 2880.20895134219 19 21 16
278.283944184478 139.22636470478 2891.85997233837 13 16 9
277.831694649906 138.493432158905 2882.882569193 12 15 8
258.736962887076 138.500100335698 2888.80248286429 12 15 8
234.062524033565 138.739649168677 2899.32457273357 10 13 6
238.461201918065 137.812561783071 2886.45191823643 11 12 6
278.919690910488 135.403886230225 2844.13180931449 11 12 6
274.299638632815 134.821956859661 2838.3093194992 8 9 3
224.968793651629 136.097292690682 2869.25148663648 12 13 7
198.958772663386 136.424692851591 2881.27619723328 17 18 12
161.943674720606 137.230671016492 2902.61720749457 17 18 10
141.723542356642 137.342520866101 2910.19190027717 17 18 10
124.739094797398 137.325197905269 2915.1714092251 17 18 10
107.81544640783 137.312864676624 2920.1947235856 17 18 10
109.794139542108 136.4830371885 2909.27366750316 17 19 8
110.162500976126 135.718404556228 2899.65565108821 18 20 9
95.6612092239197 135.608864578251 2902.72938121184 18 20 9
66.4159043732626 136.164768953502 2918.58540053431 18 19 11
54.3800953414681 135.961554946937 2919.7402383789 18 19 11
66.3759838666218 134.670571473403 2900.02187107919 18 21 12
65.9191296920181 133.936952245304 2891.04112645381 19 22 13
62.3517105845717 133.34292113819 2884.74661496104 17 20 11
40.3492992348524 133.605196117857 2894.73575644573 15 18 9
43.6942407283301 132.690046415844 2882.3343230468 3 3 0
56.9063734832267 131.301275066013 2861.02677409487 31 28 21
41.0916678981152 131.281775208018 2865.61891183074 11 4 0
26.0917298945835 131.230515513242 2869.56649447547 22 11 7
18.7090186917214 130.817205302032 2866.68288380737 159 145 144
10.5797497391231 130.441404723988 2864.49330411705 234 225 226
7.72776618771864 129.807616163679 2857.48189464144 222 216 216
2.60718871009757 129.283929770576 2852.53218954536 203 201 202
-0.275656571500527 128.647741040042 2845.4986900626 196 196 196
-2.43145002103207 127.972496928958 2837.75671703954 181 185 186
-2.38041619869156 127.182257195302 2827.90882783879 175 179 180
-3.1067499618731 126.426971410697 2818.73262196329 177 181 182
-3.12594089337503 125.631032330434 2808.83350199448 128 132 133
-5.3918211871502 124.94699980325 2801.01197463062 119 123 124
-6.21165768871412 124.184213933833 2791.76794863521 146 148 147
-7.79569727540363 123.45750822863 2783.20515489684 153 153 151
0.084632194260692 122.223905538583 2765.44406264622 138 138 136
308.789621416043 103.903316941464 2443.21245000383 125 125 123
312.631163858035 102.732806602914 2427.46431541388 120 120 118
306.306665671498 102.110603432932 2421.64136349607 98 98 96
298.538250111273 101.567524613774 2417.24215909817 78 78 76
291.489953804753 100.984913836052 2412.12974764904 85 86 81
284.440398287196 100.402335471776 2407.01642353513 79 80 75
280.952007334521 99.6183847261206 2398.30816599949 80 81 76
273.888932967389 99.0349650954778 2393.18503752183 82 83 78
268.948962900253 98.329637501828 2385.89497080805 82 83 78
260.465069458395 97.8274225451783 2382.21234483743 92 93 87
256.210834486569 97.0799268522087 2374.18413190961 101 102 97
254.042250721586 96.207414398229 2363.96181445247 108 107 105
253.240102946339 95.2496845462502 2352.25925622714 101 100 96
249.608723361954 94.4549566682764 2343.44728859255 110 109 105
392.402695169243 128.361955488403 2821.37662229694 0 2 0
314.20133294246 130.86266522571 2873.39062675596 11 13 8
282.766455048459 131.421042865148 2888.89442700827 13 16 9
269.319949310135 131.22463717251 2890.26198629622 12 15 8
258.340159144564 130.926378230091 2889.71180007376 12 15 8
245.77173773851 130.700538681867 2890.48042123892 10 13 6
255.776335005015 129.487416162993 2873.02432315525 11 12 6
271.311830961246 128.018087031055 2850.93054847155 13 14 8
272.31798869819 127.18187717761 2840.53948502591 10 11 5
213.698631393839 128.242103760016 2869.68785725355 13 14 8
181.402252421917 128.932981808777 2887.03817586525 17 18 12
134.205465561998 130.328372632605 2917.05760764448 16 17 11
133.822973272162 129.581151703188 2908.13070064103 17 18 10
138.133588641563 128.610411864721 2895.19398663906 17 18 10
110.191508015999 129.15181817989 2909.52459432055 17 18 10
112.127022972362 128.290457992538 2898.57207773613 18 19 11
98.4008385026467 128.172655314217 2900.97232671202 18 19 11
73.037824924516 128.621583526779 2913.46638787474 23 23 15
60.9831218934307 128.438222603821 2914.60792409284 22 22 14
52.8340467408119 128.068121184099 2912.4040153328 19 20 12
57.050255335231 127.089613856373 2899.39882450104 19 20 12
61.2084062017635 126.106298653535 2886.35152203049 15 17 6
65.3084985151477 125.118190444681 2873.26210739821 14 14 4
69.350484129858 124.125285329487 2860.13054568272 21 17 8
51.1990349219449 124.253401813717 2866.73488016834 16 6 0
40.7276086973591 123.997281920997 2866.55343125833 17 2 0
24.9693551930164 124.017619098034 2871.18669409473 182 161 156
20.6177681152249 123.452106267164 2865.55890358517 192 167 162
13.2381008405189 123.044076064512 2862.67752626984 128 110 108
11.1324961268435 122.358574221061 2854.97188417505 236 225 223
5.25326123732217 121.870819815397 2850.70743076232 210 202 200
1.61669079691018 121.262732929266 2844.36271879723 193 189 186
-2.03418134059752 120.653532254034 2838.00763358514 173 175 174
-1.23842495298976 119.800467134653 2827.46425481296 189 191 190
-1.22442930908662 118.984737926638 2817.58909225999 167 171 170
0.231296356505428 118.084419840249 2806.28856885004 161 165 164
-1.30550803264029 117.344468917637 2797.75994982478 141 145 144
-0.665961455635689 116.478778933403 2787.10326727978 102 104 103
-1.53179944034565 115.692540613438 2777.82548055921 143 143 141
11.4459190616323 114.114156414793 2755.11200265704 143 143 141
317.972966917775 94.7050596492736 2435.00144469528 7 7 5
316.724628222247 93.7855392369476 2424.21095779422 8 8 6
310.389428676369 93.1591280614399 2418.37993244124 95 96 91
301.89065412907 92.6597954430546 2414.68682791634 85 86 81
291.965375240233 92.246509192245 2412.43012905136 85 86 81
285.630734837079 91.6205718786172 2406.59980591009 89 90 85
280.715865591887 90.9082564153831 2399.32789992288 85 86 81
274.365539790476 90.2813023207824 2393.48620095148 85 86 81
268.717957266119 89.6106201739423 2386.91838298148 87 88 82
261.64808268594 89.0264256108975 2381.79032095908 92 93 87
258.096343177718 88.2235466820263 2373.03575035159 96 97 91
253.819628027868 87.4628337111826 2364.99117411486 115 114 110
253.021094142666 86.4801652210587 2353.29140383345 111 110 106
341.285589147738 122.724068113365 2862.1050869408 19 24 18
318.700581167922 122.947386212937 2870.43636326461 20 22 17
297.830161346407 123.103111890002 2877.54016550814 13 16 9
294.894819591029 122.439374849285 2870.46817619657 12 15 8
278.989353480676 122.377622708656 2873.75926904542 12 15 8
276.052433203496 121.713663596769 2866.6864287819 10 13 6
268.266727390597 121.276627669817 2863.5102640682 11 12 6
256.474413628561 121.031564214255 2863.60636822539 12 13 7
259.124816556458 120.096836547495 2851.93668093805 12 13 7
234.57621243095 120.47150371436 2862.55067548811 10 11 5
208.534763138733 120.932095780267 2874.5532776799 11 12 6
173.072352685637 121.869655051845 2894.55016298728 16 17 11
124.308064586462 123.486635129889 2925.90476979472 16 17 11
125.534565090789 122.643447365146 2915.67369665603 17 18 10
125.145748560475 121.875983706753 2906.74210254228 17 18 10
114.515505641966 121.622311820871 2906.44524194414 17 18 10
114.091980313497 120.851961682974 2897.48847206129 18 19 11
103.483787598198 120.600176083563 2897.20790015747 18 19 11
83.5556306572727 120.833763607234 2904.99486878061 21 21 13
68.3648653589168 120.831134951158 2908.80436297266 20 20 12
51.6771098748565 120.914085042983 2913.99916376337 17 18 10
57.4440572772503 119.818297812714 2899.64746928369 16 17 9
65.4543144020501 118.593945499528 2883.21564784725 14 14 4
74.1522193045014 117.32181017988 2866.04733277744 14 12 0
62.8594057550407 117.118257328888 2866.50574555798 17 10 0
43.9620255343263 117.33271504407 2873.80481269802 23 9 0
33.5118167269255 117.094265597422 2873.63883425081 35 16 9
24.6050947525469 116.774128215059 2872.12098084759 194 167 160
23.2833898899596 116.034441342042 2863.74829339704 212 183 177
18.9156663215511 115.461661829907 2858.10876839389 81 62 58
16.0429083509581 114.803184363535 2851.08246852132 94 79 76
8.64996284573083 114.399126828511 2848.19148565565 213 203 201
2.76088453168954 113.910097045163 2843.91989007439 203 198 194
0.600212530239119 113.205989789028 2836.17423428741 191 187 184
0.647182598413121 112.370463625031 2826.32316979984 178 180 179
-0.0835692365139806 111.575403945269 2817.14355970723 168 172 171
-0.846193409852258 110.777762250646 2807.9408315979 161 165 164
1.30766768248014 109.802589695883 2795.91069119888 162 166 165
5.61638422641808 108.691632312784 2781.73685383911 113 115 114
11.3277743178748 107.487355508142 2766.10900405177 142 142 140
23.5414022331031 105.878635823216 2744.07679802776 21 21 19
315.54285946199 86.1562501251404 2438.13694752774 9 9 7
315.752312001877 85.1253818922608 2425.93231286995 21 21 19
312.308158221287 84.3159793567072 2417.25599488609 100 101 96
302.366088160631 83.9115788980254 2414.98716875061 81 82 77
293.87468733781 83.4179367938021 2411.29943841952 75 76 71
287.536061050971 82.7883504390237 2405.46591286598 90 91 86
281.191702522883 82.1584444907375 2399.62852474664 86 87 82
274.131118923664 81.5741512513999 2394.5071974548 85 86 81
267.777619487849 80.9438184426753 2388.66318073424 88 89 83
264.243406102197 80.1279610657278 2379.92124944864 93 94 88
260.685790241881 79.3103675452557 2371.16263889283 95 96 90
257.105078321139 78.4909971796139 2362.38698203283 110 109 105
254.200664800778 77.6230335106325 2352.86630555232 109 108 104
319.119868214707 115.204694883485 2870.70109513483 23 25 20
318.596985808978 114.406849102424 2861.67215991544 13 15 10
311.548330498919 113.928456542797 2857.795052732 12 15 8
303.693606692393 113.490738739873 2854.56914642499 12 15 8
306.343766130212 112.525451899761 2842.89883336124 10 13 6
268.682389872645 113.596627627366 2863.77268595783 11 12 6
265.722570962412 112.919148490913 2856.68317750493 10 11 5
247.52789937882 113.022470466694 2862.02101694973 14 15 9
263.741466258592 111.352707937285 2839.18244400836 15 16 10
234.431571354595 112.040512445834 2853.75727209372 9 10 4
152.030019666006 115.534238186293 2912.61238138486 14 15 9
135.001127766191 115.626608525354 2917.55993282298 13 16 9
125.931567878997 115.303132607962 2915.9243123083 17 18 10
119.242153854647 114.854215997695 2912.30777610095 17 18 10
123.553490419655 113.811229631778 2899.37121896617 17 18 10
117.623554429187 113.317695044678 2895.06998196559 18 19 11
97.6322396554661 113.594797545104 2902.81138653982 18 19 11
86.2870899311532 113.405431269689 2903.23222604512 17 18 12
90.5069598993307 112.354855857919 2890.22932438229 16 17 11
54.3918833318045 113.554514912886 2912.22447894021 15 16 8
68.6504562665857 111.937684414105 2890.43961949009 17 17 7
89.7255848816272 109.91773200465 2862.47767726227 19 15 4
61.4956057019986 110.695426418998 2877.83581461286 20 14 2
48.7076949196141 110.601727231576 2879.68102919116 22 5 0
39.775998236633 110.289882785788 2878.14540757106 205 185 174
34.6680088631701 109.757138978271 2873.20448750571 202 178 168
28.0359657025793 109.31329861287 2869.62986085105 186 156 146
26.7063877058544 108.55600668467 2861.25137682448 182 150 139
23.8397064564255 107.886505880103 2854.22942626138 138 111 104
21.7071268700448 107.170306035329 2846.50407401426 101 81 74
13.5482193964553 106.815285006842 2844.29311398006 73 58 53
8.39428966518918 106.279083787593 2839.31916773347 157 146 142
4.7268605879629 105.651021941791 2832.95198450689 213 205 202
4.76428274795504 104.79224825786 2823.09358630663 165 164 162
4.0237410199162 103.976650156656 2813.90677528042 166 166 164
4.72994119649739 103.065891269446 2803.29818306933 153 155 154
7.60723344372138 102.012427409775 2790.55704016319 170 172 169
13.3705947117089 100.767956259388 2774.96666179856 92 92 90
25.6575811708344 99.0960902899422 2752.98702062316 26 25 23
313.111069250407 77.6299173130716 2441.27134434359 23 23 21
314.778732339875 76.4767527251436 2427.6531049194 11 11 9
312.783506082091 75.5579877171017 2417.55622374056 105 106 101
303.56047682799 75.1160589671405 2414.57341891345 86 87 82
295.784228168731 74.5790518228594 2410.16856688913 81 82 77
289.441335307258 73.945829340541 2404.3322244639 86 87 82
281.667069832632 73.4092517035006 2399.92881226798 84 85 80
274.606586510597 72.8244587653041 2394.80755513814 86 87 81
267.544941093838 72.2396911721053 2389.68545570941 88 89 83
266.839169335488 71.2137299115243 2378.05241690996 94 95 89
266.796584558418 70.135350024981 2365.66483436648 98 99 93
265.304769681674 69.152178686532 2354.69752398113 111 110 106
305.660739897608 108.186992698192 2881.90583482216 8 13 7
316.574202872504 106.773324789909 2863.87254045553 9 14 8
296.015094559526 106.167592722382 2861.31698565707 14 17 10
291.420437939345 105.563778349357 2855.51279484401 10 11 3
286.816111047897 104.959146127029 2849.70188417939 10 11 3
288.628000991332 104.003890618394 2838.6592735865 11 12 6
290.395217663193 103.044911524874 2827.58425952498 11 12 7
273.74485926807 103.096096081744 2831.57097273566 10 12 7
225.285173129625 104.922590400004 2861.91241660669 9 12 5
160.373754638403 107.701768880517 2906.27001020624 13 16 9
159.165818274334 106.937304293817 2897.97967046421 13 18 11
134.228734313277 107.515029310342 2909.54840732517 16 19 12
118.850740703482 107.561447315965 2913.22212967259 15 18 9
112.166647838098 107.115212530365 2909.60975894793 14 15 7
89.0331282762049 107.621853268463 2920.01491586349 16 16 8
94.9026909004154 106.451290304579 2905.73723059419 16 16 8
113.950309289094 104.49779602367 2880.01124392221 18 23 17
80.8039963515266 105.608568204744 2899.2179218457 9 16 9
62.5300276397631 105.856303347655 2905.73375074335 13 16 7
71.3629061025265 104.49014744432 2888.66280465509 18 18 8
74.7193783288766 103.442180394002 2876.26905738445 24 16 5
51.9059341846506 103.975642390165 2886.906674133 30 18 6
39.9112202165366 103.861534724726 2888.09175400746 186 167 153
32.5328127925721 103.468273690665 2885.21136479357 186 163 149
29.7314745819208 102.79256571654 2878.23675135323 186 160 147
28.4302297120975 102.02058690813 2869.87873222306 185 157 143
27.8586673816688 101.198843076 2860.81438683903 174 145 131
27.2555195580386 100.37448530043 2851.72683673976 142 112 102
25.114775056541 99.6434153368355 2843.99578472836 139 110 102
20.6995694721575 99.0547807450186 2838.32175868942 87 67 60
15.5259836910844 98.5137311285971 2833.33353879475 75 58 51
11.8393483474204 97.8753310201851 2826.95238017041 123 110 104
9.62618554701411 97.1385287903312 2819.16880155359 166 161 157
8.13187051463515 96.3510286332048 2810.67074312357 165 161 158
8.08921524888895 95.4633190461821 2800.7541485224 140 140 138
14.6462201193733 94.129829968951 2784.50361181987 121 122 117
24.8031177951304 92.5432059411351 2764.68565995893 9 8 4
43.6572147076126 90.3537103842624 2736.34811678751 16 12 9
315.035348691671 68.8253198299763 2440.15162529628 22 21 17
319.597268196406 67.4372319770856 2423.68956871052 18 17 13
316.146264820941 66.5986618380575 2415.00784309247 103 102 98
306.914097867379 66.1636549768321 2412.01844921274 102 101 97
298.411415919538 65.6789567051783 2408.32258625565 88 87 85
290.631692405392 65.1439980676912 2403.91522561096 85 84 82
282.14194344837 64.6606761035101 2400.22874502618 88 87 85
276.503525108825 63.9725742380229 2393.66748213501 88 87 83
270.85494513961 63.283793949168 2387.09914390231 88 87 85
270.848266163145 62.1801984319045 2374.73746251781 101 100 98
270.092028937716 61.1250415673483 2363.0676923428 107 106 104
272.103221560081 59.8580942225237 2348.46257736998 106 107 102
290.935367148478 100.476943227139 2884.77862577 13 18 12
296.144757485547 99.3235598644149 2871.25719669122 13 16 9
295.622566210691 98.4862495389118 2862.22856259166 12 15 8
291.838038025031 97.8305691114884 2855.77635182879 12 13 5
289.650577693872 97.0811670257019 2848.0113416597 11 12 4
293.064201210688 96.0046720498483 2835.65888007961 10 11 3
288.412791431448 95.3899720014615 2829.81349255229 11 12 7
254.98844710119 96.4596010607731 2847.58337455852 10 12 7
234.461050632447 96.7896566752087 2854.93643028944 7 12 5
199.708936462915 97.9753313578429 2874.21444465553 8 13 6
176.207269978663 98.5110957216037 2884.35316600435 13 18 11
159.913088826896 98.6269211526873 2888.5984071187 13 18 11
116.094646616228 100.417750795014 2916.12843501338 14 17 8
97.6319450508893 100.693028209893 2922.50788142177 15 15 7
76.887641609626 101.11837270969 2930.9395104225 15 15 7
91.3904109888159 99.3782877943127 2909.3307554014 15 15 7
103.440441777625 97.7740325825662 2889.65005020095 2 9 2
81.9755902585775 98.2527348665193 2898.79464541973 19 29 21
54.3985648913772 99.1292744716319 2913.39158696485 12 15 6
64.0312905466378 97.6637493405921 2895.66463274507 15 15 5
58.1658659800111 97.1746343567699 2891.41018383855 18 8 0
39.2389997974059 97.5247564011596 2898.68856314212 19 3 0
33.4089531147317 97.0386717159747 2894.45977576773 194 171 157
31.3973947024455 96.3038229439837 2886.82205989194 184 158 143
30.8861390641519 95.4672790393695 2877.80135715077 179 153 138
30.3431082037622 94.6281460514443 2868.75760675877 165 138 121
28.2535585426036 93.8869894768886 2861.06361588901 155 128 111
26.8962950123433 93.0935052887305 2852.6648787074 151 119 106
26.2644854519793 92.2471503641115 2843.55673416063 139 107 96
25.6008035532052 91.3982134246309 2834.42547159713 114 90 80
24.9054382196534 90.5466844792586 2825.27093342957 81 61 54
21.1929035561353 89.8974188322214 2818.87094479945 63 48 41
18.9541949281922 89.144253397657 2811.06876458421 202 195 189
15.9505970180041 88.4408386792269 2803.94738843112 158 153 149
18.845908906 87.3219364743566 2791.21897688902 133 132 128
31.2747770581638 85.5235114833994 2769.34154773442 2 1 0
49.474725572388 83.2989550353825 2741.76465746776 9 6 1
320.592287812794 59.7462099289032 2435.48813621614 17 16 12
322.244201030477 58.524696634782 2421.85783869709 13 12 8
316.621228559952 57.8310352620108 2415.307744686 106 105 101
308.108654248401 57.3503001678354 2411.60473061762 92 91 87
300.321333519861 56.8167274890647 2407.19186961024 82 81 79
293.252670814656 56.2298679499554 2402.06467260324 84 83 81
284.756147399472 55.7509708517271 2398.37330348198 87 86 84
278.40040762314 55.1104643973446 2392.52761115925 89 88 86
274.165782010218 54.3066999736984 2384.51303398495 89 88 86
274.151933583204 53.1745635454741 2372.14601074741 101 99 100
274.79716886756 51.9842095215737 2359.02143984498 107 106 104
273.988376796228 50.8995981743334 2347.31342234784 107 108 103
282.238643676949 49.096228283852 2326.11250975055 117 118 112
278.726087793517 94.4305287071422 2904.30513613583 0 2 0
289.720281210456 92.9075920568219 2886.32951704477 13 16 9
298.184945172651 91.5221756716589 2870.22658347803 11 14 7
297.659364883896 90.6648902751748 2861.19539143229 12 15 8
295.486691094629 89.9025462935156 2853.44074031269 14 15 7
286.845805766092 89.530136816615 2850.88029616961 12 13 5
307.143372763307 87.3885537360147 2824.82443458313 10 11 5
288.832608090789 87.6037553993035 2830.07838788587 11 12 7
280.975250949468 87.180371885893 2826.85064522428 10 12 7
262.765732569878 87.4039353459548 2832.17833095664 7 12 5
204.089498584667 90.1778813632281 2871.17503437894 8 13 6
163.930229430112 91.8239248065074 2895.18146391895 11 16 9
142.136767959913 92.3294617982987 2904.08797869434 12 17 10
107.031425879403 93.6998755247152 2924.34590297838 13 16 7
83.8768177503049 94.3242909064928 2934.73666337033 14 14 6
80.4123367631489 93.686263353012 2928.51655106709 14 14 6
69.899556761587 93.5060285780662 2928.30550829469 15 16 8
98.3817735631516 90.7687717510128 2894.59327598622 14 19 12
87.8100692142301 90.5836588951112 2894.33949298847 20 25 18
69.5136988768295 90.9161882750144 2900.83980644617 20 20 12
59.7874188809291 90.6854591892562 2899.96362191978 26 22 13
45.4585603430036 90.7679891153329 2903.16303095525 27 13 2
33.4823738577787 90.6982336340799 2904.36176645001 172 154 140
32.2673034978109 89.8993611787993 2896.06608083946 174 148 135
30.2607197727802 89.1507814220854 2888.4321961475 181 153 139
28.2314101566481 88.4002905125537 2880.7815328147 166 137 121
27.6982767970955 87.5422886814242 2871.74486175787 162 133 117
26.3759406803166 86.7346816957186 2863.37137266893 159 130 114
28.8023266833459 85.6588683240233 2851.53857610509 165 132 117
28.1671762546107 84.792542228748 2842.42790853362 151 119 104
28.2509875612766 83.8700712381154 2832.60311065338 130 104 91
30.5446857669209 82.7833937650017 2820.67377636768 117 97 86
29.8030382592716 81.9084252826914 2811.48586301555 103 86 78
31.2622797661781 80.8685168113377 2800.18718126118 34 27 21
27.482148455984 80.2050674209961 2793.73811853585 137 134 129
34.7852352791125 78.7232651323604 2776.79264469811 13 14 9
47.9092538968269 76.797553057736 2754.18346358786 7 8 3
64.5950151885306 74.5880735476267 2727.9790563153 17 18 12
62.8119831606298 73.7430807339014 2719.27170403908 10 9 4
329.057447044341 50.407140186848 2427.99082573986 12 11 7
324.891570380535 49.5964541598383 2420.02634556369 52 51 47
317.817958308907 49.0081481500859 2414.89555332869 114 113 109
309.302943461822 48.5321740819755 2411.19079417955 76 75 71
301.513478482461 48.0006382161372 2406.77638907584 86 85 83
295.15827543812 47.3565607422126 2400.93106775367 84 83 81
286.657406060641 46.882245014901 2397.23627688012 86 85 83
280.297611035546 46.2381241303077 2391.38762651322 91 90 88
276.768099436082 45.3655279855761 2382.64911073674 93 92 90
275.335845704172 44.3194667271591 2371.72436446951 102 100 101
275.276160366897 43.155776380136 2359.32395325069 108 107 105
275.873472647415 41.9309362891396 2346.16446726132 130 131 126
292.204625826139 86.0154459992057 2894.27133349672 67 68 60
315.385756477022 83.667158425 2866.59937737745 8 9 1
322.160375909088 82.3288590954324 2851.74160637905 14 15 7
314.280437344843 81.9088037165671 2848.4972163427 15 16 8
312.872488301087 81.0771100764567 2840.0618370893 11 14 7
298.544313220903 81.070488574322 2842.02625337911 10 13 6
294.706601728934 80.3927557928581 2835.535377203 10 13 6
286.847714313344 79.9741966884497 2832.30625517249 11 12 7
290.186278376397 78.8246287293926 2819.89930574048 10 12 7
277.530106605816 78.7194276358585 2820.60492585126 7 12 5
194.163200465175 83.3008690914567 2880.00106969917 9 14 7
188.111972673972 82.7951336991584 2875.61184388427 10 15 8
161.506817358401 83.6671386285066 2888.44292406611 12 17 10
100.329228456068 86.8883727649909 2930.56904852375 13 16 7
85.0525014329779 87.0402872965358 2934.31671554171 15 15 7
56.5007007508065 88.1067754221427 2949.44302041418 15 15 7
96.0856748515395 84.5095734469559 2906.48366178489 16 16 8
112.029400416968 82.5083583113991 2883.44779624326 14 15 9
99.8647337779772 82.4441649136723 2884.51022110226 4 5 0
91.6100878691393 82.1114690151743 2882.22997131438 21 18 9
60.9521999650688 83.3591400113924 2899.53555622812 26 19 9
39.682759966825 83.962794886272 2908.82244233813 24 7 0
31.5656418940398 83.6416734189084 2906.64194804037 186 167 153
31.8907845801446 82.7164983902552 2896.99208273086 172 146 133
32.9439914139429 81.7331572892774 2886.63438093083 159 131 117
32.4327462670615 80.8572131884648 2877.61348622535 139 110 96
28.0908994994555 80.2564937826932 2871.99257834627 151 119 104
24.4968096024873 79.5992737369672 2865.67841256456 161 129 114
26.1761169893182 78.5494420539749 2854.53921099997 162 129 112
26.3040165320496 77.6081238354985 2844.74627815802 156 123 106
28.6486622505855 76.4949952041102 2832.85403730838 137 111 96
31.6927778005009 75.321309362114 2820.2332192265 110 91 77
36.9228778359605 73.9732613234157 2805.4907804059 94 77 67
46.5520622291202 72.2786062826821 2786.52506183228 7 3 0
47.1816539074994 71.2606339747947 2775.86009695181 18 15 8
49.9903032698934 70.0677188085009 2763.0687814822 24 25 20
85.2078727704701 66.3449482877102 2719.41283528219 5 7 2
83.3984851257377 65.4806635417578 2710.68598506241 14 17 10
102.096505642751 62.9967768013653 2682.23351315467 25 26 20
329.303110543708 42.8197316436914 2440.48173045623 19 18 13
331.711064007911 41.4752516431181 2426.16384316677 32 31 27
326.090070209056 40.7695582489428 2419.61541706947 105 104 100
318.292124750419 40.2392023639309 2415.19487026219 121 120 116
310.497298847853 39.7092784291965 2410.77658707559 77 76 72
303.423506573043 39.1207337816697 2405.64566299871 90 89 87
295.632660621354 38.5915160245641 2401.23056301739 86 85 83
287.845172100155 38.0627092579323 2396.81760451381 85 84 82
280.772192662639 37.474768153628 2391.68727273709 92 91 89
277.243587076032 36.5880263780259 2382.94934209826 95 94 92
275.812693250857 35.5196414846158 2372.02546858283 103 101 102
277.164187752411 34.2078337521502 2358.17693376607 110 109 107
274.948857285254 33.1933767213267 2347.92000964964 121 122 117
341.874723688321 74.2045707758364 2846.22974823494 14 14 4
329.892810766944 74.0557192487706 2846.18889524765 15 16 8
334.148248460509 72.827867744705 2833.21087944964 14 15 7
323.798736057957 72.5717124139957 2831.88277166229 13 16 9
311.052605463317 72.4805521944873 2832.52324982149 12 15 8
275.834377242174 73.9215546620717 2851.46466144976 10 11 6
284.059676446851 72.4162729008772 2835.18760012024 11 12 7
318.586166795956 69.089730148532 2797.20816048974 10 12 7
276.354710435279 71.0406551741717 2822.18432932211 7 12 5
232.729728549953 73.1186537486993 2848.62101867333 7 12 5
203.580884467637 74.2141578771056 2863.31466101527 9 14 7
147.676342563369 77.2146498915363 2900.6163663134 11 16 9
140.14285301331 76.8280928561352 2897.62358871376 12 15 6
145.983816086674 75.4887115743151 2883.32402144463 12 15 6
75.7032366653694 79.6019432708404 2933.6773294096 15 15 7
118.371739702843 75.615882051362 2888.01058159274 16 16 8
117.105114356695 74.7786894768605 2879.67732857352 16 13 6
122.030935462934 73.4846488864323 2865.94991612808 19 14 8
87.3545335566188 75.0926268672619 2886.51999160821 18 8 0
58.2512446278631 76.313797749696 2902.48233100925 19 6 0
40.8420729448564 76.6854213524654 2908.39095509602 178 158 147
35.797238125252 76.1415538087755 2903.49605524765 189 165 153
35.3461021368311 75.2508832487713 2894.51866036151 156 127 113
36.3920349922111 74.2417559203623 2884.15555488697 146 117 103
32.8245717193205 73.5779404592094 2877.86065790621 156 124 109
27.7230654889529 73.0295565789991 2872.92465286662 159 127 112
24.1316722389673 72.3638323947345 2866.61239886672 161 129 114
24.3037983000867 71.403697664355 2856.85113698542 163 128 109
24.4395308470571 70.4406250118344 2847.06377226491 158 125 106
26.7925140850211 69.2975232353086 2835.17742364115 128 102 85
30.5939914570583 68.0319549174002 2821.87013127498 134 115 100
32.843849076047 66.8803689696402 2809.90868723819 127 113 100
54.4020317986833 64.1758240650785 2779.82338038749 12 8 0
63.918931943959 62.4138524001312 2760.77592359435 16 16 8
72.6024181888514 60.7040755058996 2742.35931380787 15 16 8
88.5760119681742 58.3857216735535 2716.87342074349 21 26 19
102.209157256794 56.237297081865 2693.39715171028 6 11 4
85.6477100549999 56.5592386215572 2698.68472660915 17 20 13
325.399485228817 34.4564971546545 2445.02035645576 16 19 12
327.822774612657 33.0770697185498 2430.71340948607 23 24 19
322.940249018994 32.3052558199495 2423.46464873079 120 121 116
316.598243033385 31.6551827488134 2417.62886386925 125 126 121
309.530265358503 31.0664370308062 2412.50215390148 83 84 79
302.461123113113 30.4777612650918 2407.37460006603 94 94 92
294.674869605812 29.9511007740293 2402.96254772169 89 89 87
289.032763136814 29.2384843702416 2396.39878153282 85 85 83
284.092219988529 28.4628814958684 2389.10794342213 93 93 91
279.84650511627 27.6237419596019 2381.08544270219 97 97 95
277.703171486085 26.5951630412303 2370.88063909922 106 106 106
274.822913884655 25.6270092830507 2361.37696627731 114 114 112
276.131113113927 24.2783720377638 2347.49685924496 132 133 128
352.889555237202 65.6401980490704 2838.1146003689 23 20 11
337.627459473916 65.7339779234717 2840.63754280665 13 14 6
