ply
format ascii 1.0
comment KinectMotionCapture
element vertex 759
property float x
property float y
property float z
property uchar red
property uchar green
property uchar blue
end_header
-90.304046869278 526.77708864212 2693.00007820129 141 142 137
-83.129346370697 527.761816978455 2697.99995422363 139 140 135
-76.0676041245461 529.72400188446 2707.99994468689 143 145 140
-47.2741052508354 537.567853927612 2747.99990653992 212 214 211
-39.3309965729713 531.311273574829 2716.00008010864 150 151 146
-31.7971408367157 528.96648645401 2703.9999961853 136 137 132
-24.2019910365343 523.882508277893 2677.99997329712 144 145 140
-16.7735647410154 519.580364227295 2655.99989891052 149 150 145
-9.47922747582197 516.06011390686 2638.00001144409 146 147 142
-2.28546466678381 513.126194477081 2622.99990653992 153 154 149
4.82664490118623 510.191679000854 2608.00004005432 175 176 171
11.8982316926122 509.017288684845 2601.99999809265 146 147 142
18.9662948250771 508.624792098999 2599.99990463257 150 151 146
26.0033775120974 507.840633392334 2595.99995613098 150 151 146
32.9421684145927 505.882084369659 2585.99996566772 154 155 150
39.8573353886604 504.314303398132 2578.00006866455 161 162 157
46.7833653092384 503.332793712616 2572.99995422363 162 163 158
53.6820366978645 502.350866794586 2568.00007820129 167 168 163
60.6005601584911 501.759588718414 2565.00005722046 165 166 161
67.5552561879158 501.559019088745 2563.99989128113 162 163 158
74.4461566209793 500.966727733612 2561.00010871887 160 161 156
81.3204795122147 500.373840332031 2558.00008773804 160 161 156
88.1782323122025 499.780565500259 2555.0000667572 160 161 156
95.0565934181213 499.382257461548 2552.99997329712 161 162 157
101.963736116886 499.179124832153 2552.00004577637 161 162 157
108.907781541348 499.171078205109 2552.00004577637 161 162 157
115.896873176098 499.358057975769 2552.99997329712 159 160 155
122.84293025732 499.348968267441 2552.99997329712 159 160 155
129.839435219765 499.534904956818 2553.99990081787 161 162 157
136.948108673096 500.11157989502 2556.99992179871 162 163 158
144.016370177269 500.492095947266 2559.00001525879 161 162 157
151.154085993767 501.067698001862 2562.00003623962 159 160 155
158.369362354279 501.838266849518 2565.99998474121 158 159 154
165.799215435982 503.195106983185 2572.99995422363 156 157 152
173.199474811554 504.355728626251 2578.9999961853 156 157 152
180.562019348145 505.320370197296 2584.00011062622 156 157 152
188.02373111248 506.479918956757 2589.99991416931 143 144 139
195.366904139519 507.247865200043 2594.00010108948 148 149 144
202.965348958969 508.60196352005 2601.0000705719 149 150 145
210.520476102829 509.759902954102 2607.00011253357 153 154 149
218.191057443619 511.112868785858 2614.00008201599 149 150 145
225.640490651131 511.878669261932 2618.00003051758 135 136 131
233.288809657097 513.034999370575 2624.00007247925 133 134 129
240.969091653824 514.190793037415 2630.00011444092 145 146 141
249.058589339256 516.128063201904 2640.00010490417 147 148 143
257.492929697037 518.651306629181 2653.00011634827 122 123 118
266.096919775009 521.369278430939 2667.00005531311 145 146 141
274.468749761581 523.500263690948 2677.99997329712 164 165 160
282.899498939514 525.630593299866 2688.99989128113 189 190 185
287.180334329605 520.137190818787 2661.00001335144 208 208 206
290.091276168823 512.49372959137 2621.99997901917 138 138 136
295.396715402603 509.345889091492 2605.99994659424 136 136 134
300.730526447296 506.393253803253 2591.00008010864 132 132 130
305.982112884521 503.44055891037 2575.99997520447 141 141 139
312.244921922684 502.246558666229 2569.9999332428 153 153 151
318.722695112228 501.443088054657 2565.99998474121 151 151 149
325.431793928146 501.030147075653 2563.99989128113 152 152 150
331.481009721756 499.639928340912 2556.99992179871 154 154 152
337.756127119064 498.640269041061 2552.00004577637 154 154 152
344.408392906189 498.226493597031 2549.99995231628 155 157 154
351.600080728531 498.593956232071 2552.00004577637 163 165 162
358.942210674286 499.156355857849 2555.0000667572 188 190 187
367.445260286331 501.281261444092 2565.99998474121 184 186 183
-162.916302680969 517.269492149353 2681.99992179871 195 197 194
-155.15661239624 515.738427639008 2674.00002479553 179 181 178
-147.495284676552 514.399707317352 2667.00005531311 165 166 161
-140.29224216938 514.603435993195 2667.99998283386 158 159 154
-133.133172988892 514.999568462372 2670.00007629395 155 156 151
-126.009941101074 515.588045120239 2673.00009727478 157 158 153
-118.825539946556 515.983045101166 2674.99995231628 163 164 158
-111.7133051157 516.76332950592 2678.99990081787 159 160 154
-104.617908596992 517.736077308655 2684.00001525879 153 154 148
-97.5674912333488 519.094049930573 2690.99998474121 142 143 138
-90.378038585186 519.872844219208 2694.9999332428 140 141 136
-83.1665322184563 520.651042461395 2698.99988174438 140 141 136
-76.2139111757278 523.357927799225 2713.00005912781 132 134 129
-39.1312763094902 521.257936954498 2701.99990272522 168 169 164
-31.6819958388805 519.717395305634 2694.00000572205 152 153 148
-24.1767447441816 516.054093837738 2674.99995231628 153 154 149
-16.7874917387962 512.776017189026 2657.99999237061 145 146 141
-9.49792750179768 509.883284568787 2642.99988746643 145 146 141
-2.28912685997784 506.797075271606 2627.00009346008 163 164 159
4.83257044106722 503.710269927979 2611.00006103516 171 172 167
11.9082974269986 502.359211444855 2604.00009155273 146 147 142
18.975056707859 501.77925825119 2601.0000705719 152 153 148
26.0053835809231 500.812947750092 2595.99995613098 151 152 147
32.9701900482178 499.267339706421 2588.00005912781 157 158 153
39.8758724331856 497.528314590454 2578.9999961853 162 163 158
46.786967664957 496.367424726486 2572.99995422363 165 166 161
53.6861680448055 495.399057865143 2568.00007820129 170 171 166
60.6052204966545 494.815915822983 2565.00005722046 167 168 163
67.5341039896011 494.42520737648 2562.99996376038 162 163 158
74.4518712162972 494.033932685852 2561.00010871887 159 160 155
81.3903138041496 493.835091590881 2559.99994277954 159 160 155
88.2885307073593 493.442803621292 2558.00008773804 160 161 156
95.1755717396736 493.050009012222 2555.99999427795 161 162 157
102.051436901093 492.656677961349 2553.99990081787 161 162 157
109.001442790031 492.648661136627 2553.99990081787 162 163 158
115.905709564686 492.447257041931 2552.99997329712 160 161 156
122.900374233723 492.631047964096 2553.99990081787 160 161 156
129.950970411301 493.007272481918 2555.99999427795 161 162 157
136.958464980125 493.190079927444 2556.99992179871 163 164 159
143.970966339111 493.372440338135 2558.00008773804 162 163 158
151.106476783752 493.939965963364 2561.00010871887 159 160 155
158.442974090576 495.085507631302 2566.99991226196 158 159 154
165.811628103256 496.23054265976 2572.99995422363 157 158 153
173.212423920631 497.375071048737 2578.9999961853 157 158 153
180.505558848381 498.133361339569 2582.99994468689 157 158 153
187.81989812851 498.891085386276 2586.99989318848 146 147 142
195.306047797203 500.034034252167 2592.99993515015 147 148 143
202.980309724808 501.562058925629 2601.0000705719 148 149 144
210.616707801819 502.89660692215 2608.00004005432 152 153 148
218.040093779564 503.652274608612 2611.99998855591 156 157 152
225.656971335411 504.792988300323 2618.00003051758 150 151 146
233.483612537384 506.318807601929 2625.99992752075 143 144 139
241.078168153763 507.265686988831 2631.00004196167 136 137 132
249.265268445015 509.368717670441 2641.99995994568 137 138 133
257.51143693924 511.471331119537 2653.00011634827 134 135 130
266.215741634369 514.344334602356 2667.99998283386 184 185 180
274.180799722672 515.674471855164 2674.99995231628 189 190 185
282.814383506775 518.160820007324 2687.99996376038 210 210 208
290.222674608231 518.333375453949 2688.99989128113 212 212 210
290.332973003387 505.783796310425 2624.00007247925 171 171 169
295.757472515106 502.871990203857 2608.99996757507 129 129 127
300.983637571335 499.767333269119 2592.99993515015 130 130 128
306.359708309174 497.048079967499 2578.9999961853 148 148 146
312.752455472946 496.063083410263 2573.99988174438 152 152 150
319.241434335709 495.270490646362 2569.9999332428 150 150 148
325.707912445068 494.477719068527 2565.99998474121 156 156 154
331.503480672836 492.721080780029 2556.99992179871 159 159 157
337.778866291046 491.735100746155 2552.00004577637 157 157 155
344.431489706039 491.326838731766 2549.99995231628 155 157 154
351.623505353928 491.689026355743 2552.00004577637 164 166 163
359.106451272964 492.436110973358 2555.99999427795 186 188 185
367.326259613037 494.146138429642 2565.00005722046 184 186 183
-172.953143715858 518.172740936279 2724.99990463257 207 212 208
-162.807002663612 509.628176689148 2680.0000667572 188 190 187
-155.052185058594 508.118689060211 2671.99993133545 177 179 176
-147.395730018616 506.79886341095 2664.99996185303 169 170 165
-140.302792191505 507.380127906799 2667.99998283386 158 159 154
-133.143201470375 507.770776748657 2670.00007629395 152 153 148
-125.972300767899 508.160769939423 2671.99993133545 157 158 153
-118.745699524879 508.360266685486 2673.00009727478 150 151 145
-111.680075526237 509.319841861725 2677.99997329712 158 159 153
-104.586869478226 510.278940200806 2683.00008773804 159 160 154
-97.6111590862274 511.998295783997 2691.99991226196 152 153 148
-90.3849229216576 512.576043605804 2694.9999332428 149 150 145
-83.2036957144737 513.533651828766 2700.00004768372 149 150 145
-76.219730079174 516.01231098175 2713.00005912781 138 140 135
-46.9372570514679 518.884062767029 2727.9999256134 215 217 214
-39.0328913927078 512.610495090485 2694.9999332428 180 181 176
-31.6256172955036 511.471927165985 2688.99989128113 141 142 137
-24.1876393556595 509.00137424469 2676.00011825562 143 144 139
-16.8077293783426 506.14982843399 2661.00001335144 138 139 134
-9.50943771749735 503.297626972198 2645.99990844727 148 149 144
-2.28930241428316 499.684065580368 2627.00009346008 175 176 171
4.84034512192011 497.401475906372 2615.00000953674 160 161 156
11.9320787489414 496.259540319443 2608.99996757507 149 150 145
18.9984012395144 495.307356119156 2604.00009155273 155 156 151
26.0073784738779 493.783950805664 2595.99995613098 156 157 152
32.9599753022194 492.069751024246 2586.99989318848 163 164 159
39.8943834006786 490.735530853271 2579.99992370605 166 167 162
46.8087419867516 489.591002464294 2573.99988174438 171 172 167
53.7111833691597 488.636165857315 2569.00000572205 174 175 170
60.6098584830761 487.870991230011 2565.00005722046 166 167 162
67.5392523407936 487.485647201538 2562.99996376038 162 163 158
74.4284763932228 486.909657716751 2559.99994277954 161 162 157
81.3965126872063 486.903756856918 2559.99994277954 161 162 157
88.226206600666 486.136496067047 2555.99999427795 161 162 157
95.1455682516098 485.939383506775 2555.0000667572 160 161 156
102.139100432396 486.122101545334 2555.99999427795 160 161 156
109.180428087711 486.494541168213 2558.00008773804 160 161 156
115.959867835045 485.725253820419 2553.99990081787 162 163 158
122.909650206566 485.716283321381 2553.99990081787 160 161 156
129.909917712212 485.89700460434 2555.0000667572 160 161 156
137.129440903664 486.837804317474 2559.99994277954 163 164 159
144.094333052635 486.827343702316 2559.99994277954 163 164 159
151.235774159431 487.386763095856 2562.99996376038 160 161 156
158.393070101738 487.945705652237 2565.99998474121 161 162 157
165.823996067047 489.264786243439 2572.99995422363 160 161 156
173.225283622742 490.393131971359 2578.9999961853 160 161 156
180.588811635971 491.330802440643 2584.00011062622 161 162 157
187.906369566917 492.077767848969 2588.00005912781 150 151 146
195.320397615433 493.014365434647 2592.99993515015 143 144 139
202.99519598484 494.520843029022 2601.0000705719 150 151 146
210.551351308823 495.64653635025 2607.00011253357 153 154 149
218.055963516235 496.581494808197 2611.99998855591 155 156 151
225.673347711563 497.706115245819 2618.00003051758 162 163 158
233.500495553017 499.210357666016 2625.99992752075 158 159 154
241.095557808876 500.143766403198 2631.00004196167 150 151 146
248.905763030052 501.4568567276 2638.00001144409 143 144 139
257.141560316086 503.529727458954 2648.9999294281 146 147 142
265.635967254639 505.982220172882 2661.99994087219 192 193 188
274.200260639191 508.433997631073 2674.99995231628 187 188 183
283.570915460587 512.215614318848 2694.9999332428 195 196 191
290.906548500061 499.631822109222 2628.99994850159 206 206 204
296.004831790924 496.190696954727 2611.00006103516 124 124 122
301.236659288406 493.129462003708 2595.00002861023 127 127 125
306.618422269821 490.448117256165 2581.00008964539 153 153 151
313.016921281815 489.476799964905 2575.99997520447 151 151 149
319.387465715408 488.505214452744 2571.00009918213 151 151 149
325.476080179214 487.153291702271 2563.99989128113 157 157 155
331.266611814499 485.421270132065 2555.0000667572 159 159 157
337.669193744659 484.638899564743 2551.00011825562 158 158 156
344.589591026306 484.616160392761 2551.00011825562 156 158 155
351.646810770035 484.78302359581 2552.00004577637 165 167 164
359.130084514618 485.519409179688 2555.99999427795 184 186 183
367.636680603027 487.585037946701 2566.99991226196 185 187 184
-162.636801600456 501.808881759644 2677.00004577637 195 197 194
-154.947653412819 500.508427619934 2670.00007629395 179 181 178
-147.462025284767 499.769777059555 2665.99988937378 168 169 164
-140.418455004692 500.530421733856 2670.00007629395 161 162 157
-133.252903819084 500.91552734375 2671.99993133545 158 159 154
-126.170352101326 501.675069332123 2676.00011825562 155 156 151
-118.932314217091 501.871705055237 2677.00004577637 159 160 154
-111.813597381115 502.630293369293 2680.99999427795 161 162 156
-104.750692844391 503.763318061829 2687.00003623962 161 162 156
-97.6910665631294 505.08326292038 2694.00000572205 156 157 152
-90.4923751950264 505.840361118317 2697.99995422363 152 153 148
-83.2408145070076 506.409347057343 2700.99997520447 149 150 145
-76.2816891074181 509.040176868439 2714.99991416931 137 139 134
-47.1473149955273 513.74626159668 2740.00000953674 213 215 212
-39.1227677464485 506.437063217163 2700.99997520447 173 174 169
-31.6162630915642 504.002273082733 2687.99996376038 142 143 138
-24.1804402321577 501.566886901855 2674.99995231628 141 142 137
-16.8216452002525 499.318420886993 2663.00010681152 139 140 135
-9.5101622864604 496.131837368011 2645.99990844727 149 150 145
-2.28860531933606 492.382258176804 2625.99992752075 172 173 168
4.8425649292767 490.507125854492 2615.9999370575 154 155 150
11.9421351701021 489.569008350372 2611.00006103516 151 152 147
19.0071444958448 488.442808389664 2605.00001907349 155 156 151
26.0093584656715 486.753553152084 2595.99995613098 158 159 154
32.9752266407013 485.251367092133 2588.00005912781 166 167 162
39.8819595575333 483.56106877327 2578.9999961853 168 169 164
46.8122959136963 482.62020945549 2573.99988174438 172 173 168
53.6734461784363 481.303989887238 2566.99991226196 174 175 170
60.6144554913044 480.924665927887 2565.00005722046 164 165 160
67.5180330872536 480.357378721237 2562.00003623962 160 161 156
74.4341239333153 479.977011680603 2559.99994277954 162 163 158
81.3708752393723 479.783684015274 2559.00001525879 162 163 158
88.301919400692 479.589760303497 2558.00008773804 161 162 157
95.2644720673561 479.582846164703 2558.00008773804 160 161 156
102.30664908886 479.950398206711 2559.99994277954 160 161 156
109.316699206829 480.129987001419 2561.00010871887 159 160 155
116.150207817554 479.559063911438 2558.00008773804 163 164 159
123.015120625496 479.175209999084 2555.99999427795 160 161 156
129.91963326931 478.978246450424 2555.0000667572 160 161 156
137.086123228073 479.718208312988 2559.00001525879 163 164 159
144.105046987534 479.895174503326 2559.99994277954 163 164 159
151.365041732788 480.821520090103 2565.00005722046 161 162 157
158.590003848076 481.559872627258 2569.00000572205 162 163 158
165.836244821548 482.29768872261 2572.99995422363 162 163 158
173.305228352547 483.597368001938 2579.99992370605 160 161 156
180.671989917755 484.521567821503 2585.00003814697 161 162 157
188.065364956856 485.445201396942 2589.99991416931 156 157 152
195.334672927856 485.993474721909 2592.99993515015 150 152 147
202.931940555573 487.290978431702 2599.99990463257 149 151 146
210.405096411705 488.213062286377 2605.00001907349 152 154 149
217.988282442093 489.32209610939 2611.00006103516 159 161 156
225.775822997093 490.805298089981 2618.99995803833 149 151 146
233.784064650536 492.662847042084 2628.99994850159 138 140 135
241.571038961411 493.957579135895 2635.99991798401 128 130 125
249.300926923752 495.064377784729 2641.99995994568 128 130 125
257.548153400421 497.107625007629 2653.00011634827 129 131 126
266.153752803802 499.712258577347 2667.00005531311 158 160 155
274.834662675858 502.316415309906 2680.99999427795 164 166 161
284.74834561348 506.980776786804 2706.00008964539 188 190 185
290.92675447464 492.514908313751 2628.99994850159 214 214 214
295.798510313034 488.747954368591 2608.99996757507 159 159 159
301.025182008743 485.730171203613 2592.99993515015 148 148 148
306.639432907104 483.46158862114 2581.00008964539 153 153 153
312.79519200325 482.129275798798 2573.99988174438 154 154 154
318.912148475647 480.796784162521 2566.99991226196 156 156 156
325.117200613022 479.651302099228 2561.00010871887 158 158 158
331.288754940033 478.505581617355 2555.0000667572 158 158 158
337.691724300385 477.734237909317 2551.00011825562 159 159 159
344.342201948166 477.337062358856 2549.00002479553 157 159 156
351.394355297089 477.501392364502 2549.99995231628 168 170 167
359.153628349304 478.601634502411 2555.99999427795 181 183 180
367.517381906509 480.450391769409 2565.99998474121 188 190 187
-162.891820073128 495.297700166702 2680.99999427795 185 187 184
-155.133202672005 493.83145570755 2673.00009727478 174 176 173
-147.583588957787 492.918819189072 2667.99998283386 166 167 162
-140.481472015381 493.483752012253 2671.0000038147 156 157 152
-133.262798190117 493.678599596024 2671.99993133545 151 152 147
-126.085445284843 494.057774543762 2674.00002479553 156 157 152
-118.896767497063 494.436413049698 2676.00011825562 150 151 145
-111.905373632908 495.738387107849 2683.00008773804 140 141 135
-104.875504970551 497.03985452652 2690.00005722046 145 146 140
-97.734659910202 497.971296310425 2694.9999332428 161 162 157
-90.4991701245308 498.532623052597 2697.99995422363 161 162 157
-83.2778811454773 499.278247356415 2701.99990272522 158 159 154
-76.3436406850815 502.056002616882 2717.00000762939 129 131 126
-47.2713336348534 507.618188858032 2746.99997901917 207 209 206
-39.2416156828403 500.599384307861 2709.00011062622 140 141 136
-31.6186547279358 496.721416711807 2687.99996376038 154 155 150
-24.164192378521 493.951708078384 2673.00009727478 152 153 148
-16.8039668351412 491.550892591476 2660.00008583069 146 147 142
-9.50728822499514 488.779962062836 2644.99998092651 153 154 149
-2.28703580796719 484.899759292603 2624.00007247925 163 164 159
4.84478333964944 483.606100082397 2617.00010299683 147 148 143
11.9521878659725 482.866257429123 2612.99991607666 154 155 150
19.0231781452894 481.75635933876 2607.00011253357 153 154 149
25.9912889450789 479.352355003357 2594.00010108948 160 161 156
32.9267494380474 477.502197027206 2584.00011062622 169 170 165
39.8540385067463 476.205855607986 2576.99990272522 172 173 168
46.7976443469524 475.463479757309 2572.99995422363 173 174 169
53.6984093487263 474.535763263702 2568.00007820129 173 174 169
60.6426633894444 474.161893129349 2565.99998474121 162 163 158
67.5231069326401 473.417937755585 2562.00003623962 158 159 154
74.4106471538544 472.858279943466 2559.00001525879 161 162 157
81.3133865594864 472.482860088348 2556.99992179871 161 162 157
88.239498436451 472.291737794876 2555.99999427795 161 162 157
95.2343717217445 472.469657659531 2556.99992179871 160 161 156
102.194406092167 472.462296485901 2556.99992179871 160 161 156
109.196789562702 472.639173269272 2558.00008773804 160 161 156
116.113439202309 472.446024417877 2556.99992179871 163 164 159
123.072408139706 472.437143325806 2556.99992179871 159 160 155
129.929289221764 472.058296203613 2555.0000667572 159 160 155
137.042701244354 472.602695226669 2558.00008773804 162 163 158
144.115716218948 472.961843013763 2559.99994277954 163 164 159
151.435226202011 474.059402942657 2565.99998474121 161 162 157
158.663406968117 474.786967039108 2569.9999332428 163 164 159
165.848419070244 475.329369306564 2572.99995422363 162 163 158
173.317924141884 476.610094308853 2579.99992370605 160 161 156
180.755078792572 477.705538272858 2585.99996566772 161 162 157
188.296899199486 478.985220193863 2592.99993515015 156 157 152
195.499539375305 479.340761899948 2595.00002861023 155 157 152
202.868565917015 480.065256357193 2598.99997711182 148 150 145
210.33950150013 480.973929166794 2604.00009155273 152 154 149
218.170925974846 482.620894908905 2612.99991607666 155 157 152
225.964426994324 484.082579612732 2621.00005149841 144 146 141
233.711823821068 485.359042882919 2628.00002098084 139 141 136
241.588175296783 486.819595098495 2635.99991798401 140 142 137
249.50735270977 488.279700279236 2644.00005340576 140 142 137
258.051723241806 490.847200155258 2657.99999237061 150 152 147
266.671448945999 493.41407418251 2671.99993133545 159 161 156
275.674045085907 496.534287929535 2688.99989128113 156 158 153
284.136742353439 498.546004295349 2700.00004768372 213 213 213
291.389524936676 486.135393381119 2632.99989700317 215 215 215
295.251935720444 480.761021375656 2604.00009155273 170 170 170
300.697475671768 478.155970573425 2589.99991416931 153 153 153
306.303828954697 475.919991731644 2578.00006866455 152 152 152
312.451809644699 474.606841802597 2571.00009918213 154 154 154
318.436652421951 473.108857870102 2562.99996376038 155 155 155
324.758112430573 472.164392471313 2558.00008773804 159 159 159
331.051498651505 471.219629049301 2552.99997329712 161 161 161
337.714076042175 470.82844376564 2551.00011825562 162 162 162
344.499945640564 470.621377229691 2549.99995231628 157 159 156
351.279526948929 470.414042472839 2549.00002479553 168 170 167
358.895927667618 471.313655376434 2553.99990081787 179 181 178
367.254674434662 473.135530948639 2563.99989128113 188 190 187
378.585696220398 478.647351264954 2594.00010108948 192 197 193
-172.610402107239 494.940489530563 2719.00010108948 209 211 208
-162.903741002083 488.035440444946 2680.99999427795 187 189 186
-154.970467090607 486.044645309448 2670.00007629395 178 180 177
-147.594422101974 485.691547393799 2667.99998283386 159 161 156
-140.439212322235 486.066251993179 2670.00007629395 156 158 153
-133.372396230698 486.804455518723 2674.00002479553 153 155 150
-126.236230134964 487.360209226608 2677.00004577637 145 146 141
-119.083315134048 487.915396690369 2680.0000667572 152 153 148
-112.038806080818 489.016324281693 2686.00010871887 149 150 145
-105.000257492065 490.298748016357 2693.00007820129 130 131 126
-97.8507325053215 491.216629743576 2697.99995422363 130 131 126
-90.6065478920937 491.769731044769 2700.99997520447 150 150 148
-83.3765715360641 492.50453710556 2704.99992370605 163 163 161
-76.4055401086807 495.059490203857 2719.00010108948 140 142 139
-47.0683574676514 497.991144657135 2734.99989509583 182 184 181
-39.2735302448273 493.624418973923 2710.99996566772 150 151 146
-31.5622091293335 488.528788089752 2683.00008773804 147 148 143
-24.0936763584614 485.25333404541 2664.99996185303 159 160 155
-16.7862754315138 483.798205852509 2657.00006484985 153 154 149
-9.49362479150295 480.885833501816 2641.00003242493 163 164 159
-2.2872076369822 477.790862321854 2624.00007247925 152 153 148
4.84144408255816 476.15197300911 2615.00000953674 154 155 150
11.9485110044479 475.605100393295 2611.99998855591 152 153 148
19.0027132630348 474.147230386734 2604.00009155273 154 155 150
25.9631797671318 471.778512001038 2591.00008010864 168 169 164
32.8909903764725 469.955444335938 2581.00008964539 172 173 168
39.8106276988983 468.678116798401 2573.99988174438 174 175 170
46.7647723853588 468.128681182861 2571.00009918213 173 174 169
53.7442527711391 467.942833900452 2569.9999332428 170 171 166
60.7181005179882 467.756479978561 2569.00000572205 162 163 158
67.580871284008 466.841340065002 2563.99989128113 161 162 157
74.3871182203293 465.743660926819 2558.00008773804 159 160 155
81.3194438815117 465.555727481842 2556.99992179871 160 161 156
88.2460698485374 465.367347002029 2555.99999427795 159 160 155
95.2414572238922 465.542644262314 2556.99992179871 159 160 155
102.12205350399 465.171188116074 2555.0000667572 161 162 157
109.16218906641 465.527504682541 2556.99992179871 163 164 159
116.122044622898 465.519219636917 2556.99992179871 163 164 159
123.225912451744 466.05658531189 2559.99994277954 160 161 156
130.142286419868 465.865254402161 2559.00001525879 158 159 154
137.106359004974 465.855360031128 2559.00001525879 161 162 157
144.182622432709 466.209232807159 2561.00010871887 163 164 159
151.505336165428 467.290639877319 2566.99991226196 164 165 160
158.798485994339 468.18944811821 2572.00002670288 164 165 160
165.924951434135 468.541741371155 2573.99988174438 162 163 158
173.263356089592 469.439595937729 2578.9999961853 158 159 154
180.628374218941 470.336884260178 2584.00011062622 157 158 153
188.092648983002 471.415668725967 2589.99991416931 158 159 154
195.438295602798 472.129970788956 2594.00010108948 155 156 150
202.883154153824 473.025739192963 2598.99997711182 153 154 148
210.435330867767 474.102914333344 2605.00001907349 147 148 142
218.102991580963 475.361615419388 2611.99998855591 141 142 137
225.980520248413 476.98375582695 2621.00005149841 150 151 146
233.728379011154 478.241354227066 2628.00002098084 157 158 153
241.78858101368 480.044364929199 2638.00001144409 155 156 151
249.996766448021 482.028782367706 2648.9999294281 138 138 136
258.555293083191 484.558522701263 2663.00010681152 135 135 133
266.989499330521 486.723661422729 2674.99995231628 180 180 178
275.795727968216 489.434063434601 2690.00005722046 192 192 190
284.156411886215 491.23415350914 2700.00004768372 207 209 206
293.291002511978 482.097953557968 2650.00009536743 214 216 213
294.705122709274 472.799986600876 2598.99997711182 160 162 159
300.369590520859 470.596820116043 2586.99989318848 151 153 150
306.086897850037 468.575417995453 2575.99997520447 146 148 145
312.472820281982 467.645168304443 2571.00009918213 154 154 152
318.457931280136 466.168969869614 2562.99996376038 156 156 154
324.779719114304 465.238213539124 2558.00008773804 158 158 156
330.943733453751 464.125335216522 2552.00004577637 160 160 158
337.736308574677 463.92148733139 2551.00011825562 165 165 163
344.252288341522 463.353633880615 2548.00009727478 160 162 159
351.164579391479 463.331013917923 2548.00009727478 164 166 163
358.356982469559 463.671714067459 2549.99995231628 177 179 176
366.705268621445 465.46670794487 2559.99994277954 185 187 184
378.172039985657 471.079379320145 2591.00008010864 191 196 192
-172.051504254341 485.960096120834 2710.00003814697 209 211 208
-162.794008851051 480.41307926178 2678.99990081787 186 188 185
-154.981732368469 478.810697793961 2670.00007629395 179 181 178
-147.660508751869 478.64231467247 2668.99991035461 158 160 155
-140.449479222298 478.832125663757 2670.00007629395 152 154 149
-133.382171392441 479.559481143951 2674.00002479553 151 153 148
-126.198336482048 479.927629232407 2676.00011825562 157 158 153
-119.136489927769 480.833321809769 2680.99999427795 153 154 149
-112.088769674301 481.917917728424 2687.00003623962 155 156 151
-105.04699498415 483.181327581406 2694.00000572205 157 158 153
-97.8942215442657 484.085559844971 2698.99988174438 131 132 127
-90.7139033079147 484.989374876022 2703.9999961853 122 122 120
-83.5985243320465 486.430615186691 2711.99989318848 123 123 121
-76.6079276800156 488.947659730911 2726.0000705719 161 163 160
-55.0177581608295 495.060741901398 2759.99999046326 210 212 209
-46.8653291463852 488.427817821503 2723.00004959106 181 183 180
-39.189524948597 485.202252864838 2704.99992370605 153 153 151
-31.5175019204617 480.541199445724 2678.99990081787 151 152 147
-24.086432531476 477.852672338486 2664.00003433228 162 163 158
-16.7622547596693 475.881099700928 2653.00011634827 160 161 156
-9.48354694992304 473.191440105438 2638.00001144409 166 167 162
-2.28650611825287 470.501214265823 2622.99990653992 152 153 148
4.84180497005582 469.066113233566 2615.00000953674 154 155 150
11.9448276236653 468.347996473312 2611.00006103516 152 153 148
18.9822353422642 466.553092002869 2601.0000705719 155 156 151
25.9550884366035 464.578330516815 2589.99991416931 169 170 165
32.9061858355999 463.141202926636 2582.00001716614 173 174 169
39.8754701018333 462.421029806137 2578.00006866455 173 174 169
46.786442399025 461.34153008461 2572.00002670288 172 173 168
53.7482462823391 460.979044437408 2569.9999332428 168 169 164
60.6989786028862 460.616141557693 2568.00007820129 160 161 156
67.6122456789017 460.073232650757 2565.00005722046 159 160 155
74.479877948761 459.350556135178 2561.00010871887 159 160 155
81.3890770077705 458.986103534698 2559.00001525879 160 161 156
88.2871150970459 458.621084690094 2556.99992179871 159 160 155
95.2112227678299 458.434998989105 2555.99999427795 158 159 154
102.169558405876 458.42769742012 2555.99999427795 160 161 156
109.170220792294 458.599328994751 2556.99992179871 162 163 158
116.085156798363 458.411753177643 2555.99999427795 162 163 158
123.234950006008 459.120392799377 2559.99994277954 159 160 155
130.202665925026 459.111124277115 2559.99994277954 158 159 154
137.277126312256 459.460079669952 2562.00003623962 160 161 156
144.249424338341 459.449887275696 2562.00003623962 162 163 158
151.457324624062 460.156440734863 2565.99998474121 161 162 157
158.68653357029 460.862547159195 2569.9999332428 161 162 157
165.936976671219 461.568117141724 2573.99988174438 160 161 156
173.208683729172 462.273240089417 2578.00006866455 158 159 154
180.641382932663 463.336378335953 2584.00011062622 157 158 153
188.106149435043 464.398980140686 2589.99991416931 158 159 154
195.678308606148 465.64045548439 2596.99988365173 158 159 153
203.053757548332 466.343492269516 2601.0000705719 149 150 144
210.531085729599 467.225223779678 2605.99994659424 147 148 142
218.034952878952 468.106538057327 2611.00006103516 149 150 145
225.996464490891 469.88371014595 2621.00005149841 161 162 157
234.011650085449 471.660226583481 2631.00004196167 164 165 160
241.988867521286 473.257035017014 2640.00010490417 139 140 135
250.014185905457 474.853187799454 2648.9999294281 138 138 136
258.184850215912 476.628124713898 2658.99991989136 157 157 155
266.808390617371 479.119509458542 2673.00009727478 183 183 181
275.302082300186 481.251686811447 2684.99994277954 190 190 188
283.439189195633 482.666403055191 2693.00007820129 205 207 204
291.982769966125 472.769945859909 2638.00001144409 214 216 213
294.951915740967 466.119259595871 2601.0000705719 165 167 164
300.622075796127 463.948786258698 2588.99998664856 160 162 159
306.345105171204 461.957275867462 2578.00006866455 156 158 155
312.372088432312 460.503101348877 2569.9999332428 167 167 165
318.354845046997 459.04877781868 2562.00003623962 168 168 166
324.674189090729 458.131700754166 2556.99992179871 164 164 162
331.095159053802 457.393527030945 2552.99997329712 161 161 159
337.493538856506 456.655114889145 2549.00002479553 159 159 157
344.139516353607 456.274688243866 2546.99993133545 161 163 160
351.187258958817 456.431418657303 2548.00009727478 165 167 164
358.661085367203 457.125127315521 2552.00004577637 178 180 177
366.728693246841 458.534985780716 2559.99994277954 185 187 184
376.882314682007 462.451875209808 2582.00001716614 191 196 192
-170.540034770966 474.377930164337 2686.00010871887 208 210 207
-162.744969129562 472.976952791214 2677.99997329712 185 187 184
-155.050963163376 471.752047538757 2671.0000038147 179 181 178
-147.781848907471 471.762895584106 2671.0000038147 160 162 157
-140.407040715218 471.420049667358 2668.99991035461 154 156 151
-133.292078971863 471.959829330444 2671.99993133545 150 152 147
-126.254677772522 472.852408885956 2677.00004577637 150 151 146
-119.278505444527 474.097818136215 2684.00001525879 156 157 152
-112.263835966587 475.342690944672 2690.99998474121 153 154 149
-105.171672999859 476.4104783535 2697.00002670288 155 156 151
-98.0464890599251 477.477729320526 2703.00006866455 138 139 134
-90.8547565340996 478.367865085602 2707.99994468689 127 127 125
-83.8512927293777 480.49408197403 2720.00002861023 122 122 120
-46.7310920357704 479.63473200798 2714.99991416931 152 154 151
-39.105486124754 476.811230182648 2698.99988174438 154 154 152
-31.531598418951 473.457276821136 2680.0000667572 146 147 142
-24.0882150828838 470.63273191452 2664.00003433228 146 147 142
-16.750855371356 468.337595462799 2651.00002288818 161 162 157
-9.4734625890851 465.51188826561 2634.99999046326 170 171 166
-2.28493195027113 463.039040565491 2621.00005149841 152 153 148
4.83660772442818 461.448967456818 2611.99998855591 153 154 149
11.9274090975523 460.565030574799 2607.00011253357 153 154 149
18.9544428139925 458.797186613083 2596.99988365173 159 160 155
25.9570088237524 457.558929920197 2589.99991416931 173 174 169
32.9213589429855 456.320136785507 2582.99994468689 174 175 170
39.8784093558788 455.434113740921 2578.00006866455 172 173 168
46.7898994684219 454.37103509903 2572.00002670288 166 167 162
53.7522025406361 454.01394367218 2569.9999332428 162 163 158
60.7034452259541 453.656435012817 2568.00007820129 158 159 154
67.6172226667404 453.121781349182 2565.00005722046 157 158 153
74.4853466749191 452.409952878952 2561.00010871887 160 161 156
81.4268589019775 452.227592468262 2559.99994277954 160 161 156
88.328130543232 451.868116855621 2558.00008773804 159 160 155
95.2927097678185 451.861381530762 2558.00008773804 158 159 154
102.216988801956 451.677531003952 2556.99992179871 160 161 156
109.220899641514 451.84651017189 2558.00008773804 161 162 157
116.184465587139 451.838374137878 2558.00008773804 160 161 156
123.195759952068 452.006280422211 2559.00001525879 158 159 154
130.110397934914 451.820522546768 2558.00008773804 158 159 154
137.233480811119 452.340722084045 2561.00010871887 159 160 155
144.372448325157 452.860474586487 2563.99989128113 160 161 156
151.468247175217 453.203082084656 2565.99998474121 163 164 159
158.697947859764 453.898400068283 2569.9999332428 162 163 158
165.948882699013 454.593271017075 2573.99988174438 162 163 158
173.422649502754 455.817401409149 2581.00008964539 162 163 158
180.724158883095 456.511199474335 2585.00003814697 162 163 158
188.119530677795 457.381039857864 2589.99991416931 160 161 156
195.616841316223 458.42707157135 2595.99995613098 161 162 156
203.068122267723 459.295928478241 2601.0000705719 166 167 161
210.545927286148 460.164308547974 2605.99994659424 169 170 164
218.050271272659 461.032181978226 2611.00006103516 168 169 164
226.012274622917 462.782323360443 2621.00005149841 148 149 144
234.205886721611 464.885085821152 2632.99989700317 139 140 135
242.37234890461 466.810703277588 2644.00005340576 152 153 148
250.12594461441 467.853009700775 2650.00009536743 170 170 168
258.2026720047 469.424366950989 2658.99991989136 184 184 182
266.627043485641 471.524804830551 2671.0000038147 187 187 185
275.320947170258 473.977774381638 2684.99994277954 194 194 192
282.932192087173 474.488377571106 2687.99996376038 208 210 207
290.674209594727 463.505744934082 2625.99992752075 219 221 218
294.858306646347 458.897024393082 2599.99990463257 162 164 161
300.874441862106 457.288682460785 2591.00008010864 136 138 135
306.959688663483 455.856561660767 2582.99994468689 132 134 131
312.878996133804 454.247713088989 2573.99988174438 139 139 137
318.624317646027 452.46222615242 2563.99989128113 146 146 144
324.568510055542 451.029509305954 2555.99999427795 156 156 154
330.727636814117 449.949413537979 2549.99995231628 159 159 157
337.250590324402 449.398428201675 2546.99993133545 162 162 160
343.891501426697 449.02366399765 2545.00007629395 163 165 162
351.209759712219 449.530720710754 2548.00009727478 167 169 166
358.683943748474 450.21378993988 2552.00004577637 177 179 176
366.895228624344 451.778531074524 2561.00010871887 184 186 183
376.614063978195 455.106824636459 2579.99992370605 190 195 191
-171.060159802437 468.489438295364 2694.00000572205 207 209 206
-162.878155708313 466.066688299179 2680.0000667572 182 184 181
-155.178174376488 464.860618114471 2673.00009727478 174 176 173
-147.847786545753 464.697510004044 2671.99993133545 159 161 156
-140.574961900711 464.707791805267 2671.99993133545 157 159 154
-133.301675319672 464.717626571655 2671.99993133545 158 160 155
-126.169443130493 465.248674154282 2674.99995231628 156 157 152
-119.064912199974 465.953230857849 2678.99990081787 156 157 152
-112.146802246571 467.526942491531 2687.99996376038 153 154 149
-105.140298604965 468.926280736923 2696.00009918213 149 150 145
-98.162442445755 470.672965049744 2706.00008964539 146 147 142
-91.0291224718094 471.897333860397 2713.00005912781 138 138 136
-84.1656923294067 474.860697984695 2730.00001907349 128 128 126
-46.5968027710915 470.883637666702 2707.00001716614 141 143 140
-39.0648804605007 468.973308801651 2696.00009918213 148 148 146
-31.5574370324612 466.540515422821 2681.99992179871 147 148 143
-24.1442359983921 464.455157518387 2670.00007629395 145 146 141
-16.7520828545094 461.151540279388 2651.00002288818 160 161 156
-9.46696568280458 458.021312952042 2632.99989700317 169 170 165
-2.28509912267327 455.934256315231 2621.00005149841 152 153 148
4.84066642820835 454.71653342247 2614.00008201599 152 153 148
11.9374338537455 453.846096992493 2608.99996757507 155 156 151
18.9704298973084 452.105432748795 2598.99997711182 162 163 158
25.9689334779978 450.712233781815 2591.00008010864 175 176 171
32.9492650926113 449.666351079941 2585.00003814697 174 175 170
39.8813299834728 448.446035385132 2578.00006866455 170 171 166
46.7751249670982 447.225242853165 2571.00009918213 164 165 160
53.6933839321136 446.525722742081 2566.99991226196 161 162 157
60.6133192777634 445.999771356583 2563.99989128113 158 159 154
67.5957873463631 445.995092391968 2563.99989128113 158 159 154
74.5489448308945 445.815980434418 2562.99996376038 159 160 155
81.5282166004181 445.810347795486 2562.99996376038 159 160 155
88.4381458163261 445.456296205521 2561.00010871887 159 160 155
95.299631357193 444.927871227264 2558.00008773804 158 159 154
102.22440212965 444.746732711792 2556.99992179871 160 161 156
109.228804707527 444.913119077683 2558.00008773804 161 162 157
116.238281130791 445.078909397125 2559.00001525879 160 161 156
123.252786695957 445.244193077087 2559.99994277954 159 160 155
130.119755864143 444.887280464172 2558.00008773804 159 160 155
137.243330478668 445.399463176727 2561.00010871887 159 160 155
144.382789731026 445.911109447479 2563.99989128113 159 160 155
151.538118720055 446.422338485718 2566.99991226196 163 164 159
158.832773566246 447.280824184418 2572.00002670288 162 163 158
166.08963906765 447.964876890183 2575.99997520447 161 162 157
173.569336533546 449.170172214508 2582.99994468689 165 166 161
180.6670576334 449.331611394882 2584.00011062622 166 167 162
188.06017935276 450.188040733337 2588.99998664856 165 166 161
195.479899644852 451.044023036957 2594.00010108948 164 165 159
203.082367777824 452.247202396393 2601.0000705719 171 172 166
210.803046822548 453.623712062836 2608.99996757507 167 168 162
218.399554491043 454.652041196823 2615.00000953674 159 160 155
226.372942328453 456.37521147728 2625 142 143 138
234.311074018478 457.923978567123 2634.0000629425 139 140 135
242.480769753456 459.819912910461 2644.99998092651 153 154 149
249.954327940941 460.324585437775 2648.00000190735 171 171 169
258.220344781876 462.219387292862 2658.99991989136 184 184 182
266.745060682297 464.461326599121 2671.99993133545 187 187 185
275.544703006744 467.050284147263 2687.00003623962 201 201 199
282.740831375122 466.857701539993 2686.00010871887 205 207 204
291.550368070602 469.271689653397 2700.00004768372 207 209 206
289.476007223129 454.479187726974 2615.00000953674 213 215 212
295.558452606201 452.895551919937 2605.99994659424 145 147 144
301.59118771553 451.311707496643 2596.99988365173 123 125 122
307.574212551117 449.72762465477 2588.00005912781 126 128 125
312.899619340897 447.274476289749 2573.99988174438 143 143 141
318.520903587341 445.342510938644 2562.99996376038 147 147 145
324.33557510376 443.757772445679 2553.99990081787 153 153 151
330.749034881592 443.04171204567 2549.99995231628 155 155 153
336.875021457672 441.977828741074 2543.99991035461 159 159 157
343.778312206268 441.956013441086 2543.99991035461 162 164 161
351.23211145401 442.628890275955 2548.00009727478 165 167 164
358.847171068192 443.475008010864 2552.99997329712 175 177 174
367.061525583267 445.015609264374 2562.00003623962 182 184 181
377.075523138046 448.639959096909 2582.99994468689 189 194 190
-171.389728784561 462.042629718781 2698.99988174438 207 209 206
-162.950456142426 458.972930908203 2680.99999427795 187 189 186
-155.247241258621 457.785785198212 2674.00002479553 177 179 176
-147.858306765556 457.454085350037 2671.99993133545 153 155 150
-140.742838382721 457.977950572968 2674.99995231628 150 152 147
-133.311197161675 457.474052906036 2671.99993133545 152 154 149
-126.178473234177 457.996875047684 2674.99995231628 156 157 152
-118.984542787075 458.3480656147 2677.00004577637 155 156 151
-112.113133072853 460.06852388382 2687.00003623962 153 154 149
-105.108842253685 461.446017026901 2694.9999332428 151 152 147
-98.2420668005943 463.679254055023 2707.99994468689 146 147 142
-91.1363586783409 465.055882930756 2716.00008010864 140 140 138
-84.2950940132141 468.144237995148 2733.99996757507 135 135 133
-54.2322918772697 465.766936540604 2720.00002861023 212 214 211
-46.5485416352749 463.030755519867 2703.9999961853 149 151 148
-38.9952585101128 460.807681083679 2690.99998474121 150 150 148
-31.5361954271793 458.926618099213 2680.0000667572 154 155 150
-24.136945605278 457.044959068298 2668.99991035461 159 160 155
-16.7406592518091 453.621596097946 2648.9999294281 169 170 165
-9.46405809372664 450.711458921433 2631.99996948242 167 168 163
-2.28526559658349 448.828190565109 2621.00005149841 152 153 148
4.84286993741989 447.800636291504 2615.00000953674 152 153 148
11.9383009150624 446.772515773773 2608.99996757507 159 160 155
18.9791079610586 445.230215787888 2599.99990463257 169 170 165
25.9708222001791 443.687498569489 2591.00008010864 175 176 171
32.9134128987789 442.144155502319 2582.00001716614 170 171 166
39.8532785475254 441.114038228989 2575.99997520447 169 170 165
46.8149036169052 440.597176551819 2572.99995422363 163 164 159
53.7600293755531 440.079867839813 2569.9999332428 161 162 157
60.6649853289127 439.390778541565 2565.99998474121 157 158 153
67.6006823778152 439.04373049736 2563.99989128113 155 156 151
74.583426117897 439.03860449791 2563.99989128113 153 154 149
81.5659016370773 439.032942056656 2563.99989128113 154 155 150
88.5135903954506 438.855707645416 2562.99996376038 154 155 150
95.3437387943268 438.16414475441 2559.00001525879 154 155 150
102.231748402119 437.814652919769 2556.99992179871 157 158 153
109.236627817154 437.978297472 2558.00008773804 159 160 155
116.201177239418 437.9703104496 2558.00008773804 158 159 154
123.213455080986 438.132971525192 2559.00001525879 159 160 155
130.179911851883 438.123971223831 2559.00001525879 159 160 155
137.360289692879 438.799291849136 2562.99996376038 158 159 154
144.44936811924 439.131736755371 2565.00005722046 157 158 153
151.489824056625 439.29249048233 2565.99998474121 159 160 155
158.844009041786 440.308749675751 2572.00002670288 155 156 151
166.165828704834 441.153258085251 2576.99990272522 152 153 148
173.51433634758 441.997289657593 2582.00001716614 154 155 150
180.609792470932 442.156076431274 2582.99994468689 157 158 153
188.000693917274 442.9991543293 2588.00005912781 156 157 152
195.493534207344 444.012820720673 2594.00010108948 157 158 152
203.17454636097 445.36828994751 2601.99999809265 147 148 142
210.979267954826 446.894437074661 2611.00006103516 142 143 137
218.581676483154 447.906583547592 2617.00010299683 141 142 137
226.388543844223 449.260532855988 2625 153 154 149
234.149232506752 450.442761182785 2631.99996948242 158 159 154
242.313966155052 452.309012413025 2642.99988746643 148 149 144
249.971345067024 453.147947788239 2648.00000190735 166 166 164
258.626341819763 455.697625875473 2663.00010681152 185 185 183
266.962766647339 457.562208175659 2674.00002479553 183 183 181
275.563269853592 459.76847410202 2687.00003623962 198 198 196
282.549202442169 459.2365026474 2684.00001525879 204 206 203
294.593513011932 466.745585203171 2727.9999256134 209 211 208
289.716631174088 447.735160589218 2617.00010299683 207 209 206
296.031683683395 446.518182754517 2609.99989509583 137 139 136
301.959455013275 444.78777050972 2599.99990463257 134 136 133
308.069735765457 443.399339914322 2592.00000762939 144 146 143
313.284695148468 440.813183784485 2576.99990272522 155 155 153
318.665832281113 438.569068908691 2563.99989128113 155 155 153
324.483573436737 437.009006738663 2555.0000667572 154 154 152
330.770254135132 436.132788658142 2549.99995231628 155 155 153
337.293803691864 435.598433017731 2546.99993133545 158 158 156
343.935310840607 435.234844684601 2545.00007629395 160 162 159
351.392090320587 435.896992683411 2549.00002479553 163 165 162
358.869642019272 436.558753252029 2552.99997329712 173 175 172
367.227673530579 438.246071338654 2562.99996376038 181 183 180
377.39086151123 441.984713077545 2585.00003814697 188 193 189
-171.846300363541 455.904364585876 2706.00008964539 206 208 205
-163.265809416771 452.546447515488 2686.00010871887 184 186 183
-155.43232858181 451.041162014008 2677.00004577637 178 180 177
-147.813364863396 450.040817260742 2671.0000038147 161 163 158
-140.752747654915 450.724899768829 2674.99995231628 155 157 152
-133.370518684387 450.397580862045 2673.00009727478 154 156 151
-126.234591007233 450.912266969681 2676.00011825562 157 158 153
-118.992999196053 451.089441776276 2677.00004577637 156 157 152
-112.079374492168 452.614158391953 2686.00010871887 149 150 145
-105.116337537766 454.138398170471 2694.9999332428 152 153 148
-98.2853546738625 456.504851579666 2709.00011062622 141 142 137
-91.2770926952362 458.365201950073 2720.00002861023 138 138 136
-84.4244584441185 461.404770612717 2737.99991607666 140 140 138
-54.1564300656319 457.717061042786 2716.00008010864 213 215 212
-46.5346649289131 455.529808998108 2703.00006866455 152 154 151
-38.9545857906342 453.0049264431 2687.99996376038 156 156 154
-31.4560905098915 450.479507446289 2673.00009727478 151 152 147
-24.0934621542692 448.964715003967 2664.00003433228 157 158 153
-16.7039427906275 445.427030324936 2642.99988746643 169 170 165
-9.45395044982433 443.068534135818 2628.99994850159 165 166 161
-2.28368584066629 441.383630037308 2618.99995803833 152 153 148
4.84877498820424 441.215008497238 2618.00003051758 152 153 148
11.9574656710029 440.371751785278 2612.99991607666 161 162 157
19.0242752432823 439.190953969955 2605.99994659424 171 172 167
26.0228086262941 437.504023313522 2595.99995613098 175 176 171
32.9412780702114 435.479581356049 2584.00011062622 169 170 165
39.8716181516647 434.297263622284 2576.99990272522 170 171 166
46.8546561896801 433.957099914551 2575.00004768372 163 164 159
53.8266487419605 433.616459369659 2572.99995422363 161 162 157
60.7402697205544 432.93821811676 2569.00000572205 156 157 152
67.6846206188202 432.596623897552 2566.99991226196 152 153 148
74.7051313519478 432.760119438171 2568.00007820129 151 152 147
81.6989988088608 432.754546403885 2568.00007820129 151 152 147
88.6235237121582 432.411432266235 2565.99998474121 152 153 148
95.387801527977 431.393802165985 2559.99994277954 152 153 148
