ply
format ascii 1.0
comment KinectMotionCapture
element vertex 793
property float x
property float y
property float z
property uchar red
property uchar green
property uchar blue
end_header
272.284808729976 15.5852430943701 2885.81291772049 16 19 10
282.524259941042 18.5958757949062 2902.12298734929 16 19 10
296.060132500657 22.0954082510192 2920.75571563341 17 20 11
288.694996914858 22.3510784222466 2923.78055041202 17 20 11
276.46349643217 21.8637308881032 2923.24578141539 17 20 11
262.575113856478 21.1330802252634 2921.55778660707 16 19 10
248.645124044291 20.4078534264718 2919.91064459691 15 18 11
242.824539180732 20.9213842158343 2924.19776246636 12 15 8
241.086135098093 22.0507957000003 2931.4250720075 12 15 8
223.803130508689 20.8441427173006 2927.51036486266 14 17 10
195.79073504965 18.0511090770122 2916.06373317297 12 15 8
144.6300262465 11.8460073406465 2888.43151952936 11 14 7
127.895418587184 10.7968443378769 2885.3662163356 8 10 5
95.399030374125 7.43926122373112 2871.37047362935 7 9 4
72.7199348446574 5.55718003747035 2864.41186096009 8 10 5
52.4525236800066 4.04951576960982 2859.25447504543 8 10 5
39.6092972352369 3.64070693155427 2859.31521314515 9 11 6
85.9824613273901 11.8179896140203 2899.91217356745 9 12 5
23.0223202785913 4.16301550509796 2865.79008857658 9 12 5
-43.5576779468421 -3.93950748373195 2829.66074768956 9 12 5
-14.6230993161476 1.68866844575988 2858.19377756356 9 12 5
33.0009623189378 9.93396402252428 2898.95543527572 10 13 6
34.4395204375587 11.5681236939645 2908.62168578009 11 14 7
3.75710285671271 8.66142014379701 2897.00906941314 10 13 4
6.88201269467603 10.5351570495836 2907.79915695618 10 13 4
28.7462821580773 15.0195693645864 2930.76895872894 10 13 4
22.6218366721169 15.5726965566284 2935.3519623573 10 13 4
-5.70595298898091 13.0477116586044 2925.59581360331 10 13 4
-25.5792429112636 11.7175079164889 2921.43774019832 10 13 4
-35.2246470105766 11.8104988513382 2923.91680276207 8 11 4
-33.7127054281217 13.4355326799033 2933.51153119764 24 27 20
244.376029051894 -55.3255237412638 2507.40558368987 22 26 27
256.305774208957 -51.3343987695433 2528.97747238626 165 170 173
260.26307604659 -48.8556623997631 2543.10262950719 156 161 165
262.065658467809 -46.7917923747554 2555.17770613066 168 173 177
263.170497996908 -44.8687060716104 2566.54955021543 153 158 162
262.832448912048 -43.2213457164608 2576.56079972094 158 163 167
259.55765351747 -42.1191132858258 2583.9008762814 155 159 162
256.295048705219 -41.0182849919339 2591.22905494419 150 151 155
250.064532239962 -40.4586262514249 2595.91642326299 134 135 139
243.083501252445 -40.0331223478995 2599.95164446365 131 131 133
236.095365766386 -39.606551569774 2603.99410069478 110 110 110
238.867954297726 -21.1460355275051 2714.70743319057 18 21 14
217.322191239411 -23.2309920606104 2706.65338951138 20 23 16
231.311774542636 -19.268724132275 2727.60134069674 16 19 10
240.742141630607 -16.1047299700436 2744.69251390516 14 17 8
247.912599470158 -13.3423798626761 2759.83576958362 17 20 11
255.926477972845 -10.4573791184107 2775.54095336667 14 17 8
251.494266706558 -9.66474550425717 2781.24196308992 15 18 11
232.95480899804 -11.212567464953 2775.79153845667 14 17 10
247.359551956268 -7.30245443446037 2796.33460059656 13 16 9
241.377367546972 -6.77177262679318 2800.77965429079 11 14 7
221.174991922363 -8.56725064618036 2794.18297871054 12 15 8
230.987222993982 -5.45097635376818 2810.90200831413 14 17 10
231.349471116433 -3.8892607338798 2820.23051059496 14 17 10
257.996848059604 1.9099738346256 2849.59257384586 14 17 10
253.693837646536 2.68699947411516 2855.16792990576 14 17 10
251.794025068549 3.8475356168346 2862.55092025789 15 18 11
257.124206473084 6.15603657782265 2875.33794839308 15 18 11
285.805652945224 12.1563440377522 2905.48458852453 17 20 11
296.932571267332 15.3357148660521 2922.30569793101 18 21 12
298.450023515882 16.9807724547026 2931.8916568487 18 21 12
278.958643789474 15.3254779194568 2925.98547993306 16 19 10
262.642779138298 14.1851574099327 2922.51749393976 14 17 10
245.460544629566 12.9254604132746 2918.51089833924 13 16 9
235.556734737281 12.8075105131012 2919.86082932093 13 16 9
224.813493132597 12.566683244824 2920.64558030573 13 16 9
204.216224023501 10.8226758064136 2914.43343246379 13 16 9
162.202403235945 5.8301563530343 2893.12602069386 11 13 8
97.7979674117164 -2.5166620876011 2856.28933026052 9 11 6
95.7996081750596 -1.34254360519787 2863.76850927962 8 10 5
86.376908533158 -1.29155211998605 2866.0326305253 7 9 4
50.4185459490154 -5.2161787271558 2849.89051321469 8 10 5
30.929864501156 -6.64124008957312 2845.36453782389 8 10 5
50.5057979687091 -2.23847494588547 2867.78493984918 9 11 6
41.8266894799801 -2.05205041232676 2870.70789430177 10 12 7
41.4970734687565 -0.630497675397301 2879.32689674814 9 12 5
-9.1095475221521 -6.5967075449041 2853.94331407988 9 12 5
-19.5903078723454 -6.64039785410753 2855.85518986005 9 12 5
31.3895319221764 2.26757741057798 2898.85487943877 10 13 6
57.3046206910641 7.47219805074617 2924.78093355572 11 14 7
-3.78431281198699 0.0830010472120946 2893.01249586543 10 13 4
29.8521892659664 6.37297189190844 2923.86385552223 10 13 4
-16.2295501034468 1.20986374033133 2902.37009417891 10 13 4
-32.6793116123838 0.317676236776476 2900.41564295452 10 13 4
-25.270895385364 2.82278064657665 2913.94405176258 10 13 6
-16.0920761659131 5.56208503337396 2928.51362820891 10 13 6
-38.5815869743142 3.83027503612726 2922.76179225265 8 11 4
-62.8667960982612 1.86747434830131 2915.99309511479 14 17 10
252.268939319429 -58.09405807453 2536.81934027757 146 150 153
258.461407773358 -55.1668863651473 2552.90973115449 157 162 165
259.556371552677 -53.2179871794906 2564.28756687202 164 169 173
261.425933144765 -51.1350667278798 2576.29331654395 153 158 162
258.14728815391 -50.0240049055194 2583.63591083017 150 155 159
254.880791295541 -48.9143492395286 2590.96664967056 145 148 153
248.646314588488 -48.3567286114511 2595.65791395814 136 140 143
242.408602376614 -47.7985214858044 2600.35264230775 137 138 140
237.665207513935 -46.9654346316724 2606.35668297116 135 137 136
244.939952257239 -43.9422038535505 2622.77506932305 118 120 117
271.293305220537 -22.9076116520729 2742.28318601945 20 23 16
235.928802826136 -27.4749120088301 2722.81218718365 22 25 18
258.481129493568 -21.9771745951979 2750.61728192928 17 20 11
240.036459856472 -23.5830744629315 2745.08131522917 16 19 10
245.648644326002 -21.0436374157933 2758.97142505908 18 21 12
250.5356720999 -18.6443620572626 2772.1847570422 17 20 11
248.436163224517 -17.4480349301495 2779.76109671983 11 14 7
248.704743465829 -15.8556041055319 2789.17807289745 11 14 7
234.854704619736 -16.6508756236924 2787.46155313301 13 16 9
238.295951169225 -14.5320220930286 2799.31853267478 13 16 9
226.774179721868 -14.9259690293087 2799.4817591625 17 20 13
228.682067101784 -13.0767433899705 2810.06708143403 15 18 11
236.975326949154 -10.180246754907 2825.49279848216 15 18 11
257.270289643237 -5.32383962416949 2849.96630224616 15 18 11
278.487971170837 -0.352290626581819 2874.92342396827 15 18 11
266.254511486512 -0.887622005483091 2874.39735463713 14 17 10
254.788472259605 -1.28802559444763 2874.5065303385 14 17 10
280.249227811414 4.30614341287355 2902.24307829547 17 20 11
298.61033200687 8.71166661724498 2924.45250678855 19 22 13
296.902380717396 9.85936709509455 2931.64687315062 18 21 14
282.263092893506 8.93324245491811 2929.31685784694 14 17 10
266.766777353734 7.88374443215095 2926.43887110668 13 16 9
251.220821622842 6.84065913739412 2923.60923001162 12 15 8
235.625310802452 5.80396847113274 2920.82785272969 14 17 10
214.261210193529 3.87415168450361 2913.98773312573 14 17 10
180.536109535365 0.0303755517714888 2898.44982267957 12 14 9
136.825639501054 -5.33219618287667 2876.04808362287 8 10 5
101.984808406649 -9.26623654146269 2860.21454168886 7 9 4
59.5823323645961 -14.3301594260014 2839.30362372796 8 10 5
52.1496587692569 -12.451728062449 2852.07506010292 8 10 5
40.140384946143 -12.7818145984919 2852.7129451171 8 10 5
47.249233628829 -10.1979542342888 2866.52718882944 9 11 6
35.2245461256726 -10.5259649511894 2867.1800730506 10 12 7
50.7709462603545 -6.69107556082787 2886.60090860063 9 12 5
16.1152973271341 -10.4155879553084 2871.9694192192 9 12 5
14.9358285574501 -9.10143725428775 2880.03164051613 9 12 5
23.0408867727623 -6.41167758026623 2894.25789088187 10 13 6
12.6377781684872 -6.48081334930867 2896.09641815829 11 14 7
58.0531393091626 1.68933693628776 2934.81138875805 10 13 4
19.7490007680998 -2.50038039824557 2918.2036854659 10 13 4
-21.2549479204625 -7.04386107948202 2900.07815383375 10 13 4
-42.8270994226834 -8.71341765975547 2894.82341265726 10 13 4
-29.4658324574897 -5.29764091086149 2912.22465877503 10 13 6
-50.2479836346934 -6.83519166761831 2907.5828345121 10 13 6
-70.2411969445409 -8.24065425891179 2903.5549700288 15 18 11
-24.1094137451645 -0.161697518586468 2941.57200129978 8 11 4
222.0784643733 -73.4988683006451 2499.64212822203 19 23 22
246.475283612272 -66.9661161520805 2532.54786212427 148 152 153
254.857371316735 -63.5686777196942 2550.64515145376 161 165 166
258.891103211642 -61.0285928481811 2564.68534511622 155 160 163
259.280432354971 -59.2003323782781 2575.36480749026 155 163 166
256.736967881919 -57.9393782518223 2583.37211195498 156 161 164
251.980475973117 -57.1021193895909 2589.38854155782 155 160 163
246.483443648871 -56.4056298467988 2594.74423506661 148 152 153
240.239992710671 -55.8491464698131 2599.4449168256 145 146 148
236.239828302131 -54.8725097373651 2606.10694921146 132 132 130
245.762848500682 -51.3836114304009 2624.47500513843 159 160 155
228.996015635857 -37.7444198779752 2708.54247567571 19 22 15
259.168184134541 -30.7670308871451 2742.7323696872 21 24 15
253.906360935642 -30.0983283027847 2747.85860395781 18 21 12
266.496982172014 -26.2923100495331 2767.38468231233 16 19 10
225.488428241637 -31.8924185098993 2743.75191776481 16 19 10
230.520466283105 -27.830217944158 2766.4948515392 12 15 8
228.392349184491 -26.6190008410699 2774.09706103147 12 15 8
247.499605200379 -21.7602786621297 2798.33238576162 14 17 10
241.517633199869 -21.234260055947 2802.77791774993 12 15 8
252.117917993895 -17.8796569920938 2820.09608278698 15 18 11
268.33893294735 -13.5939828326625 2841.61420869276 15 18 11
267.205060128239 -12.2735358428926 2849.63022194802 15 18 11
274.843231661583 -9.48237904688265 2864.30511124045 15 18 11
277.759024545981 -7.50120486106021 2875.28697582663 15 18 11
287.110418620096 -4.45756081528631 2891.05711094018 14 17 10
272.489453710326 -5.41836923566436 2888.71402695949 16 19 10
270.676829163612 -4.24626895351887 2896.00872913293 17 20 11
292.235212008422 0.771873392524103 2920.62064293401 18 21 12
287.282581754686 1.40302728731512 2925.44539371928 18 21 14
280.71237273982 1.76976011866087 2929.08134896684 15 18 11
270.079527260305 1.47773262414158 2929.76404233847 14 17 10
254.54173278884 0.398922689676395 2926.9315770783 13 16 9
241.39954423482 -0.27912044599504 2925.91207236586 15 18 11
211.062885093571 -3.70755155083435 2912.61631454416 13 16 9
137.718240149326 -12.4792119615638 2877.63495311264 8 10 5
65.4295959501492 -20.9144023892531 2844.38939369159 8 10 5
57.5890996950204 -20.6202978854417 2847.88092590639 7 9 4
57.1952123684332 -19.15732534102 2856.55762888956 8 10 5
65.9619965792388 -16.2731039640694 2871.51528136461 9 11 6
53.9830386090756 -16.6280862794392 2872.12674187397 9 11 6
48.6496522958211 -15.9472956484463 2877.32225276702 10 12 7
37.4626647249134 -16.1677104048023 2878.54463309571 9 12 5
34.6324966599862 -15.0998740123824 2885.44827186445 9 12 5
29.2942619775696 -14.4183173742495 2890.64848404423 9 12 5
29.0100847546704 -12.9688642409836 2899.21857927769 10 13 6
29.5941587818529 -11.3947343971227 2908.32497033905 11 14 7
18.3616748268371 -11.6090819117052 2909.59163251403 9 12 3
-51.7770515431639 -19.1397912403177 2881.16237542613 9 12 3
-56.3813114460086 -18.3161125273883 2887.02998137878 9 12 5
-24.2682776088223 -12.0532098696705 2916.56401170844 9 12 5
-94.1797139343055 -19.3770664137597 2889.29572665487 10 13 6
242.881761622862 -75.4474477995107 2530.28459742272 148 152 153
253.459500486001 -71.564165288456 2550.38116878845 151 155 156
256.014742881407 -69.2763229744112 2563.0926492424 162 166 167
255.656951603644 -67.5690455362672 2573.11464731861 156 164 166
251.621759894817 -66.5829217369797 2579.81006014712 158 163 166
246.851678492317 -65.7410454884354 2585.83930187041 158 162 163
240.596187342518 -65.1856757353482 2590.55210433063 149 151 150
234.337282710197 -64.6297134942784 2595.26820885999 141 141 141
229.572596543594 -63.7880309081271 2601.29212165749 135 134 130
261.419966428433 -39.3129250913589 2736.09108305827 16 19 12
259.238859280779 -38.0845001107883 2743.74370697778 22 25 18
250.880264487158 -37.9729135491092 2746.35910977064 20 23 16
236.297935472049 -38.972175384589 2743.98334317336 19 22 13
234.118826052489 -37.7436575118287 2751.63363174793 17 20 11
235.856261562589 -35.8239922088495 2762.37780429441 15 18 9
224.33575395245 -36.26104989088 2762.54614752247 11 14 7
241.006250775745 -31.7217318005997 2784.99768998445 12 15 8
237.353764260448 -30.7809884170012 2791.31944026199 15 18 11
261.283540853779 -25.0242982157745 2819.13568091955 13 16 9
276.670588276795 -20.7970886869709 2840.07368064052 14 17 10
284.242378757576 -17.954090441508 2854.80648731386 16 19 12
283.147367484934 -16.6246701507255 2862.78258422902 16 19 12
286.846017233875 -14.4779356070252 2874.37949994508 15 18 11
320.097124469829 -7.29030482209697 2908.31504510746 15 18 11
285.580042286611 -11.6983122410805 2890.81315852557 14 17 10
263.742523375702 -13.9137533894685 2883.06811829011 16 19 10
270.745593855886 -11.235571690026 2896.97346066907 16 19 10
278.61302128257 -8.42945817740287 2911.41848487421 16 19 12
281.699905603681 -6.44218166388305 2922.22955121316 16 19 12
275.116200109847 -6.07870076833761 2925.87938929854 17 20 13
273.392374192831 -4.90632552766729 2933.08587248126 17 20 13
256.236748128479 -6.28962912093067 2929.07112330313 16 19 12
219.463344327689 -10.8853521486135 2911.00338524961 16 18 13
202.146258792081 -12.2479564724808 2907.14557052827 13 15 10
165.11849100042 -16.8110526735854 2889.32559744716 10 12 7
93.0803723819324 -25.4798955532534 2855.86613399339 9 11 6
73.7509565822054 -27.0617042120135 2851.20483479957 8 10 5
74.1965446388502 -25.4509420671086 2860.44366808076 7 9 4
79.6415801091177 -23.0491768689788 2873.1028600173 8 10 5
66.0358445817355 -23.6939843454168 2872.53875208597 9 11 6
52.3921430134635 -24.3339188502021 2872.01128692941 9 11 6
44.5518622760175 -24.0471462791994 2875.50368878843 10 12 7
44.2276552946965 -22.5760855939969 2884.11000273502 9 12 5
53.987200027561 -19.5337554749934 2899.47537025065 9 12 5
47.8533539250559 -18.9882811387351 2904.06883991895 9 12 5
15.6099609035407 -22.4938700849718 2891.26065376261 10 13 6
-11.1747113745024 -23.5988441331582 2891.09823987806 9 12 3
-39.4598927225474 -26.4185310331873 2881.34333726654 9 12 3
-56.7999799940675 -27.5388078896748 2878.88979487486 9 12 5
-18.824997678637 -20.2375955550547 2912.36840290132 9 12 5
-9.67938106646926 -17.3547915994813 2926.94974085391 9 12 5
-34.4573410937334 -15.1403621054464 2945.55935462154 12 14 9
240.021942673823 -83.8080803968358 2528.69216264877 116 118 117
246.915496980869 -80.5991317819381 2545.46162772373 165 167 166
251.664391388848 -77.8387873838943 2560.17600949455 161 163 162
252.034050395876 -75.9643291670331 2570.8681765979 162 164 163
249.471092227591 -74.6788484672407 2578.89121357332 153 151 152
243.95233101232 -73.9793321794479 2584.26803684052 145 141 140
236.944141429776 -73.5712720969579 2588.33280511665 122 117 114
229.928793731053 -73.1620867827893 2592.40485304121 108 100 97
221.408456386618 -73.0423959275177 2595.18000860896 112 109 104
273.04500301745 -44.5026603586617 2746.56961945755 11 14 7
256.993132872067 -45.8284584071904 2742.86723435869 19 22 15
239.339046574707 -47.4314497420157 2737.96268615308 17 20 13
226.280039901311 -48.1755279099899 2736.87034055246 19 22 13
239.636718747089 -44.1011864412256 2757.01296364007 13 16 7
253.867654062865 -39.8973510568566 2777.68554514463 15 18 9
240.828478006979 -40.6435311496849 2776.57381811125 13 16 9
241.077268893607 -38.9906686904523 2786.0015136414 15 18 11
238.996565970894 -37.7629765169343 2793.55420514788 17 20 13
255.839032800741 -33.1692625255045 2815.82660131873 16 19 12
263.314587928829 -30.2704273088955 2830.64705628196 13 16 9
261.353182997332 -29.0574927365146 2838.08380212861 13 16 9
276.073895641059 -24.9152263643927 2858.2787895374 14 17 10
267.821483692761 -24.8262085279699 2860.79242468491 14 17 10
240.414011306491 -28.0734647310366 2848.81189149597 13 16 9
273.656956030988 -20.7545280519402 2882.73613519908 14 17 10
270.223201104442 -19.8348857276026 2888.84413834488 15 18 11
271.617930209643 -18.0861837989473 2898.53664456991 15 18 11
271.434164812767 -16.6176270876668 2907.00420587527 16 19 12
264.816661437339 -16.2548977823711 2910.68771684141 16 19 12
253.337487169962 -16.7168011039378 2910.81902546576 15 18 11
233.716809532855 -18.5483747324564 2905.06695941783 15 17 12
237.605758267732 -16.3947953702168 2916.47423160852 17 19 14
184.489117905446 -23.8271166217153 2886.71460363034 14 16 11
116.439553135645 -33.6893041583456 2846.63632874289 8 10 5
112.782805752509 -32.7403191173978 2852.96142985382 8 10 5
98.4643246315437 -33.5619064578095 2851.71430750221 8 10 5
71.7628237919055 -36.4161898531806 2841.80880939936 8 10 7
74.6501263832227 -34.3751382683474 2852.8101154143 9 11 6
73.443961961531 -33.0159992401197 2860.89185879121 8 10 5
66.4584552218956 -32.6052539164076 2864.93404363353 8 10 5
61.9574629599278 -31.7889417985241 2870.69985422975 9 11 6
44.1423433921146 -33.1273118895087 2867.33301285565 9 11 6
27.1045192509947 -34.3238908736994 2864.59059612836 10 12 7
10.0135045344381 -35.5135874342132 2861.89998120957 9 12 5
55.7376761227935 -26.6547091847088 2901.62341409517 9 12 5
32.8041191163804 -28.7847453401299 2894.95447091229 9 12 5
7.26383183094326 -31.3046331639901 2886.68060354223 9 12 5
-12.4600632338794 -32.8806636281084 2882.41051191748 8 11 4
4.12886719896921 -28.7336919808209 2902.16688316643 10 13 6
-24.1208712438823 -31.6302624454293 2892.38781074139 10 13 6
-19.3293566545512 -29.3497056518368 2904.29696380505 10 13 6
-6.82449734751112 -25.8857868354107 2921.12461069312 9 12 5
-18.1417260707777 -26.1258125780449 2922.47922090663 9 11 6
-40.8545028078988 -26.5956958281597 2925.26471068625 9 11 6
-24.7451211408833 -22.6282261874499 2944.10690194917 10 12 7
-7.67701387095032 -18.5423127556716 2963.39613005096 1 3 0
245.518075579894 -88.6342973930507 2545.20272532336 162 162 162
242.154828608408 -87.4795992016559 2552.62288119071 148 148 148
245.455192448807 -84.9831521656184 2565.98086050777 155 151 150
242.133747507403 -83.8333994557767 2573.36023728132 138 133 130
239.567381179286 -82.5362702840461 2581.38493697077 130 122 119
233.292674993279 -81.9834315517549 2586.11719432977 103 92 88
227.014544560834 -81.4299842323119 2590.85276206717 93 79 76
222.230554767265 -80.5799564924048 2596.89461024153 91 80 76
222.706216212479 -78.6960865622551 2607.47978646765 111 102 97
261.562081334222 -53.9688348948766 2738.11609792441 11 14 7
251.659076378554 -54.1683278862766 2739.4776194674 20 23 16
222.379782714215 -57.9842140567544 2725.18880994389 18 21 14
216.263100936989 -57.448834863589 2729.76672724119 19 22 13
252.156802362955 -49.1218287975001 2767.99462256979 14 17 6
217.279719872451 -53.927912330289 2749.49180993088 15 18 9
244.027513669661 -47.3562263906638 2780.05723694569 16 19 12
246.635606645178 -45.2544277532281 2791.32682384875 16 19 12
246.140215448748 -43.7306935596472 2800.09567897197 15 18 11
247.244377161286 -41.9238447436588 2810.06812882873 15 18 11
248.380635393401 -40.1208930775929 2820.00962020612 14 17 10
239.257191420403 -40.1749920375739 2821.99210847067 13 16 9
211.068967123021 -43.6416545113057 2809.40239230437 14 17 10
240.843163451299 -36.7244432946759 2841.16255417749 15 18 11
228.522609301742 -37.3444498400155 2840.73548589044 14 17 10
268.130496446504 -28.7591109889788 2879.48802421687 14 17 10
237.145020773108 -31.1374009169673 2873.76622482613 14 17 10
228.825074346755 -31.0496212561863 2876.34710571051 15 18 11
242.284683717373 -27.1647326220977 2894.99860899387 16 18 13
228.323818878386 -28.0618770225223 2893.40719784619 16 18 13
190.799952448675 -33.0153842570923 2874.72065130887 15 17 12
137.293015056319 -39.0946152735369 2853.65073949568 14 16 11
104.259952015368 -43.1594491980666 2838.87554487023 8 10 5
93.204535423888 -43.452500436526 2839.9780089117 7 9 4
91.151348025682 -42.2150680149441 2847.50193749118 8 10 5
89.1147841616369 -40.9796575429472 2855.00965749875 7 9 6
80.4973739925008 -40.8528741458087 2857.88015954184 9 11 6
66.905878027268 -41.5526150290752 2857.31003064833 8 10 5
39.1915288735216 -44.5905807980507 2847.02054475093 8 10 5
23.8304516386556 -45.5514725120816 2845.41207771869 9 11 6
34.2287027210233 -42.2490154576167 2861.52166305772 9 11 6
34.6893280809644 -40.6011133448919 2870.73973696143 10 12 7
27.6514204822869 -40.1883043642181 2874.83331378182 9 12 5
8.03351298946664 -41.8234118285896 2870.46670648611 9 12 5
-13.3295911080333 -43.7228621358523 2865.03801849691 9 12 5
-6.9760061838231 -41.1217507850281 2878.18279128026 9 12 5
14.624909433377 -36.0824044698016 2901.3320883125 9 12 5
2.51237746846433 -36.4829865725725 2902.08326724389 9 12 5
18.3504713398621 -32.4130308935749 2921.17970390654 9 12 5
1.14257450115884 -33.6246876619862 2918.60806253001 10 13 6
11.9898943241794 -30.3791229596148 2934.28012463591 10 13 6
4.98387082160345 -29.9699206940867 2938.34257314846 10 12 7
-20.852820697943 -32.5157450897949 2930.36687297852 10 12 7
-21.9118426407134 -31.160441282529 2938.30340638467 10 12 7
-18.653236814417 -29.1383650841319 2948.93880735223 20 22 17
39.7765402535502 -18.5696210816599 2994.21384125998 24 26 21
237.805708509204 -96.1249651492992 2549.71760930418 146 142 141
242.572135048813 -93.2904958091426 2564.40362577505 134 126 124
241.46590493884 -91.6763402566543 2573.76568873191 121 110 106
241.869263696995 -89.7621561308386 2584.41818217023 118 104 101
236.345394768887 -89.0613767620065 2589.79989078896 98 81 74
232.315709745709 -88.0585661063377 2596.48736908714 91 74 67
224.550387607904 -87.8101544293418 2599.91066783001 102 84 80
219.776754222968 -86.9583216737026 2605.94196515697 121 108 102
218.501488735563 -69.5828550895754 2703.83098318709 11 13 8
229.338025271076 -65.7956906722336 2722.26786153298 20 23 16
210.06659866971 -67.7707217557275 2716.19018699287 18 21 14
208.575293057658 -66.350322076684 2724.54636333152 19 22 13
182.985996670636 -69.4889510696337 2713.57845592097 14 17 6
213.452608117294 -62.0494585770209 2747.40766503669 16 19 8
240.971491394503 -55.2186932177902 2778.58600629172 16 19 12
260.032262584212 -50.0174062597964 2802.8168602167 15 18 11
246.211516796385 -50.9631718226252 2801.09383280844 14 17 10
244.16468620133 -49.7172826713285 2808.61019908745 14 17 10
227.920076771322 -51.0922875127369 2805.10647968994 14 17 10
240.120044058977 -47.2313301856265 2823.59511605962 14 17 10
227.012405305528 -48.0213174965473 2822.55784818469 15 18 11
215.457858647297 -48.516773545063 2822.76896178575 15 18 11
254.112533479806 -39.9044357330572 2861.04715427696 13 16 9
252.212530760985 -38.676496364707 2868.42037127444 14 17 10
229.494052499273 -41.1947565198867 2860.17798389654 15 18 11
230.789607183064 -39.3892574155089 2869.96091503232 14 17 10
246.610881059583 -35.004532444124 2890.4441029103 14 17 10
251.233928749729 -32.6383585047503 2902.50789191849 15 17 12
242.149665311441 -32.7094247299899 2904.45431892927 15 17 12
250.078589293742 -29.7799262406498 2918.81970205793 15 17 12
154.00776498516 -45.1009056164569 2857.77855463259 13 15 10
124.327607783699 -48.7000238914043 2845.27301748671 10 12 7
113.319980304114 -49.0177043715105 2846.33166642478 6 8 3
100.648478379842 -49.6155227146203 2846.24981505939 6 8 5
93.6883836327445 -49.218167841122 2850.26874452015 7 9 6
75.2037444038276 -50.7977580514916 2846.18548897743 6 8 5
72.3259649493264 -49.6898576185062 2853.13048511215 8 10 5
48.7965101677195 -52.1030802782086 2845.67788491097 9 11 6
37.6104299796829 -52.3973646843138 2846.91028209703 9 11 6
26.3981794062165 -52.6882319598523 2848.16816181228 9 11 6
8.50058236855578 -54.0959892774777 2844.89347718678 9 11 6
65.6349058790413 -42.9151657030838 2892.78169769371 9 12 5
53.651398523709 -43.3536549673273 2893.41035594237 9 12 5
6.43363217123838 -49.6385880613867 2870.37667278793 9 12 5
-9.05194750213933 -50.6150377428157 2868.89413797841 9 12 5
11.6258966410796 -45.6172547118845 2891.54929234736 10 13 6
18.0768371672877 -42.9902195242562 2904.59355804699 10 13 6
18.6611788646558 -41.3383509134509 2913.68819355209 9 12 5
25.2086799145448 -38.7236525826859 2926.63805876434 9 12 5
25.8627073622861 -37.0805837101827 2935.66479588665 10 13 6
13.768734112857 -37.5044541095333 2936.40098773929 10 12 7
-16.2825320274287 -40.8079861338642 2925.63718905463 11 13 8
-24.1992250931733 -40.5335923935182 2929.206961229 11 13 8
-29.553895428021 -39.8473322963631 2934.42279908542 24 26 21
-8.26409407592976 -34.9275512431941 2956.48179955783 13 15 10
244.123267398867 -100.691047854278 2566.79094541724 120 102 98
241.539127811698 -99.3697252308839 2574.83005627607 123 98 93
241.199575577449 -97.587837022044 2584.82291527312 124 99 92
239.39804970784 -96.1170825509842 2593.47936465516 116 89 80
233.882595541338 -95.416965956979 2598.85281524905 110 81 75
227.618943301872 -94.8701203187547 2603.57498165241 100 75 70
219.099818807168 -94.7821306846301 2606.35361826908 116 92 90
177.754687400808 -85.047571811374 2671.47723832766 11 13 8
190.03169424291 -80.8892173405309 2691.26266527267 20 22 17
204.721304362762 -76.2916240789993 2712.83848799176 19 22 15
203.992280152259 -74.705709033022 2721.83015384885 19 22 13
209.511152194577 -71.9251582965646 2735.77694995842 14 17 6
223.664522884478 -67.5075567456501 2756.49495973702 18 21 10
224.624045444016 -65.6387042547494 2766.6018742948 16 19 12
234.237582428798 -62.1353054498787 2783.46099322998 15 18 11
251.783397477811 -57.1542784967056 2806.39495669492 13 16 9
240.626545331351 -55.9793336990139 2815.88331015924 15 18 11
214.860706516471 -59.1643169433985 2805.09756312744 15 18 11
235.019680710586 -53.769321415408 2829.62616451029 16 19 12
240.189958071105 -51.1919020143931 2842.53223369701 15 18 11
248.601213236634 -48.0320508985102 2857.80185597267 13 16 9
237.578638732181 -46.8726334215485 2867.15916468471 15 18 11
241.303306552845 -44.6081436485509 2878.71317774146 14 17 10
250.707709188106 -41.3256212385093 2894.39536845227 14 16 11
260.182860637222 -38.0520473250197 2910.00862712895 15 17 12
255.165454948066 -37.4103392198822 2914.89614097147 15 17 12
225.007243344275 -41.2782940131031 2901.48814351633 15 17 12
167.90175358285 -49.9232473639464 2868.78384402164 11 13 8
111.363431546936 -58.3915052810839 2836.90679455903 9 11 6
95.4239149365361 -59.59206712105 2834.49124019983 6 8 5
100.723348102877 -57.029691516204 2847.2712792286 6 8 5
78.9902338818025 -59.2334469900416 2840.83808361486 7 9 6
64.5845828372131 -60.1314369773515 2839.68881456386 6 8 5
45.1895800895681 -61.8863711362535 2835.11856989418 8 10 5
56.3115604712827 -58.3239502201736 2851.88796811277 9 11 6
48.4571054339815 -58.0659383098676 2855.39835823218 9 11 6
38.1006508980262 -58.235467852166 2857.20539548493 10 12 7
66.0102934984348 -51.835931894502 2885.22528599532 9 11 6
70.7157899756683 -49.4461121797121 2897.20370730385 9 12 5
48.709342381601 -51.6141123246127 2891.0366511481 9 12 5
48.4186628832743 -50.0803469890191 2899.60074193049 9 12 5
12.0276544651001 -54.6448208348681 2883.9824796292 10 13 6
-11.8747917299138 -57.0684411908093 2876.90214003233 10 13 6
-2.10271111133897 -53.8311352828174 2892.22590404968 10 13 6
16.1992772794646 -49.1927638460142 2913.04271122589 9 12 5
1.54444371015527 -50.0578826425773 2912.1356879159 9 12 5
3.843772065661 -48.1074348306388 2922.3173429192 10 12 7
-10.0037379765872 -48.8264398259451 2922.0042870161 11 13 8
-17.9135590994175 -48.560489897397 2925.56848324127 11 13 8
-30.1117651941194 -48.9919476329171 2926.40930125508 12 14 9
-32.9073824520552 -47.8848521004224 2933.27282807796 14 16 11
-12.4855425087751 -43.0190954162024 2954.78480252057 3 5 2
250.108478580657 -107.135964721089 2573.13638620207 138 114 104
246.057876435396 -106.119904445352 2579.84233938163 138 109 101
242.758555079651 -104.947775818312 2587.19643995678 133 104 96
238.726611206073 -103.933609001486 2593.88448289114 122 92 82
233.209358401149 -103.233015043016 2599.25964900531 110 80 72
223.948902994925 -103.312918262561 2601.38200550675 91 62 58
216.921687198892 -102.922551546873 2605.46862000801 102 77 73
206.876597742668 -103.153594336855 2606.97555876491 134 118 119
180.910017846335 -92.0553214238544 2675.04766599607 10 12 7
200.915442743262 -86.3039179418312 2701.09331432066 21 23 18
207.117159976948 -83.3209608949917 2715.74936665632 20 23 16
210.273877336804 -80.9559641791627 2727.85217019225 19 22 13
224.365595098716 -76.4627466621846 2748.62022623299 14 17 6
222.177470598673 -75.1770645390258 2756.27101806451 18 21 10
235.642688928908 -70.8552168179131 2776.26961636553 16 19 12
251.553263532355 -66.0902855121284 2798.02518013109 16 19 12
223.568630657086 -69.8175162398372 2785.27180654714 15 18 11
232.492804196827 -66.4258040399326 2801.41473364564 16 19 12
242.277530170308 -62.892079017659 2818.09937718272 16 19 12
268.759814138508 -56.2038485663731 2847.49398699505 16 19 12
224.775967266921 -62.9222401219642 2822.72994827901 17 20 13
244.238939039226 -57.6030486166996 2846.54432268126 16 19 12
261.430901838815 -52.7489823210191 2868.43118423079 13 16 9
252.354387430002 -52.8478267661862 2870.37402194952 14 17 10
228.034838873299 -55.7831495911912 2860.94934408773 14 17 10
246.193798253139 -50.8004764112274 2883.27386501463 15 17 12
265.271517262472 -45.683261030653 2906.0834059289 15 17 12
250.568096403788 -46.825227430218 2903.8489769946 14 16 11
239.05491945812 -47.3675767107518 2904.02560281676 13 15 10
91.5589013959495 -71.0733247480744 2814.52012371531 9 11 8
113.883192788609 -65.3631346344719 2839.68610396606 8 10 7
84.06402661242 -69.1054481559657 2827.33976898193 6 8 5
78.6921614543687 -68.4173889332967 2832.57241564201 7 9 6
82.3490472105051 -66.1130269649848 2844.18784419778 8 10 7
69.5966839666942 -66.7479002261507 2844.19176601875 7 9 6
32.8976177651961 -71.6250200348833 2827.50870926928 7 9 4
45.6431422981747 -67.7118920996855 2845.44822627844 9 11 6
34.4498299508755 -68.0420465827186 2846.69310668726 10 12 7
58.1065773538243 -62.2496753658593 2871.94070140903 10 12 7
73.5769036092711 -57.9291329469756 2891.3653001402 9 11 6
63.2826668230035 -58.1221327642389 2893.11402314415 9 12 5
37.9146297489656 -60.9212523294296 2884.71037909726 9 12 5
45.1419878772445 -58.0652201188508 2898.36671429821 9 12 5
56.6286519962169 -54.4944483510433 2914.77274192245 10 13 6
-6.7451479308489 -63.7676693910978 2881.3006025024 11 14 7
-19.7484183643319 -64.3694375935923 2881.54878595859 11 14 7
-42.0902304953819 -66.5475535122111 2875.7162468526 11 13 8
-23.8133819614998 -61.8299004885042 2896.54596265245 11 13 8
-12.2251027863598 -58.2718357176771 2912.85296311237 11 13 8
-10.7786288666918 -56.4393077275083 2922.48203435841 11 13 8
-28.0799848396871 -57.7504991849292 2920.01824830938 11 13 8
-34.3125021401218 -57.202833314249 2924.70903818603 11 13 8
-31.1155357318387 -55.0903269352822 2935.39228246568 20 22 17
249.081323511722 -116.962212477685 2562.85548411132 146 134 134
250.920609434703 -114.65743806101 2574.85850805108 153 126 117
246.131247755458 -113.795809134453 2580.90397593701 142 113 105
241.346388154949 -112.934510186852 2586.94535980494 132 102 94
235.076080828068 -112.392237663241 2591.67447287083 111 78 69
229.549206497601 -111.690209625497 2597.05898134581 91 57 48
221.776922407528 -111.464506110092 2600.49288750856 86 48 45
215.49447037491 -110.920039154053 2605.23373611062 93 59 57
206.951047169621 -110.849920214769 2608.039142987 107 86 85
206.399322158012 -94.5138913912362 2696.86117148554 10 9 5
211.798831562406 -91.6422216072174 2710.91336694563 19 20 14
220.349475093769 -88.1550213502754 2727.4131017711 17 18 10
218.107296835737 -86.8516304013509 2735.11495242665 19 22 13
211.214076556205 -86.4807800623973 2739.07139191117 17 23 13
223.810433512459 -82.2373907336432 2758.5271313571 18 21 12
249.006109332225 -75.5316112643133 2787.77985902547 17 20 11
249.27396003481 -73.7847080820214 2797.17472869883 17 20 13
254.284089832213 -71.1165285929451 2810.22641248176 17 20 13
239.654214575882 -72.3014100040822 2807.9249566551 17 20 11
257.351992490038 -67.1819609380884 2830.6875600207 17 20 13
272.788739118386 -62.5369719525835 2851.51446007484 16 19 12
254.207548711007 -64.4890123745633 2846.16521994052 17 20 13
238.742795174048 -65.8210727677852 2843.29765425985 16 19 12
220.038852895902 -67.7571076465696 2838.06794293552 14 17 10
238.037993638391 -62.6755044357762 2860.53654431651 14 17 10
212.883012946533 -65.822993778517 2850.55591171583 14 17 10
239.036536340239 -59.2379514732471 2878.87532748381 15 17 12
258.90118917853 -53.8853398909484 2902.28554933481 15 17 12
259.517075073812 -52.1811916670443 2911.34113408109 14 16 11
222.945812097855 -57.4324944107338 2893.16956159604 13 15 10
69.6865758267915 -82.6388791924928 2799.68979591949 9 11 8
63.4377886045998 -82.0930394399979 2804.39701196843 8 10 7
55.5527771086868 -81.8468888905218 2807.93983604889 7 9 6
82.8622594462192 -75.1541719368882 2836.51236254915 7 9 6
73.397645312808 -75.215104377761 2838.8346478119 8 10 7
73.7860513742672 -73.4808487122556 2848.11167352922 7 9 6
55.2378691945039 -75.1803464508581 2844.10923935633 7 9 4
36.6288608129017 -76.8718647895941 2840.16636499123 9 11 6
41.1543572304192 -74.3934867323119 2852.3101022936 10 12 7
22.4773425537026 -76.0761386571379 2848.43311089076 10 12 7
67.826489010935 -66.3435769501498 2888.40015708399 9 11 6
38.3314523775229 -69.95222131547 2877.12910974717 8 10 5
3.70796463380785 -74.4323679457121 2862.57736623918 9 12 5
27.6177986274826 -68.5770934799232 2887.56468300432 9 12 5
48.3039638528973 -63.3278827187463 2910.17475134891 10 13 6
-8.35149508329902 -71.6092757418514 2881.22055848759 11 14 7
-16.2948075323559 -71.3544061099489 2884.8196497578 12 15 8
-48.7785737780864 -75.3438856166033 2872.32167657997 11 13 8
-43.2346010282143 -72.7404108857359 2884.85280975446 11 13 8
-11.2979032483569 -65.6202632366595 2914.43558180242 11 13 8
-1.33339159091239 -62.3092690979364 2929.55736786521 11 13 8
-16.0521975887864 -63.2242140944992 2928.72157225506 10 12 7
-34.2348536161481 -64.7144593428514 2925.74214710042 10 12 7
-42.1851422441679 -64.4583416975781 2929.34798136363 6 8 5
249.15477262382 -124.667596644741 2563.92140047203 151 137 137
251.732843857902 -122.172806441722 2576.57962474409 152 125 116
250.649983030647 -120.495920428151 2585.909210123 141 112 104
243.648497169659 -120.120045683258 2589.97241632536 130 101 93
235.149867626533 -120.067133291119 2592.73554771121 108 75 66
224.396133648553 -120.497387240483 2593.55871495854 86 52 43
217.359064962062 -120.116304346923 2597.65648567053 76 38 35
208.813380601626 -120.056691648351 2600.46569072519 87 52 50
201.005187076611 -119.833922438941 2603.93535133483 96 75 74
179.604384514604 -122.503807112894 2595.82381186367 127 113 112
224.225727458523 -96.5870170563413 2721.97635251886 21 20 15
221.19724161529 -95.4293801876272 2729.06365130196 18 19 11
218.957023661279 -94.1150912579677 2736.76194462984 20 23 14
205.842653244204 -95.0121134037727 2735.74718109825 17 23 13
221.544213269985 -90.0741475334981 2757.68472499617 17 23 13
228.752009163748 -86.8800155232358 2772.72742410015 17 20 9
247.778731996826 -81.3377537140919 2796.9416926125 17 20 9
255.927411643348 -78.0062682662756 2812.44668878081 18 21 10
258.629660678591 -75.7791927480597 2823.60426145642 16 19 8
242.421985465433 -77.3087230068627 2820.08670462479 18 21 10
277.609104750822 -68.6864817195928 2856.13879219199 19 22 13
262.2139526556 -70.0623292211899 2853.20858296627 15 18 9
230.065538866743 -74.6987637289419 2837.63906303054 14 17 8
236.05856802333 -71.8625106220321 2851.10711917228 15 18 9
260.490307620617 -65.4663931457565 2878.33005823253 14 17 8
245.806334832842 -66.6753248841434 2876.08587668217 16 19 12
256.778192866337 -62.9316522236304 2892.97755968309 16 19 12
256.556993271184 -61.3585126292073 2901.46683639627 15 18 11
245.868207176855 -61.7914554482157 2902.22590684879 13 15 10
215.73719416739 -65.9128963651099 2888.82836592579 12 14 9
148.183174717032 -77.0838466686061 2848.451441776 10 12 7
67.3252144652632 -90.6698411865565 2798.97056953912 7 9 4
63.5151492567965 -89.6662221170476 2805.43950478951 7 9 4
87.4838704632035 -83.4670224586541 2831.73442300634 8 10 7
82.1199473968655 -82.7790209616165 2836.95919158377 8 10 7
61.1648944156169 -84.9854670432111 2831.17101448739 8 10 7
52.475550370306 -84.9011114700196 2834.11888090475 8 10 7
26.7889028751496 -86.2424050566773 2834.3182872633 8 10 5
20.5219700897024 -85.6955733774984 2839.04371336045 9 11 6
20.0642109873126 -84.0906526892287 2847.76286208753 9 11 6
27.1213882494554 -81.13103764333 2861.57287990646 9 11 6
28.3980324376847 -79.2331403611858 2871.36059519156 8 10 5
23.0174976718782 -78.5420864520509 2876.60140828695 10 13 6
-12.5328436346588 -83.2547011962406 2861.58783127824 10 13 6
-11.261091207821 -81.3559366123335 2871.3802759679 10 13 6
-12.4832080891495 -79.9100483194419 2879.46503886961 10 13 6
-31.4064676681309 -81.603095800179 2875.83444659551 11 14 7
-36.0118958925999 -80.75348001556 2881.69904137895 6 8 3
-38.9168065944725 -79.6066600242044 2888.66522694964 13 15 10
-20.5670260786675 -74.7462090854068 2909.40141474382 9 11 6
-17.4371018482966 -72.5701888329316 2920.14184557444 10 13 6
-14.2676358567515 -70.3992419009848 2930.84376068624 9 12 5
-23.0354409076092 -70.3034306931514 2933.86818474618 13 16 9
248.491459756568 -132.538057240144 2564.32642127587 151 135 136
251.067471842882 -130.013066027185 2576.98222661603 144 115 109
252.205216788355 -127.823778018517 2588.28205064009 125 96 88
245.207650770419 -127.453676846391 2592.34187986989 109 80 72
234.479143290414 -127.906084216578 2593.14327109774 79 51 40
219.243581161152 -129.341825042625 2590.06343888385 63 33 23
207.701175762537 -129.949673083616 2590.27910752204 69 38 33
199.880949253418 -129.733465654591 2593.76168689105 80 51 47
187.534300992794 -130.498091181632 2593.38190506436 62 41 40
176.662169347993 -130.931095129569 2594.32304939368 111 97 96
199.59455793631 -109.18536095597 2702.9530211095 23 22 17
222.044998850266 -102.697783707085 2730.71299201911 19 20 12
215.151195524577 -102.33722534145 2734.67119378425 20 23 14
214.473414758572 -100.691386189466 2743.60311738674 17 23 13
229.416014290267 -95.8430339356053 2764.89065581044 17 23 13
243.678851472906 -91.1675335074424 2785.46184640212 18 21 10
213.368382419376 -95.6115099775084 2770.87293143791 18 21 10
254.428491924746 -85.52268416621 2812.21224257149 19 22 11
250.038315813458 -84.7011920585162 2817.8672454917 17 20 9
250.39008010059 -82.9259480914114 2827.1745989795 19 22 11
252.352875245077 -80.8365429519826 2837.66989860391 19 22 13
258.318498962011 -77.95896392944 2851.15872295807 15 18 9
234.115368928872 -81.1028968872421 2841.64927226793 14 17 8
247.293532642052 -76.8073678819769 2860.51956278213 15 18 9
256.565554107777 -73.3121738272572 2876.30177717504 15 18 9
270.715846795342 -68.880648750635 2895.60387624673 15 18 11
259.259271288974 -69.4942031719234 2895.73482009165 16 19 12
222.009805290538 -75.1288813810514 2876.87646664225 16 19 12
213.658878049758 -75.0992755284244 2879.49670999677 13 15 10
159.990944528171 -83.833776612443 2849.06007656823 11 13 8
132.850826354992 -87.3808728960918 2838.27528224415 9 11 6
56.0230037086491 -100.432928983183 2791.79873019439 7 9 4
57.8893547622177 -98.3294212666831 2802.38737803006 8 10 5
75.309814255724 -93.2750207881405 2824.01806752198 8 10 7
67.4607869145123 -93.0486959856912 2827.52775119964 8 10 7
53.8568213598651 -93.9061691638154 2826.99331755705 9 11 8
37.7473461234903 -95.2230561971044 2824.76372743867 9 11 8
33.9558627310885 -94.215276643347 2831.21393359525 7 9 4
0.42141224307235 -98.7632505950942 2817.00769415963 8 10 5
-5.07915248787016 -98.0566227354576 2822.36539696169 9 11 6
19.3122771072836 -91.8132514580599 2848.23403095372 9 11 6
5.56098045867603 -92.6511487407455 2847.8430059566 9 11 6
14.2947425756548 -89.3449646017477 2862.77074610503 8 10 5
23.0953844454564 -86.0472412026821 2877.6333241639 10 13 6
6.82133253485251 -87.3421259393091 2875.56424702807 10 13 6
-1.10232452841741 -87.1050660759812 2879.14645248566 10 13 6
-19.1398558907916 -88.6942464645031 2876.03753896385 10 13 6
-0.948216350086462 -83.7374930084484 2896.91686745606 11 14 7
-25.7830403549928 -86.5369787953164 2889.40069839431 16 18 13
-27.8171930848949 -85.233011437967 2896.89589143233 6 8 3
-28.1354858173257 -83.6284373578243 2905.47693706286 11 13 8
-32.6877551036859 -82.7822355899383 2911.2892488251 11 14 7
-33.8210558787706 -81.3333324912867 2919.2853704334 10 13 6
-26.3792588364966 -78.381354225486 2932.71458383769 8 11 4
245.617562901454 -140.918512426418 2562.75089584076 151 133 133
251.141084411773 -137.689811950898 2578.04374794187 137 106 101
253.019545686086 -135.308039025335 2589.99648983265 120 91 83
243.053123943807 -135.614218652727 2591.43641557843 104 75 67
224.871907162153 -137.759136048119 2585.71850285351 72 45 34
205.878264835892 -140.06261342957 2579.41386648322 59 32 23
198.044123958596 -139.852730602574 2582.91119779893 65 38 31
190.949327016662 -139.474499745397 2587.0663772097 72 47 42
180.837260467748 -139.760903278875 2588.64800750346 53 33 32
163.912280425829 -141.54004745548 2584.46272848082 101 87 86
175.737259356048 -121.792311258317 2684.57940575515 24 23 18
216.701403215334 -111.269893467654 2727.36717464844 20 21 13
231.519336960742 -106.335386847344 2748.76577446309 21 24 15
220.770263127802 -106.800196030386 2749.58908352396 17 22 15
230.269365287918 -103.023984242141 2766.52151629189 18 24 14
189.030462208152 -109.834460327097 2743.29638366122 17 20 9
248.707880589292 -95.6621312329611 2799.55308038412 17 20 9
256.072256468685 -92.4004352702365 2814.43030732502 18 21 10
261.136919596722 -89.6326033889485 2827.41311012443 16 19 8
252.041800854253 -89.7823070859398 2829.38193919671 17 20 11
251.633952123711 -88.1531750632907 2838.04828560408 17 20 11
262.35783634646 -84.2696502698276 2855.16554018062 13 16 7
237.369671745337 -87.6404194683226 2845.05191955903 13 16 7
244.176902876109 -84.5691561058971 2859.09363600887 14 17 8
252.641591310684 -81.184396809975 2874.27695692769 14 17 10
260.372076750628 -77.9682356019213 2888.79736167972 15 18 11
244.875062531898 -79.3997340562847 2885.97652823496 15 18 11
236.574041203288 -79.3870487678321 2888.54971513295 15 18 11
174.995930469318 -89.8987707138765 2852.06023253231 12 14 9
133.370813437311 -96.3944914930169 2830.58934252848 10 12 7
94.0042945577013 -102.390827675783 2811.05255029901 7 9 4
65.0424084247887 -106.302529954612 2799.29686846105 7 9 4
49.005258285931 -107.66382755829 2797.00202231458 7 9 4
77.8375046353719 -100.315124815059 2826.79962370464 7 9 6
44.6162937218721 -104.995094938888 2812.30184171759 7 9 6
31.7791033157455 -105.714404143418 2812.40281560225 8 10 7
33.7131883667743 -103.594285169054 2822.92174744049 9 11 8
27.4386446317978 -103.051108319426 2827.65527150524 8 10 5
2.15393502591166 -106.118455892129 2819.20852603305 8 10 5
9.91076481160658 -102.903832000451 2833.70299767501 9 11 6
32.6755019410703 -96.8801843808719 2858.38527991564 9 11 6
13.1300557422458 -98.8423424284771 2853.9950554172 9 11 6
-5.64624051522067 -100.640072130827 2850.23366053696 9 11 6
10.6323348032125 -95.8881693999474 2870.20881045245 10 13 6
36.2308068722275 -89.4387167913484 2896.26528401154 10 13 6
18.2955964569516 -91.0810261386344 2893.06295455559 10 13 6
2.82876854487668 -92.2509135175322 2891.5903889771 10 13 6
17.6945136112239 -87.8435686843778 2910.18526924776 11 14 7
-12.171707031563 -91.6371963799268 2899.31015357478 13 15 10
-22.6517785976417 -91.8684189741902 2901.24940041397 9 11 6
-28.0564780506269 -91.1726823373405 2906.51351729584 11 13 8
-36.8666948998566 -91.0920915309585 2909.58196862521 5 8 1
-60.2007576029084 -93.619240456945 2903.36942661372 14 17 10
242.00697286045 -149.491091624787 2560.51806631492 143 123 122
246.781755150089 -146.39125450165 2575.15656416006 132 99 94
245.685295700447 -144.663356226715 2584.49211358207 110 81 73
233.471445596571 -145.49431585456 2583.99026537375 87 60 51
211.542128977748 -148.532611598044 2575.04142769334 45 25 14
196.993761567405 -149.860728329781 2572.68020348854 44 24 13
189.136478349318 -149.655815123554 2576.20124999855 59 36 28
186.521794429984 -148.263315948424 2584.25983412549 61 38 32
178.655843360531 -148.05676456016 2587.78924581745 53 35 33
172.287715918753 -147.510723774518 2592.61527659799 91 77 77
181.217194022515 -128.23254089603 2690.00899150092 23 22 17
227.610717161256 -116.384245480865 2737.1280454409 20 21 13
240.127709667509 -111.881088537581 2756.62420141893 21 24 15
237.956467409271 -110.541986054705 2764.25033342893 17 22 15
213.968308576105 -113.843871373976 2754.55075844939 18 24 14
204.739835016625 -113.990475533815 2756.65121487408 16 19 8
240.160892033911 -104.718952544287 2793.79194458095 16 19 8
254.573976442084 -99.9264552789883 2814.19664537518 17 20 9
250.971450973281 -98.9341839736815 2820.46116779067 15 18 7
256.061936757869 -96.133975535156 2833.41354306938 17 20 11
225.589527882387 -100.728633263283 2819.00804520841 16 19 10
232.281891062881 -97.6021727001606 2833.15533126678 12 15 6
243.80550199111 -93.5009170090416 2850.86351203078 12 15 6
255.411365612867 -89.4101059922134 2868.49122053049 14 17 8
256.710025003211 -87.451179805851 2878.24805434906 14 17 10
254.034927338044 -86.3109085030817 2884.98700007036 15 18 11
254.584696223488 -84.521293954495 2894.09560809933 14 17 10
210.080622664835 -91.8320178671627 2869.9357086376 14 17 10
151.668553885228 -101.875590879549 2835.9014203205 11 13 8
110.797299282952 -108.323394967671 2815.09176103152 9 11 6
103.001202655026 -108.119693990229 2818.55222751988 8 10 5
91.1304534759947 -108.721677798485 2819.0930796548 6 8 3
74.3409722539967 -110.286853003196 2816.15819525607 6 8 3
59.9483202904678 -111.362179349719 2815.02222816186 7 9 6
39.7836002080618 -113.556884228999 2809.86441278681 7 9 6
35.1404884194659 -112.694070547962 2815.76447726316 7 9 6
37.0823376674134 -110.550132278155 2826.27251649961 7 9 6
27.5177476821824 -110.650029413112 2828.6998382259 8 10 5
27.0250052758283 -108.990676512157 2837.44601867569 9 11 6
41.4660427737501 -104.464202464424 2856.44503259425 10 12 7
44.3776144715216 -102.178556057068 2867.38608801977 10 12 7
12.3770996156494 -106.573923010577 2854.46856689743 10 12 7
9.44768372300198 -105.398776797116 2861.45456203957 9 11 6
22.4161983625137 -101.214434544798 2879.13256121892 10 13 6
25.4148438458333 -98.9396177495903 2889.98875170015 10 13 6
16.6941370717426 -98.8811596702117 2892.97192725108 10 13 6
4.59147833186213 -99.451607809198 2893.73840805003 10 13 6
8.49096847518949 -97.0263997366116 2905.09472801955 11 14 7
-11.2466765514103 -99.0085546879224 2900.89831533194 9 11 6
-9.85741648359983 -97.0583523327286 2910.5664707169 14 16 11
-9.28579662053686 -95.2688535920836 2919.65339751844 6 8 3
-24.8653958991563 -96.4556581844501 2918.29565377275 14 16 11
-52.4392665576716 -99.823531358384 2909.33234014102 4 6 1
233.686970459029 -161.235744783494 2543.59250221089 141 127 126
239.870578054852 -157.742210335925 2559.60798388553 137 117 116
243.161795769247 -154.95075388082 2572.93144317762 125 92 87
238.351691695856 -154.072033198996 2578.9949824136 100 71 65
226.118769548286 -154.924692000515 2578.515280155 73 49 39
204.915323925869 -157.847030391874 2570.24541271653 46 28 16
