ply
format ascii 1.0
comment KinectMotionCapture
element vertex 777
property float x
property float y
property float z
property uchar red
property uchar green
property uchar blue
end_header
-88.5464914832128 416.427172521954 2669.3353223541 190 191 193
-85.7040329193326 416.821113771575 2655.34122253054 186 188 187
-80.1737510377976 417.480381964361 2638.3564861304 184 186 183
-74.7195117140067 418.133430118103 2621.3165933516 179 181 178
-75.4806465997522 418.175708244346 2610.88386811188 177 179 176
-68.1188841329314 419.018930841742 2591.52233847445 176 178 173
296.243704128431 440.04193030624 2863.17384895399 185 189 188
286.804244378698 439.25267675644 2861.26742640235 237 241 240
272.548591846649 438.019549905653 2863.27820334363 244 245 247
252.712944609011 436.271631371758 2869.88716087692 237 238 240
236.155483124574 434.825066318715 2873.93363064362 223 224 226
218.855307457381 433.309291225711 2878.67637711564 227 228 230
204.00562605888 432.018875438561 2881.49157078088 240 241 243
183.641911424177 430.218881736939 2888.95249384673 246 248 247
169.694793580414 429.010421045797 2891.18705910696 236 238 237
155.000441203418 427.732379538314 2894.11491677295 218 220 219
145.081439795562 426.895071562539 2893.09565746347 232 234 233
139.897836752223 426.495296164641 2888.10089142338 249 251 250
134.708887904941 426.095117568913 2883.10224805365 242 244 243
127.952080599553 425.549930752198 2879.43636939106 219 221 220
118.082094638517 424.716533830436 2878.45266223528 240 242 241
109.786949062162 424.028695807625 2876.14125450923 228 230 229
104.60310446593 423.628915777202 2871.14631333883 229 231 230
101.731751352093 423.443543904777 2864.12342825001 216 216 216
98.0716063110476 423.185273989077 2857.76339844573 210 210 210
92.0925672578696 422.712062303115 2853.42666852659 228 228 228
86.8784383003329 422.309843837639 2848.40976122522 220 220 220
82.4229078707592 421.978096926904 2842.70780403217 208 208 208
81.0039981079238 421.928477557945 2834.26814600293 212 212 212
78.0388550330704 421.735552460563 2827.17723231121 216 216 216
72.783323398701 421.329935108667 2822.1302941098 209 209 209
69.7876523817014 421.134511613184 2815.01694292942 209 209 209
68.2787141631573 421.077624229617 2806.51227901443 200 200 200
68.9944870267376 421.228142941924 2795.91570735169 200 200 200
68.1725997830283 421.235990707188 2786.67409814082 200 200 200
65.8265295009204 421.102234023959 2778.79693212169 171 171 173
61.2250329414321 420.758553099587 2772.98939499488 219 219 221
59.5811872797234 420.690711414262 2764.38658383256 199 199 201
61.6080441027802 420.965605622606 2752.27070716294 199 199 201
69.4847284136917 421.787084466507 2734.51767632909 212 212 214
73.60076456398 422.258535033093 2720.21188157116 184 184 186
71.7894234694847 422.177164580035 2711.48787534622 184 184 186
67.7581361198549 421.888618894889 2704.85864320914 162 162 164
66.6271105780818 421.871348330633 2695.39280581938 162 162 162
67.6434258098335 422.055315978495 2683.77923652947 159 159 159
69.3388480045805 422.303375221635 2671.42295990023 133 133 133
64.4862674336917 421.939010165233 2665.43330184595 122 120 123
56.7446251144776 421.304072791895 2662.28807728935 128 126 129
25.3290074762891 418.450366706607 2682.72929230624 100 98 101
-18.0954347463795 414.468478429848 2715.4564347171 248 248 250
-43.4613346444228 412.177111396332 2730.40489112469 228 228 230
-55.9112067248038 411.096028899106 2732.49045035807 194 194 196
-66.1958290985638 410.217565335113 2732.4409727757 190 190 192
-72.9223348954355 409.672857155041 2728.79735722471 206 206 208
-81.0541624695875 408.99591970299 2726.60439741738 213 214 216
-84.960644656654 408.715961160592 2720.06568270169 210 211 213
-88.1813035798067 408.500638308748 2712.78913219249 212 213 215
-87.9320543070841 408.612029529912 2701.85446391119 202 203 205
-87.7233447701933 408.720066478169 2690.89009604315 199 200 202
-88.2488846440581 408.759395318376 2680.6284381937 197 198 200
-88.1194392888658 408.860876560352 2669.60657682282 189 191 190
-87.3419114333833 409.023931492555 2657.81979954084 184 186 185
-82.489143422718 409.572014239958 2641.57839232985 177 179 176
-75.654446846747 410.308084325423 2623.0692752606 182 184 181
-68.2224181067754 411.101706373615 2603.75843190757 178 180 177
-54.7588904644496 412.46641339306 2577.70663039153 175 177 172
285.341250177592 431.310261618024 2872.5178905087 229 233 232
272.700382438217 430.247138663101 2873.23004725225 227 231 230
258.482635728421 429.043817963953 2875.26845390706 206 207 209
241.897721876598 427.630053774651 2879.29518900963 207 208 210
227.772754897029 426.434189524546 2881.40089143928 233 234 236
212.092673200712 425.099845869622 2884.84862985589 244 245 247
197.261148896602 423.840414454317 2887.6771429283 253 255 254
180.093124122768 422.372968725081 2892.51593320091 247 249 248
165.363044540931 421.121625617616 2895.41773220929 240 242 241
151.470633657576 419.944362029583 2897.69211373211 234 236 235
143.925972706327 419.331247596114 2894.69009018745 199 201 200
138.746933288694 418.928541057004 2889.69861757022 185 187 186
133.562784291017 418.525440098457 2884.70314443454 173 175 174
125.247137845734 417.843618356883 2882.37690566475 245 247 246
114.605687042346 416.954599420268 2882.06899655062 243 245 244
107.098147117135 416.34447726794 2879.09389798644 226 228 227
102.698415390067 416.011186677151 2873.43238264459 226 228 227
102.925208937434 416.090343476068 2863.71630908424 239 239 239
96.9515918926187 415.617033338914 2859.383509196 217 217 217
89.4403900541985 415.006574300493 2856.40545984936 224 224 224
84.2352541107885 414.601783523665 2851.3950587466 222 222 222
79.7888212232096 414.264709618048 2845.69966957361 211 211 211
77.617783054603 414.130864074572 2837.94968209585 216 216 216
74.6643468742803 413.927331515544 2830.86690677591 211 211 211
69.4199756279819 413.519302497803 2825.82804676243 206 206 206
68.7012985171718 413.515721296081 2816.66119888954 197 197 197
67.950796388216 413.509576848921 2807.47126739848 203 203 203
69.4208907392602 413.702285816809 2796.18669655277 198 198 198
68.6000953166452 413.690461764883 2786.94577918469 202 202 202
66.2547641885753 413.542516061451 2779.06907712391 164 164 166
61.6536010347728 413.192828021323 2773.26175126277 181 181 183
59.2686502648663 413.041598005281 2765.35631144241 209 209 211
60.5595444912379 413.219834572436 2753.94176129645 199 199 201
66.9684346190622 413.857034672127 2737.59383498523 206 206 208
72.5661385636545 414.422255823602 2721.89253453985 183 183 185
72.2264876151781 414.455748340494 2711.76560197735 178 178 180
69.6577180511202 414.289612016167 2703.72683248683 164 164 166
69.9809572600922 414.38311923478 2692.84541602632 155 155 155
73.1697227268446 414.734169425116 2679.10214421554 161 161 161
74.1268962376687 414.885370892552 2667.44553586282 131 131 131
64.9282429599096 414.124746642726 2665.71411855185 123 121 124
42.0666060996568 412.136216512553 2677.53906161395 133 131 134
-0.0747185206551038 408.413565136837 2708.72730870844 84 82 85
-32.6942724313257 405.54471713165 2730.76576118972 249 249 251
-50.1711284406738 404.036135780129 2737.8508324843 181 181 183
-60.4668917650661 403.172895927413 2737.79365017718 203 203 205
-68.610402834564 402.503002717224 2735.59225643521 218 218 220
-76.0348354416362 401.897631280226 2732.67713372583 223 223 225
-82.0424612593966 401.419713994916 2728.31965681618 215 216 218
-85.9441300468462 401.131452666457 2721.78438938134 212 213 215
-87.7597034841067 401.031268149163 2713.05692526685 210 211 213
-88.2069800508492 401.05466768295 2702.85192147387 199 200 202
-86.603455239227 401.263344566391 2690.42912146803 195 196 198
-86.4363698632458 401.342782667443 2679.43443449864 194 195 197
-85.6188362698926 401.481252828645 2667.6765337031 187 189 188
-88.291835682266 401.304835601883 2659.56215369637 183 185 184
-84.8060803242172 401.684939550235 2644.79928672968 176 178 175
-76.5904598616367 402.493101802351 2624.82152275885 179 181 178
-64.3738250256913 403.663894012234 2600.33520755613 176 178 175
301.702055479564 424.943799029928 2869.52432258237 202 207 203
280.105140575483 423.138272411794 2877.32657553606 215 219 218
261.01470500725 421.546140862947 2883.24150537469 231 235 234
248.439919745076 420.509669995767 2884.00170171431 209 211 210
234.292240069102 419.338760865067 2886.09106562823 202 204 203
224.19484561485 418.5133928934 2884.9425458708 185 187 186
209.323116571952 417.280297147928 2887.74175258839 165 167 166
196.88978864288 416.255181350629 2888.60455188329 124 126 123
177.337279196291 414.621802340096 2895.41934220904 96 98 93
160.236406379527 413.197465143762 2900.30703072164 64 66 61
145.56724244843 411.980565750487 2903.25345772647 75 77 74
141.981209222089 411.710585677092 2896.94709384404 30 32 29
137.59524597833 411.372331553805 2891.2955344283 6 8 3
132.415473353249 410.966279706879 2886.30351334871 19 21 18
123.322105229755 410.225585439047 2884.64822596522 27 29 26
114.245396283623 409.486225814415 2883.00502193517 11 13 8
106.739799541556 408.881175010393 2880.03135771329 19 21 16
105.442945909855 408.807329830789 2871.68005806981 20 22 19
105.664480179353 408.863611830987 2861.96005608134 25 25 23
98.1429900846118 408.257278065727 2858.97456945345 22 22 20
88.3235142676519 407.454106370511 2858.02792575281 8 8 6
83.8894021965464 407.112011399053 2852.34144276993 29 29 27
80.973584211371 406.899991199453 2845.28618916791 92 92 90
78.0392293733083 406.686484243993 2838.21749027492 189 189 187
73.56693955037 406.341266576959 2832.50331560792 229 229 227
69.0847325742752 405.995230573966 2826.78194763992 204 204 202
69.1246553164766 406.036919502694 2816.93021766274 207 207 205
69.128371797639 406.075690256448 2807.05222621313 203 203 201
70.5977498491821 406.24035121867 2795.76699403795 194 194 192
67.5297377011153 406.016021108088 2788.60105481012 194 194 192
65.9359203648378 405.918248402588 2780.03465311906 199 199 199
62.0816651104334 405.626599097438 2773.53373960541 165 165 165
59.6975016400916 405.461183961518 2765.62879866488 174 174 174
58.7700491759731 405.420944296928 2756.31041940055 210 210 210
63.7128005679108 405.884992624089 2741.36885404127 199 199 199
69.323703922902 406.406799227023 2725.67719670395 182 182 184
73.396619643757 406.796880494828 2711.33973087495 171 171 173
73.019695943469 406.804845020771 2701.18564919492 160 160 162
74.7932861199843 406.997830458547 2688.8860537212 147 147 149
77.2440706110302 407.249285986655 2675.84233591443 154 154 156
76.0181416071384 407.18483652173 2666.30746200921 123 123 125
59.5912340646603 405.812917379634 2671.68398784005 111 109 112
20.1804947337667 402.463026318079 2699.91314159508 111 109 112
-19.0285647781567 399.129070300306 2728.28857806907 214 214 216
-40.8585362355043 397.289691066529 2739.62711624807 190 190 192
-53.3167046988883 396.256482897176 2741.70660927224 247 247 249
-63.6024220187203 395.41003835343 2741.65679459977 243 243 245
-70.3172917016914 394.870902974031 2738.0216425434 226 226 228
-77.7354538050838 394.271057998239 2735.11109344857 209 209 211
-83.0319358729308 393.853893493996 2730.03441091541 208 209 211
-85.5237041898218 393.678446801528 2722.0514141134 203 204 206
-85.9379443945691 393.68214859028 2711.87025931131 206 207 209
-86.3882965972524 393.682884674182 2701.66261665234 194 195 197
-85.4833845439338 393.800652591048 2689.96795350623 191 192 194
-84.6236047952138 393.914689608142 2678.2405540916 187 188 190
-83.8089830743778 394.0250235135 2666.48039990185 178 180 179
-85.1073076903848 393.953125985513 2656.8930071465 180 182 181
-80.9413187922039 394.353152985774 2641.38832027494 182 184 181
-72.7334216002109 395.102578348188 2621.40436554949 177 179 176
320.561777078495 418.717092364929 2864.63787041293 203 208 204
297.263396990558 416.823752224593 2873.67632340937 211 216 212
277.297547476317 415.203264195424 2880.19153999432 232 237 233
255.788983362304 413.456237317783 2888.05813663394 227 232 228
238.392851319871 412.046007769715 2892.73185689073 136 138 135
225.879576773055 411.035781286698 2893.5367765936 123 125 122
215.003772173339 410.159680276305 2893.059044843 120 122 119
200.956153368809 409.023627485356 2895.22112157227 104 106 103
193.328997904886 408.413707319393 2892.15901769742 72 74 69
177.75970533347 407.152797818159 2895.68773595051 53 56 49
119.341885609565 402.470565526399 2879.25323138031 38 41 34
122.707101967337 402.762138765209 2866.87290242982 41 44 37
111.288952121168 401.841132716301 2867.23682221217 49 51 46
105.312025958871 401.366449243145 2862.90161651782 40 41 36
96.2505862224958 400.638654806842 2861.26954004374 40 41 36
81.8250099793176 399.470670696177 2864.39250225049 42 43 38
81.2432799651175 399.43858852304 2855.32478588749 27 28 23
80.6297714277746 399.403976742984 2846.23401978192 17 18 13
79.9845337507077 399.366816952689 2837.12023963966 15 16 11
73.9882588636687 398.890461465369 2832.77099917275 18 19 14
68.7486336258898 398.476215235668 2827.73554815072 32 33 28
71.0586778876383 398.6817689942 2815.82460887588 113 114 109
69.5525106171875 398.574084870156 2807.3216963848 221 222 217
68.7703392585428 398.525881309963 2798.10829967856 194 195 190
65.7093737216852 398.290571983613 2790.9477075547 195 195 193
63.3763626877823 398.115054755989 2783.08009141493 196 196 196
61.0204784377837 397.937666716419 2775.19559003961 167 167 167
57.1567925219352 397.6364337418 2768.68779149505 155 155 155
56.2392425102241 397.577236019416 2759.3764947035 187 187 187
59.7171809869401 397.879190924841 2745.8426019016 185 185 185
66.079576822295 398.418259112226 2729.46047382805 185 185 185
72.3659479832066 398.951220728967 2713.02320291457 171 171 171
75.6512504323656 399.237674519499 2699.34958562904 155 155 157
78.8781046252276 399.51938588146 2685.63357393383 146 146 148
81.3197596969948 399.736660224238 2672.58306488176 146 146 148
72.8368936099981 399.055854381752 2670.13561017077 116 116 118
44.1363071074612 396.712687344613 2687.60715418664 116 114 117
-3.15616274974384 392.840354237481 2723.70631335898 181 179 182
-30.810237091119 390.582208097419 2740.70159591553 190 190 192
-46.1632508184489 389.335326393228 2745.62220700107 239 239 241
-54.3232777718259 388.679815303626 2743.40891339069 235 235 237
-63.1825786641071 387.966656329395 2741.92344581005 218 218 220
-69.8976223449983 387.429784587178 2738.28817908465 212 212 214
-76.6091509546338 386.893097630834 2734.65516696837 209 209 211
-80.4979464208706 386.588553478555 2728.1291492031 202 203 205
-83.6984356376911 386.340596942273 2720.86734932544 190 191 193
-85.5166879591442 386.206335598223 2712.13777062478 195 196 198
-88.060575545674 386.012320680041 2704.1168974002 191 192 194
-87.1475483888275 386.102815777192 2692.42797892362 189 191 190
-84.1982406438835 386.360944988982 2678.51064843694 183 185 184
-80.6157316801583 386.6712425026 2663.81756664048 172 174 173
-80.5430403153355 386.692579984106 2652.75415714684 176 178 175
-76.3880873112353 387.050078982658 2637.24125470743 180 182 179
-64.0805659034007 388.079016372039 2612.82010659766 177 179 176
322.62977314654 411.083784497801 2863.62797295124 58 63 59
284.69583539299 408.097789894387 2884.28368953505 64 69 65
268.814690275596 406.844110026537 2887.58637584182 73 78 72
243.286096926192 404.832822135928 2898.71290658592 15 20 14
111.917720546849 394.420589828649 2857.77386688522 30 32 27
102.067035033177 393.641236822439 2856.80471925573 29 31 26
83.0114468449041 392.139402525268 2863.98040470636 30 32 27
67.8625426303441 390.94425073118 2867.81420452662 33 35 30
84.1073258884704 392.213013042704 2843.77810858255 36 38 33
89.5524296720303 392.634071366849 2829.20049143984 37 39 34
75.1692371782764 391.498954999924 2832.35463948969 35 37 32
64.6225719963738 390.664901985453 2832.11572090863 50 52 47
69.214484875733 391.018815689054 2818.15430399994 53 55 50
69.9762363459082 391.072080088033 2807.5908650751 23 25 20
67.6925392109768 390.886291109914 2799.75865112763 15 17 12
66.8837809121694 390.816176334586 2790.52616447347 10 12 7
65.296365522812 390.6848728611 2781.96393937339 149 149 147
62.9366519308485 390.492921124624 2774.07688273538 133 133 131
58.3266179585236 390.12434197107 2768.26273606435 144 144 142
58.1480869810984 390.103339151425 2758.25232677772 172 172 170
59.4094860626586 390.19520888268 2746.81595750677 186 186 186
65.7768439390871 390.687478546327 2730.43689500192 180 180 180
72.0680380334895 391.173625792489 2714.00288321183 176 176 176
78.2832564242364 391.653655499234 2697.51376402622 149 149 149
82.2347267491486 391.955972887028 2683.0881097736 138 138 140
79.5800724603843 391.740057562647 2674.98682847282 138 138 140
63.129839246018 390.442133784664 2680.34711430444 111 111 113
18.5571807929414 386.938880227518 2713.47935127415 200 198 201
-18.5786178687646 384.019017652918 2739.65443188436 190 188 191
-39.7246707283188 382.35309252941 2750.25430472348 238 238 240
-50.7548314954889 381.480358210786 2750.89973057513 220 220 222
-58.1861726535404 380.889761751087 2747.9799690249 218 218 220
-62.7631226770351 380.522847121493 2742.18981404556 212 212 214
-69.4783636033478 379.988222197197 2738.55441571332 215 215 217
-74.7756557566424 379.564648864212 2733.47681899292 203 203 205
-78.66842355655 379.25107524754 2726.94787586218 198 199 201
-81.1699813042468 379.046460080185 2718.95792922581 195 196 198
-83.6945289181779 378.83989743913 2710.95101240342 187 188 190
-86.9405970246153 378.576650736354 2703.65609396827 190 191 193
-86.7244463111359 378.584599770371 2692.69661340292 187 189 188
-80.9973532696573 379.024249466683 2675.8534372018 181 183 182
-76.0380559636091 379.403508207984 2659.6884002236 168 170 169
-73.9087268060983 379.560824678161 2646.4114702295 174 176 173
-69.0839680469875 379.929109616974 2630.14884780295 181 183 180
360.360505417812 406.149162867328 2844.02016000019 203 209 205
345.887865385891 405.032567538292 2845.8742283272 72 77 73
313.576442328206 402.575129955469 2861.96265769152 91 96 92
162.297015493872 390.796560941284 2843.63650099751 28 31 24
119.65982484271 387.57151451352 2870.76240032648 29 32 25
116.006247823916 387.269842572774 2864.40691198189 29 32 25
102.284615546947 386.21347487326 2866.80570692258 34 36 31
102.487008810721 386.200733067244 2857.07147959138 33 35 30
84.1977706022541 384.802330041256 2863.56819576766 32 34 29
69.8117314097058 383.69662803787 2866.72013469733 34 36 31
52.4144100106483 382.365586883664 2872.62872497517 35 37 32
88.4499260061364 385.036137691164 2830.8331457073 35 37 32
52.1563588535217 382.261829964797 2844.0332288243 37 39 34
47.7180086276139 381.901117516063 2838.34357921137 40 42 37
56.0811360326166 382.498239309054 2820.94175046792 26 28 23
56.8453916051514 382.526427466448 2810.37999980421 26 28 23
71.0550608680305 383.560105085039 2787.33748880158 24 26 21
67.9634498764044 383.299237086466 2780.15455167384 13 13 11
65.597929297426 383.092536147449 2772.26321071941 70 70 68
59.4963340005523 382.606378976294 2767.83757159229 112 112 110
60.05731218153 382.618133847442 2757.12808309443 174 174 172
61.3158284149051 382.681780058425 2745.68948102762 177 177 177
67.6812252093497 383.126696128959 2729.30905151433 178 178 178
73.2368538411765 383.510681244941 2713.57633178054 181 181 181
79.4524657769942 383.943537751247 2697.08725894259 140 140 140
79.7569217054308 383.93456373496 2686.19170699351 135 135 137
72.7485565641075 383.379408287878 2682.34341819405 135 135 137
41.0932256543632 380.984599206646 2702.61318434845 110 110 112
-4.14207863730898 377.577167187931 2736.50057719238 185 183 186
-28.2433529821591 375.747604352413 2749.89805352283 213 211 214
-43.6148234901528 374.569680337218 2754.80563417847 226 226 228
-51.0520056328045 373.983681448941 2751.88166166146 236 236 238
-58.4813163593323 373.398235195008 2748.96310362416 218 218 220
-61.6323134874794 373.131660099855 2741.73708731113 207 207 209
-68.3498023478155 372.599105506458 2738.09977541315 205 205 207
-73.6492953570536 372.17214553993 2733.02086056837 197 197 199
-77.5438926020811 371.849708588759 2726.49054633928 192 193 195
-80.74983258116 371.578406194796 2719.22467683637 187 188 190
-82.5729531703601 371.409868255575 2710.49139540681 186 187 189
-84.4235619666618 371.239051189183 2701.73817564507 186 188 187
-80.0348420260575 371.53233946184 2686.39441060678 182 184 183
-72.9367251203994 372.026742321324 2668.07502846405 180 182 181
-68.6911924155908 372.308383132751 2652.62711046906 153 155 154
-67.9615169667636 372.328067145851 2640.80491775431 157 159 156
-64.5270620196732 372.548502037849 2626.00405326966 184 186 181
386.959049393286 400.158278366448 2823.74755025339 89 96 89
180.953262426321 384.833318702154 2885.53851135604 37 40 33
125.08951726829 380.784888550843 2922.83408690574 34 37 30
63.1898536726547 376.306710978469 2965.63309607637 30 33 26
88.9228022876454 378.101068993125 2934.89154958057 31 34 27
111.341432467103 379.656924317223 2906.68661585046 24 27 20
129.68994018447 380.920458440581 2881.70516044537 23 26 19
115.917086870065 379.886848386569 2884.06693943487 21 24 17
99.8533795210355 378.689886632625 2888.47260640148 20 23 16
101.687256769688 378.771862273938 2877.45118865564 24 27 20
100.382270672201 378.629317536382 2869.09364563735 27 30 23
92.8791531306032 378.044078482583 2866.12187899122 27 30 23
84.6148392634989 377.404584082251 2863.83306669917 30 33 26
78.6634333831104 376.930168254107 2859.51636255749 33 36 29
55.8864915061847 375.255804799677 2870.16925750744 38 41 34
48.4563659187085 374.676326658254 2867.25013898971 38 41 34
57.0013683699786 375.23536882569 2849.9799624679 36 39 32
41.2007541723924 374.059250068566 2854.57645684856 32 35 28
29.2359702133216 373.156763480271 2855.77953480766 33 36 29
26.350489682514 372.900914431987 2848.74605147199 26 29 22
55.7637185611144 374.94345647597 2812.02753594592 28 31 24
63.9869018725179 375.476689083238 2794.52393513115 27 30 23
65.4009361023888 375.524906669022 2783.19799322989 24 25 20
71.2395284800431 375.887241540407 2767.67058476846 17 18 13
66.6081106680436 375.504861806691 2761.84086659304 74 74 72
64.9290292922675 375.33209332731 2753.21198083472 119 119 117
63.2223621804444 375.157060223757 2744.56308611686 163 163 161
68.1135774192376 375.450094366263 2729.58358935679 171 171 171
75.1396905766182 375.893985025191 2712.44679093524 180 180 180
82.81694017644 376.383292522872 2694.54750310982 134 134 134
81.6549038333072 376.245004990027 2685.05827787652 134 134 136
65.1861072630528 375.021444550511 2690.40548340027 130 130 132
17.5962919531374 371.593354912916 2726.29134068903 112 112 114
-17.4533481465389 369.055614714116 2750.27525332223 201 199 202
-33.5882759559614 367.858508507062 2755.8643269547 216 214 217
-43.9142989468411 367.072986015907 2755.78560242332 223 223 225
-50.6333879101588 366.542776587077 2752.14743693229 219 219 221
-58.777081386429 365.911803741057 2749.94581362205 189 189 191
-62.6373333508599 365.583646005356 2743.44066251995 200 200 202
-69.3505896555671 365.053689625191 2739.80643205234 200 200 202
-74.6455945584343 364.623852143357 2734.73075615647 196 196 198
-79.2405769433251 364.243311357019 2728.92746011435 190 191 193
-81.0331061048262 364.060351632883 2720.2162820144 187 188 190
-82.1522816914484 363.924553416763 2710.7584345441 187 188 190
-81.9059326196787 363.88464456219 2699.8206030035 186 188 187
-78.2179907481695 364.086826050019 2685.20340414295 179 181 180
-69.7329755375937 364.626278107815 2665.419569104 175 177 176
-65.494024027791 364.865729393908 2649.96666656204 148 150 147
-62.7021250230757 365.002567166015 2635.93461275525 148 150 147
155.602832823896 376.054965336524 2970.86771309717 33 38 31
217.505521843858 380.080408329564 2893.48492802052 30 33 24
142.650567300062 374.900659978429 2945.41583853203 28 31 22
150.344906632194 375.357627284642 2929.9985543902 24 27 20
139.664783854021 374.560654852366 2929.66307736994 25 28 21
160.746764981063 375.929065187478 2902.95859650583 26 29 22
108.566505747751 372.235739392168 2928.10459082693 26 29 22
88.5439090048732 370.804049636647 2935.81495754149 27 30 23
109.400984222813 372.154568675883 2908.9473469612 32 35 28
116.023946908609 372.53534428688 2893.9883442044 31 34 27
107.750831948098 371.902806512104 2891.69318704859 30 33 26
95.5996737976266 371.006965394132 2892.76089756252 26 29 22
95.8965650395549 370.956779865724 2883.09498417253 24 27 20
94.6100455371242 370.798689205029 2874.75074923993 22 25 18
88.6672886532529 370.324413943792 2870.4403156524 21 24 17
85.0314413241899 370.006531476229 2864.09759782875 19 22 15
84.4496973514732 369.895407104795 2855.02947098261 19 22 15
72.3627731730709 369.004627763357 2856.14377171261 18 21 14
54.2082417169967 367.703482235512 2862.7386323169 15 18 11
30.0390133013355 365.996194212883 2874.85213553102 19 22 15
49.9560391460077 367.271574414013 2847.30268250537 34 37 30
44.7709294197129 366.848406741975 2842.30670575217 37 40 33
64.4104086166459 367.953360422828 2794.79283706519 26 29 22
87.3147054628607 369.346597466332 2753.35286342055 13 14 8
73.7222478166619 368.353843944098 2755.84562202615 15 16 11
69.061271605404 367.963008543556 2749.9947279837 7 8 3
66.6060421555255 367.720442411588 2742.03787901297 137 137 135
67.8092036257034 367.723609378629 2730.5588427577 162 162 162
75.5743877199393 368.167291339792 2712.72277494453 156 156 156
83.2545496679407 368.604125789201 2694.82533255613 140 140 140
81.3637519512427 368.39714906584 2686.04279583252 131 131 133
56.892522329961 366.674418705487 2699.17233033838 115 115 117
2.79254481013735 362.965849619634 2741.45362451759 165 165 167
-27.8784744276965 360.831421842546 2761.20322146264 209 207 210
-38.2153971937411 360.06104262647 2761.11667215531 236 234 237
-45.6519837485514 359.485133525979 2758.19288802238 184 184 186
-51.6480110492115 359.005624205735 2753.84381106133 190 190 192
-59.073728031491 358.430456660679 2750.92820474664 216 216 218
-64.3552543709196 357.998608991988 2745.86199509003 204 204 206
-71.0622743390301 357.471401108107 2742.23259387461 199 199 201
-74.2274511519505 357.180601251733 2734.99617570228 189 189 191
-78.1167758794585 356.841153707223 2728.46959747166 187 188 190
-79.9106071360189 356.641136191306 2719.75738905413 185 186 188
-81.7319514977057 356.438852467154 2711.02522432075 183 184 186
-79.387710221559 356.513453159022 2697.90337525915 187 189 188
-74.3109464770855 356.76906649577 2681.82286592067 176 178 175
-66.5281643765137 357.203545348727 2662.7644720331 164 166 163
-60.9114762096388 357.492785132526 2645.84049912636 140 142 139
-56.060776895491 357.730032453438 2629.5960178304 146 148 143
350.794360391179 381.920452532992 2862.90027019963 155 162 155
324.894987677017 380.139856856267 2873.75918357094 6 13 6
224.612698045434 373.427873092366 2934.42208786117 34 39 33
238.912718890613 374.0878217901 2895.38682202743 38 41 34
180.54040104937 370.206871226469 2933.33509575602 32 35 26
179.417522171129 370.044719042877 2925.10946683175 29 32 23
149.462554299638 368.012668570602 2940.43792778395 28 31 22
138.788971980483 367.232043163521 2940.10727488292 26 29 22
155.196782737188 368.205586886482 2917.42290234059 27 30 23
124.660488984949 366.139195073554 2933.56510491629 29 32 25
144.907279219942 367.359255953551 2907.48946156063 29 32 25
131.862773930029 366.42540115038 2909.14470422762 32 35 28
125.152868450114 365.901294803136 2905.51293247598 33 36 29
112.952912599523 365.022888813086 2906.54535680806 36 39 32
102.352222194555 364.248175931944 2906.26757475932 39 42 35
90.9965326517557 363.425183772649 2906.67726980823 40 43 36
82.0053108655125 362.754965276895 2905.09638745821 36 39 32
86.222883031497 362.935287663787 2892.09834928657 32 35 28
82.6443368035954 362.613190203855 2885.79714890425 31 34 27
89.8547354570836 362.98444235791 2870.02861167253 29 32 25
83.9088339789402 362.509314911316 2865.71589418501 26 29 22
77.9618737118497 362.034094223032 2861.4024086865 24 27 20
76.6039832803491 361.853234964086 2853.00661459387 22 25 18
62.2504535836281 360.838841350119 2856.18258284584 17 20 13
50.9867804573578 360.023116847336 2856.65901937094 18 21 14
57.9558699841489 360.374979988888 2840.71574827133 32 35 28
64.0930201084045 360.672398044575 2825.40414739846 32 35 28
48.29069826893 359.56625778452 2829.99975832796 22 25 18
29.5986868767573 358.180769302103 2827.55871568405 22 23 17
111.593825228331 363.213368396571 2731.39813256165 29 30 24
81.5817555229263 361.20064835495 2749.15566482369 15 16 11
71.7129252386552 360.471996706582 2748.17362047514 11 12 7
69.2518888017615 360.214681372073 2740.21248718798 33 33 31
68.9770339012838 360.095848778907 2730.13175510678 154 154 154
76.0086207384907 360.440246400082 2712.9984207207 144 144 144
84.4238674514095 360.871049905945 2694.39849531173 138 138 138
78.882380116982 360.415606275746 2689.14400934083 124 124 126
42.7734697675732 358.02392839999 2713.59581082771 114 114 116
-6.93998986704858 354.774186177066 2751.64879523113 200 200 202
-30.3526463037971 353.191995316887 2764.3113872606 225 223 226
-41.4026951218125 352.392658204321 2764.94276761108 217 215 218
-48.8287661492173 351.822562605883 2762.02693033193 184 184 186
-54.8137882109865 351.343437010294 2757.68583324706 197 197 199
-60.7998661732883 350.864166131171 2753.34396998146 205 205 207
-66.0746652267426 350.429614877718 2748.28262338384 200 200 202
-72.0650460241861 349.949883401308 2743.93763856821 195 195 197
-74.5175124603261 349.692481085262 2735.98301189393 187 187 189
-76.9928990201958 349.433181753296 2728.01146584704 187 188 190
-77.381263881372 349.304406789725 2717.84839761284 186 187 189
-79.9095092775492 349.040735686797 2709.83851092357 184 185 187
-77.568061367608 349.081671374695 2696.71476084833 178 180 179
-74.5836804244482 349.161849653937 2682.82195431499 172 174 171
-65.4064795976848 349.628213103397 2662.30419808675 165 167 164
-56.327447911678 350.08663122562 2641.7152367087 135 137 134
354.513010963865 374.31015717611 2860.61701071957 33 40 33
315.51629931885 371.784738691915 2881.73966936678 10 15 9
287.297131324193 369.92830144963 2894.62193384451 36 41 35
248.620889093785 367.42861305471 2915.97703793751 35 40 33
207.685172132949 364.792814523456 2939.3992099958 26 31 24
213.518042402443 364.932008566713 2916.45541999751 38 41 32
150.944225113027 360.862477275674 2948.8866141777 34 37 28
132.267606022008 359.606128373509 2955.10322921725 28 31 24
199.057382766396 363.596317090388 2891.14419622245 21 24 17
189.039995553592 362.869207456057 2890.05446759665 23 25 20
152.851061074137 360.538996997143 2910.74316486382 32 34 29
132.658171168615 359.191147926263 2918.33050710015 37 39 34
143.327709791322 359.732473666164 2900.12999471624 36 38 33
135.799705366007 359.15995281566 2897.1402514572 33 35 30
125.924925649939 358.444296004869 2896.15366558296 35 37 32
89.4571727251554 356.106700177652 2917.87553510671 30 32 27
67.9903392026029 354.68669547004 2927.00907620362 27 29 24
65.2912196152191 354.411277387763 2920.11059077196 29 31 26
67.2307499250615 354.417767493287 2909.1653808358 32 34 29
79.9612073436484 355.079370348504 2888.75437180891 29 32 25
88.7265003451727 355.498094224514 2871.6431778684 29 32 23
78.1673534347345 354.742541600877 2871.39560863591 30 33 24
66.866152772008 353.942476763278 2871.84491996824 31 34 25
64.7770673648589 353.700957985049 2864.15379641006 30 33 24
59.6131645007136 353.272903723371 2859.17287373525 28 31 22
59.0085701470331 353.120377810587 2850.08797245333 29 32 23
53.8204076792588 352.690346204911 2845.08974793551 31 34 25
47.1140955187681 352.168592118239 2841.46059297247 28 31 22
55.4954624767605 352.556460146296 2824.07092655866 22 25 16
22.515893904242 350.334007913246 2834.73575223366 26 27 21
12.8455636127986 349.634488111252 2833.89745784763 12 13 7
51.6488044581496 351.846409080713 2787.93046071604 24 25 19
77.3291435589938 353.141932170234 2743.56196341119 32 33 28
74.8534895037714 352.869153873789 2735.5901551776 3 4 0
73.0912915834767 352.638556129416 2726.90072354573 109 109 107
79.3800750487552 352.888430402 2710.46376746996 128 128 126
84.8606997162435 353.088459618642 2694.67574398886 126 126 126
71.289215547464 352.150883364557 2697.18398619959 119 119 121
24.2808608128353 349.222284342961 2732.2588500576 116 116 118
-13.7746787770288 346.831449219267 2759.00520157529 211 211 213
-32.8284738422377 345.574121669028 2767.41846200317 176 174 177
-43.1496107353502 344.836931949999 2767.34352432336 186 184 187
-52.7262633171535 344.14437377715 2766.57317417026 227 227 229
-57.9812885074726 343.70828329926 2761.52644874857 216 216 218
-63.2418230595067 343.271686757815 2756.47572690967 204 204 206
-68.5078433131232 342.834593537524 2751.42102585286 189 189 191
-72.358896303772 342.480890852204 2744.92211941594 191 191 193
-74.8082228764468 342.209520981699 2736.96940367026 191 191 193
-75.869203808987 342.019425228107 2727.5534677189 187 188 190
-78.3691267908642 341.743874336444 2719.56405237871 181 182 184
-79.4896347151046 341.548866616938 2710.10493916062 180 182 181
-75.0488320891578 341.679703859516 2694.79810712595 173 175 172
-65.7965779821987 342.091253578054 2674.33448097989 155 157 154
-53.8636442297158 342.657652774599 2650.87448006672 129 131 128
333.627905491997 365.237594825806 2877.54430591122 33 38 31
319.220907879555 364.260143410844 2879.44666462034 26 29 22
273.041882890643 361.427522338721 2906.47736809859 62 65 58
268.56948644105 361.033686972103 2900.76286987742 47 50 43
174.629754947283 355.294984902504 2957.38271442388 40 43 36
185.692269106637 355.809552296711 2939.4669428567 35 38 31
170.10264466961 354.772939328698 2942.98205821266 27 30 23
166.604376184826 354.439571476221 2936.73899579278 25 28 21
147.883815483869 353.222954675685 2942.92395787246 25 28 21
207.461652086128 356.544853773107 2884.84966363339 24 27 20
178.316091913909 354.723131803607 2899.53091022654 25 28 21
158.823326823337 353.462383146504 2906.39089795717 28 31 24
142.953842334127 352.279641739255 2901.05655126101 21 24 17
138.577104030568 351.893682704882 2895.41143756652 18 21 14
115.348037767215 350.422130408256 2905.73760517843 23 26 19
99.2607927801998 349.363450705486 2910.1269096348 23 26 19
84.0105034119398 348.354138072592 2913.88786002844 25 28 21
73.4829787165676 347.617001715993 2913.66330769653 26 29 22
79.2836664749528 347.816348445027 2899.3426324298 27 30 23
84.2437284839637 347.966047405803 2885.64706029395 31 34 27
83.7374828029178 347.801676289605 2876.63339406539 31 34 27
70.1138360107003 346.887266820553 2879.10393982152 32 35 28
56.5331379163574 345.976284399168 2881.60563736397 32 35 28
54.475512222703 345.722998096865 2873.93726001866 33 36 29
54.6846991383543 345.598216542284 2864.20709557025 33 36 29
57.1403910839408 345.600300375822 2852.40100327144 31 34 27
48.1651677682704 344.952034358708 2850.8318297478 25 28 21
42.9893709772484 344.519658857104 2845.84255750066 24 27 20
44.5975116098225 344.471491957034 2834.65683926673 27 30 23
72.4868711377753 345.909405947499 2799.30094350252 26 29 22
31.9290765102256 343.474102846027 2826.70320496196 32 35 28
22.231446511269 342.785555332896 2825.84547048918 28 31 24
63.2542987087468 344.957028207053 2777.7819077534 19 22 13
85.4144154838012 346.059702981303 2746.91690895524 21 24 15
110.370936900822 347.315579514969 2713.13941856357 27 30 23
81.9348453985915 345.568114775901 2729.57038689312 21 24 17
80.153516921047 345.318935678134 2720.86728747084 69 71 66
84.9561157692382 345.437916070512 2705.82237470448 123 125 120
81.6352017303403 345.100707166535 2698.47282422247 127 129 128
54.1997828831429 343.415561638477 2714.39448054495 123 124 126
5.77984802376985 340.562470884794 2750.91651556858 203 204 208
-21.3385131390955 338.90265957018 2767.06814209557 212 213 217
-35.3058624024891 337.977838437817 2770.52451448744 178 178 180
-44.8978318199571 337.297320383787 2769.74341629588 199 199 201
-53.7495952916627 336.658354001069 2768.26378855238 222 222 224
-59.0000348466662 336.219371504876 2763.22037270694 211 211 213
-61.3968977372787 335.938144769347 2755.30563907705 198 198 200
-66.6671927829423 335.497471609229 2750.24782099915 188 190 189
-69.8118844326199 335.173926309961 2743.02608709671 190 192 191
-73.6833962986507 334.809798822692 2736.51229678074 189 191 190
-74.7455503129868 334.599885109402 2727.09541005548 185 187 186
-77.2469749709528 334.310001005189 2719.10483351769 181 183 182
-76.9655463020826 334.172190980831 2708.19193603694 181 183 182
-72.5291089390392 334.260995809357 2692.88172662757 175 177 172
-62.5831128865537 334.64949437961 2671.6858554352 140 142 137
278.282126998643 354.40459653923 2921.35647899795 50 53 46
276.731134459049 354.013191067078 2904.17378924965 38 41 34
252.720758660865 352.538447106391 2913.93325826236 45 48 41
220.364428340165 350.45577039612 2921.34518627262 37 40 33
182.87730275588 348.248849563447 2942.32875269562 36 39 32
160.049926911342 346.848577832425 2951.71114420852 34 37 30
150.15834824306 346.157723332636 2950.71280052094 33 36 29
181.919159101247 347.741172318359 2915.69377187491 32 35 28
168.762332936287 346.8704933521 2917.26791074059 31 34 27
188.289117559215 347.780366304729 2891.90378541727 31 34 27
175.11967520321 346.90870262618 2893.46877354906 30 33 26
147.735795351173 345.266114952657 2906.95763941754 30 33 26
130.734588680961 344.189685004897 2911.91963474258 28 31 24
116.943831062141 343.288708293788 2914.26910633374 28 31 24
107.12239427142 342.603555581856 2913.32134439376 27 30 23
102.803382760889 342.216167990391 2907.71807084757 27 30 23
100.036396894284 341.912254347771 2900.77024336613 26 29 22
91.0214506941975 341.271277777513 2899.17231079833 26 29 22
85.1290401919051 340.798717519975 2894.89838306408 26 29 22
84.6556636172045 340.617226497151 2885.90845763647 26 29 22
82.6062890175834 340.350337321629 2878.24599278408 26 29 22
77.4544556109507 339.916654551457 2873.27408548412 25 28 21
63.85243815205 339.030792400735 2875.76045540335 25 28 21
57.9484262284424 338.55726242678 2871.4781126394 24 27 20
54.3333532743726 338.205780458413 2865.15028441543 24 27 20
56.7930982353828 338.177444080107 2853.34668167261 21 24 17
57.6853722586241 338.064395760682 2842.87701892526 28 31 24
53.996876964316 337.706973231904 2836.49593518984 29 32 25
53.3121861673234 337.508426878235 2827.35273718421 29 32 25
52.5958111102911 337.307303387773 2818.18626305158 31 34 27
48.8468935931077 336.944978517117 2811.76135312599 33 36 29
36.8563247049338 336.147198865649 2812.94626940098 35 38 31
42.7975233819109 336.295409409237 2797.49186337671 31 34 25
61.3073127243653 337.103009101948 2770.15494180739 28 31 22
61.1373944415323 336.925084886184 2760.14998120906 30 33 24
79.4095306577622 337.713555246907 2732.64068292294 24 27 18
87.2182862791764 337.949901191971 2714.83515084189 11 14 7
88.3296125071622 337.83361629471 2703.28893621245 90 93 86
72.5474905512709 336.834059929864 2707.89973033709 105 107 104
32.7207028592742 334.582773904554 2735.83284640733 122 123 125
-6.90463363491323 332.347620973492 2763.91208046735 186 187 191
-25.2766054058005 331.222297704676 2771.58524115063 163 164 168
-38.5088216901688 330.365605701668 2774.33983558578 221 221 223
-46.6474079653669 329.773845626282 2772.14240769202 230 230 232
-54.0544479032434 329.220202417805 2769.2401553134 201 201 203
-58.5855085134435 328.815150222341 2763.48336785182 203 203 205
-60.2667673411867 328.556573787953 2754.85246897789 189 189 191
-63.4010051531151 328.222434425518 2747.63825962451 190 192 191
-67.2643815782144 327.850273274583 2741.1303261712 190 192 191
-73.2669553081813 327.368030567372 2736.7764897187 185 187 186
-74.3280199772078 327.138489644187 2727.36029326741 180 182 181
-76.8287067190281 326.834438823419 2719.37017990358 177 179 178
-75.8442848111911 326.707305694703 2707.73191467575 178 180 177
-72.107216971337 326.718836519892 2693.14936259487 142 144 139
-55.8823795000651 327.36264131246 2665.39023762658 149 151 146
253.807038121079 345.372850024566 2931.97612098041 42 45 38
228.192226950624 343.875546487806 2943.04304849516 39 42 35
224.656947104799 343.521526004933 2936.77305114015 37 40 33
188.402696090167 341.309748279851 2947.53411695456 35 38 31
198.629216391056 341.664384705743 2930.24683662272 37 40 33
162.874972668988 339.65618368498 2950.01724490878 40 43 36
154.582033468253 339.060167681719 2947.70790172814 40 43 36
156.711236765826 338.997870516854 2936.89984136752 39 42 35
173.968574545852 339.707232767129 2913.59493433376 34 37 30
200.654317184486 340.893839208442 2882.30597354859 35 38 31
179.508862824201 339.638988926899 2890.43828916932 35 38 31
149.733989048555 337.94774798575 2905.89903044247 34 37 30
119.299996709871 336.226909610536 2922.11684931533 28 31 24
108.690986866266 335.514955757865 2921.83335421484 26 29 22
107.532381120945 335.281995517681 2913.5814674654 21 24 17
111.829064969358 335.323833988919 2900.63978311532 22 25 18
109.038547356819 335.006479722124 2893.67482888965 22 25 18
95.3258954241889 334.138595671863 2896.08108858044 22 25 18
90.9759229335645 333.742662036401 2890.45532747164 22 25 18
85.8416063623668 333.307060139578 2885.49610877875 24 27 20
91.5135285804691 333.412674719081 2871.08131937504 23 26 19
61.6958284463207 331.741321431295 2887.74644674804 22 25 18
65.7992497563877 331.767619235245 2874.66458354295 21 24 17
66.7818891700671 331.63659832606 2864.26004308389 21 24 17
58.5622770500964 331.046496496187 2862.00388622543 20 23 16
60.2513645549521 330.94886243282 2850.87659754578 13 16 9
65.6907909597697 331.035753434645 2836.29346660372 21 24 17
65.0084396764519 330.817618514445 2827.15157086451 24 27 20
52.9737388715867 330.037730385149 2828.30458559536 27 30 23
49.250488369001 329.668672616181 2821.89824813295 29 32 25
46.2632962815275 329.33538552354 2814.79063968026 30 33 26
39.5170526043542 328.816837668763 2811.13255374879 33 36 29
38.7411127784816 328.591097785368 2801.92306963419 27 30 21
37.189731703299 328.326393042879 2793.38629087373 21 24 15
46.7329316135441 328.602695853742 2774.36822360354 25 28 19
80.5792726761982 330.06084302493 2732.21456027331 26 29 20
90.5998374550765 330.352097607394 2712.30758408833 4 7 0
82.1505240959106 329.743276239381 2709.88452260434 67 70 63
52.465266747844 328.105565859289 2727.8808676166 90 92 89
11.2320513299564 325.913726569044 2757.26510305855 137 138 140
-15.9535509129412 324.406725609512 2773.3687591062 173 174 178
-29.9430069361777 323.539510137327 2776.8093976201 190 191 195
-40.9896555399336 322.815277608566 2777.44362327798 220 220 222
-47.6765383991407 322.301150307256 2773.82859166125 214 214 216
-53.6406024503373 321.821713658468 2769.50268590996 203 203 205
-56.7368235233403 321.479220603228 2762.31599338885 199 199 201
-58.4215252715401 321.203383074418 2753.68251123756 192 192 194
-60.8467792367804 320.891361435771 2745.74733480654 188 190 189
-65.4269533058078 320.476230008875 2739.95459842021 188 190 189
-70.7255561035951 320.026695519456 2734.8762145643 181 183 182
-71.7921750973107 319.776981707037 2725.45588948485 176 178 177
-72.1866066644929 319.557880088102 2715.28767136666 175 177 176
-71.2139043720708 319.401844902303 2703.6407639449 177 179 176
-71.6856492307643 319.17641945713 2693.41676221734 145 147 142
278.62439203713 339.436051938826 2931.40995206393 19 21 16
248.766292643552 337.7933524156 2945.57557055316 36 39 32
231.311030959758 336.755756791654 2950.20831393533 40 43 36
221.262252560845 336.078391161423 2949.09608113198 41 44 37
198.210242071697 334.773845506588 2958.31611506852 39 42 35
202.852463459075 334.807131827071 2945.62487493624 45 48 41
192.05341341482 334.095644581692 2945.20361800209 43 46 39
173.205175414031 332.998433126617 2951.29662889396 43 46 39
168.921600450107 332.601691212443 2945.71899667517 36 39 32
169.446856935731 332.434745817979 2936.21803871215 31 34 27
153.918462467956 331.499923792393 2939.77776209371 25 28 21
179.974765393617 332.549162054291 2909.26684785999 17 20 13
180.366267417718 332.371493076426 2899.66887411629 17 20 13
160.069343190695 331.210160977843 2907.18144992097 16 19 12
139.850325198429 330.055109437615 2914.75082790711 17 20 13
132.348678539309 329.504272133245 2911.7800073097 20 23 16
81.5279698296028 326.908374914843 2945.32823071796 21 24 17
104.014006632044 327.775165341536 2917.16867123783 22 25 18
108.323716652723 327.781846858017 2904.2362517611 23 26 19
98.5143114500007 327.123896373763 2903.29734956068 25 28 21
89.5047663405002 326.50411085988 2901.70343969559 26 29 22
85.1724674498091 326.103525472342 2896.09076147153 25 28 21
90.900426268798 326.171941118565 2881.71640577575 23 26 19
75.7064642083138 325.264057910552 2885.51899727394 22 25 18
69.0366475097717 324.753953088417 2881.91635765594 21 24 17
56.2258913336482 323.959235392486 2883.74175480084 20 23 16
59.5359327880214 323.911647371693 2871.31941598971 19 22 15
63.5558476648628 323.894982939231 2858.17679957686 19 22 15
64.4717603546621 323.733325017712 2847.72402678616 20 23 16
71.421193492295 323.847601078127 2831.76500844813 17 20 13
55.5837572922036 322.914053876569 2836.33603844612 19 22 15
54.1440560231514 322.641383548901 2827.88047289025 25 28 21
49.6665940732473 322.229024242296 2822.16220875239 24 27 20
33.9225657646933 321.30294330398 2826.80098994247 22 23 17
34.6959152537005 321.129722080921 2816.24451699764 22 23 17
33.1905402209336 320.851698683669 2807.74102153754 21 22 14
38.3520144096492 320.874393677105 2792.95607193679 22 23 15
27.8720404481545 320.188471369745 2792.76624955591 23 24 16
83.9670081732549 322.502358983258 2729.69167582737 23 24 16
91.7706133741856 322.632832385032 2711.8818738313 26 27 21
70.8228712987893 321.471223430491 2721.39302422164 20 21 15
33.8395618632696 319.595458188444 2746.44889945582 46 46 44
-0.0373803064772638 317.864862253666 2768.81694093146 182 182 184
-21.3645814501382 316.698813175248 2779.28802748425 200 199 204
-31.7070618318365 316.023775470009 2779.19793226628 219 218 223
-42.7481713861424 315.318684012205 2779.83627025261 213 213 215
-47.263097297777 314.90297605186 2774.09083072778 212 212 214
-52.507654009853 314.45472068771 2769.05163251182 202 202 204
-56.3227905109951 314.069074590404 2762.57860090497 194 194 196
-60.8675571936321 313.650869937469 2756.81181099919 182 182 184
-62.5701195905763 313.356569711558 2748.16528776526 183 185 184
-66.4325786051323 312.967007815165 2741.65793122422 182 184 183
-68.1835729257494 312.668739255447 2732.97627855484 176 178 177
-69.9621289096499 312.36820802172 2724.27463438666 172 174 173
-71.0640314715989 312.095901717824 2714.82861706019 171 173 172
-71.4960444390951 311.851261196335 2704.63332050033 173 175 172
-68.4654845012915 311.754238876857 2690.77309254974 91 93 88
236.051218615575 329.731515882101 2956.07936569806 41 44 37
235.000233802431 329.473007325645 2947.90536625184 41 44 37
203.506569758559 327.632591079048 2954.70855544718 39 42 35
185.987314772913 326.424851348441 2950.64820154726 37 40 33
172.807580783652 325.624468451749 2952.20609010569 36 39 32
172.553568760561 325.401251032074 2943.37497537059 29 32 25
169.858409550305 325.068418855106 2936.47907008712 23 26 19
171.150248856482 324.911739022363 2926.29854526128 18 21 14
156.424655114226 324.044878443726 2929.20554363031 12 15 8
119.439378686444 322.197017652582 2950.55472992675 15 18 11
104.869876247814 321.342738732515 2953.57494594151 24 27 20
128.377635365113 322.1635801996 2924.92078540232 25 28 21
134.340164058127 322.209177107394 2910.7166533098 22 25 18
126.841762161884 321.663486721896 2907.74821098041 20 23 16
98.9222681161603 320.226879978223 2922.08517312954 22 25 18
102.465889176687 320.164638486344 2909.83208693703 24 27 20
86.4225611161333 319.249656864893 2914.25395556974 25 28 21
80.5640951249602 318.778069112813 2910.00463986194 25 28 21
87.1357761998817 318.843734985307 2895.00686587807 24 27 20
85.8888727981455 318.56961621742 2886.69076179707 22 25 16
78.4340487574609 318.027436610686 2883.75422224498 22 25 16
61.7427099589105 317.089235173931 2888.94125308074 21 24 15
55.8661898080053 316.61617736559 2884.67884208113 21 24 15
