ply
format ascii 1.0
comment KinectMotionCapture
element vertex 770
property float x
property float y
property float z
property uchar red
property uchar green
property uchar blue
end_header
93.1150373335967 454.45919957959 2773.56063445442 190 190 192
91.0812878179028 454.939115208557 2781.17722158034 212 212 214
88.2397865583266 455.459255246949 2788.17306366084 170 169 174
84.5845806147723 456.020429126283 2794.5539524198 153 152 157
78.4536325788774 456.70911246547 2799.12337803702 149 149 151
74.8096143288781 457.268535183216 2805.49307822983 140 140 142
72.0063413760119 457.78326624786 2812.4517584806 141 141 143
70.8834743191402 458.209088116208 2820.5890680535 153 153 155
66.4371699336055 458.807810341298 2826.33273247112 167 167 169
62.8335235786355 459.361658751671 2832.66350449754 171 171 173
58.3985734273047 459.958713719822 2838.39614041259 176 176 178
54.8101498290641 460.51046615335 2844.71210580101 177 177 179
48.6992825725547 461.195510621432 2849.26179088902 177 177 179
43.4310294831866 461.835834226545 2854.39860453666 182 182 184
39.0111739709473 462.430589940313 2860.11692892274 181 181 183
33.7465375322252 463.070162765013 2865.25026214784 171 171 173
24.225840216066 463.938484493366 2867.49089547974 169 169 171
17.2464685103733 464.670940464087 2871.47910160754 166 166 168
11.1155786083561 465.357906378607 2876.04872333157 158 158 160
5.83865794311444 465.998674012289 2881.19407838296 161 161 163
-3.7328032673134 466.872940032012 2883.48458029062 164 164 166
-19.349972078309 468.077869098964 2881.81030861363 157 157 159
-28.9721500332005 468.958129026306 2884.14994925935 149 149 151
-41.207378449851 469.98284146434 2884.81230967043 137 137 139
-53.4727926997203 471.011211884217 2885.50410441201 131 131 133
-67.5060420756894 472.13899566251 2885.10219799682 137 137 139
-79.8356548051275 473.175193961089 2885.85658582058 128 130 129
-89.5776009185507 474.069979326091 2888.31334900687 174 176 175
-101.961928081963 475.112793442227 2889.12075341546 162 164 163
-112.623398663443 476.061641622723 2891.06538037137 132 132 132
-127.699260531997 477.258537075773 2890.27201742289 143 143 143
-152.500467728532 479.002708238408 2883.46782517837 135 135 135
-193.266179075819 481.648442572081 2866.87731398243 129 129 129
-235.069781868382 484.362794908633 2849.89039330593 123 123 123
-256.650648806939 485.946574541316 2845.58003649081 110 110 110
-268.531978599374 486.986361480226 2847.30565164953 111 109 110
-273.320057655037 487.625899533241 2853.3826708054 108 106 107
-279.887329088133 488.366286115256 2858.37773028938 113 111 112
-288.245696058648 489.209123299869 2862.30207548752 123 123 121
-296.614990476303 490.053397031651 2866.23705948116 111 111 109
-305.892930114028 490.950643883077 2869.6496028889 126 126 124
50.7215333304787 446.642236087868 2686.44823760498 176 178 175
58.1853708064859 446.705292899011 2701.69945517983 177 179 176
77.0882950404705 446.223399522965 2725.51011571895 185 187 184
89.5922939472764 446.035708071041 2744.29557055981 202 202 202
95.6507098243979 446.147848166192 2758.10098159293 196 196 196
95.2170267234336 446.565641360498 2766.97201726184 174 174 174
92.3464490655466 447.098174327222 2773.9949009663 220 220 222
88.6661036117302 447.668473292748 2780.39940494682 202 200 203
84.9942231380769 448.237541244453 2786.79534717823 157 155 160
83.809554899414 448.685395105341 2794.99076991936 146 144 149
80.1606788987255 449.25126813357 2801.36434057734 137 137 139
78.1805536837461 449.734949502903 2808.92712140516 144 144 146
76.2169442014775 450.21650627938 2816.47415372213 176 176 178
75.1033288865099 450.65494407755 2824.60007370765 184 184 186
70.6667724545813 451.255549728093 2830.33411773577 174 174 176
64.5591117553921 451.938243987401 2834.88096602479 183 183 185
60.1281705496115 452.537817420919 2840.60958661156 184 184 186
54.018258326026 453.22058912976 2845.15865925058 181 181 183
49.5928456965613 453.819318176322 2850.88191467936 180 180 182
45.1719017040184 454.417290527214 2856.60050668292 185 185 187
39.9082810996818 455.057236524874 2861.73277601466 186 186 188
32.9466398800107 455.782710295574 2865.70440747385 183 183 185
23.4242742103885 456.638108744589 2867.94894540243 174 174 176
16.4429505101111 457.365739476165 2871.93980305795 168 168 170
9.45473983861422 458.094149966653 2875.93738432967 161 161 163
3.31685695422346 458.779550251416 2880.51418158797 163 163 165
-7.97852474418637 459.729400117526 2881.6712342875 175 175 177
-21.8831388990228 460.815125998357 2881.14814517703 173 173 175
-31.5111069203824 461.682995291686 2883.49536677464 168 168 170
-41.1574439955507 462.553078804971 2885.86083969548 146 146 148
-52.5559666557376 463.515312055477 2887.11848263595 134 134 136
-69.1930648427168 464.751832597857 2885.03543738266 126 126 128
-82.3971296931676 465.812676673758 2885.23727929452 125 127 126
-95.6352499763771 466.877725524837 2885.47231729062 130 132 131
-103.660260892641 467.671520591651 2889.07288340257 169 171 170
-115.201890908813 468.651205109996 2890.47005477329 144 144 144
-132.040044909679 469.912216884379 2888.58304112194 136 136 136
-167.413911469616 472.157814715499 2875.19961993668 143 143 143
-217.03392004803 475.168601142215 2853.17749553872 130 130 130
-250.047437158928 477.308620730902 2841.71654482947 124 124 124
-262.799717370884 478.375311530128 2842.88614093326 118 118 118
-268.478244304617 479.065528638685 2848.4229883353 122 120 121
-273.266351093427 479.708107082469 2854.49958566216 120 118 119
-278.941734181033 480.398193218987 2860.03333053613 122 120 121
-286.403913460373 481.184690818494 2864.49332223463 125 125 123
-296.560823665283 482.11773797353 2867.35615798021 134 134 132
-306.736104270271 483.053146940306 2870.23722457189 146 146 144
45.924097892895 439.20174463465 2683.80973171071 174 176 173
58.2395651943584 439.097172711076 2702.77011619269 181 183 180
82.8297310745278 438.446902260026 2730.87718867044 204 204 202
92.9031656285657 438.42489770294 2747.8006755981 195 195 195
95.7031436361655 438.718772893151 2759.14692812367 178 178 178
94.4508916134859 439.189417219885 2767.4060941405 217 217 217
91.578153877693 439.730625556525 2774.42984061836 161 159 162
88.7178750143525 440.270115832262 2781.44146918035 149 147 150
87.5184355177052 440.733702557058 2789.64889684662 145 143 148
86.3393810840551 441.194647414021 2797.83681015288 162 160 165
83.524134376781 441.728031442666 2804.80428577686 183 183 185
82.3817318840887 442.184119864791 2812.95652094289 187 187 189
80.4273983765715 442.675635918963 2820.49253226093 187 187 189
76.8217738345278 443.241497992132 2826.82349304224 191 191 193
69.8812585496293 443.960210169636 2830.77514549642 198 198 200
62.0962222850308 444.718239033291 2834.142699461 198 198 200
57.659300406006 445.321662289091 2839.87668994266 201 201 203
52.3853422096119 445.963560161579 2845.01893616988 212 212 214
49.642953734228 446.486920650944 2851.91588180927 217 217 219
45.2219386836221 447.088027307638 2857.63408112551 221 221 223
39.9582298139305 447.728338245507 2862.76638416805 222 222 224
32.1472222994572 448.488904087544 2866.15935300338 228 228 230
21.7715279704001 449.371769466773 2867.8299521453 227 227 229
13.0799882543737 450.176103328431 2870.67392426152 227 227 229
6.084000468912 450.900452413043 2874.67982859639 197 197 199
-0.0616845700522894 451.584536499129 2879.26456804311 172 172 174
-9.64672042244352 452.434138306223 2881.57185728877 181 181 183
-22.6939019925831 453.452193871631 2881.62457374929 190 190 192
-32.3237062543242 454.307203572758 2883.97551940285 187 187 189
-41.9719223562813 455.16446237216 2886.34475371218 172 172 174
-52.5055579508273 456.066147834197 2888.16940926551 144 144 146
-65.6677403178154 457.098094942567 2888.33393221134 127 127 129
-80.6050201720825 458.219612543134 2887.41409608774 124 126 125
-95.5843026389771 459.346231887434 2886.5348773019 134 136 135
-107.107184105846 460.305095610549 2887.91650839045 150 152 151
-118.656298118354 461.267207394033 2889.3237087227 163 163 163
-137.258519987372 462.581872953964 2886.34669190063 129 129 129
-179.685680639404 465.088983724896 2868.59235644964 141 141 141
-237.271647754552 468.366025163103 2841.68799687729 127 127 127
-260.603265751453 469.940275299844 2836.28375156387 117 117 117
-268.062289554129 470.720992491666 2840.74112632713 117 117 117
-270.200363623615 471.233637538678 2848.45647188347 121 119 120
-274.10218471573 471.834599077946 2855.07637253184 120 118 119
-281.563124482883 472.615852651666 2859.53557059914 120 118 119
-289.031083377702 473.398125482114 2864.00192596027 120 120 118
-300.984824261426 474.410273926335 2865.80353136052 130 130 128
-309.37447166615 475.241752096234 2869.76061734965 145 145 143
51.6400169982183 431.305530629316 2689.22017527388 181 183 180
65.5895813732745 431.193498545785 2709.39279844921 197 197 195
87.7586234190004 430.740128232385 2735.62391513585 206 206 204
92.9561972535078 430.967530482578 2748.85021002897 188 188 188
95.7558629640669 431.288659156215 2760.19274461717 210 210 210
94.5033355820342 431.773195870594 2768.45013078108 172 170 173
93.2709018910942 432.255006102952 2776.68762874357 147 145 148
90.414287530721 432.80246695205 2783.69444035268 161 159 162
89.2187156463038 433.279410739184 2791.89639109683 184 182 187
88.0431093630087 433.753703160899 2800.07856973259 204 202 207
85.2317152271813 434.295109469215 2807.04137184873 200 200 202
84.092948953324 434.764597162401 2815.18801578929 203 203 205
81.3104476470654 435.302095710742 2822.12270446378 212 212 214
79.3742107806072 435.802357566317 2829.6394529241 217 217 219
70.768000350447 436.586912085214 2832.40161517628 204 204 206
62.9848195430736 437.337070575974 2835.76848988208 221 221 223
56.8700595811023 438.015883335213 2840.32296152801 220 220 222
49.0692373857788 438.767911990277 2843.70707798336 227 227 229
46.318991533826 439.30066608458 2850.61043774313 229 229 231
40.1992578449057 439.979739010262 2855.17014776295 226 226 228
34.9238537960148 440.621848639844 2860.31379844547 225 225 227
25.4024947142919 441.450980555825 2862.5608811575 185 185 187
17.5654938933705 442.206908406498 2865.98068506548 173 173 175
7.15771695850664 443.077896724811 2867.68489813365 181 181 183
-1.56200000293349 443.875197871618 2870.55789010329 188 188 190
-9.43934338269159 444.635811798974 2874.01672432649 160 160 162
-15.6095346743417 445.320403697144 2878.62538594799 175 175 177
-25.2263830040209 446.160823401851 2880.96596040659 191 191 193
-34.8619350843302 447.003466627359 2883.32444148866 202 202 204
-44.5158559491938 447.848294554465 2885.70117798938 193 193 195
-54.1884808339415 448.695375520729 2888.09581701815 180 180 182
-63.8794322553427 449.544665346986 2890.50866594218 146 146 148
-77.0715826291788 450.556390086413 2890.70593641912 139 141 140
-93.7878931311653 451.733372353312 2888.71034989672 125 127 126
-109.679219298287 452.875830107212 2887.31755375994 129 131 130
-125.61591291214 454.023905657482 2885.96931570257 135 135 135
-143.355199607568 455.259500962627 2883.56364952146 167 167 167
-190.196204462242 457.861565932709 2863.09340799254 153 153 153
-244.275570993211 460.817261688285 2838.42241206745 132 132 132
-264.969810516468 462.214878228103 2834.67638310571 111 111 111
-272.438102253711 462.991738402178 2839.14386897253 116 116 116
-272.809777478519 463.432348823787 2847.94995752755 118 116 117
-276.717600756519 464.039800048035 2854.57452142062 126 124 125
-285.076010119413 464.859349890421 2858.50235057403 127 125 126
-294.33916357518 465.723213870915 2861.90514505826 124 124 122
-303.617156325527 466.589037033517 2865.32238561511 127 127 125
47.5206951408391 423.335025171087 2677.48449681827 182 184 179
58.164301431737 423.416173477185 2695.24345815213 178 178 176
74.5605762363661 423.27723658692 2717.24150401571 192 192 190
90.2499384713655 423.155433212437 2738.52208286715 194 194 192
93.0095361916683 423.509063081626 2749.89960189948 207 207 207
94.9924749126563 423.888294783739 2760.62766154181 156 156 156
93.7375708308523 424.386913377782 2768.88498866608 148 148 150
93.3233562856781 424.851609159052 2777.72975958943 157 157 159
92.9332497747009 425.313177286312 2786.55105314432 164 162 165
94.2155763009116 425.708171591494 2796.55525418746 167 165 170
91.3992565873785 426.25880829581 2803.52158322658 166 165 170
86.9395250254503 426.872006427269 2809.2767793382 172 172 174
84.1443818165053 427.419649168155 2816.2225223017 174 173 178
81.3616754136737 427.965665083192 2823.15615577704 201 201 203
77.7574579418063 428.542832247468 2829.48371058734 211 211 213
69.983104597187 429.284329886496 2832.84309956224 186 186 188
61.3602818568118 430.060364262287 2835.62301735747 153 153 155
55.2417992053722 430.737304019129 2840.18180036 219 219 221
47.4370509420643 431.482102701176 2843.57088404576 185 185 187
45.5262274367412 431.989775187544 2851.0613013748 166 166 168
39.4045592297823 432.666762721317 2855.62324061964 132 132 134
33.2795784820172 433.344033469335 2860.18808956553 126 126 128
24.6038730179312 434.125791051499 2863.01967479976 125 125 127
15.9134576955049 434.909285107383 2865.86561049071 126 126 128
5.50191350252094 435.764944702944 2867.57583008041 123 123 125
-5.78705319121831 436.658673096546 2868.7348073146 111 111 113
-12.8170040553659 437.377102159896 2872.77531246522 114 114 116
-20.7128558099869 438.132206508068 2876.25334009166 130 130 132
-31.2021617516534 438.997154934699 2878.03974320414 149 149 151
-42.5767528781438 439.901117444714 2879.28223416788 167 167 169
-53.1128645245937 440.771625699095 2881.11395645503 183 183 185
-62.8047568751859 441.607956102858 2883.52931729065 188 188 190
-69.9089830813708 442.335234480325 2887.64260887114 172 172 174
-81.3734061956879 443.250063027075 2888.97236048928 160 162 161
-96.3539859592757 444.318424255697 2888.10337830428 138 140 139
-114.874060223319 445.543096404588 2885.05808868295 133 135 134
-126.440521007434 446.470405123555 2886.48732065159 124 124 124
-143.302981885815 447.630637062637 2884.63933930458 162 162 162
-187.502362664142 449.991021313946 2865.83271211731 166 166 166
-243.339055548233 452.875863350853 2840.08342075216 127 127 127
-266.683345506404 454.344829991665 2834.70731973832 101 101 101
-274.155627879936 455.117164452099 2839.17909942248 108 108 108
-275.41916268998 455.614233935884 2847.44556378729 109 107 108
-281.11228377776 456.30747024598 2852.99645716336 124 122 123
-287.696729101786 457.040658864328 2858.0092965888 128 126 127
-297.859149132522 457.934966922045 2860.88366713654 130 130 128
-305.353459699994 458.710550136949 2865.37684097843 126 126 124
56.4500389021272 415.354784593124 2685.38401855654 189 191 188
71.1577224428499 415.352154738958 2706.2048957513 187 189 186
84.3420680163596 415.391979263388 2725.69803885053 189 191 190
91.1163317686037 415.641094841232 2740.18926676267 194 196 195
92.248705793812 416.077388157966 2750.33660672213 170 172 171
93.4128433919268 416.509601756302 2760.45267012275 155 156 158
93.7905460195299 416.965996006873 2769.92919186717 144 145 147
92.5558374834408 417.475765845731 2778.16515420887 174 175 177
94.630220515961 417.867853149135 2788.8005082458 184 183 188
93.4436460034185 418.37133209211 2796.98926474025 193 192 197
92.2775203296054 418.872161127309 2805.15844473275 186 187 191
86.1632200036695 419.547141937228 2809.71302631373 175 176 180
85.025922575932 420.044159807467 2817.85414272023 181 182 187
81.4131666300764 420.628287226798 2824.18948548077 217 216 221
77.8088751258759 421.211242669021 2830.51625830132 195 194 199
70.8703229471226 421.914657277141 2834.46856017815 148 148 150
63.9247175257549 422.618738221167 2838.42742970301 149 148 153
56.972182885267 423.323574765712 2842.39306836746 142 141 146
50.0129719468845 424.029092503712 2846.36557385632 151 149 154
47.2643572636944 424.578565016474 2853.26484286645 157 154 161
39.4555147485613 425.315948536856 2856.65908816245 148 145 152
34.1780203585138 425.9590882819 2861.80466233402 145 144 149
23.8055204506513 426.794375892395 2863.47912134191 139 141 140
15.9643686678743 427.535419727551 2866.90490922537 134 136 135
3.84663804538343 428.440384674945 2867.46829121673 135 137 136
-6.59107859971808 429.283392656396 2869.20637034132 138 140 139
-17.908106784668 430.162053982089 2870.39543995717 131 131 133
-27.5335568647916 430.977359468655 2872.74793010959 118 118 120
-38.0384043268327 431.82841757446 2874.55148132292 117 117 119
-47.702588100615 432.648386629763 2876.94208317431 116 116 118
-55.6558923278296 433.402714014585 2880.47727679017 120 120 122
-67.9536276293833 434.329234557725 2881.21588233917 125 125 127
-75.938180349417 435.087324405107 2884.78155008002 133 132 137
-89.1568106108247 436.054639052165 2885.01201711102 145 146 150
-101.537238277012 436.991200984422 2885.83125328759 156 156 158
-118.319879204043 438.107109462164 2883.91056053716 149 149 151
-130.769992782898 439.052207497762 2884.79807206481 145 145 147
-146.763624836064 440.143433935373 2883.51443915141 140 140 142
-186.568856526274 442.207550605343 2867.47302961191 147 147 149
-240.638175886426 444.866945678603 2842.8361876511 158 158 158
-266.62845768872 446.390652280923 2835.82843931587 110 109 107
-275.872793932738 447.231105219739 2839.21567033041 116 115 113
-280.691879674268 447.8895172022 2845.32102786717 109 108 106
-286.396483355476 448.584525404195 2850.88306174341 114 113 111
-291.208681021103 449.242317948457 2856.98133302968 125 124 122
-297.803865442055 449.974636031707 2862.00530304382 123 125 122
-304.402492109308 450.707489555947 2867.03227427949 131 133 130
60.5394224924654 407.577809442865 2689.55785600257 189 191 188
76.8732006023827 407.593023428085 2711.59517857579 192 194 191
87.6388800571646 407.76749150383 2729.21912683214 205 207 206
91.1704870168175 408.155988559511 2741.24178524018 200 202 201
90.6736332071536 408.664478688942 2750.16214538926 151 153 152
91.0172523122537 409.14445251535 2759.66902752436 146 147 149
93.0255500996666 409.569637821072 2770.36511331632 178 179 181
92.6088650767998 410.067726556966 2779.20740199642 178 179 181
93.8606244938538 410.510506107676 2789.23489399239 185 186 190
91.8480330656992 411.05434667512 2796.82136058862 192 193 197
92.3297516572195 411.516498085168 2806.19374203757 198 199 203
88.6994049084189 412.108870962928 2812.54499620832 202 203 208
85.9077846123446 412.673023122283 2819.48480078243 215 216 221
81.4649635441738 413.289986299956 2825.22264805158 172 171 176
76.1930060648348 413.933695859196 2830.36263977068 153 153 155
68.4146268588708 414.66028067389 2833.72823059433 156 156 158
62.30073692047 415.332172853376 2838.28286115265 160 160 162
57.0236601628569 415.976085512785 2843.42790637263 166 165 170
52.589093615441 416.591329935454 2849.15781081189 178 176 181
49.0025268930205 417.177240144028 2855.46654594894 174 171 178
42.8884259567042 417.848703619045 2860.02178723564 167 164 173
36.7713076487082 418.52040005964 2864.5799903848 170 169 175
26.4046488210692 419.339206632492 2866.25108500385 148 150 149
16.0155847994314 420.160690313985 2867.94403263626 142 144 143
6.45725618722848 420.955003197376 2870.23297287638 137 139 138
-3.1193131195586 421.751425665763 2872.54005244213 135 137 136
-12.7145861769757 422.550071654951 2874.86503863134 137 137 139
-26.6231338036227 423.50367252165 2874.36538353591 137 137 139
-38.8476383382463 424.400279551438 2875.036028897 131 131 133
-49.376617429004 425.238428764916 2876.86545110302 113 113 115
-58.1984679592722 426.016821273436 2879.8426579048 106 106 108
-69.6350497047176 426.891418840865 2881.15104659524 103 103 105
-80.2292468789831 427.737436017083 2883.04406844083 103 102 107
-92.5871613304654 428.650166898679 2883.84447088127 103 104 108
-104.974924198138 429.566529671846 2884.67431429023 124 124 126
-120.890673804741 430.616330498573 2883.31946564328 130 130 132
-135.099167030137 431.606329022098 2883.11228140363 131 131 133
-159.006472881645 432.962837634175 2876.8949754246 133 133 135
-203.238902486532 435.091365487208 2858.15543448506 142 142 144
-248.522677408453 437.273886090402 2839.03466772248 147 147 147
-266.573308575271 438.435763488193 2836.94940452047 103 102 100
-274.045415175944 439.198139542402 2841.42248150767 111 110 108
-280.636536503654 439.927321295411 2846.4428803584 108 107 105
-288.120846604599 440.691353732388 2850.92783078913 115 114 112
-294.720345696465 441.421798026578 2855.95636228047 119 119 117
-300.429419063943 442.117959391812 2861.52266418423 127 129 126
-304.346798569814 442.74412907189 2868.15395097326 140 142 139
63.8220529437721 399.848257984417 2693.108554881 192 194 191
81.7801661867526 399.892345355653 2716.3627776586 189 191 188
92.5568933525511 400.119701496659 2733.96793854164 196 198 197
92.8499513838617 400.625568031365 2743.52120163947 168 170 169
92.3567092909319 401.150143602342 2752.43559787921 152 154 153
90.2548344967595 401.716869653453 2760.10700387125 174 176 175
93.0791410042735 402.144072745336 2771.40939203113 188 189 191
92.6621773785308 402.658737359376 2780.24950746045 190 191 193
93.9136517056607 403.123459769239 2790.27403940993 168 169 171
91.0765641098208 403.702130159321 2797.25684789668 189 190 192
91.5561301001557 404.183776776385 2806.62848552735 191 192 194
87.9238571026075 404.782187879904 2812.98109788644 220 220 222
84.3002589507869 405.379357959216 2819.32527941833 199 199 201
79.853267177886 405.999896852963 2825.06640192766 200 200 200
76.244956097034 406.594903878772 2831.39572287045 193 193 191
69.3022464693782 407.288801452379 2835.35322192705 160 160 158
62.3526081611097 407.983395589791 2839.3174983141 158 156 157
58.7546744969307 408.576740564379 2845.63675997917 175 173 174
54.3236963561737 409.194612028257 2851.36237496003 201 199 200
49.8976905407611 409.811814129196 2857.08348912186 209 207 210
42.0945149984266 410.53318082714 2860.47447430946 218 216 221
37.670044674802 411.149937033131 2866.19379176633 215 213 216
27.3053578663536 411.95275032496 2867.86529194112 198 200 197
18.6207535675393 412.704435237429 2870.71015857722 190 192 191
6.50885424027736 413.566338477901 2871.27377666571 179 181 180
-2.21269477300456 414.322386014524 2874.15468515548 164 166 165
-13.5199053344985 415.162983640648 2875.33963152428 165 167 166
-26.5713535602803 416.062443609799 2875.41377537226 193 194 196
-37.9348961200536 416.909788966426 2876.65366293646 197 198 200
-48.46186094372 417.731969057274 2878.48344517483 207 208 210
-58.1463836534599 418.528290515256 2880.89773899485 208 209 211
-69.5828396323988 419.384444469543 2882.20872875526 206 207 209
-81.9142865045803 420.272816305576 2882.98644875449 200 201 203
-91.6640278363361 421.077064763011 2885.46433402322 187 188 190
-106.667358622178 422.060591028008 2884.63014466822 168 169 171
-121.712144468802 423.049153417721 2883.83671430636 149 150 152
-143.80935083374 424.282607347975 2878.67395884264 134 134 136
-173.883395382851 425.796854336959 2868.63796098024 148 148 148
-222.548810981572 427.96349888337 2847.20958476094 147 147 147
-257.288672008423 429.662326637142 2834.69430840536 109 109 109
-268.285944628941 430.541938980633 2836.98262477658 114 113 111
-272.217788366735 431.175226263446 2843.62756062514 119 118 116
-279.69303878858 431.933074749256 2848.10442864587 119 118 116
-287.17534759653 432.691872025615 2852.58816551752 125 124 122
-296.44811239709 433.515315677342 2856.00647831615 129 129 127
-303.054649411769 434.244465366951 2861.04218991088 143 145 142
67.1047930759667 392.139272819392 2696.65610515551 200 202 199
84.2614344287478 392.280051655227 2719.27500109405 190 192 189
93.4223416166904 392.599555894831 2735.63691917515 184 186 183
94.5296237094513 393.104939596349 2745.79896426576 144 146 143
93.2254446389966 393.665377689029 2754.09608528727 165 167 166
91.1252747766662 394.243063399009 2761.764178424 183 185 184
93.1329528415215 394.717565800719 2772.45359056437 174 176 175
92.7157746578873 395.248768734605 2781.2914746964 177 179 178
94.7891853201628 395.714866560309 2791.91685558848 201 203 202
92.7779231353423 396.280872294242 2799.49838838251 225 226 228
91.6089332802761 396.823618981163 2807.66387929672 223 224 226
88.8044234677876 397.406438059721 2814.61372438866 144 144 144
84.3527652562015 398.030795479758 2820.35925420607 124 124 124
79.9056604465909 398.654415002556 2826.1000336469 133 133 131
75.4632973766904 399.277318816067 2831.83621025162 144 145 140
69.3544198824578 399.944143397424 2836.38695020956 198 197 193
61.5671261501762 400.656343228443 2839.76351938393 199 198 196
56.2879165342522 401.301291363277 2844.91052952093 199 198 196
51.0095577999206 401.946073262139 2850.05671928954 184 183 181
46.5754914986749 402.56728247904 2855.78490754098 171 167 168
42.1463547363654 403.187857211321 2861.50863230592 160 155 159
36.8744613020113 403.83152921226 2866.64856597851 155 153 154
28.2062800109615 404.570866721338 2869.47861142396 130 135 131
17.8214124104237 405.360348470436 2871.17245966181 128 133 129
8.26706386670839 406.128036412823 2873.46138278974 127 132 128
-2.16082541188856 406.922600952978 2875.19686311359 129 134 130
-10.0399868672434 407.645084856025 2878.66313831367 129 134 130
-23.9424381111006 408.544904201799 2878.1653783053 125 129 128
-33.5782468574073 409.322288255311 2880.53409737962 122 126 125
-45.8211543361915 410.178829720292 2881.22860096729 115 119 118
-56.3646838121405 410.987264918852 2883.07686363933 115 119 118
-70.3971891071338 411.902830987154 2882.70592186758 117 121 120
-83.5986711183754 412.796631544763 2882.93022578298 124 128 127
-91.6113294373417 413.535178253903 2886.52669126635 128 129 131
-106.61443617902 414.489486705464 2885.69659781225 127 128 130
-123.407653932218 415.502930387688 2883.80189010058 124 125 127
-145.508351275863 416.686111220505 2878.65003157217 133 135 134
-182.611699680778 418.345950980531 2864.23642973508 150 150 150
-240.097117251492 420.660918444659 2837.37441709193 123 123 123
-267.818169604196 422.052086931531 2829.27078209689 103 103 103
-273.534346567473 422.749497630846 2834.84395332526 111 111 109
-273.933944164618 423.276184468229 2843.66504715211 115 115 113
-278.749285995535 423.943454583763 2849.7650398601 123 122 120
-287.119334088886 424.72602399819 2853.70989213601 124 123 121
-298.175267949336 425.597421230549 2856.05801201747 125 125 123
-307.466813676562 426.412926009775 2859.49581007381 154 156 153
72.0009830973281 384.418724400361 2701.43734136023 177 179 176
86.7428185694248 384.682986785577 2722.18485862585 165 167 164
91.8566916730983 385.133405524651 2735.46130784236 141 143 140
94.5845353436305 385.627698751733 2746.84956913265 141 143 140
95.7232318743886 386.150983152307 2756.97743566444 184 186 183
96.0776330742021 386.687357689893 2766.46527501962 159 161 158
95.6418497787053 387.23762375606 2775.31881678014 208 210 207
93.5897734867424 387.820155740219 2782.93843601334 196 198 195
95.6648298075784 388.310695073982 2793.55857029792 143 145 142
94.4792794460825 388.86950508775 2801.73813188714 144 146 143
91.6620846752454 389.462532755529 2808.69906450521 181 183 180
88.0295150722454 390.072509656456 2815.0502619781 197 196 192
83.5755779000378 390.700233792577 2820.79721939593 183 182 178
81.6220802949759 391.26976512514 2828.32120786839 188 187 182
76.3497721775028 391.914668780004 2833.46137128953 200 200 192
71.9140571061732 392.539712433401 2839.19063006599 195 195 187
64.9700792836554 393.22365672938 2843.15085954892 195 192 185
59.698475930273 393.868117724574 2848.29038855381 171 168 161
52.7449314511372 394.553019136412 2852.26031424887 148 145 138
47.4712896976373 395.19747174461 2857.4018686548 129 126 121
43.0437427664852 395.820954954712 2863.12324698016 146 142 139
37.7737165866163 396.464774855926 2868.26130458184 164 163 159
29.9568654044546 397.172268330964 2871.66792033823 158 160 155
17.8734936690721 397.988546888417 2872.21029125648 162 164 159
8.31917910125313 398.74319843695 2874.50110741917 157 162 156
-3.81856911256895 399.566007684972 2875.09650975112 152 157 151
-12.5587173560739 400.303508539016 2877.99829090105 150 155 149
-23.8900796155472 401.110118447396 2879.2122436328 144 149 145
-31.8042878109903 401.829089241739 2882.71383999981 143 148 144
-42.3174058965672 402.618168762052 2884.53510231443 141 146 142
-53.71793734543 403.433098801931 2885.81617351996 141 146 142
-70.3443460991164 404.391649006377 2883.76359739594 140 145 141
-83.545738373958 405.261644329802 2883.99133060498 140 144 143
-94.1698186652409 406.064165233319 2885.92045555763 154 156 155
-107.433535406152 406.941676770937 2886.20862914763 177 179 178
-119.856773655547 407.799090806771 2887.0824127327 164 166 165
-140.196712246583 408.88140465534 2883.03115930781 158 160 159
-178.166103814313 410.468091750052 2868.07111590613 164 166 165
-245.322270558973 412.899040528963 2835.20814214409 130 130 130
-271.290282550738 414.174187083456 2828.21501662431 97 97 97
-277.898049576141 414.898508969623 2833.25266318511 95 95 93
-280.079309651371 415.494496118637 2840.99857515729 103 103 101
-283.132215743104 416.114496893283 2848.18958598805 131 130 128
-290.622086900261 416.864311276658 2852.68216005191 131 130 128
-298.118807116468 417.61512347691 2857.18172569775 132 132 130
59.0237266164873 376.439235460432 2682.91203466384 186 188 183
76.0906747981398 376.742989367361 2705.59590960288 139 141 138
87.6072867028967 377.128291074822 2723.85991903461 148 150 147
91.1016560642448 377.641719958644 2735.9010900586 142 144 141
95.4520643753103 378.135507419565 2748.51235190438 161 163 160
98.2211982456858 378.65186844313 2759.85634980517 165 167 164
99.3973867165412 379.192274339144 2769.94445573666 170 172 169
97.3327467847076 379.787728630924 2777.57497878054 160 162 159
94.4642170775705 380.396043722662 2784.58462827464 133 135 132
96.5407089221486 380.911064093226 2795.19938093439 174 176 173
94.5329201074898 381.49901062331 2802.77422178041 191 193 190
95.0195874692392 382.037567896125 2812.13073411622 153 155 150
91.3944290347453 382.652431968821 2818.47351202537 84 83 78
89.4377485319824 383.233640639981 2825.99859741477 72 71 66
85.8339541320485 383.84562149227 2832.3209245025 62 62 54
80.5712080662104 384.489791449203 2837.45170110524 56 56 46
76.1449880272607 385.116792935115 2843.1712418074 50 50 38
69.2109164297068 385.794580943527 2847.12288200111 44 41 32
63.10922869522 386.455647251153 2851.66699564969 39 36 27
55.3219468573056 387.15229425901 2855.04618955524 42 39 30
53.4276024261966 387.724995820767 2862.51063165104 41 38 29
50.704323165002 388.313702471677 2869.37894342412 43 40 33
43.7569945898728 388.992526113575 2873.34325708436 49 48 43
33.4060461876078 389.746461884239 2875.008338895 87 89 84
20.4791811370901 390.559512541653 2874.9715410668 138 140 135
10.0778504179297 391.319462437448 2876.68610221983 184 189 183
-2.91104366027684 392.139949542031 2876.70980102944 176 181 175
-11.649016775328 392.866843604029 2879.61132776588 164 169 163
-22.9783405348636 393.654827737652 2880.82600911844 157 162 158
-28.3081859274179 394.305923441393 2886.02239272218 154 159 155
-37.9509387936623 395.058043274926 2888.40140360893 147 152 148
-48.476877301745 395.83288943679 2890.23716263478 147 152 148
-64.2247618060674 396.734732185265 2888.73782744111 149 154 150
-78.2811019870708 397.600201591425 2888.3979583283 154 160 158
-92.3755759889238 398.470314503054 2888.09493251325 161 165 164
-107.379980565802 399.366423875652 2887.27506746914 183 185 184
-119.80306854659 400.20270812786 2888.15182480805 183 185 184
-135.761402435671 401.1302098707 2886.8573387343 180 182 181
-186.015020151666 402.926317555839 2864.22701724624 114 116 115
-255.827737904705 405.238331007605 2829.76821285882 87 89 88
-275.643805525513 406.296617440646 2826.61754621749 93 93 93
-280.493301041891 406.974207991213 2832.74992868423 89 89 87
-283.566224416297 407.605135320175 2839.95920203264 85 85 83
-285.739211736375 408.211372087225 2847.69538414758 97 97 95
-291.45505852481 408.909832086045 2853.26807242145 113 113 111
-298.953771340311 409.655896172757 2857.76998067496 140 140 138
56.6673878566557 368.798117114365 2682.13020204481 172 174 169
74.534237959178 369.167984015296 2705.42690039779 139 141 138
88.4719684741997 369.578109031263 2725.53410017981 152 154 151
93.5888502283553 370.099087980395 2738.79713299368 171 173 170
97.1324117472454 370.636317505897 2750.78627559558 170 172 169
101.533587278193 371.156386719873 2763.34290256793 164 166 161
105.982464605209 371.670429326596 2775.85338952352 96 98 93
104.751079255477 372.263116214737 2784.07345894639 35 37 32
99.4393838287224 372.914783814982 2789.25173483972 35 37 32
101.527425108586 373.453013611688 2799.85192623844 20 22 17
98.7070123969009 374.063606880548 2806.81345813118 15 17 12
100.855003671959 374.594190574554 2817.35524838909 20 20 12
100.555018915299 375.160064775847 2826.07163331752 77 77 69
97.7894802731183 375.763399521285 2832.97940941265 125 125 117
91.7095096346103 376.420122847668 2837.50293739661 139 137 125
86.4602584571714 377.063063310105 2842.62049509444 115 113 100
80.3763579436918 377.719957731125 2847.14790021463 59 57 44
74.2893544857166 378.377154874364 2851.67834186237 58 56 43
70.7178693561392 378.990412346458 2857.96805884117 65 61 49
67.9965512192049 379.587599152813 2864.8331698256 51 47 35
64.4444097516006 380.198316557808 2871.10439152491 63 59 47
58.3647260031634 380.854132222651 2875.62743093278 65 61 50
50.5875536323899 381.541527533464 2878.9976155428 53 51 39
41.9505615010305 382.246079419229 2881.80216883356 37 38 32
28.1921117053971 383.049051195428 2881.17572728686 30 31 25
16.1020685017008 383.823860664468 2881.73085218493 24 27 20
-2.85819368712037 384.735087477332 2877.75175560415 43 46 39
-14.1669847923991 385.502202807426 2878.94913212755 66 69 62
-20.3489139498365 386.169994113876 2883.57193274342 89 94 88
-25.6729810482264 386.820803638023 2888.76262071285 97 102 96
-35.309708278545 387.559207149082 2891.13801316251 91 96 90
-47.5589698778793 388.353174609958 2891.8484127383 68 75 68
-61.5717847012531 389.186840410085 2891.46968501903 73 80 73
-74.7535679715834 390.006864317187 2891.68533195023 83 89 85
-92.3218555377501 390.923463704257 2889.1570085633 90 95 91
-106.453759591458 391.771716774422 2888.89472006008 82 87 83
-118.000465921528 392.567645722389 2890.32409127859 69 74 70
-132.202138202006 393.424428826391 2890.12982292063 55 57 54
-221.087037748959 395.937696562286 2843.40619965615 64 66 63
-261.931816881051 397.41393366372 2827.06705511954 84 86 83
-276.46889568241 398.311761743713 2827.19978396551 93 95 92
-281.320123415326 398.992741946419 2833.33372340177 82 82 80
-285.281087462053 399.652829124766 2840.00327729273 83 83 81
-287.457875821759 400.270719665875 2847.7415114735 94 94 92
-293.177596248543 400.970169233383 2853.31790006969 113 113 111
-299.78821593713 401.690634471978 2858.35894937803 148 148 146
50.2884979282401 361.178506013086 2678.25475900845 146 148 143
68.9455713505094 361.621013243858 2702.17292703196 143 145 142
90.1455104391316 362.024198928323 2727.82286936084 163 165 160
99.3179381892388 362.5379683531 2744.14463504388 174 176 171
102.062187659503 363.112307459323 2755.50477438654 98 100 95
103.217626148093 363.699454349016 2765.6069149007 8 10 5
111.75117642671 364.199991403038 2781.14814177818 20 22 17
114.624211703338 364.75794758998 2792.38281629963 28 31 24
114.256448053436 365.349378904169 2801.16272934088 38 41 34
112.268584324332 365.957457589991 2808.71480875857 15 18 11
101.233214393759 366.674536066338 2809.64806943871 18 21 14
95.953108943327 367.322250732538 2814.79556026049 22 22 14
103.092092194998 367.810914680144 2828.88921117373 41 38 31
105.311329979308 368.357136104653 2839.357941345 58 55 46
97.5851741922087 369.031554424734 2842.67938372683 56 54 42
89.8482419220406 369.707154385258 2846.01135266971 55 53 40
82.1005966752813 370.383957464638 2849.35378193628 67 64 49
77.6926850526869 371.01482957263 2855.05490787609 54 51 36
74.1287994293489 371.632996404446 2861.33635283163 62 59 44
71.4150988137079 372.237773381044 2868.19277768096 55 52 37
67.8706421559059 372.853359907478 2874.45564859651 69 63 49
60.9532917247035 373.518703956046 2878.39218579469 65 59 47
52.3348029522048 374.210692108026 2881.18022189093 66 62 50
42.0032315075369 374.930784205196 2882.83106417639 35 35 27
34.2027468619825 375.613216575914 2886.22513174027 33 33 25
-36.3935391619901 378.445846977883 2865.22101049872 29 30 22
-31.6452208689522 379.497296294927 2885.85651341973 31 34 27
-27.4919949986794 379.986739573224 2897.24731309468 39 44 37
-61.3399234336982 381.134632857861 2883.92776236417 27 32 25
-78.8497524057261 382.006889156068 2881.34794261825 24 29 22
-78.1737991423399 382.558881716101 2890.51450552599 52 57 51
-137.804642306582 384.774810756487 2870.04863584336 41 46 40
-209.255739046963 387.257834007304 2842.85980379131 50 55 49
-269.795186157345 389.58500475794 2823.27974978263 79 81 78
-275.529320976421 390.286389426285 2828.87016607639 88 90 87
-282.14680310646 391.005226647449 2833.91793266881 91 93 90
-285.223623888418 391.653716781826 2841.12848042556 97 99 96
-291.839408860257 392.372444948976 2846.17491567493 107 107 107
-297.568699147038 393.073484246767 2851.76057232212 118 118 118
-310.430675033961 393.921650305979 2853.0710578719 131 131 131
42.3009913145882 353.524796680229 2673.14757934655 165 167 162
61.7443269357083 354.045868735108 2697.69027485454 144 146 141
85.3513991906239 354.524231128532 2725.18985307572 0 1 0
100.995066618176 355.042486492626 2746.42120714441 41 43 38
101.305776452966 355.661736121343 2755.94018376866 3 5 0
100.830333714628 356.283518726713 2764.82253782894 25 27 22
118.336040512798 356.76006459718 2787.04484255699 21 24 17
119.588026999427 357.35691751226 2797.04967493555 28 31 24
119.231654628463 357.963571468219 2805.81602636861 28 31 24
117.255253248838 358.581409219791 2813.35528111817 40 43 34
101.287509393921 359.323094496295 2810.68069355445 32 35 26
77.0110248197282 360.147146380929 2802.07452789886 33 34 26
94.0394637468049 360.587550763101 2823.35919905669 48 45 38
102.045730127182 361.104217844013 2838.00473331116 56 53 44
96.8069927907784 361.74683533978 2843.11189834374 48 46 34
89.0681322203655 362.415012445747 2846.44687921194 69 67 54
81.3185161562071 363.084398030532 2849.79236183178 81 78 63
79.4210131645765 363.691434338669 2857.25486576434 72 69 52
75.0216197568303 364.324269484895 2862.94724285469 82 79 62
72.3097545987636 364.937336068328 2869.80061986724 78 75 58
66.2367864316158 365.587882465457 2874.31776939908 71 65 51
59.3158220395935 366.248745176288 2878.25889549553 65 59 45
50.6931787799836 366.93089159183 2881.05217382124 84 80 68
38.6596405603177 367.656709843005 2881.55842931547 32 32 24
30.00034721686 368.343227670746 2884.38779346541 30 30 22
-42.0798390470725 370.438735679483 2853.62986539829 25 26 18
5.42122346174878 371.539405876247 2911.15665159294 23 26 19
-97.6002075513556 374.151283444132 2861.45231322198 26 31 24
-104.792073451566 374.844630020873 2865.65730957753 17 22 15
-105.042856880863 375.435908904069 2874.32108205966 50 55 49
-257.855706763967 380.778179261302 2822.64435611738 51 56 50
-274.13794604139 381.649805549559 2821.67977125024 90 92 89
-277.235634449105 382.30932943751 2828.90941008388 97 99 96
-282.972877867008 383.011636713569 2834.50277690121 89 91 88
-288.709228963179 383.713890467121 2840.09526554048 91 93 90
-299.771712436757 384.507462005669 2842.46105404616 106 106 106
-308.1874565781 385.257462395813 2846.45609686081 119 119 119
-320.180628882771 386.071699549677 2848.32610944724 127 127 127
65.0283646436147 346.387845962605 2701.22900439782 15 17 12
83.7916054883019 346.979693579523 2725.01967415758 18 20 15
91.3267861403004 347.59950337099 2740.11775905667 43 45 40
94.8634015414362 348.227801385106 2752.10033937335 16 18 13
98.4434304849859 348.850521532645 2764.04029596488 22 24 19
112.677866451036 349.418841709491 2783.82948167223 30 33 26
97.5529592864688 350.119345684442 2781.74127855368 28 31 24
110.265246142876 350.681262114825 2800.2087708219 30 33 26
114.843669483658 351.277156484201 2812.57851901601 34 37 28
67.9810842925885 352.787682227509 2796.54210189632 54 55 47
94.921604700005 353.241706026997 2824.98584201136 40 37 30
97.1209406938165 353.839734327363 2835.46667792117 48 44 35
96.0291652834844 354.455909398479 2843.5449789092 56 52 41
89.1218903907238 355.110784128401 2847.47305830948 63 59 47
83.0435787664245 355.760222050505 2851.99601564739 55 52 37
80.3122891425598 356.384405813986 2858.86703832726 60 54 38
75.0751467379467 357.026763274432 2863.97265800211 56 50 34
71.5215720006239 357.655217629636 2870.24234360396 61 55 39
62.9167900068319 358.325074610406 2873.02003964376 63 57 41
55.9878380967724 358.981944962461 2876.96934969058 56 50 34
49.0522518674656 359.639550184723 2880.92547694299 66 60 46
41.2604940835437 360.305727407462 2884.31328110803 37 33 24
35.160251416035 360.957075038048 2888.85773404196 36 32 23
17.9676721160402 361.716304082609 2885.97958606063 31 28 19
6.70661999678313 362.422383239868 2887.13857818489 32 29 20
-23.4319709950865 363.3241503639 2875.83995299116 32 29 22
27.8537292173646 363.969382184293 2926.84203295657 29 30 22
53.7065440968054 364.266206840127 2952.13838675176 30 33 24
38.1983364651419 365.011287408868 2950.42421826216 28 31 24
-87.6183952388265 367.626534024757 2886.51276967124 41 44 37
-280.240124315355 373.710149895888 2818.99376121325 47 52 46
-282.469471052948 374.368042611435 2826.7782743363 78 80 77
-288.218198410548 375.072269371177 2832.38276117666 89 91 88
-293.966117942219 375.776394291624 2837.98646088574 95 97 94
-304.152006204825 376.543162879862 2840.90298601254 111 113 112
-311.687740053158 377.274021561479 2845.44390405116 118 120 119
51.2688819387024 338.064248009202 2682.11440974956 12 14 9
80.4099166155434 338.752588309374 2714.00668774388 0 1 0
93.550297453878 339.422051862301 2733.45042810162 57 59 54
99.4875328145861 340.083283988739 2747.29501761649 23 25 20
100.606207604138 340.741081128092 2757.42322295122 29 31 26
102.57089750713 341.393912507809 2768.12862818473 16 19 12
100.490778877673 342.04745645818 2775.765936178 36 39 32
94.3360776868767 342.705299191475 2780.36316941526 17 20 11
93.0990816304362 343.354111057329 2788.58085294762 19 22 13
82.0181710113461 344.021588417424 2789.566667228 37 40 31
104.69293926811 344.609568572122 2815.14167916665 31 34 25
95.290933365447 345.268906884844 2817.29567566992 52 49 42
91.6649992407996 345.912940377064 2823.6349126234 40 35 29
91.3670028825035 346.544830127907 2832.33956597347 41 37 28
91.9247539994861 347.170691068833 2841.6122498035 36 32 21
85.8415301754572 347.818581147391 2846.14031379895 33 29 17
80.5909039093757 348.463287119916 2851.25897603851 52 49 34
75.3411290633932 349.107767819755 2856.37682610052 70 64 48
71.7710464712478 349.744185392801 2862.66172728612 50 45 26
69.0511174937694 350.375310539652 2869.52044274276 59 54 35
59.5972947580434 351.039913357748 2871.72511603566 46 40 24
52.6605649262577 351.692810858999 2875.68273685935 42 36 20
47.4114322802772 352.336724106506 2880.80003307648 49 43 29
43.8615462511009 352.970213988803 2887.06564932989 39 35 26
36.9159330266244 353.623936538721 2891.03196955201 32 28 19
9.49164777690648 354.412360826287 2881.3058164484 21 17 8
4.19579295188655 355.061707138442 2886.46870547541 23 20 11
23.7497886393125 355.535353480269 2908.07470476593 22 22 12
20.2293262309983 356.164942398949 2914.31167948959 18 18 10
23.603213820611 356.7412088852 2925.04629400605 22 23 15
19.2526667021768 357.373471772534 2930.68991274665 19 20 12
-78.8788101343778 359.999013123808 2893.13168342895 30 33 24
-38.140080505078 360.25118821994 2927.74185061988 26 31 24
-52.1515057172621 360.978787271641 2927.37775745725 20 25 18
-137.239003817553 362.995256637454 2891.12679170563 28 33 27
-205.931446550382 364.288837361633 2857.12364657652 38 43 37
-274.021258772462 365.60760410313 2823.93492943507 44 49 43
-285.056754987093 366.366402053189 2826.27905871488 73 75 72
-291.695054370175 367.081157620157 2831.34843825601 95 97 94
-298.336372740459 367.796323262844 2836.42075508704 97 99 96
-306.756527013059 368.531636178462 2840.42234802953 110 112 111
-312.518440342795 369.238144412186 2846.03959153429 124 126 125
48.1100483000128 330.34796750928 2680.72366602409 16 19 12
84.500542202345 331.179326561076 2718.14918311721 34 37 28
106.542434862249 331.938728297088 2744.32731384431 21 24 15
113.320566478993 332.636772437969 2758.74834946427 25 28 21
114.471990526544 333.312510096297 2768.84138270082 20 23 14
99.3705187561233 333.946563279233 2766.73939144548 22 25 16
107.076375580521 334.631968326155 2781.65829743222 22 25 16
106.664042429601 335.295461459364 2790.47181794146 16 19 12
103.815730835679 335.952309482617 2797.45421740418 21 24 17
105.911912681499 336.613052723112 2808.02821766708 30 33 26
112.163534746516 337.272597849914 2821.5608658749 24 27 20
99.4753696913637 337.914930671176 2821.31226744429 14 14 4
93.3757941298383 338.56298040141 2825.85654536035 16 16 4
91.4218365171258 339.211158724441 2833.36902879437 20 18 6
88.6526762600917 339.857409291339 2840.27439610891 23 21 9
82.5616286190316 340.504030128736 2844.81041686362 23 21 9
75.6319968882955 341.151624881786 2848.76177291191 26 24 11
72.0455735204841 341.796030540606 2855.0620579357 27 23 11
70.1465308512388 342.436843696252 2862.52109858759 29 25 13
66.5811150240812 343.078437152207 2868.80060061334 39 35 23
59.6513993083847 343.725646157614 2872.75243491526 58 54 42
51.869515541497 344.375512068448 2876.13284484019 58 52 40
48.3127725129955 345.015807493732 2882.40426433902 50 46 35
44.7645363086764 345.654940341123 2888.6670704222 39 39 31
33.5657219637127 346.316730703249 2889.77080538112 29 28 23
1.01637706421398 347.053732172263 2876.63938095186 26 25 20
-0.879048174291519 347.693427598285 2884.09533248349 29 29 21
27.2308054462478 348.213638198038 2911.36812505181 29 30 24
37.4584146414527 348.790664678755 2926.63306843817 30 31 25
24.5172952707162 349.462394977856 2926.63131244791 35 36 30
-11.7488016198193 350.248071454562 2911.5155084317 39 40 34
-52.4759189282484 351.072171970293 2893.73900014967 35 36 30
-61.3004373655306 351.747585722594 2896.73373859576 27 28 22
-32.7968456009811 352.219325711673 2923.62304514364 32 33 27
-58.1042307553918 352.983370920272 2916.04944796422 46 47 42
-8.48239902414294 353.306609597272 2955.99850483048 42 43 38
-174.262989338267 356.242905165916 2877.87803738358 37 37 35
-263.402085381163 357.511042080813 2831.59086478886 61 63 60
-284.997664253295 358.328577937165 2827.40836763677 68 70 67
-294.287521797012 359.061153076987 2830.8570841084 107 109 106
-301.820656933205 359.781806871211 2835.39692986535 110 112 109
-307.585124792493 360.489020441347 2841.0166058073 115 117 116
61.0417127085845 322.724771749335 2691.68127539884 7 10 1
95.042696821463 323.676602282752 2727.21073960881 36 39 28
109.833468812473 324.477457559025 2747.83001615079 21 24 15
123.101661196897 325.25596976993 2767.13072040984 31 34 25
116.153370074605 325.902689996818 2771.10107260635 26 29 20
108.383866363655 326.545511104028 2774.47023017163 24 27 18
103.868256171865 327.206823708003 2780.27346544872 20 23 14
99.3573879890395 327.867391084335 2786.07210198514 16 19 12
112.072073518306 328.608360513928 2804.51108622265 16 19 12
123.228936382742 329.331310183684 2821.6655182304 17 20 13
125.40142320215 330.007171392531 2832.16151209741 14 17 10
105.311711871891 330.59351682841 2826.51783605861 24 26 15
94.2588413810146 331.220205728676 2827.48183459371 24 24 12
89.8174732756987 331.871377601042 2833.21284517714 24 24 12
86.2126901335718 332.5242453013 2839.53011104221 23 23 11
78.4484932710137 333.164923175286 2842.89431559752 23 23 11
72.3447760689848 333.810752974682 2847.44303432863 25 23 11
69.5879129127452 334.463708932339 2854.33519938647 27 23 12
66.0040333070446 335.113526923605 2860.63182063453 26 22 11
63.2703008289632 335.763419469682 2867.50146935791 30 26 15
57.1760687218767 336.407640740363 2872.04100698937 43 39 28
