ply
format ascii 1.0
comment KinectMotionCapture
element vertex 788
property float x
property float y
property float z
property uchar red
property uchar green
property uchar blue
end_header
96.3988576873924 -145.15702163039 2827.74873588818 15 16 8
82.881865497852 -146.211905574557 2827.15677579136 17 18 10
90.5571636079365 -142.725727191755 2841.69207395726 20 21 13
74.5595584947898 -144.299639312306 2839.38938334841 22 23 15
136.452018823067 -129.340805701264 2891.91335633163 22 23 15
122.184468179044 -130.577968840081 2890.67708118503 21 22 14
125.185183893542 -128.166959165932 2901.51108664807 18 21 14
145.576491050263 -122.123551512241 2924.29623361782 18 21 14
121.367715088095 -125.435410961435 2916.23411819847 17 20 13
108.692309003819 -126.317834952671 2916.19854615417 16 19 12
66.8610888538557 -133.231848150879 2896.41071450582 16 19 12
39.0382541444789 -137.196277592382 2886.36588729506 21 24 17
34.5173349542094 -136.332386442923 2892.14445346557 20 23 16
23.2985069726497 -136.842643614152 2893.44129037506 17 20 13
49.0044516215078 -129.805241155306 2919.30448118453 14 17 10
57.1779463984652 -126.381796371646 2933.35399685209 16 19 12
-92.0229956642875 -153.017662376129 2853.05982491511 8 10 5
-133.196904418042 -159.455827824941 2835.38309972136 8 10 5
-107.424631500055 -152.426670864976 2861.18130641821 8 10 5
-107.901479805902 -150.684716144144 2869.89949527834 9 11 6
-98.1143471053576 -146.909344988376 2885.12878654715 12 14 9
-115.625066050157 -148.565676007801 2882.92391250061 13 15 10
-113.473387511624 -146.323264595224 2893.20903386217 14 17 10
-155.101906237277 -152.702305942209 2875.97500457445 15 18 11
-162.449201014941 -152.312130957543 2880.37915273188 15 18 11
-155.132263592833 -149.057204483309 2893.88757797186 16 19 12
-156.405754074087 -147.491971693673 2902.00605439524 16 19 12
-187.999466659009 -151.807894651104 2891.50631160972 16 19 12
-186.693750194763 -149.735987612809 2901.239776971 20 23 14
-164.458997736622 -143.649149289271 2923.60518363098 13 16 9
-156.935162794468 -140.42101486512 2936.91177858636 14 16 13
-186.084880012539 -144.212729808864 2928.15903819432 15 17 14
125.753884186188 -155.561433958099 2804.38725617923 13 14 6
77.7267566145685 -164.338972575125 2778.27462089254 14 15 7
14.1653112756366 -176.479774749301 2741.16157758453 11 12 4
49.8012153347549 -166.670457363182 2776.59256590816 12 13 5
47.5335786398659 -165.248484464765 2784.3021708075 13 14 6
66.4107185742329 -159.209258702638 2807.17461697658 11 12 4
81.3324859816835 -154.072028653636 2827.02323667793 11 12 4
93.902655212621 -149.478731777226 2845.03635542178 14 15 7
91.8268551097552 -148.080854476152 2852.55902506814 16 17 9
105.354929626843 -143.328349684555 2871.01430815978 20 21 13
134.597384347971 -135.235531684543 2900.29458666278 21 22 14
93.1165792500246 -142.313530181126 2880.18302464318 19 22 15
116.73640927952 -135.472519134442 2905.31262819563 19 22 15
113.163935161485 -134.445883448663 2911.54223013514 18 21 14
49.0046533542907 -146.225025628853 2876.3866412483 17 20 13
79.4208332634918 -138.000516827869 2905.89883876355 17 20 13
69.1408444167796 -138.368091485891 2907.65921543812 20 23 16
48.8079319112522 -140.828520605217 2902.7076915522 17 20 13
37.6220993882503 -141.361514262912 2903.97478608436 14 17 10
63.3599106461582 -134.228029513526 2929.79213195938 13 16 9
56.4154861236066 -133.895512594146 2933.80474583483 14 17 10
-57.6770792283865 -155.616463285261 2867.51621903011 16 19 12
-121.533954997165 -166.868472421049 2834.81624507843 7 9 4
-107.686561586239 -162.155544708285 2852.96028926306 7 9 4
-110.738017899615 -160.912308267684 2860.05774648323 8 10 5
-95.0468772617246 -155.872233807787 2879.15638890497 8 10 5
-104.003852075838 -155.844492403788 2882.37872202354 12 14 9
-120.672461946719 -157.364182658437 2880.7343350903 13 15 10
-139.961958852379 -159.393150320353 2877.51673290966 14 17 10
-133.539163717534 -156.26450150827 2890.51480912434 15 18 11
-156.336599722159 -158.970709760597 2885.21276307647 15 18 11
-173.169799959071 -160.468943158458 2883.72864549572 16 19 12
-177.078885091984 -159.397248192946 2890.28584740717 16 19 12
-187.91387835497 -159.691789346663 2892.58655735153 16 19 12
-199.640004521184 -160.153867682164 2894.38002804675 17 20 11
-173.952401399625 -153.295894460948 2918.87070466721 11 14 7
-176.049077976192 -151.892997111178 2926.41336299956 16 18 15
160.357283115551 -155.223803643117 2830.90749834685 15 16 8
117.244142564434 -163.066775140324 2808.27886644286 16 17 11
86.0510967261789 -168.169400523844 2794.66371129453 12 13 5
49.073857043648 -174.52193478237 2777.05837905951 14 15 7
66.2600300611382 -168.75378518151 2798.81588883495 15 16 8
48.6142675305659 -170.755187741269 2795.37920717063 12 13 5
67.5653673681116 -164.643953046189 2818.16756717368 11 12 4
80.1017871057441 -159.986594081929 2836.20439347269 12 13 5
112.366697857474 -151.029522645434 2868.02356728959 14 15 7
93.1283894620107 -153.395210938393 2863.38799200611 19 20 14
83.6926952660337 -153.602978545503 2865.70359935891 20 21 15
81.6564791098546 -152.198504055468 2873.18598649941 17 20 13
65.5918116254113 -153.832395221671 2870.95875469338 17 20 13
102.476779906001 -144.044723982188 2905.15226522956 17 20 13
69.0062242881222 -149.421862617595 2891.00546526348 15 18 11
64.5241965564547 -148.556933245184 2896.74525819178 14 17 10
78.3934332285794 -143.78507783007 2914.85890220646 14 17 10
63.9334809265368 -145.054920084724 2913.81851470955 12 15 8
53.6206393186722 -145.433743993906 2915.61317729601 16 19 12
39.9266619132201 -146.516983399285 2915.20149490168 21 24 17
39.6615950127224 -144.7695153682 2923.70856683074 22 25 18
-108.765608285377 -172.102242217124 2844.1656280667 8 10 5
-136.415817529647 -175.947410337512 2835.34900160576 9 11 6
-109.803928115263 -168.540941447036 2861.67459948904 8 10 5
-116.24625010773 -167.992299190008 2866.57392205887 6 8 3
-159.072004141852 -173.01366453182 2857.4133234828 10 12 7
-164.733766642194 -172.280390725384 2862.92715979351 14 17 10
-166.958313083921 -170.849785972938 2870.59269965021 14 17 10
-148.50237628295 -165.242830680405 2891.11313966648 15 18 11
-165.317743886808 -166.777867897329 2889.61675360588 15 18 11
-173.533736705867 -166.570471303229 2893.49363700871 16 19 12
-182.627189919554 -166.535018609475 2896.85035547032 16 19 12
-168.279503941576 -161.823892113396 2914.49786795922 12 15 6
-172.996589146695 -160.927131718463 2920.46670966421 11 14 7
-180.327000794674 -160.548814976925 2924.85584526744 16 18 15
111.460305209533 -173.822081073744 2795.77385014098 16 18 13
133.419607454897 -166.866938840891 2821.118266631 19 21 16
136.956745050273 -164.156546879043 2832.79259582489 10 13 6
97.6768287002168 -171.1805559351 2813.32169560521 12 15 8
66.3410012959185 -176.350332418952 2799.85824956597 14 17 8
58.4465229901117 -176.19508469672 2803.42357188477 18 21 12
59.5010569125582 -174.027295055867 2813.39229381643 17 20 11
88.7125784950249 -163.687252752535 2852.29019152079 11 14 7
91.5674947772946 -161.175498034909 2863.25408790192 17 19 14
87.0616342834394 -160.305028504599 2869.01672828246 19 22 15
79.2637700177306 -160.161282375751 2872.48781136171 19 22 15
60.7152703581111 -162.373031771023 2868.56140302216 17 20 13
47.9023150977271 -163.309322065316 2868.67004291716 19 22 15
69.0862641035435 -156.827837867501 2892.02058445116 20 23 16
65.4364005971795 -155.779193541658 2898.32412017191 18 21 14
74.3036057046758 -152.026897239652 2913.05341427524 18 21 14
80.7300095794443 -148.823357652838 2926.03650029204 19 22 15
62.9163709576628 -150.841159906327 2922.76894593554 20 23 16
43.365936589542 -153.210622419616 2918.4435363431 20 23 16
-30.9555664393919 -167.226407219921 2878.12274213627 18 21 14
-65.9458628849534 -172.785569674053 2864.09472315918 14 17 10
-112.907694420287 -180.830438245604 2842.4839199606 8 11 4
-138.87199971438 -184.38694010401 2834.78431984287 8 11 4
-143.693957503969 -183.473908920975 2840.85455891717 7 10 3
-162.132067890001 -185.410260982204 2838.19473810912 7 10 3
-149.056999485559 -180.760436200764 2855.69812971022 7 10 3
-165.827277998723 -182.336037674869 2854.16296489552 8 11 4
-177.504213771908 -182.841349664043 2855.91397871842 10 13 6
-189.207213906893 -183.343228404202 2857.69036740519 11 14 7
-150.138749706902 -173.41049216916 2891.11144083213 12 15 8
-159.191585228795 -173.390702362875 2894.42980245128 14 17 10
-161.339917876884 -171.958544015396 2902.01976910558 16 19 12
-155.671100768276 -168.944006275783 2914.36617505312 15 18 9
-160.375753998661 -168.045733711916 2920.32211028352 17 20 11
-152.886717074413 -164.690363932627 2933.64479269716 13 16 9
-193.330174426395 -170.984021010839 2918.05517882477 17 22 18
112.574398713671 -179.149618928699 2806.7908968161 22 25 18
119.287728244066 -175.656537011405 2820.86351434504 17 20 13
106.65224403066 -176.641294056787 2820.80308623153 12 15 8
115.058335823992 -172.785018832152 2835.97490463297 14 17 8
95.9049225681614 -175.253253453634 2831.27018352343 17 20 11
109.65381512955 -168.306991608049 2859.10099560629 17 20 13
94.1084234680898 -168.04204509341 2865.99684660177 17 19 14
83.8528321908139 -168.460784530716 2867.74055826126 17 19 14
65.3330837759203 -170.719117267315 2863.79248450818 16 19 12
61.6221599844953 -169.657219214733 2870.15435725762 16 19 12
68.6849301969605 -166.207334799814 2883.88635959557 16 19 12
61.6966624981483 -165.884711099552 2887.94397260664 18 21 14
52.2059472030723 -166.110722111778 2890.31691309151 20 23 16
57.7062912472375 -163.040154057842 2902.82233402656 25 28 21
90.8393110843848 -153.945088369337 2933.75906719844 24 27 20
74.7248631055606 -155.640989814308 2931.59043325134 21 24 17
63.5990143466971 -156.236826949104 2932.80758909945 19 22 15
-37.6053340168396 -176.303679708279 2874.73138848413 16 19 12
-79.3583071191408 -183.408842549578 2856.31135535423 12 15 8
-95.9123154781718 -185.04735496861 2854.5707292896 8 11 4
-154.039048221291 -195.560783896654 2825.99051768223 8 11 4
-168.238516510553 -196.631026077189 2826.0788742239 8 11 4
-152.680705678131 -191.370006237423 2845.27759732478 9 12 5
-163.475171765989 -191.717126390832 2847.54583433834 10 13 6
-154.623449614269 -187.915585217398 2862.28322487514 11 14 7
-152.5616236747 -185.562557695436 2872.64122218308 14 17 10
-149.605166627999 -183.034414235475 2883.50186483511 13 16 9
-146.609125302969 -180.511349456005 2894.32395034036 13 16 9
-130.630383065975 -175.30466253788 2913.11271271609 13 16 9
-142.228362471531 -175.838490374191 2914.78919848651 14 17 10
-141.717738737727 -173.866413600832 2923.91004823459 15 18 9
-148.128896949807 -173.325932751092 2928.77929312026 20 23 14
-157.154812898005 -173.319810198522 2932.07328106091 20 23 16
-181.901064196309 -176.515663248126 2925.94465021821 21 26 22
58.6350835053611 -201.380621077921 2758.78044456144 15 17 14
82.2597440403867 -191.815814023822 2794.83862571587 21 24 17
109.966911127465 -183.364571339351 2824.17324536366 14 17 10
124.05456673859 -178.14195539508 2843.42062109345 16 19 10
138.665923307476 -170.932403406499 2871.77298881687 16 19 10
110.550181333318 -175.515594208085 2860.69356619108 18 21 14
97.8748756217103 -176.518152056729 2860.6753123649 19 22 15
104.851968737427 -173.017059998363 2874.48448701713 16 18 13
92.1554189482783 -174.016480980776 2874.48720308852 15 17 12
61.293334931336 -179.124550939076 2861.96111198261 16 19 12
60.8772851807831 -177.308677470752 2870.60800181996 19 22 15
77.8739023887476 -171.580182851994 2891.14269498773 19 22 15
62.6076927174881 -173.127270857771 2889.52700046034 20 23 16
45.6317853167381 -175.040344491842 2886.82865924892 23 26 19
41.1104649256582 -174.160685868091 2892.60563123394 24 27 20
43.2797765572404 -171.797902901115 2902.85511396827 22 25 18
103.28693305981 -156.660506143727 2951.55685485241 17 20 13
-40.0463232834212 -184.499932403008 2874.11566368396 13 16 9
-83.4908505413243 -192.088812674124 2854.61270558379 10 13 6
-91.5994016068309 -191.918620357568 2858.38873435503 8 11 4
-179.373077366438 -209.038393857624 2810.62924788592 8 11 4
-155.410792798193 -201.861119732939 2835.36908948291 8 11 4
-173.875045424747 -203.873960971595 2832.74653337316 10 13 6
-152.29644020521 -197.268949563736 2855.68691818515 11 14 7
-145.130350273902 -193.790238820762 2869.31172415425 13 16 9
-137.905163410691 -190.319050191803 2882.87929560352 15 18 11
-157.249739032494 -192.511258339606 2879.74051427474 14 17 10
-148.24503367814 -188.683154867079 2894.32206433362 14 17 10
-141.762067900472 -185.409421228838 2907.23894673655 13 16 9
-142.142734208904 -183.596403209389 2915.85078448492 13 16 9
-145.965980590961 -182.512161480554 2922.32123068368 13 16 7
-159.335912757676 -183.42222673036 2922.97908083018 15 18 9
-181.445516469951 -186.137266243698 2918.41222172221 15 18 11
-189.667257893098 -185.951743045164 2922.29838429419 8 13 9
75.5756668464613 -205.035307912508 2772.25547871803 17 19 16
70.8894982938877 -204.133865088622 2778.19292766905 23 26 19
58.1413107781139 -205.152031419341 2778.24935347863 22 25 18
62.3398836743969 -202.140534545016 2790.63927378406 16 19 10
101.439049454672 -190.904026709371 2828.0878911679 16 19 10
115.565799508971 -185.621149203173 2847.28753890515 15 18 9
116.755644491486 -183.404978720556 2857.11440644463 14 17 8
92.6701756455346 -187.103326393995 2848.98696802682 15 18 9
100.410221272044 -183.363916398852 2863.42054343005 17 20 13
122.977465678436 -176.209558764924 2888.13182041786 15 17 12
94.7024717944149 -180.846738178923 2877.21851678608 13 15 10
85.2743144763157 -181.107630302771 2879.53415384611 14 17 10
99.7833613198949 -175.873081765465 2898.36098037873 17 20 13
92.030749392094 -175.757815417771 2901.7916743587 18 21 14
67.6685172723808 -179.419179289624 2893.93359977332 18 21 14
55.6960091250187 -180.239155196386 2894.60738136304 18 21 14
39.524540093145 -181.997097633882 2892.50453979614 17 20 13
48.3758508446743 -178.10389652498 2907.22879156098 16 19 12
-44.1697849858609 -193.086356525213 2872.39450741526 14 17 10
-59.7875486338255 -194.619009723379 2871.12543988341 12 15 8
-116.030875603646 -205.116765523333 2843.50681849724 9 12 5
-153.86374611218 -211.478225534898 2828.16903101911 9 12 5
-176.555463124215 -214.465479818268 2822.80354292943 9 12 5
-159.316108343054 -208.693875094453 2843.09082244399 11 14 7
-147.943484071719 -204.23712330983 2859.4791458632 12 15 8
-126.231396977471 -197.562726988903 2882.27672614053 14 17 10
-153.244997351909 -201.471861783246 2874.25430122522 15 18 11
-159.739662730197 -200.92512876825 2879.2055458941 13 16 9
-144.714863459947 -195.75567102603 2897.53018087589 12 15 8
-138.22480233607 -192.444754453517 2910.43418403171 12 15 8
-148.974765174464 -192.828738426683 2912.66367711713 12 15 8
-139.813376817298 -188.974627526902 2927.08579475162 11 14 5
-165.330088020321 -192.484613052565 2920.35176130886 10 13 4
-174.394338455817 -192.494031558311 2923.68611292371 13 16 9
-180.855800656875 -191.951467884879 2928.60534041562 13 18 14
74.0522604084641 -213.063449469766 2772.12098101172 20 22 19
55.682429524321 -215.471268159449 2768.046130893 21 24 17
74.7729255501115 -204.78702463277 2809.85826152832 17 20 9
67.9722352275527 -202.411913012564 2823.34562936367 15 18 7
73.9754962639418 -199.002388740165 2836.71845802761 13 16 7
143.859338199631 -180.536977952291 2894.95870706815 15 18 11
94.3499599218827 -190.275643538601 2869.04311347294 15 17 12
98.8938360082985 -187.274818943775 2881.0913821223 14 16 11
96.8924833498539 -185.81880761967 2888.5315321726 13 16 9
100.689887978862 -183.019986545641 2899.93434257048 13 16 9
97.907032178894 -181.76154940401 2906.76282885322 15 18 11
86.8376273957341 -182.420640521611 2907.93328391009 15 18 11
57.441474971645 -187.286007793667 2896.74978618842 15 18 11
55.4484917304867 -185.830343941679 2904.18167663986 16 19 12
38.4291257076588 -187.81204629429 2901.53697161922 15 18 11
13.8175270333809 -191.502121752679 2893.93076526879 14 17 10
-49.5030590961263 -203.936750774296 2860.87303848015 15 18 11
-78.5875684241115 -208.542656942192 2850.75863563695 14 17 10
-91.7538636109576 -209.527396963775 2851.22530815078 12 15 8
-113.407759865474 -212.403536393506 2846.23007313995 9 12 5
-126.661219795761 -213.376786679162 2846.78160335459 9 12 5
-132.305144477614 -212.643638735424 2852.27774505031 10 13 6
-132.840967392764 -210.77749105159 2861.03614090358 10 13 6
-135.912070136937 -209.480180143048 2868.14511513721 11 14 7
-146.666267114385 -209.879522434445 2870.38108273803 13 16 9
-146.30187926272 -207.830736066078 2879.6354713922 13 16 9
-144.19153653366 -205.409848463512 2889.93526112069 13 16 9
-139.463170719253 -202.430807509657 2901.80354835552 13 16 9
-129.510672236457 -198.333849658628 2916.82143642688 13 16 9
-135.052768603235 -197.613509307577 2922.21835405703 14 17 10
-147.527369263923 -198.38799706071 2923.38399780553 14 17 8
-159.163370311463 -198.971944680273 2925.10598515257 19 22 13
-159.508840965433 -197.130118252079 2933.67895306753 13 16 9
-164.192732975245 -196.221902609906 2939.61280251636 9 14 10
62.0936783206134 -223.673213202513 2764.30881927574 22 24 19
42.0861562645345 -226.515266899985 2759.09058180935 19 22 15
90.8036937374201 -210.494282307657 2813.20417443021 19 22 13
76.4760856422693 -211.958776570771 2812.06113666129 18 21 10
50.7325350745145 -216.169592437977 2802.82178400199 16 19 8
49.324034687809 -214.478291402171 2811.05569442556 15 18 7
52.8335170527896 -211.613056528036 2822.73426211525 13 16 7
56.3865361759177 -208.753221700797 2834.37039528508 14 17 10
69.0052663671179 -203.747721849976 2852.27436885792 16 19 12
77.5995251750583 -199.729740592516 2867.23543455121 17 20 13
92.0291470941343 -194.354782759614 2886.1207166174 17 20 13
84.2505947014547 -194.251712483187 2889.57863459447 15 18 11
104.611102920798 -187.532177512187 2912.29443404211 12 15 8
89.4079970539936 -189.183297420034 2910.63111453175 12 15 8
77.4867241591575 -190.052143968621 2911.26157965982 12 15 8
48.0265886763154 -194.986841744228 2900.15186507948 9 12 5
58.567856804312 -190.616444352347 2915.96159126254 10 13 6
40.7043872937622 -192.827796945559 2912.7717885289 12 15 8
-14.1566197906973 -203.525720337181 2885.22699706248 11 14 7
-91.6673791512737 -217.32330520723 2852.2916596376 11 14 7
-113.320641951286 -220.250267169153 2847.30330714514 9 12 5
-122.337329809234 -220.287133308467 2850.59414732365 9 12 5
-114.383827014918 -216.486150256887 2864.80665613292 9 12 5
-134.455942733194 -219.014059063002 2861.02303996793 10 13 6
-163.123875192337 -223.446336359429 2851.88655502417 11 14 7
-148.288830652393 -218.122239576572 2870.37642583359 12 15 8
-134.217021661668 -213.001056791023 2888.23728210854 16 19 12
-135.515468291962 -211.321094120356 2896.36358333052 15 18 11
-146.262890427319 -211.736858258437 2898.59525055476 16 19 12
-139.777565262073 -208.349038981621 2911.4925904014 17 20 13
-134.966463421963 -205.347860979708 2923.2757855356 18 21 14
-139.64115775022 -204.437679503637 2929.20021100129 16 19 10
-152.996790585354 -205.420870207024 2929.85466961024 25 28 19
-157.681267387048 -204.509350594996 2935.78894928275 13 16 9
-191.151040631484 -209.828050856375 2924.46655387756 12 17 13
-228.240822947525 -215.884930823507 2911.1800085193 17 22 18
51.7416910106689 -233.962035313441 2757.68800662136 23 25 20
63.0903273184691 -229.038440604811 2775.44839842238 20 23 16
55.163431009146 -228.925809388708 2779.0522109989 19 22 13
77.9492857113713 -221.220337368613 2804.88185958341 20 23 14
84.6629149948637 -217.522671412073 2818.92394202144 19 22 11
52.4406218016917 -223.397248731429 2805.02802955289 16 19 8
33.1205683475861 -226.0709160018 2800.51914747941 15 18 7
64.3443465344675 -216.412600141197 2831.85129054462 14 17 8
76.9247977815022 -211.342598168839 2849.7837422895 13 16 9
80.5696363064867 -208.464470925542 2861.32599382483 13 16 9
74.3930886062842 -207.967908921375 2865.96909603221 13 16 9
64.9174529923475 -208.261807083847 2868.33709586196 19 22 15
104.981188808934 -196.702774911028 2904.78021198458 19 22 15
83.9940328978845 -199.768272841306 2899.15054321814 19 22 15
72.0625371630446 -200.657059416009 2899.79410690461 17 20 13
64.2596876004369 -200.55806132325 2903.27675419757 16 19 12
64.7833485509306 -198.492527827599 2912.37050709202 14 17 10
49.4576699018943 -200.15919664487 2910.83154013039 14 17 10
29.898200482859 -202.799867671531 2906.55518697691 11 14 7
-22.0368910449666 -210.987805773272 2889.90438792524 10 13 6
-71.3388822941026 -220.432537297504 2866.5732312543 10 13 6
-118.305155603941 -229.266143655244 2845.08341390381 9 12 5
-124.791255650669 -228.727550249063 2850.02769394445 9 12 5
-131.28058428091 -228.188566275134 2854.97478444851 8 11 4
-125.856871098124 -224.929780076923 2867.52848240219 8 11 4
-159.623021947409 -230.600854799453 2855.13556581362 9 12 5
-113.145770944476 -218.044420849944 2893.56502043231 10 13 6
-116.134033678333 -216.740747125429 2900.59079288968 10 13 6
-128.557438344935 -217.564175986567 2901.71283173362 12 15 8
-140.149946567363 -218.190609506424 2903.3979094599 13 16 9
-133.651490801709 -214.766410657347 2916.27683354133 16 19 12
-139.203247178616 -214.043909007304 2921.68302426529 16 19 12
-153.420133878174 -215.243809616465 2921.807841005 15 18 9
-185.045261722656 -220.278241796796 2911.44582722798 16 19 10
-201.117363989141 -221.846700685554 2910.63321672612 22 25 18
-190.190933504939 -217.473585734026 2926.06006934158 17 22 18
-235.146468118612 -225.348224799595 2908.1001367495 13 18 14
76.8517192346137 -233.247082480932 2786.49431586138 18 21 12
88.3151246740721 -228.281156227144 2804.13414579218 18 21 12
57.8198297486541 -233.854069031151 2791.31286910783 18 21 10
105.81629318149 -219.796199464227 2835.09669622758 17 20 9
64.1481323440853 -226.071226782689 2823.55463402773 18 21 10
61.9784045796918 -224.560612745322 2831.15391279011 17 20 9
92.5526804918189 -215.003422702577 2861.72939609154 16 19 10
93.7737560039822 -212.702912991213 2871.51278595223 12 15 8
107.357819105762 -207.395729409285 2889.83049026863 10 13 6
73.239997554309 -213.726465489069 2875.05046691105 12 15 8
67.0690411692836 -213.232688714454 2879.68809067352 14 17 10
81.5922668663953 -207.739416409446 2898.4629359771 17 20 13
76.2937206060874 -207.051076733351 2903.62273443698 19 22 15
42.7163915312572 -213.14402405933 2889.68742046192 17 20 13
44.0234259314063 -210.853449852727 2899.38725818138 17 20 13
22.800281779749 -213.938436685688 2893.99480967772 15 18 11
80.2350860573493 -198.336550929901 2940.93121728134 11 14 7
38.0610675807045 -206.387182490205 2921.65178113641 12 15 8
-84.7463271487619 -231.329200731142 2858.82530599667 13 16 9
-96.2393806470776 -231.987572843157 2860.41634422166 10 13 6
-98.9239779139588 -228.561412643188 2876.74591071519 8 11 4
-87.4694048730822 -223.89816342811 2893.02233756478 8 11 4
-111.764201207831 -227.505627040474 2886.50624113096 10 13 6
-113.913884839032 -225.994915771805 2894.08560140202 11 14 7
-128.900602726356 -227.4288894816 2893.59255847571 9 12 5
-136.199742795295 -227.094112586466 2897.95707610896 10 13 6
-130.594078446004 -223.823236740949 2910.32830701997 11 14 7
-131.838908402034 -222.122376924388 2918.39827750277 13 16 9
-147.762498881947 -223.742079391403 2917.44576637991 14 17 10
-192.32784296023 -231.788121066711 2899.12370204897 14 17 10
-210.143335901121 -233.777005072955 2897.27028643017 14 17 8
-227.141392859176 -235.564454782458 2895.9926200551 20 23 16
-259.018943816189 -240.646348605819 2885.88828097044 20 25 21
161.067356952588 -221.387934030917 2839.98141410599 19 22 15
105.09461460322 -233.660926596369 2808.10507377326 18 21 12
74.6868613319855 -239.328552181641 2795.2108654399 17 20 11
148.463412687988 -214.485707457035 2875.56631861918 18 22 8
104.130847503595 -223.616943152771 2852.92208897065 18 22 8
87.3644208809994 -225.78237726401 2850.05336686014 20 23 12
95.9072878172709 -221.61948792438 2865.04404809044 19 22 13
101.236598823919 -218.27974833607 2877.67952392485 15 18 11
88.5324519078994 -219.421404337126 2877.71046848718 14 17 10
88.9778103186782 -217.307964669087 2886.87489644973 14 17 10
77.062712171982 -218.241511850695 2887.50879268692 14 17 10
80.8463933706602 -215.320680760699 2898.90685978492 15 18 11
77.2056519676068 -214.226866407722 2905.19466101195 17 20 13
86.8808380229806 -209.899749065342 2920.45356910887 17 20 13
72.4508407352986 -211.436604466931 2919.42290026639 15 18 11
51.294191802552 -214.581011598121 2913.97320332149 13 16 9
65.2410814342148 -209.257414922251 2931.92818968205 15 18 11
69.2044990280687 -206.358990138951 2943.15142536698 19 22 15
-20.184346358195 -225.764804955095 2893.08263632674 20 23 16
-83.815818259457 -238.900477564221 2860.43723764126 17 20 13
-99.5328992740649 -240.579485286683 2859.28876269944 11 14 7
-109.365273840921 -240.851543062274 2862.00744374137 10 13 6
-71.6641327523453 -229.927752914005 2895.22290257741 9 12 5
-83.9783867741222 -230.807841769519 2896.24492753992 9 12 5
-117.647680713048 -236.668357652579 2883.78382992835 11 14 7
-139.47464623861 -239.724575174697 2878.98673288352 12 15 8
-158.803492641121 -242.174602494205 2875.87043776845 15 18 11
-142.982276313357 -236.47318097259 2894.74250414237 14 17 10
-132.228009644217 -231.974635870823 2910.32177944982 14 17 10
-150.730427670588 -234.221754861374 2907.7717482957 13 16 9
-195.227659965266 -242.397357656783 2889.40119703373 12 15 8
-185.306665290902 -238.100756645953 2904.42052383875 14 17 8
-196.158339238823 -238.549963559487 2906.7606574816 13 16 7
-246.20009163894 -247.866291460367 2885.56236372951 12 15 8
112.991161187693 -241.252433561596 2805.63677349172 20 23 16
123.681335228125 -236.385260567211 2822.64212000311 19 22 13
81.2219241530752 -245.263861834693 2800.93463785297 18 21 12
66.8798681192269 -246.843794217023 2799.82300880436 19 22 11
102.738658082338 -235.545985376774 2834.81266974361 18 22 8
122.549941895578 -228.42100117839 2858.01393192679 15 19 5
119.683565768142 -227.110638856209 2864.91768061035 18 22 8
103.770714104051 -229.11143747299 2862.59392221142 20 23 12
93.5350511341806 -229.659383713786 2864.3369414762 20 23 14
91.477704968959 -228.140617461842 2871.82341875554 18 21 14
90.2588342908572 -226.417703113766 2879.86435164148 17 20 13
100.595348925331 -221.815308788838 2895.84311202503 15 18 11
101.921592535383 -219.484036958298 2905.51752178206 14 17 10
93.3460825219545 -219.620878170363 2908.38537995324 13 16 9
98.0317462513827 -216.474201214128 2920.27129446177 14 17 10
77.8142574709806 -219.478809843048 2915.28558260439 16 19 12
93.3739711414341 -213.676813996813 2934.40246014148 16 19 12
67.2529447386765 -218.104488739524 2925.56999821355 15 18 11
5.86124540957655 -231.091180639955 2893.51260944774 16 19 12
11.3656722708186 -227.737251359307 2905.97209541951 19 22 15
-10.8440103976655 -231.108144502377 2900.18430391483 17 20 13
-98.0644725156758 -250.125529124485 2852.15627205872 14 17 10
-128.183240125814 -255.284600347655 2841.73375121472 11 14 7
-117.748883838848 -250.693272687895 2857.61698903926 10 13 6
-79.2195767660333 -239.426506425582 2891.37628440825 9 12 5
-85.5936609968389 -238.909215551777 2896.21214175077 9 12 5
-130.354474032228 -247.48471539256 2876.74518750973 11 14 7
-148.789944306787 -249.780621926206 2874.13622486794 12 15 8
-137.293292781399 -245.014115763149 2890.35560582855 14 17 10
-140.317589748463 -243.680188942633 2897.4126894178 14 17 10
-146.772210651636 -243.152021069179 2902.32725109273 15 18 11
-148.054197222208 -241.418630746952 2910.42897280652 16 19 12
-160.555220144888 -242.295059947306 2911.63625899514 16 19 12
-177.418966384743 -244.169172294261 2910.23802879139 12 15 6
-170.884521536469 -240.635258339584 2923.06499933708 14 17 8
-196.498592089376 -244.501318946828 2916.48027290953 15 18 11
-169.863152147913 -236.382657640215 2941.26031372549 10 15 11
88.8513294826518 -257.288645191366 2779.54876728514 5 7 4
94.6140947830161 -253.6209470646 2793.12225378721 19 22 13
73.0786168754669 -257.136435467527 2786.6866759466 17 20 11
82.1117707457328 -252.630681459175 2802.55706691509 17 20 11
97.682738803782 -246.449330101458 2823.02360941772 17 20 9
102.01058202752 -243.225376690102 2835.25342355164 17 21 7
127.505236434684 -234.545697237835 2862.50061018986 14 18 4
104.295136300525 -238.473650904711 2854.95476268419 15 18 7
85.8974061118714 -241.133140040352 2850.94481376928 16 19 8
108.781069013514 -231.166566169074 2884.84561693206 16 19 12
109.246763066816 -229.017478332336 2893.9845825172 16 19 12
80.9034587982778 -234.171150498859 2883.21511166832 17 20 13
98.7002118646374 -227.645902686633 2904.2547454862 15 18 11
105.844922805893 -223.839372157464 2917.85232948722 12 15 8
79.0300670445752 -228.559851755873 2908.3352174811 12 15 8
66.2536807436482 -229.738940276627 2908.4437671726 11 14 7
43.4399740260556 -233.400986519772 2901.88190346113 14 17 10
12.1906120372577 -239.12282070837 2889.83143703347 15 18 11
-13.3156390480482 -243.381419944928 2881.780752001 16 19 12
-28.8412218845573 -245.149569148805 2880.45495376749 14 17 10
-101.623255850433 -260.938735894323 2841.70136773598 14 17 10
-106.408974659615 -259.999255607853 2847.73171180109 14 17 10
-127.248929378614 -262.970048362786 2843.35878200907 10 13 6
-110.035809377321 -256.68309356128 2863.59628237343 9 12 5
-112.246387171918 -255.13106390024 2871.23000460858 8 11 4
-97.4204758738515 -249.480779555562 2889.68073448301 9 12 5
-126.853791412896 -254.490447011216 2879.97271494769 10 13 6
-135.877663318383 -254.577769335052 2883.27814639364 11 14 7
-126.922809723418 -250.373482845539 2897.85393814291 15 18 11
-126.48906732398 -248.218037726495 2907.02369258912 15 18 11
-129.470031013947 -246.881170696321 2914.03731103192 15 18 11
-135.889252038036 -246.359988161736 2918.91741469166 15 18 11
-140.582119602936 -245.431813506078 2924.85756490789 15 18 11
-171.264621492176 -250.594383147084 2914.99535760119 10 13 4
-184.690259531625 -251.687393861009 2915.73556376249 14 17 8
-164.206940950323 -244.878477622892 2936.89929087526 19 22 15
-175.008495076363 -245.365728164992 2939.19527762576 18 23 19
96.1400913225674 -262.967516820333 2785.90345116254 16 17 12
113.155686292971 -256.267738278364 2807.69265310971 19 22 11
106.950902699924 -255.781091068105 2812.36525937829 19 22 11
83.8079549656996 -259.77765856501 2804.7628696409 20 23 12
119.591438575753 -248.19473586742 2839.78517119837 19 22 11
119.920079828916 -246.009883620444 2849.05494627585 14 17 6
117.839918520848 -244.466776504387 2856.56048176022 14 17 6
92.1649176865467 -249.088237682733 2847.31408924189 14 17 8
68.8419778755684 -253.060256800372 2839.88680605775 13 16 7
52.7971845476358 -255.113061787983 2837.70175420037 13 16 7
98.2031662753746 -241.2778643417 2878.42290367696 13 16 7
93.7118771435568 -240.375324687878 2884.16633452935 13 16 7
82.6343458205958 -241.163122744268 2885.36388218972 12 15 6
67.4013382365839 -243.002357626911 2883.7580588377 12 15 6
78.6109695994162 -238.091696090515 2900.24114896144 12 15 6
84.9209543857614 -234.453959349697 2913.2760045463 13 16 7
54.694001073059 -240.07385477929 2901.61177616096 13 16 9
23.5184455436048 -245.888434334295 2889.50172655277 16 19 12
18.1241288424592 -245.185633034929 2894.75448905455 18 21 14
1.84399982246353 -247.20608713762 2892.79834757162 14 17 10
-1.89493289402254 -246.081495935527 2899.17910541956 13 15 10
-42.6428507235452 -254.152947521783 2881.32076391858 24 26 21
-123.184955517857 -272.013245248833 2837.82595780374 14 16 11
-117.017202701093 -268.355972712052 2850.99882661286 11 14 7
-120.959549599731 -267.204411121584 2857.57759153907 10 13 6
-118.950228793997 -264.598114338565 2867.9499562929 9 12 5
-105.842293301462 -259.296109937088 2885.32431852664 9 12 5
-107.147877070018 -257.532071986988 2893.44528074284 11 14 7
-117.836738314471 -258.049952075603 2895.63388882961 12 15 8
-119.123441477099 -256.288340256798 2903.73612306417 18 21 14
-129.83547998334 -256.802987192657 2905.94760649795 17 20 13
-134.545634795043 -255.869583272383 2911.90381248079 16 19 12
-132.350385693865 -253.287092556152 2922.09540405699 15 18 11
-146.545355973982 -254.622318000149 2922.2184584197 15 18 11
-180.706129585812 -260.683640151946 2910.27508646756 21 24 17
-191.547719987287 -261.181440739982 2912.61238912359 19 22 15
-185.875871986512 -257.777530633863 2924.89823628469 17 22 16
-119.09678129024 -240.03441713365 2973.57510704086 17 22 18
125.276064858318 -260.523124971823 2817.54121129283 19 22 11
54.7440668880643 -277.359914693027 2775.29089731459 18 21 10
109.696367112483 -260.426412862933 2824.49565586694 18 21 10
74.4069315847038 -267.718221893367 2808.18695219244 18 21 10
115.140631871608 -254.714664021283 2846.58543990208 16 19 8
108.175501343254 -254.451685140067 2850.62889283906 15 18 9
93.8762920355876 -256.124322380642 2849.48841809552 15 18 9
44.4431058779267 -267.034367529239 2823.67029398647 14 17 8
53.6996651000776 -262.45861066567 2839.30815590458 14 17 8
95.8260314909491 -249.313869877736 2877.720085972 14 17 8
67.4935602146385 -254.61924873817 2866.9622799848 14 17 8
53.0589838146049 -256.273317100783 2865.95348229303 13 16 7
65.8336375117887 -250.869886140693 2883.64380747529 12 15 6
67.9338014777895 -248.252338583269 2893.92430076853 12 15 6
72.5588489130606 -244.999643530929 2905.85507656692 11 14 5
58.1045157557898 -246.6503956768 2904.86540749175 11 14 7
61.1125751833983 -243.829313816012 2915.63151204901 9 12 5
59.147347630681 -242.287811237453 2923.02315376522 9 12 5
41.2876262428359 -244.779708782457 2919.87109351169 17 20 13
-16.0781287084109 -257.224370877068 2890.82099296827 18 20 15
-40.0320397513614 -261.170890974666 2884.01650480093 19 21 16
-135.743443203042 -283.077068832789 2830.67662104186 13 15 10
-119.463260707003 -276.843894884514 2850.43124376721 11 14 7
-102.234506716819 -270.412950112273 2870.63159985271 10 13 6
-120.558926651576 -272.843418071507 2867.93225070181 9 12 5
-129.580187706257 -272.951869083816 2871.23855018724 10 13 6
-98.5306426336163 -263.180919502142 2899.8932434603 11 14 7
-116.893242945184 -265.606295820589 2897.23071760371 12 15 8
-119.891580365065 -264.250343986916 2904.25876769153 12 15 8
-134.04025981542 -265.61820645717 2904.34067831421 14 17 10
-137.038768380934 -264.262115110217 2911.36887773216 15 18 11
-145.200238875278 -264.161042847332 2915.20733435029 19 22 15
-166.339508234131 -267.188170552143 2911.14029254331 20 23 16
-181.482891609547 -268.747562300737 2910.82101965199 19 22 15
-186.247630153006 -267.803811110922 2916.83023660743 17 20 13
-170.991682746766 -262.079305546598 2934.84296440549 10 15 9
-183.552882143827 -263.011438543508 2936.11790187755 13 19 17
68.3819947779067 -283.566279264454 2776.83563799074 21 24 15
80.5707087601144 -278.029599684826 2795.08811588398 18 21 10
67.8482160716349 -279.290035394939 2795.15483365869 17 20 9
89.8489693322491 -271.143506847742 2820.28234014285 17 20 9
98.2081824548935 -266.726896915226 2835.41789253216 17 20 9
106.171631729128 -260.315966061799 2859.15381610256 15 18 9
88.59572334037 -262.886748957097 2855.73158456574 15 18 9
122.496875435711 -251.753805393203 2888.43851006758 14 17 8
77.8703511679555 -261.490978959606 2866.17574348701 14 17 8
72.509011635721 -260.792895160219 2871.396456417 14 17 8
64.6770039391811 -260.744708417043 2874.91556806326 14 17 8
60.9630836326587 -259.612980366436 2881.27043339527 13 16 7
68.8455198370934 -255.456272057881 2895.50093634122 13 16 7
70.1536127254663 -253.034701066948 2905.18002385673 12 15 6
78.9776632025241 -248.676396424785 2919.86260337801 11 14 7
54.5282750185305 -252.941788265661 2912.1803511229 13 16 9
53.383126093824 -251.171970424356 2920.14114490209 7 10 3
-2.17138661019467 -263.371453004903 2892.09003524243 19 22 15
-21.8670776788361 -266.311908570491 2887.99326022467 17 19 14
-98.8321935772114 -283.820758949088 2846.5628204488 19 21 16
-130.59384448378 -289.724517120857 2835.04761493278 10 12 7
-121.063615015369 -285.133268213325 2850.41176637542 10 13 6
-111.462972534607 -280.551118822212 2865.70700371847 9 12 5
-116.224585513534 -279.605212962023 2871.71246064079 8 11 4
-121.832404001788 -278.87296071045 2877.17288073542 8 11 4
-130.850637403231 -278.992083466777 2880.47775099554 10 13 6
-102.273032594594 -269.754849406834 2907.41493461863 11 14 7
-140.363836879467 -277.100988577777 2892.47915218508 14 17 10
-139.103040029565 -274.671597651658 2902.20404958295 15 18 11
-141.252656477331 -273.093758843581 2909.77342171886 15 18 11
-146.836115059509 -272.364312185512 2915.21006673215 13 16 9
-165.385353389651 -274.805033310723 2912.73548098475 11 14 7
-194.388330853694 -279.771316233004 2904.01062648202 11 14 7
-200.050492457864 -279.031535026689 2909.52389731787 12 15 8
-183.95603334255 -273.027422281194 2928.07955409179 14 19 13
109.999202315503 -281.930360030358 2799.03299662743 25 26 20
67.7845922111251 -289.174952363596 2786.75995859573 17 20 9
71.158195573712 -286.023188698405 2798.53110731326 17 20 9
89.1244371027891 -278.892485865613 2820.72985991225 17 20 9
101.532505913768 -273.323900932811 2838.7597996206 16 19 10
106.717321505635 -269.754011439159 2851.50474548241 15 18 9
112.767448400837 -265.96992848448 2864.77567604608 15 18 9
171.915057589553 -247.870304210907 2915.31005350381 14 17 8
80.8625721823173 -270.307750697477 2860.25647300384 14 17 8
86.153548800179 -266.750772737369 2872.89790771652 14 17 10
88.2083657774895 -264.078636352244 2883.21570087697 14 17 10
82.0610901607637 -263.604280770829 2887.83301757232 15 18 9
56.9188632203104 -268.168368255622 2879.46566437043 15 18 9
52.3763322239708 -267.249386572398 2885.25788686901 15 18 9
67.7487068000562 -261.085014194995 2904.50689796115 14 17 8
74.9036161106531 -257.116468205299 2918.07074685834 14 17 10
34.2529952187745 -263.578169075922 2908.3799991975 9 12 5
0.426717623717376 -270.276418904807 2894.78135822875 15 18 11
-37.7263861306485 -278.044009887779 2878.55282116541 16 18 13
-101.266277387314 -292.303822025934 2845.98262887749 29 31 26
-127.973776642793 -296.989085289363 2837.77061463284 11 13 8
-115.057913355166 -291.483513448815 2855.30562022681 9 12 5
-85.9627623151669 -281.879270223426 2883.09153831476 8 11 4
-126.322324777405 -290.012064072634 2866.2738677125 7 10 3
-131.953192948316 -289.276316354053 2871.75665985425 7 10 3
-125.643834668326 -285.523056116409 2884.7747254048 9 12 5
-139.793475044982 -286.943869390467 2884.86541634718 10 13 6
-184.821796258469 -296.101280123328 2865.7501078572 10 13 6
-163.054584045779 -288.481899433608 2888.3532798 14 17 10
-148.047494819177 -282.595081062346 2906.58913768726 16 19 12
-133.809201878843 -276.934741341228 2924.20498577955 18 21 14
-157.515513125154 -280.70343128215 2918.54559129416 18 21 14
-187.36681425943 -285.95815506341 2909.28851900978 14 17 10
-198.223195534448 -286.501207119176 2911.64719736906 15 18 11
-187.346788959958 -281.709475824229 2927.06185315362 19 21 16
-217.386834539584 -286.939504390226 2917.98889479359 15 19 18
116.486401338276 -287.662915685969 2804.77433154751 22 23 17
99.8462364693986 -290.108093627155 2801.82157566495 18 21 10
75.1089052999623 -294.791553080801 2793.07013594384 17 20 9
75.274599955625 -292.509381414017 2802.48733563368 18 21 10
101.332334282729 -283.060811028205 2830.47864316108 17 20 11
94.324421891447 -282.807682255035 2834.56603496205 15 18 9
105.176376803346 -277.635337419092 2851.36562641161 14 17 8
117.735009033857 -272.026322304998 2869.24007885548 14 17 8
98.5555560811875 -275.127017127225 2864.6546928913 14 17 10
74.4033005109248 -279.555736215428 2856.70152325416 13 16 9
69.02001728055 -278.854355344781 2861.94353929509 13 16 9
102.263151536313 -267.705505287811 2893.88428810649 13 16 9
108.505213039166 -263.907377456169 2906.96254894076 15 18 9
91.6829574055091 -266.326061833562 2904.18669614227 15 18 9
54.9441962595991 -274.054227674665 2887.96477825988 15 18 9
59.5373138926849 -270.699517620309 2899.91184520911 14 17 8
68.3354362149342 -266.245628624396 2914.60604444566 14 17 10
57.1976224162043 -267.098742070809 2915.87310708173 15 18 11
33.5029461144334 -271.255982751658 2908.84267723638 13 16 9
28.1447138222788 -270.556344697982 2914.06007491293 16 19 12
-107.905994683651 -301.900933371988 2842.65812710378 57 59 54
-115.236104545426 -301.602540988773 2847.05911365609 17 19 14
-110.742577165711 -298.233624873414 2859.10297554952 9 12 5
-96.0375393342714 -292.242784529885 2877.62373837724 9 12 5
-89.7283572461247 -288.451585125032 2890.63637149655 8 11 4
-148.029221582451 -301.2730087864 2862.57019574901 8 11 4
-149.432122811466 -299.441022813991 2870.77741511204 10 13 6
-148.250430468726 -296.957563863527 2880.5732110665 11 14 7
-150.463815771978 -295.349159886254 2888.20138909993 11 14 7
-170.691238041083 -298.310046092743 2884.63598850645 11 14 7
-155.702174821715 -292.35591264124 2902.87979734591 11 14 7
-137.169685950992 -285.546045012453 2923.14676794929 10 13 6
-157.425554619547 -288.503079738577 2919.60904580386 10 13 6
-187.275916746101 -293.832812306311 2910.36212733682 17 18 10
-200.736990043195 -295.040384419218 2911.15445335753 17 18 10
-175.944070013131 -286.740919688996 2934.90360238046 16 18 13
-231.249297312669 -298.304984423995 2910.76209994412 19 24 20
86.9530489239763 -303.600385084611 2784.02757707747 20 21 15
75.8584017269812 -304.481171614646 2785.25586470957 16 19 10
90.4761953567985 -298.086086540586 2805.2204244423 16 19 10
97.9351290950099 -293.746539404951 2819.84411025694 17 20 11
104.649035518219 -289.641610701775 2833.82572423504 17 20 11
122.764060684386 -282.37313166062 2855.85636921955 17 20 11
102.823766225013 -285.752686253719 2850.65047831147 15 18 11
92.583183671203 -286.411063640963 2852.41504231303 15 18 11
71.7122476334717 -290.000939469028 2846.74746831863 15 18 11
63.8551377209562 -289.973323145328 2850.29454713545 14 17 10
60.9063689478337 -288.59266159329 2857.26972273869 14 17 10
97.4158976658086 -276.414357004767 2891.48271574562 14 17 10
112.707146337013 -270.104672874459 2910.79114688894 14 17 8
102.500421454343 -270.76624408234 2912.52222392585 14 17 8
64.1328558857523 -279.048279550496 2895.1654381249 14 17 8
48.8381430399922 -281.038951335937 2893.64327131806 14 17 8
59.2736795388582 -276.088151072347 2909.47220728088 14 17 10
53.9487392554636 -275.392827943016 2914.65718324452 13 16 9
38.6003840190705 -277.37597065803 2913.18717133124 17 20 13
26.5556753801892 -278.461121595488 2913.97217967208 21 24 17
-118.518081568963 -310.356054729614 2845.9436179102 13 15 10
-111.497306520722 -306.287600361572 2859.6258976981 11 14 7
-102.723765286742 -301.783378498894 2874.33706714295 10 13 6
-106.61696896694 -300.609353342295 2880.86371202152 9 12 5
-128.369092706111 -304.081330559639 2876.05374507782 9 12 5
-129.727602600699 -302.24134850578 2884.21570137219 11 14 7
-108.843730670875 -294.666092641999 2906.28565558633 12 15 8
-108.398412651456 -292.396911211252 2915.42710509359 13 16 9
-144.843188700917 -299.598931581136 2901.66931022909 13 16 9
-158.193069283336 -300.84493439667 2902.35690028147 12 15 8
-157.77819570036 -298.571679085662 2911.52797944644 12 15 8
-193.638166359456 -305.517552296476 2898.56885290576 12 15 8
-203.644300716691 -305.870988789142 2901.47210772703 12 13 5
-200.645626331917 -302.938216213758 2912.23102393172 13 14 6
-194.997117966052 -299.354693171671 2924.51350098181 17 20 13
-182.32092531025 -294.030529266876 2940.89640575212 20 25 21
83.8360462755809 -312.131404126625 2782.71571256097 21 22 16
83.1648551450805 -310.03705324512 2791.57480272024 16 19 10
96.1908673039766 -304.03651282301 2810.34418203427 17 20 11
118.175578357479 -295.520749980303 2835.43270815761 17 20 11
110.390279429822 -295.511444678032 2838.91118396588 17 20 11
125.277697654482 -289.083066637295 2858.6030818042 16 19 10
128.893872742367 -285.872338829373 2870.12463833811 15 18 11
107.319500366479 -289.756344060246 2863.78214990576 15 18 11
92.1957626351668 -291.802653957251 2862.09842557139 15 18 11
88.4768574776569 -290.648213661454 2868.4548840742 15 18 11
51.9735676890911 -298.611882059557 2852.03360898614 14 17 10
85.995285970601 -286.975978700862 2884.5464732448 14 17 10
100.434945324854 -280.822528415691 2903.30638930303 15 18 9
87.7227419898743 -282.177680921358 2903.37722654062 14 17 8
70.8383272422237 -284.662846322634 2900.67258668551 13 16 7
43.9465218091599 -289.860855121034 2891.30246544817 14 17 8
66.0101393388342 -281.687282655089 2914.94630254475 15 18 11
25.6989010452111 -290.492263506378 2896.76308495632 17 20 13
30.3327887795093 -287.077090351631 2908.66073017252 13 16 9
37.5259085157347 -282.990942109451 2922.16925399065 16 19 12
-74.0800014961378 -308.613452591932 2866.7409500504 57 59 54
-126.014545489852 -320.254576259528 2842.09785501753 17 19 14
-121.546784393467 -316.817133403832 2854.15717498891 9 12 5
-111.949840903891 -312.039255465126 2869.42749473302 9 12 5
-113.317956788402 -310.184411140274 2877.59679328023 9 12 5
-117.218016794792 -309.003654236581 2884.12925164278 10 13 6
-117.698702301712 -306.929486642217 2892.80214998267 12 15 8
-119.010058054611 -305.081768349423 2900.91613810454 12 15 8
-116.018349093749 -302.120992011498 2911.67783213428 14 17 10
-125.00648308721 -302.285511783544 2914.95952289641 15 18 11
-148.636975117535 -306.232587691572 2909.25120417677 16 19 12
-172.348165486639 -310.169123440885 2903.62112442763 16 19 12
-197.003642494001 -314.317192243373 2897.54342828655 15 18 11
-192.291020798472 -310.911089707485 2909.36423014886 17 18 10
-215.313130045711 -314.602560001631 2904.43090925168 16 17 9
-240.15173651386 -318.726657893381 2898.53152048218 15 18 11
-224.960744411181 -312.669251837931 2916.55954730968 12 17 13
91.8024801968498 -319.76312240122 2780.18395633483 22 23 18
145.551247887597 -301.797668054406 2829.01407119358 20 21 15
122.56426494901 -306.227517778823 2821.32118287454 18 21 12
118.794963516262 -305.062642344832 2827.72580547279 18 21 12
91.6541686390735 -310.637928628308 2817.24178656402 17 20 11
78.1480389144598 -312.253086791863 2816.72218600588 16 19 10
97.8176738627337 -304.355680399696 2839.94994394302 16 19 12
118.420612223719 -296.242080165795 2863.6362115989 16 19 12
125.310944487866 -292.078015762617 2877.43389187826 15 18 11
123.285109997977 -290.463830101016 2884.87497465109 15 18 11
99.1936008613683 -295.08528090431 2876.88996857065 15 18 11
78.2928476541125 -298.772440888556 2871.26638202216 15 17 12
66.3584292888282 -299.915810740541 2871.95047522106 15 18 11
93.1061068973307 -290.239531525583 2899.22300360529 15 18 9
98.5399694591358 -286.559336269653 2911.70433900087 14 17 8
61.8204169714836 -294.595929354453 2895.5085942068 13 16 7
49.0092992452071 -295.961803324723 2895.67890168297 14 17 8
50.2984033020502 -293.428169510512 2905.36062039454 14 17 10
29.1187141381068 -297.077600041355 2900.00844497774 15 18 11
22.0660592357556 -296.831214217297 2904.14126335854 8 11 4
33.4253952342603 -291.560167321427 2920.42242976728 9 12 5
-38.2135485854684 -308.880402432779 2882.17693887621 54 56 51
-92.4942891483376 -321.375962445731 2855.73887124321 42 44 39
-96.4172696676862 -320.186966330482 2862.29253442009 20 22 17
-91.0369730783294 -316.498308136628 2874.82581079964 8 11 4
-98.3088658417204 -316.222439416515 2879.17231590022 8 11 4
-117.471433435865 -319.121129720342 2875.95721566353 9 12 5
-118.829046850391 -317.253722240073 2884.11422827391 10 13 6
-119.313752469759 -315.16250709083 2892.78859902372 12 15 8
-130.884593785701 -316.01330640285 2894.48532235765 12 15 8
-137.342339318157 -315.505737522455 2899.40603135783 14 17 10
-130.067322585225 -311.388710934793 2912.8283285996 15 18 11
-138.221227199853 -311.334912484463 2916.66625923617 16 19 12
-163.633083466936 -315.780801868818 2909.96642947356 16 19 12
-167.52567232631 -314.595030970444 2916.49072781046 16 19 12
-175.74101719056 -314.533162671858 2920.38847680311 18 19 11
-217.825172335728 -323.21743829458 2903.94761383473 17 18 10
-233.968148410367 -325.159270353665 2903.26090430558 16 17 11
110.251094207338 -321.942746592502 2794.77763660686 25 26 21
90.4090977712966 -325.481171778311 2789.49761531272 18 19 13
113.822525380197 -316.288308864003 2815.90148615879 18 21 12
