ply
format ascii 1.0
comment KinectMotionCapture
element vertex 768
property float x
property float y
property float z
property uchar red
property uchar green
property uchar blue
end_header
-45.4260199550323 965.722244671646 2822.81630018375 16 16 8
-60.3224671019436 968.880734606079 2821.55485295677 16 16 8
-36.02900006145 961.788997019608 2846.65753200268 16 16 8
-29.0792791747525 959.244462446397 2859.97085718313 18 20 9
19.9582515441099 945.731146547487 2901.12792315616 12 14 3
-14.2619940060875 965.341031771455 2662.97843518144 120 113 95
-1.48215034898369 961.166504439453 2682.07922470947 87 74 58
-8.61230512755995 962.273698458098 2686.16177453779 49 33 17
7.63213232296955 957.201128233951 2707.62287667298 73 50 32
13.0964062810706 954.988951091056 2720.94490316971 108 79 61
19.4500620978753 952.549647130404 2734.83423889546 127 91 75
23.3354775244203 950.767950687732 2746.82631391692 134 92 78
20.5211994998353 950.754882867693 2753.87393081125 107 67 55
12.6503760208041 952.071753361727 2757.24407619901 56 29 18
5.61480868923292 953.168189468365 2761.23462715089 35 18 8
6.20921547730546 952.264009033911 2770.69705080475 16 18 5
33.1976271055185 944.455462551111 2798.89752919115 12 15 4
50.9561587172631 939.080535688882 2820.3170487806 17 17 9
6.44689322969816 949.979386518952 2797.72200358169 17 17 9
33.6929873283633 942.139888255834 2825.6711741253 16 16 8
29.3300231150804 942.554840677881 2831.3595794585 16 16 8
17.2288001078149 944.983909814133 2831.68096936842 16 16 8
19.7534384735212 943.608372715847 2842.13046731811 14 14 6
16.2642935219002 943.798586052468 2848.40094502146 15 15 7
-17.5277064225257 951.84662421434 2834.00601807359 15 15 7
-60.9945969843579 962.382862502382 2813.26362961707 15 15 7
-62.8772181997279 962.140581720809 2820.83688442076 15 15 7
-42.9489297603611 956.266179177924 2843.00944432839 15 15 7
-29.0246938920067 951.956641129808 2860.99378999831 8 10 0
-0.941144754874834 954.246310842513 2674.06266815813 117 109 90
-4.75455539918368 954.47834652329 2680.64896516365 104 85 68
-6.06036614220029 954.05576054799 2689.09333483007 79 56 40
1.83889741294152 951.232330388868 2704.33878938518 114 86 65
6.45236023254858 949.274450722275 2717.05085170408 130 99 79
11.9514367174891 947.092559837853 2730.33384248141 137 100 82
16.6603007336161 945.123171016104 2742.95320889197 129 86 70
15.516089374541 944.68140528519 2751.23960489878 110 68 54
12.7021245368488 944.675904961583 2758.28579232122 58 30 19
7.36000245688251 945.327368960312 2763.4943124232 33 15 3
21.5357479440859 940.925605221312 2782.65944555816 21 19 7
13.6868924209979 942.231863451521 2786.00934492888 16 18 7
10.0890017297295 942.438721319937 2792.38568654673 16 16 8
62.0345016589003 928.317529702447 2837.82982430255 16 16 8
-3.07758502801025 944.394901884756 2800.92011340675 16 16 8
-8.38192174356323 945.042958720925 2806.09161566043 17 17 9
36.2052365958339 932.86590880049 2845.80249255395 18 18 10
31.0132205085587 933.500867275639 2850.86439469539 14 14 6
22.3651657803954 935.022470585388 2853.55917346466 14 14 6
2.4434885795559 939.430245624735 2848.60074074256 14 14 6
-104.576095445363 965.389136246068 2793.74797396982 15 15 7
-65.5614229577366 954.70693127702 2828.85209550963 15 15 7
2.42799647609626 945.813411880741 2677.63141500732 112 101 83
-0.546379967523158 945.834502622157 2684.83296337798 113 90 74
-1.84278342724964 945.423775857885 2693.26590084482 92 66 49
6.90087266430739 942.426124529941 2709.11552025924 123 92 72
7.34117150406099 941.57650423372 2718.7232492613 134 102 79
9.48624853632651 940.292171997868 2729.53583934522 132 96 74
8.3033144481357 939.867835204368 2737.85844944711 143 102 84
9.66806507017992 938.792341014534 2747.99813970201 114 72 56
6.84064001544815 938.79590866847 2755.05635307583 74 42 31
6.56493581114104 938.147856037386 2763.92804491252 51 29 18
3.76697245173618 938.148004420631 2770.95750775408 22 14 3
36.7021838359314 929.021683218321 2803.366871351 18 16 4
62.139618249542 921.831797169703 2830.18223666173 16 16 8
14.2398960901033 933.350990638354 2805.19396573221 16 16 8
-7.30713431709829 938.136584618764 2798.96021050324 17 17 9
-26.3528651522891 942.276750848891 2794.58874971603 17 17 9
1.84937101041971 934.410033409402 2823.00972719776 18 18 10
-42.2148080431346 944.894698416807 2801.45083039172 15 15 7
28.4651867160712 926.28409759028 2858.71233112113 14 14 6
-7.02996399521982 934.588995530556 2843.13653782144 14 14 6
-64.3579821723179 948.395559746194 2813.00286295465 14 14 6
-89.7337874558519 954.104481379491 2804.76635739884 15 15 7
-57.6611017946127 945.313264425741 2835.1485370501 17 17 9
-1.66628350566222 939.310081323955 2675.57306269737 127 114 97
-1.32563797459184 938.490891465143 2685.27525130273 121 93 79
0.708217827044777 937.243460337319 2696.19283174517 104 77 60
8.62243781664329 934.503000823291 2711.41117131465 125 94 73
8.22942386244296 933.884243281471 2720.39502366574 134 99 77
7.85983524468747 933.262709510258 2729.35602463695 134 98 76
3.30958970117878 933.705471544348 2735.22595500908 142 101 81
2.13461432357454 933.293222508398 2743.53887542843 104 66 47
0.134443797243922 933.092532532476 2751.22271133269 90 58 45
1.53641511370672 932.033633829058 2761.32298808216 77 53 41
3.81821235249857 930.756701770338 2771.99905707894 27 17 7
21.4438350276809 925.613012851219 2793.51604249816 21 17 6
31.5023851378831 922.390127733281 2809.51048932986 18 18 10
14.2909875518717 926.041142650524 2806.22362349565 18 18 10
8.15763800142344 926.899988443456 2810.77028391598 18 18 10
18.3269786608595 923.664138886448 2826.65663023294 17 17 9
-18.7429521058129 932.287611256998 2809.76337516868 16 16 8
-40.4378994179959 937.040608603372 2803.68132138124 16 16 8
-59.6142755503313 941.154256474568 2799.44351270726 16 16 8
-22.565046437065 931.204466470755 2833.55727932495 14 14 6
14.6735888175025 921.231932258904 2867.48598658642 14 14 6
-7.91607726815169 926.206137755287 2860.84246013973 16 16 8
-25.3524070520745 929.887029101681 2857.77487742197 17 17 9
-55.0745042194896 936.61902024639 2846.61821029928 15 17 6
-0.785288992790623 931.523959396391 2677.26625470284 116 104 92
-0.443065821851718 930.722981962778 2686.96384705802 123 96 85
0.75957582123376 929.708848551125 2697.25544482921 116 88 76
8.67353832927931 927.010584207672 2712.4678036539 125 92 77
9.11733067355858 926.197274116503 2722.06635907988 136 100 84
9.58846100948563 925.38057660593 2731.63826813513 125 86 71
2.51986389745573 926.457235297665 2735.66454124057 105 66 49
1.34273059868972 926.058362419354 2743.97728967527 89 52 34
-1.50396395639518 926.079337381915 2751.05206515519 120 89 71
-0.105714107907051 925.041710786505 2761.15323121109 113 86 69
-0.37366606671263 924.424006346468 2770.01240166203 45 26 9
3.63453044127571 922.743871480223 2781.86788033992 42 29 13
7.68524278486993 921.058802637046 2793.68153156221 24 20 11
4.08981155158772 921.280033689497 2800.05330655159 27 23 14
3.07091256107439 920.862805020707 2808.21163895689 20 17 10
3.78806705107682 920.017568947062 2817.5434603774 22 19 12
24.315818958347 914.268235496434 2840.51950620219 14 14 6
-35.2134248405007 928.34441513538 2808.28042823894 17 18 12
-19.8172732011574 923.870618611557 2827.66157359775 18 21 14
-23.3790859927252 924.089275690306 2834.00000756773 14 17 10
18.1965363850227 913.17737526123 2870.84642053467 10 15 8
7.79253193838381 915.096707545241 2872.39194268597 13 20 13
-25.2999201631461 922.596464910823 2858.80029936884 14 19 12
-34.9267184289297 924.313531192177 2861.0211862799 12 13 5
-9.0256494515657 926.0163356442 2672.09297213544 112 99 90
-6.20955294862924 924.61530177136 2683.67372557618 122 98 86
-2.52145610031018 923.002423376175 2695.83678962903 117 90 79
5.38455116724057 920.347560503429 2711.05063340672 126 92 80
8.33121192716391 918.930715588506 2722.50407147529 136 100 86
7.96150689192165 918.340567909255 2731.4605492001 125 86 71
3.41134851179703 918.787741617001 2737.32974097426 106 67 52
1.39347459426409 918.609686648797 2745.02781116344 104 65 48
1.08073877610604 918.012769876314 2753.92871808254 129 96 77
0.791513867209215 917.413007117799 2762.80669895669 123 94 76
-2.01992216977809 917.43755694432 2769.84593384359 60 38 17
-5.66998282768161 917.67005163484 2776.26995405641 43 24 7
-4.19761224149262 916.644899408511 2786.29567341776 32 24 13
-6.9657722775891 916.66470123341 2793.29263634861 34 25 16
-8.00974461678106 916.263311756312 2801.47352593418 26 19 9
-15.0412705149403 917.331051276995 2805.46430502582 23 19 10
-15.1994311926464 916.716534854408 2814.21431776601 23 19 10
-16.1964732097166 916.310172565738 2822.34933982733 15 15 7
-32.7256583082431 919.697539724618 2819.84124109136 15 16 8
-6.87489305492495 912.746498945954 2846.21086154151 14 17 8
-31.2204922795858 918.037467127737 2838.43002879533 16 19 12
-14.7707929342733 913.394217643013 2858.20694009915 13 18 11
-3.45475612077806 910.010489670116 2874.39336586686 9 14 7
-11.4618942996754 919.027254859697 2671.29411657646 115 103 91
-6.98966785272948 917.24486292404 2684.12049169128 121 100 83
-2.47055066669155 915.456900440706 2696.90146477551 120 94 79
3.76513877412332 913.25389595959 2710.8730178966 127 95 80
6.70781785003616 911.863853095813 2722.32644850481 135 99 83
6.33418716054068 911.289709109021 2731.28445912356 132 94 75
1.78013817907496 911.739732041945 2737.15709320813 128 87 69
0.601237560949208 911.36672036393 2745.46811218498 138 97 77
2.82044432784989 910.168087607532 2756.19476184292 139 103 81
0.841801308062884 909.995760318906 2763.85302862215 140 105 83
-1.12111144168248 909.821567917452 2771.49595067356 118 88 64
-5.61955390903002 910.265229422811 2777.31430688382 93 67 44
-10.11374926594 910.708578349811 2783.12882969157 54 33 14
-16.3127363395295 911.565687132881 2787.74058802997 44 23 6
-19.9464379080783 911.801590563206 2794.14819745698 41 22 5
-21.8559588052782 911.621728709253 2801.73893855213 41 24 8
-24.6098659514864 911.64798936662 2808.72079354001 45 29 13
-27.3520830343186 911.673012181057 2815.69122307478 38 26 10
-13.6669886437435 907.74088913516 2833.85725799478 31 22 7
-5.95821828169907 905.257871352953 2847.82431514629 26 18 5
-53.7327077423186 916.123263587314 2824.22556499218 25 19 5
-1.67284596416906 902.987121334869 2867.99397839971 26 20 8
-15.5565625921241 912.424492845371 2669.25084579076 117 105 93
-7.76982123788894 909.86904972675 2684.5684281872 120 99 82
0.912086362232944 907.104148850318 2700.44496435134 120 94 79
5.48546064743061 905.341366470304 2713.16833772577 126 95 77
5.08435033875854 904.78613655868 2722.15084052054 134 99 80
2.1903405283572 904.835661421524 2729.26838108564 136 98 77
0.148939446511065 904.680857702523 2736.9863775723 138 97 75
1.49394055818863 903.712640856933 2747.12982383831 142 101 79
4.55958717195415 902.334162672491 2758.45943660907 142 104 81
2.5850146819848 902.171569766802 2766.11256039647 144 108 84
-1.07100219697154 902.414545189996 2772.54094617714 136 102 77
-6.41977685282447 903.064371160908 2777.75631448511 122 92 66
-8.35893548746336 902.897916502226 2785.37450471407 73 45 23
-14.5537303284922 903.751417370882 2789.98297119374 60 33 12
-13.9024626487574 902.968738696933 2799.37097323447 65 38 17
-20.0890118544081 903.821494916365 2803.97136173515 64 39 19
-22.8389482614464 903.85474403993 2810.94824082807 63 41 20
-26.4392811310841 904.092173829629 2817.32215120653 53 34 17
-20.5281300490539 902.068027541613 2830.17263123491 39 22 4
-23.2253543395058 902.095633935372 2837.09800040984 33 20 3
-19.8361861082059 900.68008574656 2848.11183036232 37 24 8
-85.9881292347575 915.758764609185 2812.38231871948 25 13 0
-13.0182931286194 904.20597841146 2672.19606533028 123 113 101
-14.3676203963392 903.879690378328 2680.66941475523 114 96 76
-4.86857547099362 900.96281534116 2697.17389250821 113 92 73
0.525972112897399 899.033928202908 2710.52328818631 115 87 66
-0.723613680605695 898.69547895391 2718.89939027531 120 89 68
-1.95376722219098 898.354651967528 2727.25620943744 135 99 75
-3.1640687807295 898.011427222991 2735.59400751654 140 100 75
0.701157827424304 896.464318233865 2747.57145840992 143 103 78
1.23096897598307 895.713934107561 2757.07529546154 149 109 84
0.0951090308771718 895.361973471913 2765.34046307894 149 112 86
-3.56673433868426 895.610518860598 2771.77381141244 140 104 78
-8.92115946798455 896.260585412859 2776.99475516626 136 102 75
-11.7183513060728 896.306514280585 2784.01668554013 104 72 49
-12.7951183304149 895.947752700419 2792.22417819029 97 65 42
-12.9963009357321 895.384904473267 2801.00893796187 100 69 48
-18.3226712053481 896.032141890609 2806.2024409702 95 67 45
-22.788727231728 896.477368539917 2811.98874348022 89 62 41
-28.1127633659244 897.124783453013 2817.17990242377 70 48 27
-28.2529890547067 896.555358007761 2825.90544102808 61 40 21
-32.6993205941668 896.998759767084 2831.67208870695 44 27 9
-43.216147447946 898.865149614829 2833.33747004532 34 17 1
-49.4072739665428 899.716890718973 2837.94255391901 39 23 7
-21.7964935935493 898.043367546821 2676.15580423919 112 95 75
-14.8141477193291 895.765736948822 2690.81385550951 109 91 71
-5.26843404484501 892.890907192308 2707.26611407258 109 84 62
-5.69487344344877 892.37024183062 2716.2686604027 113 85 63
-5.25906136057142 891.649634303379 2725.86143894776 131 97 72
-4.7958262517378 890.925628636809 2735.42748826616 137 101 77
0.750695212404562 889.012905103248 2748.62358266087 144 107 81
-0.408833102846007 888.676678546162 2756.90958998778 153 116 90
-3.24163336426953 888.734113711795 2763.96517942661 153 116 90
-5.21397139265645 888.591937174814 2771.61306683024 152 115 89
-8.02105254533902 888.646542819915 2778.64353501579 151 115 89
-6.55480296610467 887.706087921762 2788.66247655743 141 109 84
-8.47429510593622 887.557852047017 2796.25844493801 140 108 85
-11.234187602525 887.607098500486 2803.24284617666 127 96 75
-19.1309822014016 888.851998844252 2806.64941842714 126 98 76
-21.8787605400874 888.90007192859 2813.62196355136 121 96 76
-26.3387557027719 889.346906300695 2819.40167207141 120 94 77
-29.9306786003237 889.593228573548 2825.76625476013 107 84 66
-38.7098417567149 891.041314785866 2828.60209193167 102 83 66
-48.3721739990277 892.692170104533 2830.86771271608 102 83 68
-51.0958580354628 892.738620971066 2837.81657160507 124 106 92
-37.2465644206499 888.962940358683 2855.79643214475 145 131 118
-35.8733859623297 893.706688727274 2666.68617808053 108 93 72
-28.9241826911866 891.472863332402 2681.37066605575 109 92 72
-18.5768800956438 888.455921361299 2698.46484841152 107 85 62
-14.013431115742 886.789565909664 2711.18382590293 108 84 60
-6.88706532510874 884.534113990132 2725.69558526824 125 95 71
-4.74631289996319 883.439603834815 2736.48475197235 136 104 81
3.32794490751098 880.976584678195 2751.50316605923 146 110 86
0.485125087491767 881.043007884663 2758.56737663935 149 113 89
-2.34574687368694 881.107865904853 2765.61995415287 158 122 98
-5.16471564721055 881.171400245584 2772.66090726433 157 122 100
-5.42085479834231 880.6460849852 2781.49469234221 156 124 101
-1.39175962159577 879.137745298421 2793.30402708059 153 125 104
-2.44541922071928 878.802029981705 2801.48482964626 153 124 106
-6.90394488918988 879.2504351276 2807.26318461914 144 117 100
-13.0747613239364 880.092021882255 2811.84926324576 146 120 103
-16.6689360400936 880.343109663436 2818.2153776836 136 115 98
-21.1172169315095 880.790708080922 2823.98334083354 130 108 94
-29.8808004502877 882.225508217684 2826.80567087078 128 109 94
-36.9281368980827 883.266948910567 2830.8156991852 132 116 101
-43.9828334185384 884.309540294951 2834.83320393086 139 123 110
-46.6966379083846 884.362352666272 2841.77131205641 153 139 128
-46.7839293763568 883.818804813614 2850.44046150005 157 145 133
-27.5128553282702 884.126495195721 2673.97010269283 109 96 79
-26.3751613091019 883.267499779627 2684.30326508668 104 91 74
-21.8664643668594 881.639536045654 2697.07093788176 87 70 52
-21.4950573561246 880.963372598223 2706.72110279995 105 86 69
-15.2250941636405 878.941740200709 2720.63181486423 117 94 76
-7.21912074594355 876.529433118522 2735.71054113713 134 111 93
4.21950522684256 873.340693684808 2753.16332415425 135 109 92
5.60144707582744 872.452073287448 2763.25866124373 145 119 104
6.16799705422055 871.752488344779 2772.71850799706 151 125 110
9.30724944258188 870.470874870566 2783.96071258369 152 126 111
11.6351886176962 869.377828602396 2794.56378371607 166 144 130
16.5549233944775 867.700300871572 2806.93027756029 227 210 200
9.56257697183061 868.728191651554 2810.88804048004 238 221 211
3.41865884243653 869.563380037272 2815.44835436795 241 227 218
-5.30285469762681 870.981318694763 2818.23140041368 245 231 222
-8.87955865791357 871.235275328645 2824.5797421175 248 235 227
-14.1722063621503 871.877553854873 2829.74049104184 251 238 230
-22.9202955192105 873.299386548503 2832.54901368928 251 240 234
-30.8174972024231 874.528108746526 2835.95871914538 254 245 240
-38.7263057718123 875.758543090192 2839.37935951467 251 242 237
-44.9072671126753 876.599580737838 2843.97559334081 234 227 221
-51.9633618276956 877.637159130133 2847.99522743239 229 222 216
-38.2655768551317 878.926871832106 2666.99504368748 98 86 72
-19.6617344325025 874.135989224199 2690.32265429544 100 88 74
-20.9819869449301 873.858295274355 2698.7596120323 105 89 74
-27.3029919861041 874.711195672723 2703.49349585569 97 81 66
-12.6595831368297 870.837493312547 2723.53309443532 113 96 80
3.7585179069084 866.573841829358 2744.70218821859 115 98 82
23.6478630306447 861.539743183807 2768.206132183 143 124 110
25.9186175855897 860.477080694442 2778.86149777931 131 111 100
25.6851492991816 859.980206820286 2787.66890457091 182 164 154
27.1719117221574 859.100203627751 2797.65854181979 226 208 198
24.4383420658161 859.168893635976 2804.61393034005 253 236 228
25.12572031157 858.473300207756 2813.95320289363 252 243 236
22.4236956911126 858.53830830711 2820.87781091146 255 249 244
20.5896294940291 858.410910425913 2828.38587022172 255 250 245
16.1973853514743 858.85591311372 2834.09890954137 255 251 246
6.64904020866564 860.450648618166 2836.25963393497 255 250 245
-2.05638995002744 861.855945321114 2839.02857742061 255 251 248
-14.2325520704238 864.031696632512 2839.46182324156 255 254 251
-20.3787486523122 864.864977368881 2844.02501945821 255 254 251
-31.7349572058956 866.85442040558 2845.08882270751 255 254 251
-39.6394392072925 868.076112649723 2848.50645880932 255 251 248
-49.298466492564 869.685613922555 2850.77524767444 254 251 246
-51.1150764485309 869.558020344896 2858.26600160307 254 251 246
-37.1032519660335 870.432436092117 2678.43226200871 91 81 72
-11.7491444125903 864.222708171834 2706.60275233978 94 84 75
-5.49741770899015 862.277498588395 2720.52027824856 83 73 64
15.9054796343026 856.970415278656 2745.39540813412 86 76 67
40.7952939239413 850.901687250056 2772.58886165754 103 92 86
47.2881641665928 848.927302999354 2786.27157831236 255 250 245
43.7012181272149 849.191645047233 2792.62821775047 255 253 250
40.1226024606012 849.454982850178 2798.97707127424 254 249 246
42.490583390796 848.404476525512 2809.53409296682 255 249 249
38.9414313319549 848.664466823408 2815.85384561031 255 255 255
37.1048926279243 848.5474053415 2823.36283244122 254 255 255
35.2842927132304 848.428616328161 2830.85658498907 251 252 254
35.1915717241527 847.930923073993 2839.52434873781 254 255 255
29.9741002721401 848.563075782036 2844.61194312388 255 255 255
17.0169769512545 850.896206410508 2844.38052504959 253 253 253
8.33503192831841 852.287515268378 2847.12821484564 255 255 255
-2.08992675319442 854.059767316211 2848.7162832566 255 254 255
-10.8062713849311 855.455766604317 2851.49743912918 254 252 253
-23.876406917223 857.803321124206 2851.37611200658 253 252 250
-36.1115585149925 859.965221250172 2851.86998244974 250 249 247
-44.8910012961115 861.369469906728 2854.71257646436 250 249 247
-51.0652381979759 862.203985786739 2859.30343457957 255 255 253
-58.1187648431722 863.230344238039 2863.32183900023 247 246 244
-66.0571496603013 864.448821429836 2866.77361628257 255 255 253
24.5801993629242 849.228507806905 2725.1726742075 133 124 117
40.0586786363166 845.299343318287 2745.80814210745 70 61 54
45.5933810237705 843.560298740463 2758.99030334622 68 59 52
58.7270001438478 840.161664641742 2777.62511192872 234 227 221
62.6991742172915 838.776151671111 2789.47247858714 251 243 240
65.8717149591288 837.569772680282 2800.67050772289 255 254 251
63.171976496994 837.649529623806 2807.59066567898 243 239 238
59.6377417138179 837.912697643247 2813.89547342335 255 254 255
58.6565213778183 837.62015555549 2821.9979617455 255 254 255
55.1443949763226 837.880595430958 2828.28121875853 252 255 255
53.3445361407852 837.7695832264 2835.75288785724 252 255 255
53.2688902790945 837.28554102661 2844.40167813219 250 254 255
49.792430923409 837.542015223666 2850.65010336701 250 254 255
45.4658760560713 837.98364418508 2856.2980730586 251 252 254
28.2441632653851 841.219508607258 2853.08314727898 251 252 254
19.5875300003139 842.59677625179 2855.8077774105 250 251 253
9.1879756750366 844.349491311926 2857.37350647842 254 254 254
-0.368881903513696 845.918351190452 2859.54650825276 255 255 255
-13.4155386872767 848.238650684517 2859.40589466671 255 254 255
-27.366288603965 850.750722256699 2858.7178057795 255 254 255
-40.4838680674215 853.080126550025 2858.64661161945 255 254 255
-50.1422603797739 854.662199276853 2860.91848603221 251 251 251
-61.5705751347133 856.623169303485 2862.05810010384 251 251 251
-72.1484555593683 858.399367671982 2863.79743880186 255 255 253
-84.5079522595413 860.556114440211 2864.41588527588 254 255 250
-74.8678631253199 857.994689133344 2879.31085941181 234 235 230
81.2634509670929 829.502515612799 2768.15745090844 191 190 188
81.0118843814176 829.055275284499 2776.97549376235 252 251 249
77.4370871311567 829.328333322371 2783.31911889576 246 245 243
76.3862349303617 829.057306704097 2791.48757271201 247 246 244
77.0365871390171 828.421267935717 2800.85514835704 253 252 250
78.5567429494276 827.600328526911 2810.80289587711 253 253 253
76.7303894148164 827.502681100656 2818.29889929527 253 253 253
73.2271033253937 827.767018864572 2824.57280164152 254 254 255
70.5802233291677 827.848367794289 2831.44023506471 254 254 255
68.7955764302957 827.74575742804 2838.89555669741 253 254 255
65.3221785816798 828.006753123993 2845.1399356929 250 254 255
62.7111383924204 828.083819751877 2851.9724125803 252 255 255
54.9754706198047 829.258637809443 2855.2293416417 252 255 255
47.2288740261129 830.43476161182 2858.49726803746 251 255 255
34.3109281015748 832.714304025133 2858.23486654425 254 255 255
25.668001026792 834.078816616045 2860.94777141755 253 254 255
17.0096841161231 835.445400315867 2863.6753146744 254 254 254
7.47072226788381 836.99819240993 2865.83325837752 254 254 254
-5.55823702330605 839.291847759692 2865.67900891262 254 252 253
-22.9696143312097 842.513882358963 2862.65446684414 254 252 253
-34.3341462544164 844.447410802276 2863.734799475 253 253 253
-50.9664131169654 847.496141943109 2861.37911271011 255 255 255
-62.3963391158826 849.438209192867 2862.52312059299 248 248 248
-75.6078713753014 851.755352516851 2862.54669727214 250 250 250
-85.3370191579903 853.333136077841 2864.88946684973 255 255 253
-94.2040676152942 854.727376950824 2867.82053374189 255 255 253
-120.748986189945 859.852546302516 2859.4143439814 130 129 125
112.329806571375 816.085222101545 2783.21873793884 182 182 182
104.630333589355 817.247103657285 2786.44163704745 252 252 252
99.4240772546453 817.876545207408 2791.5184953642 255 255 255
95.0548601676591 818.32779817499 2797.20740684666 248 248 248
92.3673504158393 818.421758171944 2804.11332230754 255 255 255
91.3731344622155 818.156905571675 2812.22496081794 252 252 252
91.2408736441099 817.7109132897 2820.9240089783 253 253 253
86.910280402261 818.157343038812 2826.57561712314 254 254 254
83.4299931341858 818.424042699328 2832.82599437053 254 254 254
79.1097713854248 818.869459801072 2838.46745313826 254 254 254
76.4942404831403 818.954640564477 2845.3031901044 254 254 254
71.3340057368144 819.57863417509 2850.33515350665 254 254 254
67.0281566986204 820.022311375031 2855.96225927505 254 254 254
61.0145555788479 820.826610830637 2860.39806965834 254 254 254
54.1392582513716 821.812161339455 2864.24552112787 254 254 254
42.9570459088122 823.703422696429 2865.15105477687 254 254 254
33.4716140680151 825.235680815011 2867.25853946189 254 254 254
24.8311239836259 826.589094889315 2869.97066472362 254 254 254
17.0410649735193 827.762750066206 2873.28177696115 254 254 254
4.03388183224562 830.029293023016 2873.1102484993 253 253 253
-13.3560173541269 833.210892952757 2870.07001672314 253 253 253
-28.1850640138894 835.852220887615 2868.81807613374 253 253 253
-44.8034044364944 838.864050958829 2866.45401417008 252 253 255
-57.9702811735423 841.150915775202 2866.43772240558 253 253 255
-70.2942569775851 843.259193825516 2867.02805975999 254 254 254
-80.8906741682804 845.005060318039 2868.79028877874 254 254 254
-88.8665875065984 846.203442700288 2872.28230244146 254 254 252
-99.5033147290365 847.954803694598 2874.08374783266 255 255 253
-112.818330924483 850.261405282418 2874.21164365406 242 243 238
123.606345074241 807.455151068671 2774.71339855509 195 197 194
124.209123915664 806.862273077733 2784.121498271 235 235 235
122.346799948533 806.790212167097 2791.64943918456 247 247 249
118.002045520063 807.241080755986 2797.31445353848 252 252 254
111.991771010111 808.041789560847 2801.74715340366 250 250 252
109.325043223889 808.141090452399 2808.6316426836 254 254 255
102.47726337785 809.11726202489 2812.45349293197 251 251 253
102.346640432186 808.68697180831 2821.14893174437 253 253 255
98.8694106047037 808.958357348935 2827.39558033701 254 254 255
93.7116031057217 809.581632184668 2832.42523968138 255 255 255
88.5542213167891 810.204794384058 2837.45449293698 254 254 255
84.2456282664807 810.651045287823 2843.08428099967 254 254 255
79.0908809255857 811.274052279658 2848.11094114903 254 254 255
73.9365162390788 811.897011031828 2853.13722844673 254 254 255
66.2201335835402 813.052709716064 2856.37783293681 254 254 255
61.0606657615129 813.676429737205 2861.4090752083 254 254 255
54.1855476822399 814.656296641597 2865.25718871597 254 254 255
46.4431003956483 815.815458093207 2868.52316397449 254 254 255
39.5511444462935 816.797565616318 2872.38766657358 254 254 255
32.6519984928941 817.780802391081 2876.25947989208 254 254 255
24.8795314028936 818.944043160038 2879.55466233783 253 253 255
11.0222518476384 821.363249171567 2878.78748148928 253 253 255
-7.22127989917176 824.684500013129 2875.15736980314 253 253 255
-23.7794777352094 827.653602735098 2872.73990044551 253 253 255
-37.7674560995138 830.08940334588 2872.1000527719 251 252 254
-51.7938274540683 832.530044003122 2871.49761454841 251 252 254
-64.9811906309896 834.795183266338 2871.50521499081 253 253 253
-78.2033314661157 837.064837781527 2871.54634496766 253 253 253
-89.6977100401242 838.97740819119 2872.75871483048 253 253 253
-101.219131678239 840.893623684085 2873.99740011401 248 248 246
-112.767550873847 842.813432592465 2875.26202542401 255 255 253
-122.56873794117 844.373748840115 2877.67925057946 247 246 242
123.353112374184 801.226980316136 2757.46421078865 194 196 195
123.077574736884 800.830703575706 2766.29852485516 240 242 241
124.479610824664 800.088282398555 2776.35196204558 254 255 255
125.084365778509 799.513599492026 2785.75574806911 246 246 248
124.885445965535 799.107735864169 2794.51505859923 243 243 245
124.710376363627 798.698793531507 2803.2514783904 254 254 255
123.724315219488 798.459448859844 2811.35124899372 255 255 255
121.92124880675 798.390473012853 2818.81989030871 252 252 254
115.941014266578 799.184610229453 2823.2240691597 255 255 255
110.797834284167 799.805864127821 2828.23950185754 254 254 255
103.127572020699 800.94761090576 2831.43637020217 255 255 255
97.1349052793968 801.743151530282 2835.85234914759 255 255 255
94.5243337310728 801.843333827336 2842.68094418181 254 254 255
91.0774952693569 802.116182209881 2848.89753533357 254 254 255
84.2377606419711 803.085927460601 2852.71200852644 254 254 255
76.538545273503 804.231206299817 2855.93710569523 254 254 255
68.8283165881587 805.377742567058 2859.17329124516 254 254 255
64.530669566218 805.825457091603 2864.79165557536 253 253 255
56.8055187336833 806.974005508162 2868.04202380126 253 253 255
49.9287920281057 807.948650073424 2871.89250655807 253 253 255
42.1829762431036 809.099980542075 2875.16298420116 253 253 255
35.2897493537254 810.076810117425 2879.02986678286 253 253 255
27.5232675392396 811.231040711594 2882.32043746145 254 254 255
14.5397035053336 813.445910891865 2882.13275424865 254 254 255
-1.95652458352091 816.372173859613 2879.66007971295 254 254 255
-21.1172019550916 819.835598343071 2875.5027846702 254 254 255
-32.478748223411 821.711845479591 2876.58861865375 252 253 255
-46.4931371298558 824.123849898675 2875.97851410565 252 253 255
-59.6687533033484 826.36316717803 2875.97792823594 252 253 255
-73.7581021066922 828.784857358488 2875.44082842227 252 253 255
-84.3611967668645 830.498942853186 2877.21472332651 253 253 253
-95.8707487216133 832.394510153195 2878.4443357909 254 254 252
-106.521890458579 834.114947589492 2880.26500333847 255 255 253
-118.970178899406 836.196452705762 2880.98240416485 249 250 245
-130.560395885747 838.103001640379 2882.29083295925 255 255 251
131.911111423498 792.691596750529 2755.89549229851 183 185 182
128.338563431304 792.985776917696 2762.23376204392 234 236 235
128.899379257406 792.43528042346 2771.67726768767 245 247 246
129.487809975167 791.881302633349 2781.09386586979 239 241 240
129.274902980463 791.493110857236 2789.86479182815 255 255 255
130.747512019185 790.763067546711 2799.84665743374 253 253 255
130.585649319061 790.368453864116 2808.56750696599 248 248 250
130.447592697324 789.97094394682 2817.2654826147 245 245 247
126.986633130379 790.250820744611 2823.49505743601 250 250 252
121.856592025633 790.870300341028 2828.49770527515 253 253 255
115.045776627171 791.830915762572 2832.28481063096 254 254 255
107.38528420445 792.963116292314 2835.47338831062 254 254 255
101.402461246173 793.754690347646 2839.88051633316 254 254 255
97.9552357970523 794.032717804007 2846.0967263043 254 254 255
93.6677304501812 794.481335655844 2851.70488628985 253 253 255
88.5343304902531 795.101238689327 2856.71080693803 253 253 255
79.9927828449603 796.409039016571 2859.33142258699 253 253 255
71.4359745307669 797.718717262694 2861.96657690818 252 252 254
64.5763055481838 798.685360479205 2865.80164153174 252 252 254
56.8512720853755 799.825697432565 2869.05310685844 251 251 253
50.8347744639504 800.621634651909 2873.49302944555 251 251 253
43.9527417551755 801.591346084667 2877.3495102568 251 251 253
36.1996873337134 802.735451400406 2880.62824384736 251 251 253
27.5697018536381 804.054636597249 2883.33499689485 252 252 254
16.3217243891052 805.897342744086 2884.31301272102 253 253 255
0.699175252985018 808.613967296247 2882.42065585389 254 254 255
-16.7122679813985 811.684932073155 2879.41850730515 254 254 255
-29.8107035480588 813.889929510027 2879.34635240965 253 254 255
-42.0681816350408 815.924545975585 2879.88154369805 253 254 255
-56.1109815439038 818.313242268081 2879.30309662627 252 253 255
-71.9506657865621 821.057240150556 2877.62231236352 252 253 255
-86.0742499039424 823.456297482623 2877.12255384789 253 253 253
-96.7041488222935 825.157440752942 2878.92464078986 253 253 253
-105.586911169811 826.509848773394 2881.87749468463 254 254 252
-118.032917022228 828.569247667328 2882.59589615698 255 255 253
-132.28737594086 830.985570442353 2882.22354642875 244 243 241
-142.126241134696 832.523569925176 2884.6814849289 248 247 243
142.632931903194 783.319142183857 2765.05498325467 220 222 221
138.262317583648 783.781290583314 2770.74400971164 245 247 246
136.371003743262 783.744727473132 2778.29549143848 246 248 247
133.668727183284 783.872274289535 2785.21110644091 247 248 250
134.294168445454 783.332323850222 2794.588879369 250 250 252
136.608987776526 782.455460137594 2805.17302701316 231 231 233
133.962324731268 782.575878049151 2812.03447062238 247 247 249
132.997026106773 782.360582879464 2820.10973138888 255 255 255
128.705032764371 782.812361142814 2825.7218809129 245 245 247
126.93327578768 782.76059501472 2833.15722574812 242 242 244
120.974545299498 783.546373334448 2837.54094835691 254 254 255
114.170198160095 784.500617221562 2841.32291018785 254 254 255
105.669482946397 785.792491714667 2843.90499461796 253 253 255
100.53914691411 786.411713647254 2848.90797340711 253 253 255
95.4092780320117 787.030935656965 2853.91048829783 252 252 254
91.1301224192282 787.481082482603 2859.51046873433 249 249 251
84.2985678290993 788.438651401447 2863.31861868582 249 249 251
75.7517201291495 789.736210651895 2865.94601099408 248 248 250
67.1898218951172 791.035608292482 2868.58807699191 247 247 249
59.4706892120236 792.166886754266 2871.83502159822 246 246 248
53.4600417505868 792.959314933143 2876.26965352464 246 246 248
45.7222424212729 794.093123528763 2879.53476043391 245 245 247
37.1093669547751 795.399137603886 2882.22613182904 246 246 248
25.8844796358435 797.219944908855 2883.18445543855 248 248 250
17.2357172402426 798.530470063702 2885.91113419116 251 251 253
6.83263343820917 800.185918724985 2887.49474401295 252 252 254
-7.9506000822831 802.702649000338 2886.21572577867 252 253 255
-27.142973261391 806.083856819648 2882.10205672841 252 253 255
-40.2698004691473 808.268079348668 2882.06116567453 251 252 254
-53.4309856039794 810.45679710889 2882.05406599892 251 252 254
-65.7478312177378 812.477387210754 2882.64994536747 250 251 253
-78.9764052065593 814.674790351176 2882.70814228267 250 251 253
-91.3564369934692 816.703686849202 2883.36587661548 249 249 249
-99.3424654702482 817.870321862548 2886.87262700749 255 255 255
-111.774286382029 819.906101015618 2887.58077145347 253 253 253
-125.125912015728 822.119783365831 2887.75875441098 252 252 252
-136.730620151412 823.990124246998 2889.08692466538 253 253 251
-137.650149622865 823.773776654445 2897.11689153396 251 252 247
147.60612092688 775.15584923986 2769.82519575926 234 235 237
144.893054652962 775.293011906854 2776.75010388862 245 246 248
143.842257967631 775.101750074291 2784.90705121869 246 247 249
141.157212113859 775.23520341562 2791.80468289334 243 244 248
141.799872723662 774.711716353101 2801.16292347478 249 249 251
141.639164274108 774.348859294007 2809.87793320406 238 238 240
138.171263590962 774.640107580898 2816.11271995524 224 224 226
134.711589977155 774.930318714977 2822.33949039568 243 243 245
129.586801356477 775.548959245839 2827.33704645402 251 251 253
127.816672382603 775.507556339972 2834.76890513667 246 246 248
122.700537079821 776.124988044965 2839.75804698635 251 251 253
119.269754949314 776.411439010854 2845.956683508 255 255 255
112.469542527392 777.359631619352 2849.7350960377 250 250 252
103.969519726828 778.640496551971 2852.31845794156 255 255 255
95.4542367958702 779.923180366755 2854.9163667085 249 249 251
89.4746553979142 780.708566826907 2859.32119033759 245 245 247
85.1956927430377 781.161120086932 2864.9202856521 248 248 250
80.0670148797651 781.780132980968 2869.92164875071 245 245 247
71.5148671251571 783.067451154622 2872.55581771828 243 243 245
61.2317899629957 784.691259800708 2874.02493555308 245 245 247
55.2251660394401 785.48023230738 2878.45608279374 243 243 245
48.3532241889093 786.437513481004 2882.30471826245 242 242 244
40.6101856063996 787.563726932031 2885.57615038665 245 245 247
28.5275127556224 789.532800463992 2885.94710686638 249 249 251
20.7521589818835 790.663323633646 2889.24999147864 250 250 252
11.2266550574285 792.13280628673 2891.40688436349 249 249 251
-0.932379679320583 794.111624385411 2891.85222908212 250 251 255
-23.6023333997801 798.124557935266 2885.43050501755 247 251 254
-37.5963383943665 800.452851533136 2884.81253136646 246 250 251
-49.8741695879397 802.446750712541 2885.3739515877 247 248 250
-61.3036062974355 804.274651600353 2886.53434733739 247 248 250
-76.2844418717856 806.786703441379 2885.45190449224 247 248 250
-90.4243689706594 809.13374665206 2884.97606246325 249 250 252
-101.063112359415 810.803513085015 2886.79156957794 249 250 252
-112.61156104563 812.647124949432 2888.06782390435 252 252 252
-124.187010817306 814.494435573833 2889.37034403267 253 253 253
-135.789333045964 816.345310804903 2890.69902206071 254 254 254
-142.955387295536 817.342277185955 2894.83351219113 253 253 251
145.462357144832 768.798317702782 2760.14042788476 224 226 225
149.294548123727 767.664780903983 2772.08989569923 239 240 242
149.054416438087 767.328080826327 2780.8802457276 246 247 251
149.662934596225 766.827650049162 2790.26898255935 246 247 251
147.818259538421 766.806436156908 2797.77188267794 248 249 253
146.818300949124 766.622046398424 2805.87699349558 247 246 251
143.34599325347 766.919216422477 2812.11528124516 239 238 243
139.881871187017 767.215236580251 2818.34561049367 245 244 249
137.260594295777 767.348375746874 2825.17996508073 227 226 231
132.978121001409 767.80402517598 2830.78208889972 247 246 251
129.538659961411 768.096818481869 2836.9884063117 255 254 255
125.266730921286 768.551138640186 2842.58025599599 244 243 248
121.841558634562 768.842084690769 2848.77231964628 247 246 251
116.735883628731 769.458079771472 2853.7512865989 252 251 255
107.39940835421 770.890051591946 2855.72601532469 247 246 251
96.3474428091446 772.651319310758 2856.52142498133 253 252 255
89.5195614379269 773.597280053788 2860.32764305545 246 245 250
86.0928555441918 773.888465370819 2866.52153207869 246 245 250
82.6740597535838 774.178725500402 2872.7073651529 240 239 244
73.2719396084889 775.618795993386 2874.74608322531 239 238 243
63.8506897334614 777.061232161872 2876.80310991454 240 239 244
56.1301761379607 778.176291375845 2880.05382298502 239 238 243
50.9837261042287 778.797544734355 2885.07250297196 240 240 242
41.5193608453741 780.245462212964 2887.17187158143 243 243 245
30.3045987323705 782.027076119416 2888.12593347897 248 248 250
23.4008210098464 782.98295861643 2892.00605132099 248 248 250
15.6201838502343 784.106069111595 2895.31527800358 248 248 250
3.47129330894802 786.061953776025 2895.75427677972 248 249 253
-18.3152325948752 789.853346553502 2889.90494878089 246 250 253
-35.7983456896358 792.820067339429 2886.98937667932 245 249 250
-48.0722342133397 794.79172302359 2887.54983150798 245 246 248
-60.3765685474249 796.767321785655 2888.14027453323 245 246 248
-73.5927918486809 798.914341737339 2888.19365364639 245 246 248
-86.8436257289855 801.065901808931 2888.28073054845 246 247 249
-98.3591181357921 802.886135173243 2889.52771413434 246 247 249
-110.788246241061 804.878114830149 2890.23965813005 249 249 251
-120.581917870994 806.369033867866 2892.6593393804 251 251 253
-133.066875307799 808.368523449716 2893.42561276402 253 253 255
-143.797314122114 810.034340746679 2895.33275847237 253 253 253
-150.077963797077 810.858153397538 2900.03086797693 255 255 255
150.423774177103 760.659211803546 2764.91875531619 230 232 231
151.80389395503 760.026215094682 2774.97812067965 237 238 240
151.569292373885 759.704798411461 2783.76072035349 248 249 253
154.658439009868 758.748346008263 2795.00462202863 248 249 253
152.825167910889 758.736308854565 2802.49484152958 247 248 252
149.350049508454 759.039271382813 2808.73472638095 251 250 255
144.221754299569 759.658236037184 2813.73571662791 228 227 232
143.257684663206 759.482517885152 2821.8042453671 236 235 240
141.478624551365 759.463469668668 2829.24166878844 225 224 229
138.042473362347 759.76121187846 2835.44396802364 225 224 229
132.937394673691 760.377013846254 2840.4223713665 255 254 255
127.832740618068 760.992821251134 2845.40035223888 245 244 249
124.413260219976 761.288297974272 2851.58609412819 242 241 246
118.469188748354 762.063664774291 2855.95713677689 253 252 255
110.829020238538 763.160634422008 2859.13073961957 245 244 249
100.63305713048 764.74126397813 2860.5197337615 253 252 255
92.1147391541974 766.002557873722 2863.12415563602 247 246 251
86.1375478964632 766.781982011379 2867.5274870492 245 244 249
81.0109576818081 767.400259973524 2872.52688570449 239 238 243
72.4609224469943 768.665493364694 2875.16222102987 238 237 242
62.1800977916758 770.25652622311 2876.63394633918 238 237 242
55.3156161762414 771.201675876442 2880.47662887556 237 236 241
49.3056000599359 771.985415015567 2884.91191810321 237 236 241
41.5647525444793 773.094899945189 2888.1836469336 239 238 243
32.0813383568042 774.531669051769 2890.30324129351 244 243 248
23.446607335285 775.807756599093 2893.02107654759 244 243 248
14.7967391298529 777.085870366622 2895.7536437746 244 243 248
3.51748074776825 778.856745028121 2896.77333867647 246 247 251
-14.775238279237 781.941539986938 2893.2270187629 242 246 249
-31.3750097685066 784.705482955592 2890.88115517944 240 244 247
-46.2703115712495 787.14712138415 2889.72452094827 237 241 244
-60.3287895043994 789.429527375303 2889.17735204649 236 240 243
-72.6634971170439 791.387431550077 2889.80057143862 238 239 243
-85.0290272155361 793.349234426852 2890.45348394638 238 239 243
-98.3102096030457 795.480384222312 2890.57371399463 238 239 243
-112.512740501221 797.781481098051 2890.16682931203 239 240 244
-123.198679910491 799.424823453568 2892.03310823989 241 240 245
-135.688964252473 801.403048173006 2892.80781425647 249 248 253
-143.746925167304 802.55475110075 2896.38820157854 252 252 254
-151.816410384955 803.708142725283 2899.97978311503 252 252 254
152.390581440818 753.469298970533 2758.36037749244 188 190 189
154.565811327222 752.706092943728 2769.06634096234 230 231 233
158.418471339058 751.628780655998 2780.98683492434 234 235 239
157.376151498049 751.47660795335 2789.12958726635 244 245 250
158.003610310237 751.01111667295 2798.49435170628 250 251 255
154.523979679424 751.319896264838 2804.73785750767 248 249 254
150.224063798307 751.783274640935 2810.35649758015 247 246 251
147.589970859523 751.934010025966 2817.20097797848 240 239 244
146.633265529018 751.770644510035 2825.26003029687 230 229 234
144.861825349277 751.761250068801 2832.68846018924 234 233 238
139.760040663055 752.376754712902 2837.66363648329 226 225 230
133.820351432587 753.148915464601 2842.03080135429 233 232 237
128.717569208765 753.764368957687 2847.00697577803 249 248 253
124.457626211618 754.222249403914 2852.58639693546 239 238 243
119.357778748451 754.837214986135 2857.55972921149 251 250 255
113.412203046156 755.609881945835 2861.93266461871 245 244 249
106.614862504263 756.541201236808 2865.71071919805 251 250 255
98.1101640684376 757.789927908847 2868.30347409772 247 246 251
92.1465185756038 758.564872852761 2872.69401638899 244 243 248
83.6175433832334 759.816601026878 2875.31043484608 238 237 242
74.2174160674543 761.229366638618 2877.35087181706 237 236 241
63.9406091012984 762.803617607369 2878.8210878576 236 235 240
55.3606133238791 764.061777736915 2881.48721986967 236 235 240
50.2124243948865 764.682778560191 2886.50766392989 235 234 239
42.4736069825884 765.783869864999 2889.77861741192 238 237 242
33.8579818299429 767.046521643419 2892.47946605654 242 241 246
24.3596824050982 768.471663409397 2894.61556019287 243 242 247
15.7119126683489 769.73854442988 2897.34770380457 242 241 246
4.4349104877961 771.490205668027 2898.36799800055 245 246 250
-10.3620758879641 773.889788555126 2897.11995088768 241 245 248
-31.328171787413 777.424299316818 2891.9108001338 238 242 245
-48.8546008469051 780.321000670466 2889.04859026704 234 238 241
-65.5558794313964 783.062535831946 2886.8068365938 233 237 240
-75.2586495328242 784.513795150662 2889.14245081372 233 237 240
-85.8636943145403 786.130015399813 2890.93240881604 235 236 240
-98.2615965363478 788.074434644264 2891.62003661408 235 236 240
-111.576700245953 790.185493598115 2891.77725829622 235 236 240
-121.371652625858 791.64921255923 2894.20223150967 236 237 241
-132.076407134791 793.278769398564 2896.0892316029 244 245 249
-141.018878884078 794.584512386317 2899.10827488775 247 248 250
-156.238624094279 797.038570118388 2898.2719821887 248 248 250
-168.811410680005 799.006274661066 2899.12983118846 255 255 255
149.168086068973 746.884577094552 2756.86560693865 199 201 200
158.707400322113 744.779107840211 2773.2101712335 226 227 229
163.390635044057 743.577893615332 2785.74145204212 234 235 239
164.005677670381 743.132719679266 2795.11554304353 232 233 238
161.348614391484 743.294547507533 2801.98119387089 241 242 247
158.70362652289 743.454794069634 2808.83508734776 249 250 255
153.584258300866 744.072810241946 2813.82735315004 253 252 255
152.619161681123 743.92382953614 2821.89261207403 250 249 254
150.00861432296 744.079557418185 2828.71297347386 255 254 255
149.079548001949 743.926080451643 2836.74345616596 231 230 235
143.150916205844 744.694193640854 2841.10023906914 231 230 235
135.541781805643 745.771329362792 2844.24595602777 224 223 228
127.921574379309 746.849566171485 2847.40250592489 251 250 255
125.344426938315 747.000788619136 2854.19036661447 246 245 250
121.935012285706 747.305492846231 2860.36474924866 240 239 244
117.687798828036 747.764291153371 2865.93173196776 241 240 245
110.900117244212 748.688908678343 2869.70118557705 242 241 246
103.25516698816 749.770028838563 2872.88187931176 243 242 247
96.4510748598264 750.69659723577 2876.66734049627 235 234 239
86.2239863801144 752.248586809425 2878.09181341126 236 235 240
75.1178664241419 753.959730703739 2878.94806963586 237 236 241
62.269825625453 755.987318955703 2878.6538278763 232 231 236
53.6860609494356 757.234986013077 2881.32525333187 232 231 236
45.9489351185849 758.327549462631 2884.59578746179 231 230 235
40.7915210441452 758.94959532442 2889.62523777159 234 233 238
33.0377699289839 760.044372592879 2892.91195385313 239 238 243
24.4051118995645 761.298334409895 2895.63066292669 239 238 243
14.0188833271764 762.870209214384 2897.2102252778 238 237 242
4.4807830742899 764.286923614708 2899.38708778571 242 243 247
-10.3158899149363 766.656805674736 2898.14311924464 238 242 245
-31.2815006438902 770.14278289761 2892.94065994513 234 238 241
-49.6846225918555 773.160518662177 2889.51422092574 228 232 235
-63.7501322497269 775.389736700077 2888.98189578682 226 230 233
-73.4489489610417 776.826888870145 2891.31533142032 227 231 234
-87.58159482093 779.06474739954 2890.84839646159 227 228 232
-99.9827877294965 780.98786792129 2891.54277774413 228 229 233
-111.527861544523 782.75480763693 2892.82701288367 230 231 236
-120.433788632697 784.044457706225 2895.81180746413 229 230 235
-130.2454144212 785.49676171625 2898.25536258558 236 237 242
-140.968984568304 787.112592076113 2900.16307565333 240 241 245
-159.766500726855 790.18088609907 2897.12046558476 244 244 246
-178.621674212987 793.256612612876 2894.1343494179 236 236 236
157.386324892036 738.19152220902 2764.15971071827 224 225 227
160.391596862475 737.325841144142 2775.47348521204 223 224 226
166.720387339068 735.857291328436 2789.24403554952 233 234 238
168.166057192479 735.280130105393 2799.23005625859 221 222 227
166.343355739697 735.298898490279 2806.70522689946 232 233 238
163.709816782844 735.465721495541 2813.5467794423 250 251 255
157.7730233488 736.2326358114 2817.91150632357 241 240 245
158.479178224325 735.79453787104 2827.19441352756 249 248 253
154.216611781115 736.258351082843 2832.77556294555 244 243 248
152.462259884767 736.268149107152 2840.18418728186 250 249 254
144.868144039827 737.335312772337 2843.31646445874 229 228 233
136.424500618995 738.555349587384 2845.85283117429 220 219 224
127.965828999675 739.77710403916 2848.40386724714 249 248 253
122.861561906502 740.392390910663 2853.38154079469 250 249 254
120.29067789996 740.550666606801 2860.16213933422 236 235 240
116.885467035584 740.86008910515 2866.33165018613 238 237 242
111.792339975321 741.47391262967 2871.29847779836 239 238 243
104.999603963257 742.393670206861 2875.07400666976 241 240 245
