ply
format ascii 1.0
comment KinectMotionCapture
element vertex 788
property float x
property float y
property float z
property uchar red
property uchar green
property uchar blue
end_header
129.45234864487 -173.294724746319 2820.67487185336 12 15 8
172.44195216453 -183.113654080422 2772.74098426633 12 15 8
162.395583901332 -182.919516928019 2771.63491295521 10 13 6
140.935187021647 -180.538733451238 2780.79237185335 10 13 6
121.081936588608 -178.441975619259 2788.6433736046 9 11 6
125.561797624743 -181.011524817454 2774.5859200075 9 11 6
132.246472838695 -184.024898384621 2758.41942531544 9 11 6
129.812669775296 -185.287770764412 2750.47323521426 9 12 5
77.0146930264781 -176.730575343461 2788.81977058298 9 12 5
-52.9378102687683 -156.21643961091 2879.98737608511 23 26 17
-36.4115113409111 -161.128394656924 2854.88901367675 20 23 14
-33.3446313676389 -163.39581840976 2842.27915801304 21 24 15
-53.9529826671725 -160.940602923429 2852.05465994859 20 23 14
-68.5864748664049 -159.660985998343 2856.27462812965 19 22 15
-67.7586865175497 -161.486873928757 2845.74924799342 18 21 14
-64.0451587123589 -163.909112826502 2832.37234034479 15 18 11
-64.7659512459351 -165.445204645035 2823.19619648839 15 18 11
-80.7888660431246 -163.86192259747 2828.88055395855 17 20 13
-98.2010231380177 -161.97551802896 2836.02972314996 18 21 14
-85.9102608526283 -166.193468647145 2814.04021720793 21 24 17
-85.2593522849527 -168.032939014764 2803.3865443458 21 24 17
-91.8324828968287 -168.38159490079 2799.8548123061 20 23 16
-78.3498433312713 -172.918358088341 2776.25734105645 17 20 13
-54.277562451583 -179.711848433803 2741.7980741985 16 19 12
-93.7372026388799 -173.173180964604 2771.27719728379 17 18 10
-117.38024148816 -169.920296651835 2785.03230742398 19 20 12
-108.376376121937 -173.573797092861 2765.60335980464 20 23 14
-138.953368541489 -168.805014917919 2786.69082706841 19 22 13
-101.192755653953 -178.642717312338 2737.43689970315 19 22 13
-128.873731882912 -174.468975624121 2755.68029591634 20 23 16
-141.749867380493 -173.456446491151 2758.70248888654 22 24 21
214.75975296259 -185.088566560394 2815.75960205046 8 10 5
180.403784645573 -180.339353088085 2835.34254654869 15 18 11
169.606526293635 -179.982595258385 2834.92799932244 11 14 7
177.50349639364 -183.153054022031 2818.40449076825 12 15 8
158.172360328336 -181.17676089427 2825.39804308344 12 15 8
159.02546288254 -183.02742306476 2814.89088826849 13 16 9
160.609515929237 -185.029117859058 2803.6778134256 13 16 9
162.917777444223 -187.182361584405 2791.75392850232 13 16 9
157.50811528098 -187.859828065758 2786.59388082179 13 16 9
172.740046225966 -192.538681903294 2763.02845740144 12 15 8
129.898316077569 -185.951674276292 2791.29111277818 10 13 6
112.356657564648 -184.249156956778 2797.11014109657 10 12 7
115.348537568205 -186.557178110389 2784.44600519742 10 12 7
125.846114287019 -190.35910564633 2764.86379789623 10 12 7
129.46265311302 -192.827109183781 2751.41634905981 9 12 5
125.506093585303 -193.806796469311 2744.83778794715 9 12 5
-45.85967296945 -164.678083829605 2873.95939587831 18 21 12
-37.5187013642231 -168.022791413266 2856.52183425689 20 23 14
-35.9265074139918 -170.022253850862 2845.31437775901 24 27 18
-55.7904737770638 -167.662556032911 2854.39397977595 25 28 19
-87.3495770754829 -162.885412409535 2874.76983073375 23 26 19
-71.0510007952383 -167.898261994607 2849.50587626757 21 24 17
-58.5437240548918 -172.167238913614 2827.67277333929 17 20 13
-57.0902078239952 -174.17750722797 2816.36502614626 15 18 11
-81.1375159129459 -170.892959040998 2829.82752774786 19 22 15
-68.0948940503232 -175.328994031699 2807.14662511229 21 24 17
-88.421384586082 -172.793739977054 2817.12685934184 21 24 17
-83.4358610509092 -175.568896878647 2802.19989320891 21 24 17
-74.924833886747 -179.110175805112 2783.64928171251 19 22 15
-42.4595021986915 -189.569598937538 2730.55324838371 14 17 10
-109.405341837122 -180.547121590521 2767.29219259354 20 23 14
-110.26493485831 -185.732527996365 2736.9998497222 21 24 17
-135.076876720742 -182.082886193737 2752.37997451285 23 25 22
226.930916336243 -195.003016661697 2806.00549765807 10 12 7
212.096617109695 -193.893855898597 2808.8437020393 18 21 14
194.188843843618 -192.182273606495 2814.39766635275 19 22 15
168.566405176051 -188.967447164202 2826.71767455156 18 21 14
144.604283708723 -186.043122701336 2837.76973741355 13 16 9
140.856267543287 -187.014120064991 2831.34269232793 15 18 11
154.83721145119 -191.444100513149 2809.34203003521 15 18 11
153.318692133854 -192.873372940146 2800.82317469941 15 18 11
154.841061790045 -194.907785907236 2789.56521852635 15 18 11
147.905577078658 -195.286035491672 2785.77065836898 12 15 8
138.685710067026 -195.210556320589 2784.02780332124 11 14 7
121.878008860091 -193.620790742709 2789.14357969218 11 13 8
119.537926709779 -194.903712556239 2781.26493384965 11 13 8
131.539640024088 -199.069852621492 2760.30118919974 10 12 7
132.127469103357 -200.967425895231 2749.60149436761 10 13 6
128.164875377131 -201.956025896077 2743.01851379101 10 13 6
-64.374669370697 -166.291108454012 2901.28846310352 18 21 14
-61.8760902743858 -168.457223029284 2889.50247826314 15 18 9
-32.6837521460333 -176.127679550993 2852.57493054259 12 15 6
-51.1010693009477 -174.025379781074 2860.23156793626 15 18 9
-84.2136056017409 -168.853246286669 2881.95337611872 15 18 9
-75.1974548884409 -172.408150675627 2863.7688704473 14 17 10
-53.7912104838119 -178.580541741309 2833.55585494288 15 18 11
-42.062635230067 -182.768311571538 2812.39370264777 14 17 10
-72.7608984047938 -178.03788027342 2832.15832174614 12 15 8
-64.0276102260369 -181.615998401324 2813.76864540468 14 17 10
-82.217551039323 -179.492829115537 2821.59021846907 16 19 12
-95.9952176832624 -178.289914298571 2825.19487324186 16 19 12
-98.9125241320838 -179.402678158406 2818.13397817656 15 18 11
-96.8178342745025 -181.600705724811 2806.05504376201 15 18 11
-72.5625526742435 -188.60896645281 2771.7273501775 16 19 12
-71.6042103100181 -192.414548745378 2750.17037079708 19 20 12
-61.958096147475 -196.344888981897 2729.97056415912 20 21 13
-41.0875107240514 -202.775861387518 2698.13259715601 20 23 14
-83.1683279045317 -195.338883356749 2730.65656421417 16 19 10
-139.089304716647 -184.759317590134 2777.86562698723 20 23 16
-137.915843322345 -186.817246384265 2766.35462065676 24 27 20
-131.895632901917 -189.974482939526 2749.7057125611 22 24 21
217.976946051409 -202.64521071047 2804.41630528574 18 21 14
203.173010978296 -201.503588358708 2807.27698019117 20 23 16
181.41346683663 -198.985491870051 2816.21827637247 18 21 14
162.068707245973 -196.917968333397 2823.20241480339 17 20 13
148.988155925056 -196.06707678332 2824.84027254836 11 14 7
156.778234103687 -199.345369717911 2808.23872955784 13 16 9
169.874220033529 -203.70319911672 2786.83194442938 16 19 12
149.871075025768 -201.472749764079 2794.57496157841 16 19 12
139.891018427264 -201.232655063261 2793.5168993152 14 17 10
133.745943092291 -201.759719294763 2789.05953337824 14 17 10
141.290432311435 -205.058803831185 2772.2798523963 14 17 10
136.620994675792 -205.897644472171 2766.42026077485 10 12 7
137.991315089659 -207.972155997656 2755.05187775403 9 11 6
134.792894385508 -209.123077279661 2747.7870036909 8 11 4
-36.5706887085353 -177.342004021133 2885.56976902423 8 11 4
-20.6558520979567 -182.334014143805 2861.26277566728 18 21 14
-39.8937452229022 -180.036921195116 2869.56058332337 17 20 11
-17.4453695113097 -186.441300527844 2838.86681934805 11 14 5
-52.206448587963 -180.871456819006 2861.86565142967 12 15 6
-70.5478720516459 -178.716159304218 2869.57786870082 13 16 7
-64.5139217288091 -181.704721964616 2854.17481194937 14 17 10
-14.4990759073391 -194.074701890328 2796.49942787738 14 17 10
-67.2996272652722 -184.57059729305 2837.31926087408 12 15 8
-74.5719189420298 -184.753596519968 2834.51686224746 13 16 9
-76.7428302952216 -186.033477883296 2826.76086732653 15 18 11
-82.5636648805139 -186.530003315252 2822.53870511368 17 20 13
-100.679666400118 -184.354004970971 2830.4141459396 18 21 14
-108.627744072501 -184.374781455414 2828.35771394214 16 19 12
-94.2809682178298 -189.27905320491 2804.14977539753 15 18 11
-103.705639169787 -188.987483868936 2803.49458477121 15 18 11
-108.822847250529 -189.641586899049 2798.54666163685 16 19 12
-106.11131197587 -192.035269569877 2785.67856949137 19 20 12
-62.274762449003 -203.615934519671 2730.93921334925 18 19 11
-51.3052132689471 -207.931110868457 2709.22647599279 16 19 10
-67.9593692563603 -206.065855475666 2715.68969813259 19 22 13
-110.572815684046 -198.316003679409 2749.06417227907 20 23 14
-137.532188544479 -194.04602538751 2766.59612500206 20 23 16
-146.187184336626 -193.905249120457 2765.26308789893 18 20 17
211.256807136228 -207.187134880496 2820.51882251141 6 8 3
186.290383936665 -204.00172874325 2832.07949915121 16 19 12
204.355449063103 -209.333640951965 2806.85916292706 17 20 13
209.052680274013 -212.038723653692 2792.95889358168 16 19 12
188.076502252305 -209.62096272215 2801.23252373261 18 21 14
160.218012336991 -205.795876594174 2815.64006611247 16 19 12
171.838609168568 -209.904789809531 2795.63536848527 14 17 10
172.584100069001 -211.838898878525 2785.05007548799 16 19 12
156.408691944653 -210.341116559114 2789.38812311173 15 18 11
123.456639282828 -205.398799524787 2808.75503198488 11 14 7
125.752051446503 -207.643805174261 2796.82136750039 10 13 6
134.08418853262 -211.146604020091 2779.3763063071 10 13 6
115.025023817144 -209.007939957995 2786.56783889872 9 11 6
127.049216720874 -213.303755063045 2765.61973335328 8 10 5
151.033231998183 -220.125068220598 2733.56670768388 8 11 4
122.205108415871 -215.93840150066 2749.74354113792 9 12 5
-12.9550363464135 -189.35259007159 2864.33934314294 10 13 6
-24.0155501071067 -188.74695818187 2864.97025367812 22 25 18
7.4383039442405 -197.146652436159 2825.97302901579 19 22 13
3.74379459714946 -198.128530310147 2819.58442257572 16 19 10
-2.92851424116058 -198.477842377405 2815.98079079942 18 21 12
-30.2822361038482 -194.385684557214 2831.9909341899 18 21 12
-49.4072296276167 -192.029220446691 2840.37118037995 19 22 15
-78.0001246981175 -187.599210031892 2857.95480521522 22 25 18
-84.4932079530221 -187.932330001288 2854.48117990536 22 25 18
-84.4132657705394 -189.699145183267 2844.64930044464 21 24 17
-92.3745495795318 -189.713762510416 2842.58332623426 16 19 12
-42.2801804735053 -202.505493366526 2783.72841740755 15 18 11
-74.2627766153943 -197.255373730144 2805.03440723427 14 17 10
-104.64568146918 -192.311709695625 2825.02871637543 15 18 11
-77.5230470400703 -201.964082153131 2777.94461764323 17 20 13
-144.883292876641 -188.649683433899 2835.40227894256 17 20 13
-135.646434780481 -192.514303040353 2816.14086888825 17 18 10
-103.068995473924 -201.700957200338 2773.01372805503 20 21 13
-77.1014775831329 -209.456606414388 2736.21808106381 22 25 16
-85.2075093908005 -209.480799166358 2734.04712743871 20 23 14
-84.8589267090578 -211.442860646919 2723.17367114176 18 21 12
-109.797851755054 -207.583499298868 2738.46280538353 17 20 13
-141.609576399488 -202.094004138552 2761.1295016728 19 21 18
185.905024979546 -211.436690134378 2832.99752130322 16 19 12
188.363934770082 -213.697993969311 2821.18229718412 13 16 9
195.444701725699 -216.911125921296 2805.30163155599 16 19 12
176.057727971845 -214.754737521704 2812.2559126342 17 20 13
179.966080650807 -217.341201547101 2799.01940586168 17 20 13
162.97669366462 -215.653249091221 2804.00367719275 14 17 10
169.137609805229 -218.720514517145 2788.69226202717 15 18 11
147.599090884712 -216.074524156862 2797.79443191586 14 17 10
124.616904888401 -213.10287582897 2808.32207398915 9 12 5
120.044221261315 -213.944871178227 2802.53260543412 8 11 4
105.570532957153 -212.714929153606 2805.63313062673 8 10 5
126.80207801928 -218.983163201782 2776.52802300626 8 10 5
136.527561537605 -222.867823027298 2757.6207264406 8 10 5
148.422576843152 -227.240269233757 2736.57858914582 9 12 5
97.7887342377182 -218.325982221931 2772.79065039169 9 12 5
39.9145147505613 -207.785540287337 2816.11349443703 10 13 6
-20.6479372875492 -196.576797040488 2862.43140740818 22 25 18
-1.86877544136066 -202.380566676226 2835.25627182646 23 26 17
4.12858801079841 -205.460603743385 2819.82622913575 20 23 14
-7.73148182035577 -204.67937580555 2821.1137449469 18 21 12
-14.3848386359977 -205.024225100669 2817.52387450111 18 21 12
-68.9193103170396 -194.870595872372 2859.56040935762 21 24 17
-93.0502880509239 -191.321529194959 2872.96359688631 22 25 18
-102.426216731433 -191.000649941859 2872.34388903328 21 24 17
-102.289922267687 -192.784646709327 2862.55277351574 19 22 15
-56.3328157893079 -204.793908134002 2808.11315233084 13 16 9
-72.372193692801 -203.021615986444 2813.78653271732 10 13 6
-68.0933690637817 -205.797665324835 2799.58259205148 17 20 13
-46.5662208520081 -212.48656474002 2768.21927497424 16 19 12
-75.5427803425186 -207.778620771606 2786.7615121781 16 19 12
-125.213987514862 -200.123522405728 2816.2542216251 16 19 12
-130.995251833836 -200.615438225155 2812.06076809138 19 20 12
-118.310378536849 -205.364895143531 2789.11893834199 22 23 15
-106.449058119824 -209.959937531474 2766.81621078069 22 25 16
-87.6400089687219 -216.205450402377 2737.19013589214 18 21 12
-104.872433625047 -214.083254154251 2744.47079129528 16 19 10
-116.423411718615 -213.270932699717 2745.98223732112 18 21 14
-130.03780617371 -211.961221841621 2749.70608700803 19 21 18
189.433862151301 -219.666656248317 2830.57352328345 20 23 16
165.339502664833 -216.503285520347 2841.53093479973 15 18 11
178.717047351706 -221.042270904873 2820.32734003222 17 20 13
174.127359789267 -221.891588272138 2814.5255078741 18 21 14
141.657320724406 -216.944883453528 2833.00682428616 17 20 13
156.427285081022 -221.819313849239 2810.34085189945 16 19 12
163.380183836492 -225.089972293556 2794.36720050116 16 19 12
149.532301689586 -224.004087594835 2796.68532514756 15 18 11
141.085437300592 -224.046989758503 2794.26719994367 11 14 7
125.781936465306 -222.630978618898 2798.00215542935 11 14 7
123.467641926624 -223.967153634694 2790.14222831587 9 11 6
129.477512903718 -227.090865826609 2774.72103137379 9 11 6
141.469348090247 -231.520898378956 2753.74849471375 8 10 5
149.582541350271 -235.146304025624 2736.14438991784 8 11 4
107.212724315018 -227.863984180511 2764.75237259786 9 12 5
62.0528274348553 -219.91114826375 2796.28189862199 10 13 6
-5.31405496323334 -207.040016814751 2848.79176822929 18 21 14
5.96964911143605 -211.302669885408 2828.54207113029 24 27 18
-21.5068992935041 -207.063485510521 2844.46391965753 18 21 12
-21.4310669123554 -208.875720699182 2834.6285363758 15 18 9
-60.5600336049312 -201.996728493128 2861.8787278108 15 18 9
-68.5449188105078 -201.998262098997 2859.79571071599 16 19 12
-100.025591260938 -196.737292131227 2880.23086854512 14 17 10
-97.6611376272123 -199.034756126491 2868.3466935068 14 17 10
-86.5832306392731 -203.313662849582 2847.94772737975 14 17 10
-87.2558743555849 -204.961368743621 2838.80592228124 18 21 14
-67.6368962869063 -211.236261005773 2809.76683333737 19 22 15
-51.7910161702777 -216.697359171573 2784.17243929373 16 19 12
-85.9473404067173 -212.571187908223 2797.72177106897 15 18 11
-94.6784414428756 -212.40718305761 2796.33368130765 18 21 14
-97.6743248200753 -213.570254101034 2789.21556933425 21 24 17
-123.612775097916 -211.238737219952 2795.12654221267 21 22 14
-113.146273100029 -215.567084950097 2774.28410513185 17 20 11
-109.841928255599 -218.235190084997 2760.6093266616 15 18 9
-108.707159337693 -220.406779459334 2749.069695616 15 18 9
-122.350551492526 -219.070064011519 2752.77236655808 21 24 17
-133.148705016938 -218.398579258694 2753.59380118531 19 21 18
239.94407947109 -235.855140706529 2797.9404025502 11 13 8
223.504832396229 -234.274050761931 2802.08790413468 21 24 17
178.228267351494 -226.650653187918 2831.06081851091 17 20 13
173.663726576895 -227.503429815922 2825.27719827412 18 21 14
171.419084225971 -228.847643561404 2817.46772280025 19 22 15
149.793742519165 -226.100341406233 2826.50746616248 17 20 13
160.68502311287 -230.230569999395 2807.20900029268 15 18 11
164.549561830704 -232.892007175333 2793.94035209092 15 18 11
152.233496193989 -232.107900730333 2794.89732139139 14 17 10
143.014139573206 -231.978879625394 2793.15510753732 12 15 8
139.154973738346 -233.001130587567 2786.64693359768 12 15 8
131.476236015942 -233.200129463768 2783.54951804019 10 12 7
125.32320318459 -233.728465651281 2779.08637710157 9 11 6
119.169345277197 -234.256749191524 2774.62263831439 9 11 6
109.241834312853 -233.957751630962 2773.60326033438 8 11 4
135.449022388987 -241.606909230352 2739.45226251178 8 11 4
110.455026983 -237.996887781847 2752.23013886019 9 12 5
27.9765113062047 -221.595097494936 2818.50564593471 17 20 13
-1.85035875457129 -216.788168403333 2836.43168176181 19 22 13
-16.6660109341636 -215.296730049043 2840.52067120291 17 20 11
-53.6708912402248 -208.803499485603 2865.60329986635 17 20 11
-55.7505293310057 -210.131996523511 2857.91322463323 13 16 7
-68.9076364672869 -208.958039044521 2860.73255293269 14 17 10
-74.6738188734051 -209.45157089203 2856.55002441397 13 16 9
-82.6386196394093 -209.442904196825 2854.48161862456 14 17 10
-86.9391636501038 -210.27054979595 2848.88979704653 15 18 11
-78.1419765602771 -214.117367406658 2830.5447868965 19 22 15
-70.1599255521637 -217.803611714941 2812.84530612365 20 23 16
-76.0138047540835 -218.303381695612 2808.59917272872 15 18 11
-100.629227498559 -214.428217757009 2822.88786410679 17 20 13
-83.4076917871089 -220.313176108134 2795.81819749096 19 22 15
-88.5600807018565 -220.982137685004 2790.84469575776 21 24 17
-87.2828180825525 -223.170721510524 2779.40798088001 21 24 17
-88.188889716893 -224.855738764266 2770.09676991273 19 20 12
-105.469266936215 -222.651605218 2777.34307850817 18 19 11
-102.846267851003 -225.184005830235 2764.4103964328 16 19 10
-105.219690752728 -226.533673986342 2756.50724308466 16 19 10
-125.473551347994 -225.498862248637 2756.65164628429 19 22 15
-109.679146763139 -231.272697078351 2729.78302135005 22 24 21
238.006810352687 -244.971689215275 2790.31408560738 16 19 12
216.115174685731 -242.192787845149 2799.16094685116 17 20 13
188.079695228351 -238.077724362861 2813.44194900432 15 18 11
154.729896131473 -232.788385845101 2832.52198625358 13 16 9
149.413782530313 -233.478347771548 2827.42969063023 14 17 10
165.71632235483 -238.834752385754 2803.40190587712 12 15 8
163.408755917468 -240.198043736743 2795.54671875829 13 16 9
148.792517947558 -238.891030233346 2798.54400256126 12 15 8
148.006144342199 -240.589590955939 2789.31949464933 11 14 7
136.499388296366 -239.947252085324 2789.62710055682 12 15 8
141.770984570429 -242.989160281447 2774.90645798654 13 15 10
124.203119282825 -241.003549029218 2780.70792238126 10 12 7
101.401929370348 -237.836303855698 2791.36776311496 9 11 6
123.978973095463 -244.750100938755 2760.7643985502 8 11 4
136.605420143045 -249.489634161994 2739.01559573743 8 11 4
61.335059146375 -234.520320850716 2798.15794246787 8 11 4
24.6220916998183 -228.121007684748 2822.21637817654 17 20 13
4.49850840312394 -225.42217614386 2831.10949611696 14 17 8
-25.9541962368526 -220.348687335799 2849.81853238535 16 19 10
-45.8814906275531 -217.632639840515 2858.85403154494 19 22 13
-66.4652090059563 -214.739866528194 2868.64960672737 12 15 6
-61.8997162575394 -217.607978601692 2854.65271710615 15 18 11
-63.2762048289139 -219.122400088899 2846.23668606943 14 17 10
-67.6105326935634 -219.958797168766 2840.62003504969 14 17 10
-73.4155527192586 -220.455325937052 2836.4093371317 15 18 11
-69.0250453340142 -223.337513802359 2822.28582006671 16 19 12
-79.9452111105192 -222.642158147089 2823.01892631936 16 19 12
-94.4550835442142 -221.089922702667 2827.32988997317 17 20 13
-108.912670173596 -219.533103420474 2831.6784854634 20 23 16
-101.013517096951 -223.277722272321 2813.9183200553 22 25 18
-68.0932941514685 -233.026726669289 2771.03682198248 21 24 17
-69.0215323802255 -234.733225251493 2761.70943317069 18 21 14
-80.6748117704674 -233.866161617858 2763.14699608328 16 17 9
-80.9226558611638 -235.746458394647 2753.07692255118 16 17 9
-86.8743206822531 -236.252805865165 2748.75986895779 17 20 11
-102.008603754085 -234.519010772299 2753.85414027905 18 21 12
-110.749544631347 -234.332383482997 2752.45903199404 19 22 13
-115.964253258674 -235.007349552638 2747.44032295729 18 21 14
-142.174442483113 -230.496739939556 2764.28155710226 21 23 20
249.39605643509 -253.205327290668 2791.11787942175 138 137 142
174.174653721908 -238.924526108202 2845.35178861322 16 18 15
189.957342515934 -244.16900525965 2822.18305078469 12 14 9
174.456739054693 -242.672425983925 2825.77523598691 14 17 10
197.848074990174 -249.620496080213 2795.76229010074 13 16 9
159.162801196536 -244.930204527646 2809.73645695748 13 16 7
150.714076885057 -244.949180608254 2807.31710464641 12 15 8
151.494116717273 -247.003961780946 2796.75595120207 11 14 7
141.512145068059 -246.683088864537 2795.69720431235 10 12 7
146.82418075857 -249.762715632534 2781.00539160904 10 12 9
139.125078744425 -249.952838973624 2777.89355297523 9 11 6
120.04534435572 -247.584722335385 2785.07133639429 9 12 5
109.367062641848 -247.087785834941 2784.74374790467 8 11 4
127.398486623634 -253.081556272493 2758.26063542521 8 11 4
108.408696611027 -250.70543621092 2765.50366198093 9 12 5
49.7189132098717 -239.246655926026 2809.47497453401 9 12 5
28.0002736584444 -236.161752278182 2819.68412542194 20 23 16
6.37334449527627 -233.068951473962 2829.95950465115 23 26 19
-8.46747502066592 -231.51443119603 2834.03056927542 18 21 14
-46.2475800309337 -224.623159280865 2859.78827379378 16 19 12
-60.1766322919135 -223.225705170889 2863.28417128193 18 21 14
-63.7365208028964 -224.237303050148 2856.99300382122 20 23 16
-64.3701913436052 -225.940221389766 2847.87917154751 19 22 15
-66.5012879850433 -227.299970605973 2840.15192909141 16 19 12
-73.7453524027987 -229.332368744323 2827.4794489725 19 22 15
-87.555972710466 -227.923468267067 2831.06125828917 20 23 16
-91.1821672339495 -228.939392156039 2824.72200227287 20 23 16
-94.1005729708833 -230.12994190213 2817.65991630931 19 22 15
-94.8784506361693 -231.843467238408 2808.44149148693 16 19 12
-110.036864454603 -230.077901621454 2813.51843083898 15 18 11
-73.6410246283146 -240.854067805679 2766.97550673941 15 18 11
-98.1146597195781 -236.824062201349 2781.36776731674 16 17 9
-80.5348986645289 -243.087492275951 2753.32083223431 17 18 10
-87.1949382710993 -243.419112002261 2749.72618430113 18 19 11
-109.392902853645 -239.899789707725 2762.06013591919 17 18 10
-115.997215383693 -240.225998762123 2758.50591313917 20 21 15
-98.7290314031399 -246.51461031075 2730.23298163692 21 22 16
223.873723523066 -255.34253082303 2813.36452379682 9 11 10
207.477086431657 -253.651704747343 2817.54347010278 17 19 16
164.571244827844 -246.1310559592 2844.52934216463 14 16 11
170.957150848515 -249.398040133505 2829.38001534979 16 19 12
168.725810342437 -250.782469615885 2821.57968448946 13 16 7
224.57821308641 -265.060530201249 2763.1859642117 16 19 10
188.144240394052 -258.891469734304 2784.97540963802 14 17 8
155.732714039158 -253.569205231109 2803.50075096909 13 16 9
133.455898037139 -250.476000000689 2813.30501540804 12 15 8
149.568931532241 -256.00702339394 2789.13926347095 12 14 9
137.294417152802 -255.154320945893 2790.12640713983 13 15 12
130.385278073835 -255.509705136416 2786.35106131136 9 11 6
109.810794648312 -252.746882565483 2794.91763625289 9 12 5
93.1050071576229 -250.843789406107 2800.10858464065 9 12 5
104.394489233976 -255.358242653842 2779.86180072084 9 12 5
105.795876108055 -257.622164455894 2768.51497903963 10 13 6
17.160050444164 -240.914435755567 2830.32847033938 23 26 19
12.7255653285316 -241.771661764008 2824.63940216533 25 28 21
-9.57414701895987 -238.440908645612 2835.6633084109 23 26 19
-36.229002329355 -234.053288347391 2850.94653502619 20 23 16
-60.5426091256558 -230.179821150013 2864.21897400263 18 21 14
-64.0996780098784 -231.199524870279 2857.92980949185 19 22 15
-67.6707912181562 -232.220187105975 2851.63045909578 17 20 13
-76.3868009949933 -232.013527359219 2850.25352536587 16 19 12
-74.1241334103893 -234.440148283185 2838.29520372003 16 19 12
-83.5680474297387 -234.057176473834 2837.62652635503 18 21 14
-96.622858301596 -232.791917825375 2840.52047385811 19 22 15
-71.2519497021418 -240.862745750034 2805.76110335245 17 20 13
-62.6770610283076 -244.891976632614 2787.25431485442 16 19 12
-70.7462506357452 -244.866763811085 2785.11031917548 15 18 11
-87.4142674144966 -242.718568969261 2791.56522095295 14 17 10
-116.893848868138 -237.379009213712 2810.9810426884 14 17 10
-92.0265522094379 -245.491422349987 2775.85608802495 16 17 9
-101.476866854952 -245.106748183198 2775.18307380925 17 18 10
-94.6039950828597 -248.803349953576 2757.91450950376 17 18 10
-108.301775696206 -247.352389360485 2761.57833176573 17 18 10
-91.6637873609445 -253.547344984297 2734.08406900609 18 19 11
-54.8049258196899 -264.919035399376 2685.40370952304 21 22 16
209.444228758866 -261.652292606979 2816.45889574348 16 18 15
211.071741527444 -263.924660918955 2805.27595476572 17 19 14
193.172665735433 -261.845318392288 2810.8377923648 17 20 13
185.440783283167 -262.027761634415 2807.70222939304 16 19 12
197.864274806313 -266.749195313549 2787.04142809629 17 20 11
217.136116876355 -273.052987086434 2760.22091421245 16 19 10
144.572220183783 -258.546292797876 2813.91208268995 14 17 10
141.533174566886 -259.772644509552 2806.76206648179 13 16 9
130.814555624535 -259.246893345709 2806.40538262635 12 14 9
128.524670176553 -260.649915828042 2798.56281158804 11 13 10
120.118262856794 -260.648854979765 2796.17423725836 9 11 6
97.2934853698448 -257.304180088001 2806.81758309542 9 12 5
115.4600616958 -263.461323772769 2780.43191239386 9 12 5
104.035286275177 -262.754631031762 2780.79927377116 10 13 6
112.216840659596 -266.634155644175 2763.24314377353 11 14 7
-26.6204039201117 -237.802257367816 2871.47931015577 16 19 12
1.91430844403717 -246.444570661148 2835.30514946738 13 16 9
-9.93770475446931 -245.532717376266 2836.5991673466 11 14 7
-39.5618913488376 -240.359259548085 2854.67428376131 11 14 7
-46.8536373840816 -240.502472561358 2851.85768930304 10 13 6
-61.5129972464112 -238.866577930033 2856.0607100799 11 14 7
-60.6779639538844 -240.964161376953 2845.5392057666 11 14 7
-73.8131279006207 -239.679304176442 2848.37500288141 12 15 8
-86.1741137126852 -238.568862395471 2850.53609817014 13 16 9
-94.8524509221651 -238.347799425735 2849.18654704344 15 18 11
-82.4442516308526 -243.308929150831 2827.27811486752 15 18 11
-60.0063194579017 -250.784414511853 2795.33631815577 15 18 11
-43.517753763318 -256.841389292377 2768.96947126443 15 18 11
-62.4435520242215 -254.123170173182 2777.495950712 15 18 11
-91.3389234007749 -248.884885392683 2796.09943471606 15 18 11
-101.490475489443 -248.30638469465 2796.15409691145 15 18 11
-103.769772471441 -249.704128350828 2788.3192284164 16 17 9
-103.938281074733 -251.643726623452 2778.30607202143 17 18 10
-114.067866003955 -251.062370951846 2778.37667314051 17 18 10
-89.5424263032023 -259.320461990841 2743.00345566239 16 17 9
-43.3671182784394 -273.193985161335 2685.00716621722 17 18 10
188.681290335208 -264.542486645541 2834.74110397908 14 16 13
205.220283586952 -270.195362470802 2810.8832276764 14 16 11
206.822215507657 -272.497404759361 2799.68159229155 17 20 13
184.285378856737 -269.312228802989 2809.29782806286 16 19 12
200.591755304536 -274.985133701513 2785.27151590053 16 19 10
154.170292439926 -266.290956258638 2815.88996638334 16 19 10
170.398452213766 -271.970556042941 2791.80691937392 14 17 10
150.381644141444 -269.300583400326 2799.54196367095 12 15 8
130.442906208143 -266.623797896889 2807.33393166336 10 12 7
131.97624065701 -268.931576577133 2796.08253945128 10 12 9
127.370151225037 -269.815619471442 2790.26864133626 10 12 7
108.320825014774 -267.306135061305 2797.46918434845 10 13 6
81.0130805362679 -262.823062173803 2812.27960115862 9 12 5
112.739145853028 -272.292980939449 2773.4739928767 10 13 6
129.183089062705 -278.197500155406 2748.31090151747 10 13 6
71.9083226026651 -266.532399520898 2790.83896184397 12 15 8
-17.2615832580603 -247.119248717401 2863.39520360137 17 20 13
-9.64802339123549 -250.855151070944 2846.6630863606 13 16 9
-28.1642812128917 -248.2990170351 2854.25029831348 9 12 5
-33.9911407470406 -248.79895800205 2850.02375118628 10 13 6
-36.8592680453754 -250.020115918612 2842.99795809944 12 15 8
-50.0732783860518 -248.715358876646 2845.77669857723 13 16 9
-63.2441318990542 -247.406567956002 2848.58674479281 13 16 9
-96.9037701253406 -241.028537104085 2871.15338632782 15 18 11
-86.5317010969595 -245.501697477762 2851.47679589672 16 19 12
-85.732743255625 -247.626339939891 2840.92900265971 17 20 13
-76.9806629229897 -251.750428016184 2822.55018370622 17 20 13
-82.8070437422146 -252.24853788743 2818.32399288454 14 17 10
-75.6332056675386 -256.019813276416 2801.27322723813 14 17 10
-62.7786213023842 -261.253904611939 2778.451969895 14 17 10
-67.2683913915715 -262.124163043743 2772.72246397497 14 17 10
-78.2088272064638 -261.353320222226 2773.44125840158 15 18 11
-99.8213786379121 -257.840530878684 2784.96451878633 16 17 9
-113.686128794525 -258.291454659057 2778.61678585615 17 18 10
-87.7404395671171 -267.032733386878 2741.8003223932 16 17 9
-62.698638731101 -275.607286354833 2705.56478655046 16 17 9
-91.9405678094094 -270.065598288202 2725.15391138429 18 21 14
188.293544097643 -271.946634392924 2835.65755161772 13 15 12
191.548629461841 -274.627074591002 2823.18233252569 14 16 11
196.309917623267 -277.671670265487 2809.32648525362 17 20 13
198.676631948624 -280.181867718487 2797.44316597902 17 20 13
169.987345742535 -275.495019519005 2812.48814249863 16 19 10
182.39280996225 -280.349111028927 2791.81360088683 13 16 7
190.06771930832 -284.129929476149 2775.12572968395 12 15 8
178.447908232368 -283.402473583424 2775.35181072189 12 15 8
167.624488502869 -282.853189767169 2774.91927373682 11 13 8
126.258677304936 -275.062504020897 2801.78758338997 12 14 11
142.244520058059 -280.841980488455 2777.52807522881 10 12 7
121.631382764257 -277.927313855322 2786.06739827642 10 13 6
117.768505297379 -278.999452867693 2779.55628100271 10 13 6
125.222801210613 -282.7987305431 2762.70868339164 9 12 5
60.2886117116404 -269.140043933898 2812.04531764905 9 12 5
103.843129168044 -281.676139976092 2762.03711198717 10 13 6
42.2716726194037 -268.714773479354 2808.86778454392 21 24 17
3.42355509537207 -261.200137196668 2835.08945809115 20 23 16
-24.0655430186609 -256.408950862843 2851.00500506519 16 19 12
-32.8720770639286 -256.17849806367 2849.56256887771 15 18 11
-9.10069282125225 -264.000867983046 2817.35033188368 16 19 12
-43.7944493918043 -257.361821412525 2840.40367768702 16 19 10
-64.3403541379171 -254.1931646422 2850.22806218258 17 20 11
-73.7975807032074 -253.771183197542 2849.54993186042 17 20 11
-80.3088027482457 -254.082372549203 2846.06356291441 17 20 11
-67.1325319999134 -259.361020889698 2823.47527720556 14 17 8
-79.5103893578906 -258.202776732198 2825.62438407907 13 16 7
-78.0813764762645 -260.544109383574 2814.29690250206 15 18 9
-82.476776176684 -261.412388065506 2808.63611219565 15 18 9
-86.1614026487234 -262.466024179949 2802.25430659299 15 18 9
-74.7815680014192 -267.404338255872 2780.83583761222 15 18 9
-80.6878278854302 -267.908381527866 2776.55171069793 15 18 9
-95.1581722241064 -266.188360014438 2780.8918845039 16 17 9
-137.321701603567 -257.228879900541 2813.36360349705 17 18 10
-143.091434383908 -257.720309615349 2809.178511884 17 18 10
-90.8872881804925 -273.453576037941 2745.66235394246 15 18 9
-77.8094640694402 -278.983664980702 2721.76639193987 15 18 9
-82.4162813209621 -279.867229142175 2715.95196863781 17 20 13
212.212399106308 -284.986429293674 2815.87704176607 5 7 4
188.036827472167 -281.328775380699 2826.77808450512 18 20 15
204.50649625947 -287.145946833861 2802.86912122896 15 18 11
185.082510914039 -284.576361855788 2809.79837025967 8 11 4
185.890680572661 -286.751866355933 2799.25729171638 12 15 6
171.196423446999 -285.272121060113 2802.19889268892 13 16 7
176.593779302199 -288.549627383357 2787.56822257188 12 15 8
178.081140666332 -290.916224552157 2776.2829110853 11 14 7
145.029384931172 -285.028831751103 2795.5823300679 10 12 7
134.296658544186 -284.455412750594 2795.21566087178 10 12 9
143.405442500602 -288.660711706688 2777.09501263848 10 12 7
141.026418421684 -290.112487722166 2769.18728168101 9 12 5
129.531549784091 -289.354955664262 2769.50408850063 8 11 4
110.511037546464 -286.750225009996 2776.72629629453 9 12 5
101.358280956532 -286.539396220181 2775.03277659619 8 11 4
53.9129811113743 -276.900638300961 2808.61950913001 14 17 10
44.1571121761273 -276.492036588273 2807.72481880954 18 21 14
12.0192466001749 -270.525231548963 2827.68713851058 22 25 18
-17.7315534134248 -265.101319168648 2845.67144428028 17 20 13
-25.0715383180151 -265.23271708654 2842.82023475896 20 23 16
-29.4426596134638 -266.10632805074 2837.17672290036 21 24 17
-39.7271599323226 -265.492953367226 2837.13518473005 19 22 13
-66.1730333306401 -260.781797943923 2852.57154556249 18 21 12
-67.5549473639596 -262.39548558276 2844.15078421297 17 20 11
-61.6503332818028 -265.876509150121 2828.6514744489 16 19 10
-61.6503215676456 -267.869656831354 2818.76050526716 16 19 10
-71.863598789855 -267.249148533337 2818.77033989572 16 19 10
-69.7303903006672 -269.8065811316 2806.71750800191 15 18 9
-73.4268185312321 -270.869776429489 2800.32709863348 15 18 9
-79.2982909368833 -271.371479478296 2796.06820175834 14 17 8
-95.2247914993429 -269.245858887944 2801.82519901648 14 17 8
-83.1679836071757 -274.440545394379 2779.66114718214 14 17 8
-101.913605930825 -271.559097761064 2788.31877231936 15 18 9
-139.792729684636 -263.588720089132 2816.48052965618 15 18 9
-130.657029947986 -268.036020819375 2797.14313083049 14 17 8
-134.343201655304 -269.09623444715 2790.76017173739 15 18 9
-62.613887037724 -290.357014107687 2706.78655121197 15 18 9
-85.5379123024116 -286.336811126731 2719.83203411229 16 19 12
207.907014919572 -291.538695826465 2820.13359709515 8 10 7
186.087453761653 -288.372312125856 2829.03466936308 10 12 7
185.410973024658 -290.195736702769 2819.88919267662 16 19 12
192.479682182844 -293.87467186655 2803.99772118572 12 15 8
155.356003397594 -288.998935475336 2816.63449316937 13 16 7
158.488322771224 -291.75563672264 2804.06989211358 12 15 8
146.958773785319 -290.98233383319 2804.36163829096 11 14 7
138.525994740754 -290.951386703785 2801.95409791507 10 12 7
152.275774830297 -296.32516723369 2779.78107950366 10 12 9
147.615723791332 -297.230309888216 2773.92795659369 9 11 6
130.784588057377 -295.147734106669 2779.02924095672 8 11 4
141.298583635043 -299.790958301415 2759.45467470328 9 12 5
126.777179041528 -298.266023751254 2762.52180905771 10 13 6
105.521750039819 -295.050653144776 2771.83208089318 8 11 4
79.8456530917004 -290.702362894977 2785.35426338315 12 15 8
24.3188568341091 -278.835046125763 2826.68012114211 20 23 16
-8.51134722682922 -272.580314057207 2847.37704493651 20 23 16
-24.0556391677935 -270.638339370002 2852.1751465492 17 20 13
-22.465823764084 -273.022256357336 2840.96431293111 18 21 14
-36.4671417904225 -271.451604366151 2844.40870070513 17 20 13
-45.9923085852583 -271.0087694569 2843.68171916459 16 19 10
-64.3270189575713 -268.297470343466 2851.40132467962 15 18 9
-78.9192945262174 -266.524883974228 2855.65366866322 14 17 8
-64.1987388288146 -272.317417033012 2831.7118974078 14 17 8
-53.9782527165793 -276.983631739794 2811.92473790461 14 17 8
-52.5805917449871 -279.38257768476 2800.57453131327 14 17 8
-54.8521343006829 -280.836041922032 2792.74470745458 16 19 10
-56.423789262861 -282.48123152226 2784.18623929281 16 19 10
-94.0481785129119 -274.619273435287 2811.29707331195 15 18 9
-79.0430088224368 -280.637711344263 2786.32544393226 15 18 9
-90.6621636718383 -279.616074207847 2787.78852739803 16 19 10
-90.824505400851 -281.643165176281 2777.7796928111 16 19 10
-127.319419742546 -273.935333487931 2804.47319550867 15 18 9
-139.502807100674 -272.709238484805 2806.76362151317 14 17 8
-85.868725897446 -289.271422093001 2741.80948760494 14 17 8
-81.2569847644566 -292.651345706229 2726.60878984616 15 18 9
205.168686381927 -298.432613035967 2823.05404624344 8 10 7
185.701600895384 -295.773976480256 2829.95250212585 10 12 7
178.788214753922 -296.113742773172 2826.1744510959 17 20 13
176.545631357147 -297.581410032418 2818.36554840843 13 16 7
182.036305131463 -300.932608152165 2803.80215317899 13 16 7
167.352073367056 -299.392127643639 2806.75132938567 13 16 7
131.121370270534 -292.567878944277 2828.69144793756 12 15 8
128.898231064291 -294.033851519611 2820.89664934267 11 14 7
142.755605250134 -299.46929394209 2798.80131585821 10 12 7
144.264036244673 -301.88866023693 2787.53130538735 10 12 9
152.58966066336 -306.015552394151 2770.07865634382 8 10 5
147.147124923488 -306.738648163329 2764.89425230767 8 11 4
132.602749143407 -305.185752013304 2767.94517046676 9 12 5
121.885531765592 -304.578168126296 2767.58962265723 11 14 7
118.730126709886 -305.868900201793 2760.35522338642 9 12 5
96.0188353743336 -302.214450173519 2771.0827013057 12 15 8
26.9502210778616 -286.743847174286 2824.84218923738 18 21 14
-26.062034473854 -275.24483969108 2864.28391577024 19 22 15
-28.1478861511457 -276.697957874855 2856.58870494498 19 22 15
-34.7123910494711 -277.006842526751 2853.06342731825 19 22 15
-42.7542089557362 -276.932812116318 2850.93952124035 18 21 14
-55.2130976884126 -275.709200850365 2853.03021783832 15 18 9
-72.7855537264843 -273.140901969448 2860.066636834 14 17 8
-80.7481528404388 -273.059498052323 2858.00019549752 14 17 8
-68.9434753788176 -278.159663913589 2836.88858985122 14 17 8
-55.0568795666218 -283.845106213647 2813.57813681946 14 17 8
-76.1981655610939 -280.308546653297 2824.2081113484 14 17 8
-83.4715265737693 -280.421832218674 2821.40499617377 15 18 9
-98.6883216794523 -278.414313924142 2826.44083922279 15 18 9
-82.1399678851713 -284.889241823558 2800.11551146294 14 17 8
-88.7191240025782 -285.196863891171 2796.57961925006 14 17 8
-72.3747911424781 -291.688678224454 2770.10630682789 14 17 8
-111.863264672411 -283.101799838985 2799.57460812283 16 19 10
-69.9952967892767 -296.573070319246 2747.10401321044 15 18 9
-92.2908153187263 -292.624027536073 2759.36942250948 14 17 8
-111.191582791752 -291.690644238636 2758.02383029939 14 19 12
213.479101184553 -310.021236984101 2806.78761291126 13 15 10
201.028046329144 -309.03138571193 2807.64747330738 18 21 14
171.574634746111 -305.897612004882 2813.48480704707 15 18 9
166.202199701994 -306.617657563787 2808.35123595122 13 16 7
160.824566143724 -307.338054158121 2803.21418904047 12 15 8
150.057806666307 -306.718701008103 2802.82308119631 11 14 7
146.21943122097 -307.821893413275 2796.32956866936 10 12 7
145.426224859696 -309.693607547392 2787.09923049068 10 12 9
142.313894851768 -310.991902669442 2779.89601893296 8 10 5
158.953025532645 -317.28937670699 2754.87243274347 8 11 4
130.727341576733 -312.246308403142 2770.25499427603 9 12 5
110.187909184836 -309.118180580809 2778.84882880298 11 14 7
104.053252809468 -309.645625508599 2774.39901386388 9 12 5
4.10303127450984 -288.100610200296 2846.56198176894 19 22 15
0.46489363376212 -289.18584853954 2840.2137168407 19 22 15
-40.4367531350753 -280.595279680128 2868.65759738913 19 22 15
-65.5338266216592 -276.055024089202 2882.60049868564 18 21 14
-64.5964156485281 -278.291940769586 2872.15250438756 17 20 13
-72.5600424165462 -278.20291315174 2870.08535669827 15 18 9
-77.5664487728667 -278.889771061392 2865.21759018864 14 17 8
-69.3658974863323 -283.077588138465 2847.67366988867 14 17 8
-59.7861858941855 -287.66169807019 2828.65745176713 14 17 8
-72.1875125060467 -286.407793533781 2830.79002981631 15 18 9
-82.3675559509152 -285.735603000708 2830.82421810002 16 19 10
-96.1482016420734 -284.084631444112 2834.42927727065 15 18 9
-89.6371555209925 -287.901226959052 2818.13284666623 15 18 9
-107.708630064219 -285.073191934909 2826.0438687419 14 17 8
-96.9622935285142 -290.070524095175 2805.40090115149 14 17 8
-71.9901026752123 -298.996205451476 2770.34816164142 14 17 8
-36.4951616458635 -310.880376931844 2724.38158114175 16 19 10
-51.8075412202095 -308.844158317994 2729.34827834233 15 18 9
-88.3567658750386 -300.906291639877 2756.00357550744 13 16 7
-110.565730607766 -296.886848845974 2768.33208609081 12 18 8
-105.869652864441 -300.341680150778 2753.19185184144 14 19 12
-96.3183111938037 -305.181590650227 2732.91873544886 15 20 13
207.53508256963 -314.081581505314 2822.22015897248 8 10 7
196.665939837559 -313.454461812824 2821.7545761841 18 20 15
186.602615090033 -313.01842150929 2820.63743804277 16 19 12
180.451034596732 -313.547655686081 2816.17534538651 14 17 8
159.55705967461 -310.398602652243 2824.51227045731 12 15 6
168.146253167468 -314.606554032668 2807.24998320251 13 16 7
168.164967398377 -316.687991914081 2797.37183019 12 15 8
168.917057101982 -318.966676554888 2786.78957546276 11 14 7
151.21863681592 -316.584129150093 2792.49840831279 10 12 7
145.823774570789 -317.308669675702 2787.34885096943 10 12 9
148.813893644349 -320.175836849511 2774.68031187269 10 12 7
147.947853439236 -322.072808333367 2765.39704695281 8 11 4
125.059086306138 -318.314024863173 2775.99639734838 9 12 5
118.144958654938 -318.648365154026 2772.21754178895 9 12 5
93.140157041625 -314.290330405385 2784.99137332188 8 11 4
71.2515860433083 -310.705585879032 2795.07957459302 13 16 9
12.7274630775909 -297.514914151161 2839.17975030271 20 23 16
-10.3650084629969 -293.512797877649 2850.86770018384 17 20 13
-31.8668543945688 -289.894383940839 2861.2367117282 16 19 12
-48.8192864077406 -287.446563917412 2867.48665801611 14 17 10
-73.1139866013646 -283.026701479805 2880.77557039193 14 17 10
-78.0974168290385 -283.714506026114 2875.92445497339 14 17 8
-70.5680110703155 -287.751822553643 2859.1298059015 14 17 6
-63.1186635170491 -291.795674074087 2842.27738230394 14 17 6
-66.7282597056225 -292.885411032334 2835.9497848971 15 18 7
-76.9194208536215 -292.197979968723 2835.97628539386 17 20 9
-81.9919512170553 -292.892535027556 2831.06025071573 17 20 9
-77.6403862464914 -296.160536799062 2816.90654923977 16 19 8
-89.983397879787 -294.876397489955 2819.0815542065 16 19 8
-96.5198505342906 -295.175302645094 2815.5766627981 15 18 7
-80.7718505764907 -301.62765364961 2789.90629244741 15 18 7
-52.2589965938933 -311.667621131819 2751.23883902232 16 19 8
-58.2462589902959 -312.178704461204 2746.89595599884 17 20 11
-66.3706676801956 -312.092246804463 2744.71224104576 16 19 10
-59.5741253180293 -316.188982825677 2727.38631716319 14 17 8
-89.6591375124767 -309.920633409 2747.60299036604 11 17 7
-99.8405107930367 -309.229183252948 2747.63660665429 12 18 8
-96.6330915255098 -312.33195025626 2733.88936311679 16 21 14
198.628880236597 -321.4656062679 2820.66690228616 17 19 14
188.560564841492 -321.016418774806 2819.54591843399 14 16 11
176.178725462806 -319.976978470748 2820.45650026156 16 19 12
164.607616617482 -319.131048260475 2820.71848668161 10 13 4
164.674220385603 -321.230114328763 2810.8749605264 13 16 7
158.531842289918 -321.75872249635 2806.41954205542 12 15 8
160.852680265918 -324.453122510974 2794.50203301384 11 14 7
168.495247894965 -328.531207136114 2777.78950537531 10 12 7
161.522315310582 -328.868220248835 2773.96800732648 10 12 9
137.770179434771 -324.860756229112 2785.17777954046 10 13 6
106.511820661007 -318.868135547864 2803.30743551791 9 12 5
101.185453804032 -319.589457191942 2798.20754824745 9 12 5
110.223040157237 -324.073433695717 2780.03387579544 9 12 5
128.974962300437 -331.141766994301 2752.83258830744 8 11 4
49.8380936379714 -312.430575454555 2815.36645208953 14 17 10
18.3561521469864 -306.193723094527 2834.57030189456 17 20 13
-4.00741486680256 -302.329303088627 2845.55091613483 13 16 9
-27.7654537705394 -298.058479312279 2857.99277971618 16 19 12
-43.2447929619659 -295.96929142309 2862.83871262706 15 18 11
-59.4087128748781 -293.675656972708 2868.42474503162 18 21 14
-69.6019819802638 -292.972993131212 2868.44950010509 13 16 7
-65.0401164821957 -296.262313744004 2854.44814198542 13 16 5
-72.2890482597989 -296.358196006201 2851.66311871283 14 17 6
-81.7260405549891 -295.852905564637 2851.00007862138 14 17 6
-78.0038653616002 -298.950714043576 2837.62601775588 16 19 8
-53.9646190555416 -307.666549189488 2804.36839748133 17 20 9
-69.2824723591279 -305.561769902204 2809.3314739321 15 18 7
-74.4177147621512 -306.263974319682 2804.36993921261 15 18 7
-107.680400690299 -299.125628285107 2827.22819108621 14 17 6
-66.7318680653464 -312.699384564785 2776.56063208106 14 17 6
-81.971130804072 -310.586804713715 2781.5807200209 14 17 6
-114.301188733091 -303.630659867193 2803.87879984317 17 20 11
-77.3786168713675 -316.234175449538 2756.47342252295 16 19 10
-76.2244951958548 -318.760987099014 2744.94602143349 13 16 7
-62.3736136977247 -324.930209905123 2720.37219126044 13 16 7
-93.1033937936376 -318.36141685821 2741.35801688691 12 17 10
-88.5068490660257 -321.906269603378 2726.14546753099 16 21 15
225.640841633641 -335.837974506934 2798.1811660481 17 22 18
203.007952848476 -332.2029916057 2807.73034441532 15 20 14
189.807101951027 -330.94640668562 2809.28334382385 9 14 8
202.259048219177 -336.254679333067 2788.63990304691 9 12 5
159.652485858656 -327.427265107813 2815.84934804372 12 15 6
155.840829932608 -328.552668410538 2809.37509256394 12 15 8
165.098330969073 -333.072598806083 2791.36065884548 11 14 7
174.267555014942 -337.600168931258 2773.28189807886 11 14 7
168.044215950299 -338.135694303125 2768.76775423668 12 13 8
126.722380130608 -329.463450952712 2795.67240784306 11 14 7
107.664965336707 -326.584199795483 2802.86925468685 10 13 6
115.991537555815 -330.918217079766 2785.41594911744 10 13 6
99.2725404109778 -328.63508825258 2790.59924650057 9 12 5
99.2068625255689 -330.766965463295 2780.6599548338 9 12 5
68.2728931810166 -324.656299120451 2799.02536555584 19 22 15
41.9822239144159 -319.740812423029 2813.33994104755 20 23 16
-24.4082458794561 -306.047213349235 2855.44558585613 15 18 11
-34.6955577203698 -305.336564523968 2855.40250226618 15 18 11
-37.5469919820848 -306.644133782916 2848.38837262735 16 19 12
-47.0660018930311 -306.132821994094 2847.6659067152 15 18 9
-68.3498554596591 -302.380666011684 2858.19362300693 14 17 8
-88.0729644513978 -299.025586897919 2867.38008286387 12 15 6
-83.5499505589885 -302.355992246703 2853.35035228383 13 16 7
-64.4887135033785 -309.751526402009 2825.13659981091 16 19 10
-60.8620349022413 -312.892797971414 2811.69309127856 14 17 8
-59.470153180804 -315.428547486365 2800.3380022484 16 19 10
-81.2723601259664 -311.453958860963 2811.72582193118 15 18 9
-104.421211230902 -307.063156531121 2824.61020094064 14 17 8
-104.456135074856 -309.189386257672 2814.69293766345 15 18 9
-88.0402884802012 -316.013377943458 2788.26978452985 15 18 9
-118.211703037386 -309.56807687477 2808.42471911104 19 19 11
-106.201718729496 -315.175622516349 2786.22463264828 18 18 10
-78.677579678879 -325.295558167054 2748.07507024343 18 18 10
-93.8419732870575 -323.139931659841 2753.14965045358 17 18 13
-80.0117019735849 -329.38699748513 2728.56048522759 16 17 12
245.630829814935 -346.434052276666 2791.62156878383 7 11 10
239.353034859001 -346.973929439221 2787.06792666123 18 23 19
220.583434566597 -344.292075389099 2793.23708541793 12 17 11
210.446950048331 -343.82139579238 2792.06708765234 11 16 10
177.042747673836 -337.296541406316 2811.11394493608 10 13 6
167.789158849686 -337.018663688658 2809.34766941533 13 16 7
161.640133370326 -337.547750624642 2804.887429689 12 15 8
177.042821029874 -343.741635008282 2781.43841200379 11 14 7
181.576520235994 -347.111203083669 2767.41622906877 10 13 6
156.200222259129 -342.581100971285 2779.92133203773 11 12 7
137.038016563142 -339.66464538554 2787.04210769099 10 13 6
141.539076403478 -343.036917357375 2772.99625008739 9 12 5
137.631842202095 -344.178606931893 2766.4526253829 9 12 5
131.440974959334 -344.71102377353 2761.96203680271 9 12 5
99.6013959529192 -338.319839657351 2780.90770373824 9 12 5
