ply
format ascii 1.0
comment KinectMotionCapture
element vertex 757
property float x
property float y
property float z
property uchar red
property uchar green
property uchar blue
end_header
-103.283137083054 446.218371391296 2648.00000190735 160 161 156
-95.7093983888626 444.540321826935 2638.00001144409 180 181 176
-88.4246826171875 444.041281938553 2634.99999046326 159 160 155
-81.2176913022995 443.878829479218 2634.0000629425 162 163 158
-74.015848338604 443.715780973434 2632.99989700317 161 162 157
-66.7684376239777 443.215280771255 2630.00011444092 158 159 154
-59.5371350646019 442.714244127274 2627.00009346008 155 156 151
-52.3817911744118 442.718237638474 2627.00009346008 152 153 148
-45.2434681355953 442.890226840973 2628.00002098084 151 152 147
-38.1285436451435 443.398803472519 2631.00004196167 150 151 145
-30.9618301689625 443.401277065277 2631.00004196167 151 152 146
-23.7859636545181 443.234711885452 2630.00011444092 152 153 147
-16.602823510766 442.730575799942 2627.00009346008 154 155 150
-9.43597126752138 442.225903272629 2624.00007247925 155 156 151
-2.28630169294775 441.889226436615 2621.99997901917 154 155 150
4.8543312586844 441.720634698868 2621.00005149841 156 157 152
12.0078045874834 442.225635051727 2624.00007247925 160 160 158
19.162978976965 442.393064498901 2625 162 162 160
26.3435840606689 442.896991968155 2628.00002098084 165 165 163
33.5404425859451 443.40044260025 2631.00004196167 171 171 169
40.7535284757614 443.903416395187 2634.0000629425 172 174 171
48.0919815599918 445.416897535324 2642.99988746643 176 178 175
55.4793141782284 446.92999124527 2651.99995040894 176 178 175
62.8209039568901 447.768360376358 2657.00006484985 175 177 174
70.1631382107735 448.437720537186 2661.00001335144 172 174 171
77.5269344449043 449.10654425621 2664.99996185303 172 174 171
85.1031169295311 450.785964727402 2674.99995231628 164 166 163
92.6298871636391 451.959252357483 2681.99992179871 158 160 157
100.15719383955 452.963501214981 2687.99996376038 156 158 155
107.676848769188 453.798711299896 2693.00007820129 156 158 155
115.26607722044 454.801857471466 2698.99988174438 154 156 153
123.023882508278 456.310003995895 2707.99994468689 164 164 162
130.926594138145 458.154559135437 2719.00010108948 160 160 158
140.46585559845 465.221971273422 2760.99991798401 136 138 135
185.489147901535 464.98516201973 2759.99999046326 137 142 138
191.810742020607 462.108105421066 2743.00003051758 141 143 140
197.966530919075 459.062248468399 2724.99990463257 138 138 136
204.174473881721 456.353008747101 2709.00011062622 148 149 144
210.841327905655 454.822689294815 2700.00004768372 149 150 145
217.862576246262 454.134166240692 2696.00009918213 153 154 149
225.028425455093 453.782171010971 2694.00000572205 153 154 149
231.923922896385 452.924430370331 2688.99989128113 157 157 155
239.236354827881 452.908456325531 2688.99989128113 158 158 156
246.731385588646 453.228890895844 2690.99998474121 156 158 155
254.425317049026 453.885704278946 2694.9999332428 183 185 182
263.305723667145 456.562995910645 2710.99996566772 186 188 185
-306.291460990906 462.381273508072 2790.99988937378 206 211 207
-296.246141195297 458.590477705002 2767.99988746643 192 197 193
-288.202434778214 457.781195640564 2763.00001144409 185 186 181
-280.591398477554 457.63424038887 2762.00008392334 163 164 159
-272.886037826538 457.321107387543 2759.99999046326 166 167 162
-265.57531952858 457.670331001282 2762.00008392334 158 159 154
-258.252918720245 458.019137382507 2763.99993896484 158 159 154
-251.190960407257 458.864748477936 2769.00005340576 156 157 152
-243.749037384987 459.046989679337 2769.99998092651 148 149 144
-236.897855997086 460.389018058777 2778.00011634827 146 147 142
-230.332598090172 462.393462657928 2789.99996185303 139 140 135
-224.499687552452 466.055065393448 2812.00003623962 109 110 105
-219.70309317112 472.20253944397 2848.99997711182 115 116 111
-189.89671766758 456.498146057129 2753.99994850159 204 206 203
-182.070836424828 455.682158470154 2749.00007247925 156 158 155
-173.509448766708 452.876359224319 2732.00011253357 187 189 186
-165.161564946175 450.401484966278 2717.00000762939 158 158 156
-156.89480304718 447.926044464111 2701.99990272522 157 157 155
-149.041250348091 446.444660425186 2693.00007820129 183 183 181
-141.236215829849 444.962739944458 2684.00001525879 180 180 178
-133.679255843163 444.143354892731 2678.99990081787 151 151 149
-125.960394740105 442.660272121429 2670.00007629395 184 184 182
-118.290103971958 441.17671251297 2661.00001335144 152 153 148
-110.751897096634 440.024167299271 2654.00004386902 155 156 151
-103.251412510872 438.871085643768 2647.0000743866 175 176 171
-95.8612933754921 438.049077987671 2641.99995994568 160 161 156
-88.5316133499146 437.392324209213 2638.00001144409 165 166 161
-81.2851116061211 437.066674232483 2635.99991798401 162 163 158
-73.9929974079132 436.408996582031 2631.99996948242 161 162 157
-66.7985677719116 436.24809384346 2631.00004196167 157 158 153
-59.6093572676182 436.086744070053 2630.00011444092 156 157 152
-52.4453371763229 436.090767383575 2630.00011444092 152 153 148
-45.2811308205128 436.094254255295 2630.00011444092 151 152 147
-38.1747335195541 436.760395765305 2634.0000629425 148 149 143
-31.0228783637285 437.094479799271 2635.99991798401 145 146 140
-23.8509718328714 437.262266874313 2637.00008392334 148 149 143
-16.6419297456741 436.600387096405 2632.99989700317 152 153 148
-9.45822242647409 436.103910207748 2630.00011444092 153 154 149
-2.28995294310153 435.441046953201 2625.99992752075 156 157 152
4.85838204622269 434.943467378616 2622.99990653992 155 156 151
12.0086595416069 435.108691453934 2624.00007247925 160 160 158
19.1643442958593 435.273408889771 2625 161 161 159
26.3454616069794 435.769259929657 2628.00002098084 161 161 159
33.5428304970264 436.264604330063 2631.00004196167 171 171 169
40.7718978822231 436.925232410431 2634.99999046326 172 174 171
48.1136068701744 438.414424657822 2644.00005340576 175 177 174
55.5041804909706 439.903050661087 2653.00011634827 175 177 174
62.8726556897163 440.893769264221 2658.99991989136 172 174 171
70.1944902539253 441.386491060257 2661.99994087219 165 167 164
77.5906145572662 442.210376262665 2667.00005531311 165 167 164
85.1091518998146 443.531036376953 2674.99995231628 169 171 168
92.6709771156311 444.851219654083 2683.00008773804 164 166 163
100.164249539375 445.67346572876 2687.99996376038 163 165 162
107.72442817688 446.660965681076 2694.00000572205 161 163 160
115.231484174728 447.316348552704 2697.99995422363 159 161 158
122.94165790081 448.6343562603 2706.00008964539 165 165 163
130.935773253441 450.780808925629 2719.00010108948 163 163 161
140.323057770729 457.237035036087 2757.99989700317 145 147 144
185.838013887405 458.329796791077 2765.00010490417 214 219 215
191.893875598907 454.83586192131 2743.99995803833 136 138 135
198.052808642387 451.838970184326 2726.0000705719 141 141 139
204.188451170921 449.007481336594 2709.00011062622 152 153 148
210.699513554573 447.170168161392 2697.99995422363 154 155 150
217.634961009026 446.3270008564 2693.00007820129 157 158 153
224.793061614037 445.980548858643 2690.99998474121 157 158 153
232.025846838951 445.799440145493 2690.00005722046 158 158 156
239.252462983131 445.617884397507 2688.99989128113 159 159 157
246.83965742588 446.098774671555 2691.99991226196 162 164 161
254.44233417511 446.579217910767 2694.9999332428 185 187 184
263.323277235031 449.213266372681 2710.99996566772 181 183 180
-304.774820804596 452.532857656479 2776.99995040894 205 210 206
-296.26539349556 451.085567474365 2767.99988746643 191 196 192
-288.22124004364 450.289666652679 2763.00001144409 187 188 183
-280.609786510468 450.145184993744 2762.00008392334 163 164 159
-273.101776838303 450.163334608078 2762.00008392334 163 164 159
-265.785187482834 450.506955385208 2763.99993896484 156 157 152
-258.270055055618 450.524210929871 2763.99993896484 156 157 152
-251.02624297142 451.030015945435 2766.99995994568 155 156 151
-243.677332997322 451.372474431992 2769.00005340576 143 144 139
-236.828431487083 452.692538499832 2776.99995040894 145 146 141
-230.265527963638 454.664379358292 2789.00003433228 135 136 131
-224.43500161171 458.266109228134 2811.00010871887 105 106 101
-218.792498111725 462.519735097885 2836.99989318848 92 93 88
-190.944045782089 451.474636793137 2769.00005340576 172 174 171
-182.414472103119 449.041575193405 2753.99994850159 161 163 160
-173.394307494164 445.140451192856 2730.00001907349 184 186 183
-165.051341056824 442.706137895584 2714.99991416931 155 155 153
-157.079815864563 441.086530685425 2704.99992370605 159 159 157
-149.383619427681 440.118700265884 2698.99988174438 189 189 187
-141.40385389328 438.171893358231 2687.00003623962 161 161 159
-133.688524365425 436.876744031906 2678.99990081787 151 151 149
-125.921964645386 435.254961252213 2668.99991035461 164 164 162
-118.34279447794 434.121876955032 2661.99994087219 144 145 140
-110.676139593124 432.498961687088 2651.99995040894 166 167 162
-103.25863212347 431.691020727158 2647.0000743866 172 173 168
-96.0131362080574 431.534796953201 2645.99990844727 165 166 161
-88.7056216597557 431.051939725876 2642.99988746643 166 167 162
-81.414170563221 430.568635463715 2640.00010490417 159 160 155
-74.0544199943542 429.595500230789 2634.0000629425 158 159 154
-66.8540373444557 429.437279701233 2632.99989700317 157 158 153
-59.6362203359604 429.115533828735 2631.00004196167 156 157 152
-52.5088533759117 429.445654153824 2632.99989700317 152 153 148
-45.3531928360462 429.612219333649 2634.0000629425 149 150 145
-38.206409662962 429.941296577454 2635.99991798401 148 149 143
-31.0250651091337 429.943740367889 2635.99991798401 145 146 140
-23.8436069339514 429.945647716522 2635.99991798401 148 149 143
-16.6367832571268 429.294645786285 2631.99996948242 151 152 147
-9.46248602122068 429.132491350174 2631.00004196167 152 153 148
-2.29011452756822 428.317338228226 2625.99992752075 155 156 151
4.86428150907159 428.317219018936 2625.99992752075 154 155 150
12.0140835642815 428.153574466705 2625 158 158 156
19.1729981452227 428.315550088882 2625.99992752075 160 160 158
26.3573434203863 428.803294897079 2628.99994850159 161 161 159
33.5579439997673 429.290533065796 2631.99996948242 169 169 167
40.8057235181332 430.103451013565 2637.00008392334 171 173 170
48.135194927454 431.405156850815 2644.99998092651 176 178 175
55.5290058255196 432.869404554367 2654.00004386902 177 179 176
62.9243701696396 434.006959199905 2661.00001335144 175 177 174
70.2785328030586 434.654712677002 2664.99996185303 169 171 168
77.6542499661446 435.301929712296 2668.99991035461 166 168 165
85.0196480751038 435.785531997681 2671.99993133545 171 173 170
92.5047472119331 436.757892370224 2677.99997329712 173 175 172
99.9849364161491 437.566667795181 2683.00008773804 166 168 165
107.571989297867 438.701063394547 2690.00005722046 163 165 162
115.196794271469 439.834952354431 2697.00002670288 164 166 163
122.904762625694 441.131293773651 2704.99992370605 159 159 157
130.800381302834 442.916452884674 2716.00008010864 157 157 155
139.671310782433 447.636246681213 2744.99988555908 148 150 147
186.926156282425 453.43941450119 2780.99989891052 205 210 206
191.76709651947 447.06779718399 2742.00010299683 132 134 131
198.066264390945 444.445908069611 2726.0000705719 141 141 139
204.353049397469 441.986709833145 2710.99996566772 153 154 149
210.713759064674 439.853310585022 2697.99995422363 153 154 149
217.407166957855 438.534766435623 2690.00005722046 153 154 149
224.473997950554 438.030898571014 2687.00003623962 153 154 149
231.955125927925 438.341677188873 2688.99989128113 159 159 157
239.26842212677 438.32603096962 2688.99989128113 162 162 160
246.764346957207 438.635945320129 2690.99998474121 163 165 162
254.175931215286 438.782393932343 2691.99991226196 178 180 177
263.534933328629 442.188203334808 2713.00005912781 192 194 191
-306.221157312393 447.085678577423 2789.99996185303 205 210 206
-296.284437179565 443.579375743866 2767.99988746643 190 195 191
-288.135558366776 442.636638879776 2762.00008392334 192 193 188
-280.221551656723 442.013800144196 2757.99989700317 167 168 163
-272.724032402039 442.031741142273 2757.99989700317 163 164 159
-265.514075756073 442.530035972595 2760.99991798401 156 157 152
-258.006632328033 442.547053098679 2760.99991798401 157 158 153
-250.770568847656 443.044573068619 2763.99993896484 150 151 146
-243.693441152573 443.862289190292 2769.00005340576 142 143 138
-236.929446458817 445.320844650269 2778.00011634827 142 143 138
-230.611130595207 447.740882635117 2792.99998283386 133 134 129
-224.529817700386 450.801819562912 2812.00003623962 115 116 111
-219.886928796768 457.068979740143 2851.0000705719 103 104 99
-200.499981641769 448.439568281174 2796.99993133545 210 212 209
-191.508635878563 445.246040821075 2776.99995040894 133 135 132
-182.426810264587 441.570937633514 2753.99994850159 182 184 181
-173.21552336216 437.253713607788 2726.99999809265 185 187 184
-164.880186319351 434.859991073608 2711.99989318848 151 151 149
-157.090544700623 433.748453855515 2704.99992370605 167 167 165
-149.504542350769 433.1174492836 2700.99997520447 174 174 172
-141.518801450729 431.203067302704 2688.99989128113 157 157 155
-133.74762237072 429.769277572632 2680.0000667572 175 175 173
-126.02499127388 428.334832191467 2671.0000038147 139 139 137
-118.350937962532 426.899880170822 2661.99994087219 151 152 147
-110.683776438236 425.304055213928 2651.99995040894 171 172 167
-103.265769779682 424.509584903717 2647.0000743866 165 166 161
-96.0560888051987 424.516469240189 2647.0000743866 175 176 171
-88.7117758393288 423.881262540817 2642.99988746643 159 160 155
-81.3581347465515 423.08521270752 2638.00001144409 156 157 152
-74.0033239126205 422.128289937973 2631.99996948242 156 157 152
-66.8586865067482 422.293573617935 2632.99989700317 156 157 152
-59.6857070922852 422.297924757004 2632.99989700317 156 157 152
-52.5523982942104 422.622561454773 2634.99999046326 153 154 149
-45.3907884657383 422.786384820938 2635.99991798401 151 152 147
-38.2090732455254 422.789216041565 2635.99991798401 151 152 146
-31.015457585454 422.63126373291 2634.99999046326 147 148 142
-23.8452702760696 422.793567180634 2635.99991798401 149 150 144
-16.6316237300634 421.993017196655 2631.00004196167 151 152 147
-9.45595279335976 421.673119068146 2628.99994850159 152 153 148
-2.28940229862928 421.031981706619 2625 155 156 151
4.86462097615004 421.192228794098 2625.99992752075 155 156 151
12.0195001363754 421.191692352295 2625.99992752075 157 157 155
19.1889386624098 421.511381864548 2628.00002098084 159 159 157
26.3792388141155 421.991020441055 2631.00004196167 162 162 160
33.5985347628593 422.630459070206 2634.99999046326 167 167 165
40.8395193517208 423.26945066452 2638.99993896484 170 172 169
48.1749512255192 424.549520015717 2647.0000743866 176 178 175
55.4910264909267 425.347834825516 2651.99995040894 177 179 176
62.9287511110306 426.787227392197 2661.00001335144 177 179 176
70.2570453286171 427.263766527176 2664.00003433228 175 177 174
77.6305422186852 427.900224924088 2667.99998283386 173 175 172
84.9937275052071 428.375720977783 2671.0000038147 171 173 170
92.4420654773712 429.171502590179 2676.00011825562 170 172 169
99.9545753002167 430.127143859863 2681.99992179871 164 166 163
107.499435544014 431.082278490067 2687.99996376038 163 165 162
115.162029862404 432.357639074326 2696.00009918213 163 165 162
122.958675026894 433.953106403351 2706.00008964539 153 153 151
130.809351801872 435.548067092896 2716.00008010864 152 152 150
139.172032475471 438.585698604584 2734.99989509583 147 149 146
191.500246524811 438.988447189331 2737.99991607666 128 130 127
197.934255003929 436.730831861496 2723.99997711182 146 146 144
204.366758465767 434.633165597916 2710.99996566772 154 155 150
210.884094238281 432.855844497681 2700.00004768372 155 156 151
217.74497628212 431.879669427872 2694.00000572205 155 156 151
224.739581346512 431.223809719086 2690.00005722046 156 157 152
232.143044471741 431.369036436081 2690.99998474121 160 160 158
239.373192191124 431.193172931671 2690.00005722046 162 162 160
246.780604124069 431.337594985962 2690.99998474121 162 164 161
254.287004470825 431.641757488251 2693.00007820129 179 181 178
263.940721750259 435.471624135971 2717.00000762939 191 193 190
-304.923415184021 437.628358602524 2778.00011634827 205 210 206
-296.19625210762 435.914427042007 2766.99995994568 189 194 190
-287.840992212296 434.672623872757 2759.0000629425 191 192 187
-279.833108186722 433.902889490128 2753.99994850159 167 168 163
-272.54381775856 434.235721826553 2756.00004196167 163 164 159
-265.338897705078 434.725672006607 2759.0000629425 156 157 152
-257.836550474167 434.742569923401 2759.0000629425 156 157 152
-250.605493783951 435.231745243073 2762.00008392334 156 157 152
-243.533328175545 436.035603284836 2766.99995994568 141 142 137
-237.030267715454 437.942385673523 2779.00004386902 132 133 128
-230.543747544289 440.006405115128 2792.00005531311 126 127 122
-224.544644355774 443.173259496689 2812.00003623962 104 105 100
-218.590244650841 446.655064821243 2834.00011062622 131 132 127
-199.796438217163 439.274996519089 2786.99994087219 207 209 206
-191.728338599205 438.184678554535 2779.99997138977 132 134 131
-182.637766003609 434.571802616119 2756.99996948242 174 176 173
-173.163652420044 429.697215557098 2726.0000705719 179 181 178
-164.83049094677 427.344083786011 2710.99996566772 148 148 146
-156.984984874725 426.093757152557 2703.00006866455 174 174 172
-149.403959512711 425.473511219025 2698.99988174438 166 166 164
-141.528367996216 423.906832933426 2688.99989128113 161 161 159
-133.856505155563 422.812640666962 2681.99992179871 169 169 167
-126.222312450409 421.717882156372 2674.99995231628 149 149 147
-118.536859750748 420.307219028473 2665.99988937378 153 154 149
-110.816553235054 418.580830097198 2654.99997138977 165 166 161
-103.389881551266 417.799860239029 2650.00009536743 167 168 163
-96.0626527667046 417.333632707596 2647.0000743866 173 174 169
-88.6842906475067 416.55158996582 2641.99995994568 157 158 153
-81.3945606350899 416.084378957748 2638.99993896484 155 156 151
-74.0646496415138 415.301382541656 2634.0000629425 155 156 151
-66.9140815734863 415.463835000992 2634.99999046326 155 156 151
-59.7351565957069 415.46818614006 2634.99999046326 156 157 152
-52.6158586144447 415.945082902908 2638.00001144409 153 154 149
-45.4455800354481 416.106045246124 2638.99993896484 152 153 148
-38.2551997900009 416.108906269073 2638.99993896484 152 153 147
-31.0293696820736 415.638238191605 2635.99991798401 148 149 143
-23.8378718495369 415.482521057129 2634.99999046326 150 151 145
-16.6264530271292 414.695531129837 2630.00011444092 153 154 149
-9.45300981402397 414.38102722168 2628.00002098084 153 154 149
-2.28956062346697 413.908421993256 2625 154 155 150
4.86866291612387 414.381325244904 2628.00002098084 155 156 151
12.0432171970606 414.853781461716 2631.00004196167 154 154 152
19.2267764359713 415.168076753616 2632.99989700317 157 157 155
26.3910852372646 415.008813142776 2631.99996948242 162 162 160
33.6263589560986 415.795147418976 2637.00008392334 163 163 161
40.8423356711864 416.107952594757 2638.99993896484 161 163 160
48.1782667338848 417.366325855255 2647.0000743866 172 174 171
55.4111450910568 417.520463466644 2648.00000190735 172 174 171
62.8857761621475 419.250786304474 2658.99991989136 178 180 177
70.288248360157 420.192271471024 2664.99996185303 182 184 181
77.7522698044777 421.290904283524 2671.99993133545 182 184 181
85.0950255990028 421.600669622421 2674.00002479553 178 180 177
92.4829393625259 422.067612409592 2677.00004577637 171 173 170
99.8868718743324 422.534048557281 2680.0000667572 172 174 171
107.426792383194 423.473000526428 2686.00010871887 171 173 170
115.212596952915 425.199627876282 2697.00002670288 165 167 164
123.057931661606 426.925778388977 2707.99994468689 150 150 148
130.818262696266 428.178459405899 2716.00008010864 150 150 148
138.927042484283 430.376440286636 2730.00001907349 151 153 150
191.233277320862 430.929601192474 2733.99996757507 128 130 127
197.80208170414 429.025262594223 2721.99988365173 149 149 147
204.154148697853 426.805436611176 2707.99994468689 150 151 146
211.054250597954 425.846099853516 2701.99990272522 152 153 148
217.840164899826 424.728870391846 2694.9999332428 155 156 151
224.921450018883 424.241542816162 2691.99991226196 155 156 151
232.071965932846 423.911422491074 2690.00005722046 156 156 154
239.388838410378 423.896104097366 2690.00005722046 156 156 154
246.888354420662 424.195498228073 2691.99991226196 165 167 164
254.586815834045 424.809604883194 2696.00009918213 179 181 178
265.026420354843 429.835021495819 2727.9999256134 182 184 181
-305.381625890732 430.712103843689 2782.00006484985 205 210 206
-296.321958303452 428.563296794891 2767.99988746643 189 194 190
-287.859201431274 427.188187837601 2759.0000629425 188 189 184
-279.647648334503 426.122188568115 2752.00009346008 168 169 164
-272.165596485138 426.139652729034 2752.00009346008 164 165 160
-264.971166849136 426.621228456497 2755.00011444092 159 160 155
-257.759600877762 427.102446556091 2757.99989700317 158 159 154
-250.440150499344 427.42845416069 2759.99999046326 140 141 136
-243.549078702927 428.528338670731 2766.99995994568 158 159 154
-236.789777874947 429.937720298767 2776.00002288818 146 147 142
-230.393588542938 432.121098041534 2789.99996185303 103 104 99
-224.080160260201 434.613972902298 2805.99999427795 90 92 87
-199.881300330162 431.867361068726 2788.00010681152 212 214 211
-191.327184438705 429.711550474167 2773.9999294281 173 175 172
-182.31862783432 426.315814256668 2752.00009346008 149 151 148
-173.365741968155 422.76456952095 2729.00009155273 160 162 159
-164.963081479073 420.297056436539 2713.00005912781 183 183 181
-156.995460391045 418.758511543274 2703.00006866455 192 192 190
-149.247869849205 417.684227228165 2696.00009918213 158 158 156
-141.485244035721 416.454434394836 2687.99996376038 167 167 165
-133.965313434601 415.84387421608 2684.00001525879 145 147 144
-126.419544219971 415.077894926071 2678.99990081787 151 151 149
-118.722721934319 413.69166970253 2670.00007629395 154 155 150
-111.032754182816 412.14993596077 2660.00008583069 164 165 160
-103.513918817043 411.072552204132 2653.00011634827 175 176 171
-96.1417332291603 410.45942902565 2648.9999294281 165 166 161
-88.7574478983879 409.690946340561 2644.00005340576 154 155 150
-81.4617797732353 409.231841564178 2641.00003242493 154 155 150
-74.1821601986885 408.772200345993 2638.00001144409 153 154 149
-67.0202076435089 408.931940793991 2638.99993896484 153 154 149
-59.7845651209354 408.626317977905 2637.00008392334 154 155 150
-52.5994934141636 408.630102872849 2637.00008392334 153 154 149
-45.4142354428768 408.633410930634 2637.00008392334 152 153 148
-38.2578112185001 408.946186304092 2638.99993896484 152 153 147
-31.0550332069397 408.793538808823 2638.00001144409 148 149 143
-23.8575916737318 408.640474081039 2637.00008392334 150 151 145
-16.6465528309345 408.021956682205 2632.99989700317 152 153 148
-9.46444738656282 407.71296620369 2631.00004196167 153 154 149
-2.29320605285466 407.403409481049 2628.99994850159 153 154 149
4.87640593200922 407.868176698685 2631.99996948242 154 155 150
12.0623512193561 408.332526683807 2634.99999046326 152 152 150
19.2573014646769 408.641427755356 2637.00008392334 155 155 153
26.4530535787344 408.794850111008 2638.00001144409 161 161 159
33.7051711976528 409.567594528198 2642.99988746643 160 160 158
40.9379862248898 409.874975681305 2644.99998092651 153 155 152
48.2179522514343 410.491824150085 2648.9999294281 170 172 169
55.4149150848389 410.333335399628 2648.00000190735 169 171 168
62.8427565097809 411.723971366882 2657.00006484985 173 175 172
70.1875239610672 412.339329719543 2661.00001335144 177 179 176
77.7284502983093 413.883835077286 2671.0000038147 177 179 176
85.1008072495461 414.34320807457 2674.00002479553 174 176 173
92.5237610936165 414.957046508789 2677.99997329712 171 173 170
99.9681875109673 415.570348501205 2681.99992179871 171 173 170
107.514038681984 416.493088006973 2687.99996376038 167 169 166
115.26308208704 418.035000562668 2697.99995422363 157 159 156
123.02078306675 419.421523809433 2707.00001716614 151 151 149
130.778878927231 420.652508735657 2714.99991416931 149 149 147
138.936370611191 422.967582941055 2730.00001907349 155 157 154
191.036030650139 423.046052455902 2730.99994659424 128 130 127
197.6697742939 421.329408884048 2720.00002861023 137 137 135
204.167544841766 419.45743560791 2707.99994468689 152 153 148
211.224317550659 418.824374675751 2703.9999961853 153 154 149
218.096867203712 417.881071567535 2697.99995422363 156 157 152
225.186735391617 417.40208864212 2694.9999332428 157 158 153
232.259586453438 416.922718286514 2691.99991226196 161 161 159
239.760279655457 417.217254638672 2694.00000572205 162 162 160
247.362852096558 417.666286230087 2697.00002670288 168 170 167
255.547523498535 419.043958187103 2706.00008964539 167 169 166
-304.961442947388 422.555923461914 2778.00011634827 203 208 204
-296.554535627365 421.357572078705 2769.99998092651 189 194 190
-288.085877895355 420.006662607193 2760.99991798401 184 184 182
-279.970079660416 419.111579656601 2755.00011444092 170 172 169
-272.182732820511 418.672502040863 2752.00009346008 159 161 158
-265.084147453308 419.297903776169 2756.00004196167 156 158 155
-257.775962352753 419.618636369705 2757.99989700317 161 163 160
-250.365376472473 419.786840677261 2759.0000629425 149 151 148
-243.124559521675 420.258939266205 2762.00008392334 152 154 151
-236.378401517868 421.643644571304 2770.99990844727 139 141 138
-229.912921786308 423.636704683304 2783.99991989136 136 138 135
-223.934888839722 426.69466137886 2803.99990081787 87 92 88
-200.037717819214 424.60510134697 2789.99996185303 205 210 204
-190.925806760788 421.269625425339 2767.99988746643 57 62 56
-181.800529360771 417.629063129425 2743.99995803833 163 165 160
-173.313573002815 415.205448865891 2727.9999256134 157 158 153
-164.973929524422 412.933439016342 2713.00005912781 188 188 186
-157.063916325569 411.574095487595 2703.9999961853 189 189 187
-149.257734417915 410.366535186768 2696.00009918213 172 174 171
-141.652524471283 409.614980220795 2690.99998474121 158 160 159
-134.074047207832 408.862978219986 2686.00010871887 138 142 141
-126.427948474884 407.805979251862 2678.99990081787 142 144 141
-118.819557130337 406.748533248901 2671.99993133545 163 163 161
-111.332356929779 405.995011329651 2667.00005531311 171 171 169
-103.832989931107 405.088782310486 2661.00001335144 178 178 176
-96.3659584522247 404.182016849518 2654.99997138977 151 151 149
-88.8976752758026 403.122544288635 2648.00000190735 148 148 146
-81.5597772598267 402.519226074219 2644.00005340576 151 151 149
-74.243389070034 401.915520429611 2640.00010490417 150 150 148
-67.1009123325348 402.224719524384 2641.99995994568 150 150 148
-59.8792731761932 402.076691389084 2641.00003242493 151 151 151
-52.7027733623981 402.232706546783 2641.99995994568 152 152 152
-45.4689674079418 401.931524276733 2640.00010490417 151 151 149
-38.2893867790699 402.086555957794 2641.00003242493 149 149 147
-31.0806762427092 401.936650276184 2640.00010490417 148 148 146
-23.8863490521908 401.938527822495 2640.00010490417 150 150 148
-16.6792906820774 401.635348796844 2638.00001144409 151 151 149
-9.47947520762682 401.179432868958 2634.99999046326 151 151 149
-2.29685008525848 400.875359773636 2632.99989700317 148 148 146
4.87673562020063 400.723040103912 2631.99996948242 148 148 146
12.0631651952863 401.179194450378 2634.99999046326 151 151 149
19.258601590991 401.482701301575 2637.00008392334 147 147 145
26.4748949557543 401.937901973724 2640.00010490417 154 154 152
33.7201990187168 402.544885873795 2644.00005340576 161 161 159
40.9717038273811 402.999103069305 2647.0000743866 151 151 149
48.2576079666615 403.605103492737 2651.00002288818 165 165 163
55.4814338684082 403.601616621017 2651.00002288818 172 172 170
62.8706365823746 404.663413763046 2657.99999237061 161 161 159
70.2449977397919 405.420154333115 2663.00010681152 161 161 159
77.7627676725388 406.785368919373 2671.99993133545 168 168 166
85.0746855139732 406.932204961777 2673.00009727478 177 177 175
92.4954041838646 407.535225152969 2677.00004577637 170 170 168
99.9748557806015 408.28999876976 2681.99992179871 171 171 169
107.601225376129 409.500926733017 2690.00005722046 149 149 147
115.270771086216 410.711407661438 2697.99995422363 149 149 147
122.983522713184 411.921352148056 2706.00008964539 147 149 144
130.643039941788 412.826269865036 2711.99989318848 147 149 144
138.843774795532 415.252894163132 2727.9999256134 158 160 155
190.628752112389 414.720863103867 2724.99990463257 129 131 128
197.39194214344 413.338661193848 2716.00008010864 138 140 139
203.728407621384 411.19509935379 2701.99990272522 153 155 152
210.847362875938 410.725206136703 2698.99988174438 151 153 150
217.706754803658 409.798443317413 2693.00007820129 156 158 155
224.866986274719 409.479916095734 2690.99998474121 164 166 163
232.101887464523 409.313142299652 2690.00005722046 159 161 158
239.864602684975 410.058915615082 2694.9999332428 149 151 148
247.653767466545 410.80430150032 2700.00004768372 140 142 139
256.130367517471 412.614107131958 2711.99989318848 134 136 133
-304.54096198082 414.420187473297 2773.9999294281 203 208 204
-296.679824590683 413.990378379822 2770.99990844727 189 194 190
-288.2080078125 412.663668394089 2762.00008392334 188 188 186
-279.987454414368 411.635279655457 2755.00011444092 174 176 173
-272.298574447632 411.353498697281 2753.00002098084 168 170 167
-265.100687742233 411.818414926529 2756.00004196167 157 159 156
-257.979065179825 412.432372570038 2759.99999046326 149 151 148
-250.471860170364 412.448287010193 2759.99999046326 143 145 142
-243.139922618866 412.762641906738 2762.00008392334 147 149 146
-236.222788691521 413.823813199997 2769.00005340576 141 146 142
-229.927524924278 416.080296039581 2783.99991989136 79 84 80
-224.268674850464 419.681698083878 2808.00008773804 67 72 68
-201.412931084633 419.871777296066 2809.00001525879 210 215 208
-190.524265170097 412.858992815018 2762.00008392334 0 2 0
-180.950939655304 408.236980438232 2730.99994659424 169 171 166
-172.753006219864 406.454563140869 2719.00010108948 165 166 161
-164.741396903992 404.970556497574 2709.00011062622 183 183 181
-157.132223248482 404.3830037117 2704.99992370605 190 190 188
-149.433553218842 403.495877981186 2698.99988174438 155 157 154
-141.819730401039 402.757942676544 2694.00000572205 141 145 144
-134.132742881775 401.720345020294 2687.00003623962 133 137 136
-126.389056444168 400.38326382637 2677.99997329712 156 160 159
-118.916317820549 399.793267250061 2674.00002479553 148 148 146
-111.464940011501 399.202764034271 2670.00007629395 184 184 182
-103.995926678181 398.462206125259 2664.99996185303 157 157 155
-96.5175032615662 397.571682929993 2658.99991989136 137 137 135
-89.0378504991531 396.531134843826 2651.99995040894 150 150 148
-81.7194208502769 396.088153123856 2648.9999294281 149 149 149
-74.3889361619949 395.495295524597 2644.99998092651 149 149 149
-67.1815648674965 395.49994468689 2644.99998092651 151 151 151
-59.9285997450352 395.205050706863 2642.99988746643 150 150 150
-52.7461767196655 395.358294248581 2644.00005340576 149 149 149
-45.506440103054 395.062476396561 2641.99995994568 149 149 149
-38.3209325373173 395.214766263962 2642.99988746643 148 148 146
-31.1062913388014 395.067572593689 2641.99995994568 147 147 145
-23.906035348773 395.069390535355 2641.99995994568 148 148 146
-16.6993718594313 394.921243190765 2641.00003242493 150 150 148
-9.4909006729722 394.47346329689 2638.00001144409 150 150 148
-2.30049295350909 394.324332475662 2637.00008392334 147 147 145
4.88632638007402 394.324272871017 2637.00008392334 146 146 144
12.0822824537754 394.62274312973 2638.99993896484 147 147 145
19.274489954114 394.621670246124 2638.99993896484 144 144 142
26.4967139810324 395.068794488907 2641.99995994568 150 150 148
33.7479524314404 395.664930343628 2645.99990844727 158 158 156
41.03634506464 396.41010761261 2651.00002288818 147 147 145
48.3154393732548 396.855771541595 2654.00004386902 159 159 157
55.6107051670551 397.3009288311 2657.00006484985 168 168 166
62.9457756876946 397.895097732544 2661.00001335144 163 163 161
70.2760368585587 398.339301347733 2664.00003433228 162 162 160
77.7097120881081 399.231553077698 2670.00007629395 166 166 164
85.0166603922844 399.375736713409 2671.0000038147 170 170 168
92.3978686332703 399.818509817123 2674.00002479553 181 181 179
100.018747150898 401.157855987549 2683.00008773804 142 142 140
107.688330113888 402.496665716171 2691.99991226196 143 143 141
115.363821387291 403.685480356216 2700.00004768372 155 155 153
122.900694608688 404.275715351105 2703.9999961853 159 161 156
130.555287003517 405.164539813995 2710.00003814697 156 158 153
138.85286450386 407.846838235855 2727.9999256134 144 146 141
190.291240811348 406.576484441757 2720.00002861023 136 138 135
197.041198611259 405.218869447708 2710.99996566772 142 144 143
203.66607606411 403.711348772049 2700.99997520447 147 149 146
210.704579949379 403.100311756134 2697.00002670288 156 158 155
217.801466584206 402.638375759125 2694.00000572205 164 166 163
224.881261587143 402.175962924957 2690.99998474121 159 161 158
232.289150357246 402.311027050018 2691.99991226196 151 153 150
239.879742264748 402.74453163147 2694.9999332428 148 150 147
247.944533824921 403.924822807312 2703.00006866455 151 153 150
256.429761648178 405.702263116837 2714.99991416931 180 182 179
267.117202281952 410.766512155533 2749.00007247925 175 177 174
-305.876880884171 408.651918172836 2786.00001335144 203 208 204
-296.376645565033 406.029760837555 2767.99988746643 190 195 191
-288.121253252029 405.020624399185 2760.99991798401 188 188 186
-280.004590749741 404.157668352127 2755.00011444092 172 174 171
-272.414237260818 404.027819633484 2753.99994850159 167 169 166
-265.117019414902 404.337674379349 2756.00004196167 159 161 158
-257.901608943939 404.793977737427 2759.0000629425 155 157 154
-250.487446784973 404.956310987473 2759.99999046326 140 142 139
-242.978990077972 404.971569776535 2759.99999046326 132 134 131
-235.981628298759 405.866861343384 2766.00003242493 141 146 142
-229.694202542305 408.082395792007 2780.99989891052 68 73 69
-224.522411823273 412.498861551285 2811.00010871887 58 63 59
-201.354071497917 412.098795175552 2808.00008773804 153 158 151
-191.295221447945 406.974524259567 2773.00000190735 28 33 26
-181.028768420219 400.968968868256 2732.00011253357 28 30 25
-172.636970877647 398.778676986694 2717.00000762939 134 135 130
-164.751976728439 397.615194320679 2709.00011062622 99 100 95
-157.200440764427 397.185206413269 2706.00008964539 138 139 134
-149.609327316284 396.607875823975 2701.99990272522 133 135 132
-141.934186220169 395.736515522003 2696.00009918213 130 135 131
-134.141445159912 394.424289464951 2687.00003623962 132 137 133
-126.444473862648 393.258333206177 2678.99990081787 142 147 143
-118.924036622047 392.532289028168 2674.00002479553 165 165 163
-111.555688083172 392.246067523956 2671.99993133545 148 148 146
-104.080766439438 391.519099473953 2667.00005531311 129 129 127
-96.5238064527512 390.351176261902 2658.99991989136 165 165 163
-89.0772640705109 389.476418495178 2653.00011634827 156 156 154
-81.755630671978 389.041483402252 2650.00009536743 137 137 137
-74.4500607252121 388.606160879135 2647.0000743866 142 142 142
-67.2113671898842 388.463914394379 2645.99990844727 149 149 149
-59.9552169442177 388.174504041672 2644.00005340576 148 148 148
-52.8094954788685 388.618558645248 2647.0000743866 146 146 146
-45.5955602228642 388.621807098389 2647.0000743866 147 147 147
-38.3814573287964 388.624578714371 2647.0000743866 145 145 143
-31.1672128736973 388.62681388855 2647.0000743866 143 143 141
-23.943804204464 388.481795787811 2645.99990844727 143 143 141
-16.7194437235594 388.189524412155 2644.00005340576 147 147 145
-9.49872191995382 387.60307431221 2640.00010490417 147 147 145
-2.30326200835407 387.603461742401 2640.00010490417 147 147 145
4.89406008273363 387.750178575516 2641.00003242493 144 144 142
12.1013922616839 388.043254613876 2642.99988746643 143 143 141
19.3049777299166 388.042241334915 2642.99988746643 142 142 140
26.5285484492779 388.334333896637 2644.99998092651 150 150 148
33.7756834924221 388.772875070572 2648.00000190735 155 155 153
41.0545282065868 389.357686042786 2651.99995040894 148 148 146
48.3186133205891 389.648407697678 2654.00004386902 154 154 152
55.6352846324444 390.232294797897 2657.99999237061 162 162 160
62.9735663533211 390.815645456314 2661.99994087219 166 166 164
70.333406329155 391.398519277573 2665.99988937378 166 166 164
77.7148082852364 391.980975866318 2670.00007629395 167 167 165
85.0540399551392 392.269283533096 2671.99993133545 180 180 178
92.4730226397514 392.850816249847 2676.00011825562 161 161 159
100.062564015388 394.018977880478 2684.00001525879 151 151 149
107.695341110229 395.186632871628 2691.99991226196 160 160 158
115.371324121952 396.353840827942 2700.00004768372 146 146 144
122.999593615532 397.226929664612 2706.00008964539 174 176 171
130.660086870193 398.099482059479 2711.99989318848 153 155 150
138.91276717186 400.586307048798 2729.00009155273 125 127 122
190.023526549339 398.60475063324 2716.00008010864 150 152 149
196.908369660378 397.565245628357 2709.00011062622 152 154 153
203.678950667381 396.378517150879 2700.99997520447 152 154 151
210.561603307724 395.485013723373 2694.9999332428 160 162 159
217.653468251228 395.03139257431 2691.99991226196 159 161 158
224.728226661682 394.577354192734 2688.99989128113 152 154 151
232.217401266098 394.856631755829 2690.99998474121 161 163 160
239.716678857803 395.135462284088 2693.00007820129 167 169 166
247.776448726654 396.294146776199 2700.99997520447 186 188 185
256.256699562073 398.039251565933 2713.00005912781 157 159 156
267.619520425797 404.038399457932 2753.99994850159 161 163 160
-305.675566196442 400.801748037338 2783.99991989136 203 208 204
-296.180248260498 398.228138685226 2766.00003242493 191 196 192
-288.034230470657 397.381752729416 2759.99999046326 189 189 187
-280.021548271179 396.678894758224 2755.00011444092 174 176 173
-272.529721260071 396.695584058762 2755.00011444092 168 170 167
-265.037029981613 396.711796522141 2755.00011444092 155 157 154
-257.730424404144 397.015631198883 2756.99996948242 153 155 152
-250.412076711655 397.319108247757 2759.0000629425 145 147 144
-243.1700527668 397.766202688217 2762.00008392334 129 131 128
-236.166834831238 398.644953966141 2767.99988746643 134 139 135
-229.956224560738 400.963664054871 2783.99991989136 68 73 69
-201.438382267952 404.617995023727 2809.00001525879 140 145 138
-191.790193319321 400.45291185379 2779.99997138977 14 19 12
-181.702852249146 394.990712404251 2742.00010299683 27 29 24
-172.39373922348 390.824288129807 2713.00005912781 28 29 24
-164.701595902443 390.114545822144 2707.99994468689 121 122 117
-157.152310013771 389.692485332489 2704.99992370605 174 175 170
-149.452716112137 388.837784528732 2698.99988174438 132 134 129
-141.837924718857 388.12667131424 2694.00000572205 130 135 131
-134.100094437599 386.982887983322 2686.00010871887 143 148 144
-126.594170928001 386.41482591629 2681.99992179871 153 158 154
-119.06510591507 385.702252388 2677.00004577637 183 184 179
-111.562855541706 384.989142417908 2671.99993133545 119 119 117
-104.0093973279 383.987486362457 2664.99996185303 143 143 141
-96.4937284588814 382.985264062881 2657.99999237061 157 157 155
-89.1501531004906 382.558971643448 2654.99997138977 141 141 139
-81.9151699542999 382.564425468445 2654.99997138977 138 138 136
-74.6236443519592 382.281303405762 2653.00011634827 143 143 141
-67.3427358269691 381.997674703598 2651.00002288818 148 148 148
-60.0724816322327 381.713539361954 2648.9999294281 145 145 145
-52.8528206050396 381.717175245285 2648.9999294281 142 142 142
-45.6501990556717 381.864488124847 2650.00009536743 143 143 143
-38.4419485926628 382.011264562607 2651.00002288818 142 142 140
-31.2163382768631 382.013529539108 2651.00002288818 141 141 139
-23.9725112915039 381.727069616318 2648.9999294281 142 142 140
-16.7395006865263 381.440192461014 2647.0000743866 145 145 143
-9.51013434678316 380.86462020874 2642.99988746643 146 146 144
-2.30602896772325 380.864977836609 2642.99988746643 145 145 143
4.90549765527248 381.441324949265 2647.0000743866 141 141 139
12.1250739321113 381.584882736206 2648.00000190735 142 142 140
19.3354524672031 381.439805030823 2647.0000743866 143 143 141
26.5503339469433 381.438285112381 2647.0000743866 151 151 149
33.8161438703537 382.012754678726 2651.00002288818 155 155 153
41.1036349833012 382.586747407913 2654.99997138977 145 145 143
48.3581572771072 382.727950811386 2655.99989891052 151 151 149
55.6179545819759 382.868707180023 2657.00006484985 157 157 155
62.9776418209076 383.58536362648 2661.99994087219 163 163 161
70.311576128006 384.013384580612 2664.99996185303 167 167 165
77.7489319443703 384.87321138382 2671.0000038147 170 170 168
85.1550400257111 385.444313287735 2674.99995231628 173 173 171
92.5826504826546 386.014997959137 2678.99990081787 140 140 138
100.143574178219 387.017488479614 2686.00010871887 156 156 154
107.782289385796 388.163506984711 2694.00000572205 153 153 151
115.506939589977 389.453172683716 2703.00006866455 152 152 150
123.14385175705 390.310019254684 2709.00011062622 135 137 132
130.668446421623 390.734136104584 2711.99989318848 127 129 124
138.870730996132 393.030792474747 2727.9999256134 150 152 147
189.965486526489 391.085535287857 2714.99991416931 138 140 137
196.775302290916 389.921218156815 2707.00001716614 128 130 129
203.691691160202 389.044493436813 2700.99997520447 163 165 162
210.574746131897 388.167440891266 2694.9999332428 166 168 165
217.666983604431 387.722104787827 2691.99991226196 170 172 169
224.658563733101 387.132376432419 2687.99996376038 173 175 172
232.145443558693 387.406408786774 2690.00005722046 178 180 177
239.642411470413 387.679994106293 2691.99991226196 176 178 175
247.975125908852 389.249235391617 2703.00006866455 181 183 180
257.028043270111 391.825914382935 2720.99995613098 193 195 192
-296.090722084045 390.577524900436 2765.00010490417 192 197 193
-288.15570473671 390.029668807983 2760.99991798401 182 182 180
-280.038237571716 389.198899269104 2755.00011444092 170 172 169
-272.44707942009 389.073967933655 2753.99994850159 170 172 169
-264.668107032776 388.666182756424 2750.99992752075 155 157 154
-257.465481758118 389.105618000031 2753.99994850159 151 153 150
-250.245720148087 389.544755220413 2756.99996948242 142 144 141
-243.184834718704 390.266120433807 2762.00008392334 143 145 142
-236.266583204269 391.269713640213 2769.00005340576 122 127 123
-230.135515332222 393.686056137085 2786.00001335144 88 93 89
-191.043168306351 391.348034143448 2769.00005340576 29 34 27
-181.117713451385 386.271476745605 2733.00004005432 40 42 37
-172.40446805954 383.455663919449 2713.00005912781 29 30 25
-164.651066064835 382.61803984642 2707.00001716614 26 27 22
-156.987860798836 381.921291351318 2701.99990272522 18 19 14
-149.185210466385 380.800038576126 2694.00000572205 101 103 98
-141.688883304596 380.3850710392 2690.99998474121 125 130 124
-134.008690714836 379.404246807098 2684.00001525879 151 156 150
-126.602157950401 379.129678010941 2681.99992179871 172 177 171
-119.072638452053 378.43057513237 2677.00004577637 148 149 144
-111.611694097519 377.872377634048 2673.00009727478 148 149 144
-104.055032134056 376.889526844025 2665.99988937378 161 162 157
-96.6087728738785 376.189023256302 2661.00001335144 114 115 110
-89.2229899764061 375.629395246506 2657.00006484985 119 119 117
-81.9203928112984 375.352084636688 2654.99997138977 150 150 148
-74.6565312147141 375.21567940712 2654.00004386902 149 149 147
-67.4232393503189 375.220149755478 2654.00004386902 143 143 141
-60.1897202432156 375.224232673645 2654.00004386902 140 140 140
-52.9360175132751 375.086396932602 2653.00011634827 137 137 137
-45.6703454256058 374.806791543961 2651.00002288818 136 136 136
-38.4589172899723 374.950855970383 2651.99995040894 138 138 136
-31.2301125377417 374.953061342239 2651.99995040894 140 140 138
-24.0102503448725 375.096261501312 2653.00011634827 142 142 140
-16.7595483362675 374.673366546631 2650.00009536743 145 145 143
-9.52153839170933 374.108612537384 2645.99990844727 144 144 142
-2.3079221136868 373.967617750168 2644.99998092651 142 142 140
4.9076653085649 374.391704797745 2648.00000190735 137 137 135
12.1350111439824 374.673932790756 2650.00009536743 140 140 138
19.3659085780382 374.814301729202 2651.00002288818 143 143 141
26.6222525388002 375.237017869949 2654.00004386902 152 152 150
33.9203663170338 375.94199180603 2658.99991989136 152 152 150
41.1991626024246 376.222401857376 2661.00001335144 144 144 142
48.4340898692608 376.078188419342 2660.00008583069 150 150 148
55.6633807718754 375.933468341827 2658.99991989136 155 155 153
62.9816576838493 376.353859901428 2661.99994087219 165 165 163
70.342443883419 376.915127038956 2665.99988937378 169 169 167
77.78300344944 377.758711576462 2671.99993133545 173 173 171
85.2241367101669 378.460466861725 2677.00004577637 142 142 140
92.6922112703323 379.16162610054 2681.99992179871 127 127 125
100.187219679356 379.862457513809 2687.00003623962 163 163 161
107.829131186008 380.986839532852 2694.9999332428 155 155 153
115.471504628658 381.96936249733 2701.99990272522 137 137 135
123.197086155415 383.092790842056 2710.00003814697 130 132 127
130.580335855484 383.084863424301 2710.00003814697 153 155 150
138.57401907444 384.772688150406 2721.99988365173 153 155 150
190.047234296799 383.853226900101 2716.00008010864 134 136 133
196.860164403915 382.710695266724 2707.99994468689 129 131 130
203.704237937927 381.709158420563 2700.99997520447 165 167 164
210.353270173073 380.424648523331 2691.99991226196 173 175 172
217.356890439987 379.84636425972 2687.99996376038 180 182 179
224.421516060829 379.408985376358 2684.99994277954 179 181 178
231.986954808235 379.819095134735 2687.99996376038 188 190 187
239.567905664444 380.228728055954 2690.99998474121 192 194 191
247.80660867691 381.62699341774 2700.99997520447 193 195 192
258.177161216736 386.133104562759 2733.00004005432 176 178 175
-308.786064386368 389.563471078873 2812.00003623962 203 208 204
-296.107977628708 383.069574832916 2765.00010490417 192 197 193
-288.068234920502 382.393836975098 2759.99999046326 191 191 189
-280.054718255997 381.717652082443 2755.00011444092 170 172 169
-272.562146186829 381.7338347435 2755.00011444092 168 170 167
-264.683783054352 381.195336580276 2750.99992752075 155 157 154
-257.387340068817 381.487905979156 2753.00002098084 150 152 149
-250.079125165939 381.780087947845 2755.00011444092 148 150 147
-243.287444114685 382.90336728096 2763.00001144409 133 135 132
-236.45144701004 384.026348590851 2770.99990844727 138 143 139
-230.31459748745 386.396318674088 2788.00010681152 110 115 111
-198.881208896637 384.368985891342 2773.00000190735 108 113 106
-189.260900020599 380.222380161285 2743.00003051758 25 30 23
-179.935872554779 376.352339982986 2714.99991416931 37 39 34
-172.097325325012 375.39267539978 2707.99994468689 40 41 36
-164.417922496796 374.709904193878 2703.00006866455 21 22 17
-156.707048416138 373.887985944748 2697.00002670288 29 30 25
-149.028316140175 373.065531253815 2690.99998474121 72 74 69
-141.487061977386 372.519910335541 2687.00003623962 118 123 117
-133.867204189301 371.696561574936 2680.99999427795 172 177 171
-126.421213150024 371.288686990738 2677.99997329712 149 154 148
-119.035579264164 371.019005775452 2676.00011825562 116 118 113
-111.702173948288 370.887458324432 2674.99995231628 162 163 158
-104.295745491982 370.478242635727 2671.99993133545 148 149 144
-96.7963635921478 369.652569293976 2665.99988937378 117 118 113
