ply
format ascii 1.0
comment KinectMotionCapture
element vertex 778
property float x
property float y
property float z
property uchar red
property uchar green
property uchar blue
end_header
83.7551715625717 442.523519227193 2822.87846218718 201 201 203
80.157305862663 443.088462143854 2829.20185417449 200 200 202
73.2245284305764 443.806228326475 2833.14596264407 201 201 203
65.4474398843541 444.563301184861 2836.50610354597 198 198 200
58.4989343362574 445.282696333456 2840.4655895068 193 193 195
51.5435854111104 446.002747807572 2844.43177403757 183 183 185
43.7378042755578 446.763008594461 2847.81959808839 182 182 184
35.9212679155143 447.524448341811 2851.21792798628 182 182 184
27.2465620307618 448.326984360104 2854.04544957967 182 182 184
18.5572741083853 449.131211253873 2856.88720144132 168 170 169
9.85331938333012 449.937110224685 2859.74327052259 163 165 164
-1.42501633672198 450.866560322577 2860.88641139047 156 158 157
-14.4400551798665 451.880871668563 2860.90742519992 145 147 146
-23.2034451169501 452.693850610453 2863.82146790872 145 147 146
-32.840647363523 453.549792945117 2866.17962202775 139 141 140
-43.3573202290631 454.449516892115 2867.98772325149 143 145 144
-57.3478705574533 455.519127639391 2867.55235184142 150 152 151
-67.0521218453715 456.383185204627 2869.97622506414 153 155 154
-81.9757087250315 457.502989626082 2869.04270697946 169 171 170
-97.8094232735405 458.670397945806 2867.58935181301 126 128 127
-111.947628947147 459.757885885163 2867.29796210231 139 143 142
-122.633512547325 460.678115970339 2869.27106128867 155 159 158
-153.455033575867 462.594618356221 2858.50061828837 178 180 179
-208.050987343953 465.697392216798 2832.90395372889 143 143 143
-240.025396578524 467.691024438586 2821.85003668622 109 109 109
-253.62914514612 468.776780464707 2822.44508846226 120 118 119
-261.973590353827 469.601852553521 2826.35823481753 129 127 128
-268.560585682712 470.339624842509 2831.37326681296 131 131 131
-271.606487428246 470.899419968583 2838.56622059296 132 132 132
-277.304234808219 471.592354963921 2844.12175247977 129 131 130
84.2170298347242 428.647541332094 2685.60378301415 180 180 180
95.6487817873812 428.645000171117 2704.00938263936 181 181 181
103.12931673466 428.793373285952 2719.23140966597 182 182 184
103.394735796449 429.226212099573 2728.8229121344 182 182 184
102.067054228531 429.720783397085 2737.15344440888 187 187 189
102.384602013919 430.146755712672 2746.69419714957 186 186 188
106.802473656729 430.403104917778 2759.27322233816 191 191 193
108.002382379662 430.787070574706 2769.3612333497 193 193 195
106.778747047105 431.268066478322 2777.59011476968 199 199 201
101.473945335394 431.915887090512 2782.76211368522 200 200 202
99.4589171815883 432.426848434544 2790.3555216789 204 204 206
95.8120985955078 433.004331273596 2796.72567121078 206 206 208
93.8259422819474 433.511358019277 2804.29099057222 200 200 202
89.3721052819396 434.120835121809 2810.04088326316 207 207 209
89.0727598292447 434.554050360248 2818.77590244809 206 206 208
84.6381435447312 435.160780057641 2824.50711474969 200 200 202
79.3742107806072 435.802357566317 2829.6394529241 201 201 203
71.6037832347189 436.551114696719 2832.99387057317 199 199 201
63.8225156992851 437.301031989152 2836.35888102065 192 192 194
56.8700595811023 438.015883335213 2840.32296152801 191 191 193
49.9110124685878 438.731375636448 2844.29383009926 190 190 192
43.7883470084723 439.410890165209 2848.85604830048 188 188 190
36.8173547296564 440.127652469151 2852.83859089261 183 183 185
28.9919616580088 440.882336407391 2856.24671414168 180 180 182
18.6077795896997 441.750586093173 2857.92790192726 164 166 165
9.05261880420616 442.583759822199 2860.20829069461 157 159 158
-3.08097118298711 443.532958812179 2860.7805456554 153 155 154
-16.0997888122574 444.523893643887 2860.80876689394 148 150 149
-24.8669947424087 445.326886685636 2863.72807485194 148 150 149
-35.3669429440098 446.20884599957 2865.52219384215 148 150 149
-46.7502063235101 447.132388511975 2866.77040256553 151 153 152
-60.7483797277033 448.176394812752 2866.34638530843 157 159 158
-69.5955130611954 448.988933254248 2869.34365155359 148 150 149
-81.9244155461569 449.961516142603 2870.10639858194 146 148 147
-96.0206711785374 451.017356547267 2869.77802935197 140 142 141
-111.025326032784 452.11782445506 2868.92820873473 160 164 163
-125.199342847672 453.183173048221 2868.67565220241 152 156 155
-151.653625018197 454.820143716141 2860.69501339486 169 171 170
-195.728106610398 457.283234366369 2841.74884166652 159 159 159
-233.823166221918 459.480038710144 2826.82375126908 132 132 132
-252.694528991582 460.787532485018 2824.11505532668 111 111 111
-263.683617935318 461.729062368285 2826.38609380054 118 118 118
-270.274585616184 462.464960235796 2831.40500959689 133 133 133
-276.868447991503 463.201327925281 2836.42706827014 136 136 136
-282.577677695651 463.89600529416 2841.99374475254 130 132 131
83.4694526286408 421.078462432377 2686.04759762712 173 173 171
96.5082340610155 421.074513971019 2705.69175769851 181 181 181
105.603701637735 421.20706805985 2722.14662727357 182 182 184
105.874621455351 421.658407768814 2731.72993298589 182 182 184
105.363057423526 422.136083625615 2740.66945493907 187 187 189
104.875580167321 422.610634508385 2749.58552023779 186 186 188
106.855500736535 422.990466125288 2760.31615044031 191 191 193
107.238500349958 423.427175160092 2769.7903216658 195 195 197
105.194602419882 423.953202912572 2777.4105088075 196 196 198
102.346646174064 424.508240686251 2784.40760291473 194 194 196
100.333323490609 425.030102652438 2791.99770624395 200 200 202
98.3364778199309 425.549710522875 2799.57178081028 212 212 214
94.703807997361 426.131100177228 2805.92730298524 207 207 209
91.0796249520391 426.711197101063 2812.27425088795 197 197 197
89.1240879277206 427.2252435473 2819.80812733385 201 201 201
85.5211410962422 427.802502848975 2826.13474460359 199 199 201
77.7574579418063 428.542832247468 2829.48371058734 199 199 201
72.4905045749562 429.184996942006 2834.6189614791 199 199 201
66.3866459397866 429.860299500123 2839.16346459454 202 202 204
59.4400179277317 430.569403770552 2843.12260712162 193 193 195
49.1201318338428 431.414481391972 2844.74337287512 193 193 195
43.8391101355196 432.05788890379 2849.89241014014 188 188 190
37.713530619627 432.735340035789 2854.45816485296 171 171 173
29.0427132820059 433.516628814008 2857.28496539436 166 166 168
16.9598237672339 434.438620208094 2857.81089530733 159 161 160
6.54959407806288 435.294218989306 2859.52015640564 157 159 158
-3.03010304168305 436.117230965083 2861.82607417632 159 161 160
-15.1934323473446 437.048789831185 2862.43080576457 156 158 157
-23.9589253973262 437.841201461621 2865.34963889322 153 155 154
-36.1747601573876 438.779025661569 2866.00558316026 154 156 155
-45.8381684379452 439.61203055543 2868.39315040217 155 157 156
-60.6970269741138 440.66563657753 2867.40547805206 154 156 155
-72.138452105226 441.577700247231 2868.71313882251 144 146 145
-84.4728612847883 442.529823979735 2869.4847157763 141 143 142
-95.9689586019743 443.448527625386 2870.84534760819 131 133 132
-110.102895861168 444.482435003863 2870.55763848237 127 131 130
-126.019612969203 445.596119547448 2869.19464643519 133 137 136
-152.475644966611 447.169136279137 2861.22485975345 154 156 155
-192.168997124237 449.324100229558 2845.05926283783 171 171 171
-237.282234076508 451.727041422577 2825.73657128345 169 169 169
-254.400681047235 452.918483037174 2824.1381751339 103 103 103
-264.511309771402 453.805950687132 2826.96178931588 109 109 109
-270.219903872267 454.500783803425 2832.52781161543 129 129 129
-281.243800586155 455.430944044612 2834.83543298972 134 134 134
-289.626499310614 456.245565670977 2838.7881102264 131 133 132
79.5111588654112 413.608459570115 2683.9974205785 179 181 176
94.9538515323623 413.588279530573 2705.50792607293 181 181 179
104.044688274466 413.770197667097 2721.95976030854 183 181 186
104.311436195326 414.241257662956 2731.54429412622 182 181 186
106.227436635584 414.653989750215 2742.33387312855 189 188 193
105.741615845526 415.144813596109 2751.24588839506 187 186 191
107.723307443066 415.549028393897 2761.97149395878 195 194 199
105.658794582064 416.088931069745 2769.60976348203 195 195 197
106.065578135383 416.541747660793 2779.05793621383 202 202 204
104.039545991478 417.076504386685 2786.6587543853 201 201 203
102.029948073942 417.609041895148 2794.24358112642 192 192 194
97.5644669905793 418.226355552663 2800.00387832486 214 216 215
93.1035393091926 418.842931312939 2805.75942514673 223 225 224
90.30340674681 419.39981248977 2812.70875717516 208 208 206
87.5158172834269 419.955053440844 2819.64587614551 199 199 197
82.2450101905363 420.598352615874 2824.78478616846 202 202 202
74.4735956828135 421.331931758026 2828.14242718526 202 202 202
71.7060140407848 421.884267107934 2835.06010753981 201 203 202
68.1131198264504 422.465490896542 2841.3758186207 203 204 206
62.8496090028219 423.107369025873 2846.50769337035 199 200 202
50.0129719468845 424.029092503712 2846.36557385632 208 209 211
42.2032780116521 424.766701296779 2849.76063132986 212 214 213
34.3828288519279 425.505489050307 2853.16619465047 213 215 214
25.7042408873898 426.277349441646 2856.00210505074 214 218 217
14.463142685524 427.147057759171 2857.11709832163 216 220 221
5.74931368214626 427.923020068364 2859.98705949076 214 218 219
-2.9789300104448 428.700668602608 2862.87142327804 211 215 216
-14.2871579522352 429.578308971061 2864.05190501937 208 212 213
-25.6215751147484 430.459103484849 2865.25792686272 199 203 204
-36.1233613416867 431.309775673328 2867.05849526275 184 188 189
-46.647510514723 432.163149128843 2868.88087115275 167 171 172
-58.9196123080189 433.08663151395 2869.59480912954 152 156 157
-70.3570853979998 433.979798692209 2870.90133835791 136 140 141
-80.9541477209481 434.841951227027 2872.79482053953 136 140 141
-92.4421712839978 435.74122573591 2874.15064447414 175 176 178
-107.438977614132 436.782338112224 2873.30146503607 189 190 192
-125.967189931532 437.968025843282 2870.27001850196 198 198 200
-155.045904926428 439.582216659321 2860.64778134227 178 178 180
-200.002688334028 441.845432835203 2841.19038040174 157 157 159
-241.619345612239 443.98737840467 2824.10208369412 157 157 159
-256.986635681652 445.073738368907 2823.61445035418 114 114 116
-266.220641631135 445.912758034392 2826.99197291269 126 126 126
-272.817012224343 446.64475390289 2832.01716843662 130 130 128
-282.960770083642 447.523336411666 2834.87499355951 129 129 127
-292.235125350976 448.367501718617 2838.29182306357 146 146 144
77.1587674965009 406.063021748691 2683.19752660217 180 182 177
90.1807429522434 406.185852046904 2702.8396374115 181 183 180
101.679451780567 406.345643629336 2721.15475516078 179 178 183
103.557322543117 406.787890506621 2731.97783522366 178 177 182
106.281533587711 407.200881406008 2743.38172021374 186 186 188
109.045350169211 407.608790944921 2754.74702734305 183 182 187
109.405548541167 408.086940051027 2764.23771571394 192 191 196
108.977465689927 408.58681947725 2773.09105794286 197 197 199
106.936789824308 409.134685322801 2780.70448002431 192 192 194
104.912483870822 409.680399027581 2788.30196462649 192 192 194
101.26038283863 410.275973091125 2794.67468583037 183 183 185
97.6168718871104 410.87028733203 2801.03906315839 188 190 189
93.1557458654519 411.489983959639 2806.79434567225 207 209 208
90.3554937793123 412.055312746525 2813.74254783646 226 226 224
86.7378577471749 412.646011229748 2820.08176539444 220 220 218
82.296782333279 413.262767377872 2825.81757195997 220 220 220
76.1930060648348 413.933695859196 2830.36263977068 219 219 219
72.5932549858022 414.521710431611 2836.68415614469 218 220 219
69.0023455623998 415.108538366109 2842.99740585051 228 229 231
62.9009564750977 415.778766161443 2847.53986887415 233 234 236
51.7473925774428 416.619748741116 2848.57218493847 237 238 240
41.4110444419453 417.435176435805 2850.21367998886 235 236 238
32.7432217142016 418.195448606599 2853.04061308379 226 230 229
24.9080904542396 418.928273902642 2856.46163719559 223 227 226
15.3637881671957 419.721011897861 2858.73721969726 212 216 217
6.65213456152536 420.48633789665 2861.60693054834 211 215 216
-2.9274518200193 421.283242206399 2863.91659705598 212 216 217
-14.2355537260497 422.142409443353 2865.09968396271 222 226 227
-27.2840735087905 423.06535312604 2865.16744894085 222 226 227
-37.7896703187646 423.900790506801 2866.97405300409 223 227 228
-50.0392588973551 424.800441841248 2867.66915724475 220 224 225
-60.5933648184873 425.641670237703 2869.52307566288 223 227 228
-72.03466596805 426.516862761009 2870.83606285715 229 233 234
-80.9020502164439 427.300759642894 2873.85767177017 223 227 228
-90.6528004291824 428.118121465544 2876.33428288098 229 233 234
-105.645346574963 429.129553139737 2875.48559765368 218 217 222
-126.787115260936 430.371388964003 2870.78974892823 199 198 203
-163.736790514084 432.205348947669 2856.1981503287 177 177 179
-218.351912502277 434.709453572142 2830.7086653048 170 170 172
-245.955654046545 436.219915241126 2822.47124530459 135 135 137
-257.811609922879 437.145730454192 2824.18850876083 126 126 128
-267.047392388297 437.974654533104 2827.56928754922 119 119 119
-273.645907634362 438.704604538436 2832.59657728083 126 126 124
-284.677379738453 439.604213978083 2834.91589868271 132 132 130
75.6094585111411 398.479451869979 2683.02270516638 179 181 176
90.2363958672456 398.622688625119 2703.90220549496 179 181 178
100.121334079661 398.882465127244 2720.97122495885 177 176 181
101.18627784292 399.371557726515 2731.17738261233 180 179 184
104.714760437291 399.790640697242 2743.1986229764 186 186 188
108.286947945982 400.20423041558 2755.17761345677 184 184 186
111.088164946223 400.634639150864 2766.50245604599 196 196 198
109.847207881925 401.173249430889 2774.74002282197 195 195 197
106.171815758664 401.77783349567 2781.13454074934 218 218 218
104.965512329077 402.31183925911 2789.33837649933 216 216 216
100.491109067991 402.936557878915 2795.10643910195 182 182 182
97.6695396949285 403.513330919268 2802.07411819153 157 157 157
93.2083009058147 404.13607865757 2807.82906173232 139 139 139
90.4078219260165 404.709986527847 2814.7762212205 155 153 154
84.3002589507869 405.379357959216 2819.32527941833 171 171 171
77.3576741820552 406.073534636505 2823.28261323677 225 225 227
72.9096210958224 406.694030419182 2829.02479601772 224 224 226
69.3022464693782 407.288801452379 2835.35322192705 177 177 179
65.7034616543535 407.882342181295 2841.67329986509 145 144 149
59.5942281645776 408.551229619558 2846.22375060053 149 150 154
52.6407630155088 409.246057277843 2850.19213042478 175 176 180
43.1497665722205 410.019557386744 2852.4172849448 188 189 193
34.4857798621505 410.768996937511 2855.24200987398 179 180 182
26.6545454213238 411.493635545729 2858.66037437565 166 167 169
18.812598003906 412.219477272802 2862.08919920101 158 162 163
7.55500092256423 413.054262597625 2863.22573770619 156 160 161
-4.58202523507234 413.919245021075 2863.81385200678 150 154 155
-16.7489848432085 414.78787005602 2864.43149013181 140 144 145
-27.2321174426793 415.604848727089 2866.21851509117 133 137 138
-36.8785474747875 416.39666284192 2868.59564850253 124 128 129
-50.8479047138675 417.331098910442 2868.15921079998 123 127 128
-61.4038651596878 418.156816422532 2870.01726329047 123 127 128
-72.8469535454295 419.013777012667 2871.33471990845 130 134 135
-80.8496058433592 419.758787220135 2874.92029396278 136 140 141
-89.7315631940896 420.53408379084 2877.95764530408 141 145 146
-107.333778632356 421.603856612143 2875.44037382901 144 145 147
-127.6064776384 422.768623773064 2871.31016393868 172 172 174
-168.929430655197 424.654903291526 2853.96833973041 158 158 160
-223.554875194096 427.010043629752 2828.51145985039 105 105 107
-247.657025527545 428.334253089497 2822.49207328087 74 74 76
-261.276865960065 429.302937167893 2823.1207455414 143 143 143
-271.402570842087 430.153150106316 2825.9648368011 134 134 134
-278.010379063331 430.881988301099 2831.00185676154 142 142 140
-284.621543958057 431.611292180233 2836.04180327843 157 157 155
78.8771911247697 390.774291574493 2686.58493065662 178 180 175
92.7064353223792 391.002965167724 2706.82667739659 179 181 178
100.98327366395 391.351233444684 2722.6453282812 178 178 180
101.241332169166 391.881001422926 2732.22981380291 181 181 183
103.148537621312 392.368671228936 2743.01705059635 181 181 183
108.341283733505 392.773824444984 2756.22186797397 184 184 186
111.956440615566 393.211907423989 2768.15423129616 199 199 199
111.533646398023 393.744231129971 2776.99752658326 199 199 199
107.043525793793 394.374334916049 2782.78006297275 185 185 185
104.198662355392 394.962771929785 2789.76914948339 147 147 147
100.544202366515 395.570201267292 2796.14246096182 140 140 138
98.5465238739565 396.134553529806 2803.71074933098 153 153 151
94.0870210058327 396.760207775488 2809.46353949603 207 207 205
92.9443473567759 397.299564879758 2817.60373684948 212 210 211
86.0124572928056 397.987557875808 2821.55136461338 204 202 203
79.0738903924342 398.676291102028 2825.50585101083 163 161 162
72.1282280015467 399.365666505761 2829.4669505797 156 154 155
66.8472727590155 400.011100064285 2834.61562240432 174 174 174
61.5671261501762 400.656343228443 2839.76351938393 210 210 212
56.2879165342522 401.301291363277 2844.91052952093 192 192 194
51.8509999681518 401.923036807831 2850.64146887329 179 179 181
45.7320935413499 402.59056549164 2855.2020636435 163 163 165
37.9193374187747 403.305385573271 2858.60353007594 166 165 170
29.248516266942 404.045190262904 2861.43646573509 183 184 186
22.2615156367265 404.738715569665 2865.43800143285 192 196 195
8.45816568648905 405.626719764228 2864.84357864912 194 198 197
-2.82362355577614 406.445920746166 2866.0064436868 193 197 196
-14.1316014802562 407.268216836725 2867.19485701735 190 194 193
-22.8947631596812 408.01892540676 2870.11787659668 187 191 190
-34.2493794405345 408.846776674647 2871.35178145176 175 179 178
-48.2127978602409 409.754016541947 2870.91346600044 178 182 181
-60.4885697529585 410.614553666431 2871.64001388025 180 184 183
-72.7942323097675 411.478698524092 2872.39604825197 186 190 189
-80.7968996360029 412.216044678674 2875.9827699733 191 195 194
-89.6787627478837 412.98100982444 2879.02155471412 199 203 202
-106.410075227633 413.986898276527 2877.06615296851 201 202 204
-129.297837184055 415.186466799657 2871.27652982435 211 212 214
-171.498427572668 416.990322960654 2853.40114747669 223 224 226
-227.005051376026 419.223004353883 2827.42014385138 172 174 173
-249.357699479588 420.4370205286 2822.51425654402 105 107 106
-263.861575500289 421.410152848617 2822.60288460418 112 114 113
-272.228559396744 422.192011643791 2826.54479911648 121 123 122
-280.606470471085 422.975277467777 2830.49735651972 144 146 143
-287.223144583518 423.703022018025 2835.54334208136 163 165 162
82.1448870601991 383.089729061228 2690.14381038365 178 180 175
95.9811898330498 383.382614393328 2710.3690573871 178 180 177
102.65223556101 383.808249761121 2724.93703061733 174 176 175
102.105138613911 384.373239861188 2733.89859443163 179 179 179
103.203524277497 384.901828924479 2744.06604406559 181 181 181
105.958535332552 385.392815208723 2755.42781650615 194 194 194
109.567508229753 385.861692909958 2767.36176917022 175 175 173
109.138653345615 386.411291930678 2776.20852950487 133 133 131
107.915702926487 386.975216559848 2784.42481180826 195 195 193
106.712845659944 387.536473743712 2792.62119771936 210 210 208
103.064051185298 388.148997282537 2798.98813033767 195 195 193
101.07194641636 388.723850965657 2806.54933181149 150 149 145
97.4442856598943 389.333415419372 2812.89571568673 145 144 140
95.4810734512717 389.904390860875 2820.42879962347 150 146 143
88.5549046620358 390.586709217913 2824.37158478615 124 121 116
80.7901254158629 391.2889060278 2827.72727518514 72 69 64
73.0145912144522 391.992252279791 2831.09347552663 60 57 52
67.7355032264062 392.63783373859 2836.24027128034 45 44 39
63.294939556306 393.263387143752 2841.97460728797 58 57 52
58.8589718053356 393.888197291713 2847.70415149105 58 57 53
55.2694362937398 394.492011951303 2854.01352625159 68 67 63
48.3146631528615 395.176874902494 2857.9843398684 85 84 82
40.5075887621371 395.88337173293 2861.38139443001 156 156 156
30.1479075746554 396.654212055426 2863.05264954008 192 192 192
22.313667684184 397.363809200201 2866.47622161941 196 198 195
8.51047502810953 398.22525759342 2865.8855675761 198 200 197
0.641161177955762 398.938981523984 2869.34335867875 193 195 192
-8.94886890408131 399.697975120604 2871.66933696421 182 184 181
-17.7004139266121 400.436870197409 2874.58256706066 179 181 178
-31.6200546059697 401.312291088328 2874.10548249683 172 174 171
-45.5777435333591 402.192285728076 2873.66516656568 167 169 166
-57.8474160145945 403.031018500278 2874.38921815545 179 181 178
-69.2825152837653 403.850175387604 2875.70432883335 187 189 186
-80.7438465600665 404.672521298586 2877.0450169458 190 192 189
-91.362867579253 405.47443388488 2878.96920787548 205 207 204
-109.838897009604 406.493957042913 2875.91016417246 207 209 208
-130.989046483345 407.592775517641 2871.24411343695 203 205 204
-176.69011345841 409.381820133442 2851.17897011323 122 124 123
-232.206992793218 411.462845709977 2825.23090288773 99 101 100
-255.449145162145 412.652308735834 2819.79468825012 85 87 86
-268.206128773947 413.550512401322 2820.99351938229 82 84 83
-277.464756508435 414.351210433428 2824.40115565797 101 103 102
-288.506213970628 415.204844656113 2826.73718778505 141 143 140
81.399010163985 375.490214286865 2690.59043497276 177 179 174
96.0375466170382 375.835401758477 2711.4285689989 177 179 174
103.514643040862 376.288575951708 2726.60896106387 176 178 177
106.203501293047 376.815410805432 2738.03112581269 180 180 180
105.690222857555 377.392576809435 2746.95764559375 177 177 177
106.825783764281 377.938369815172 2757.08529908454 184 184 182
107.993485727142 378.480038923346 2767.18198338371 130 130 128
110.825608761477 378.988459161938 2778.46460575809 168 168 166
110.424285021281 379.551023300596 2787.28177317905 179 179 177
106.766677892844 380.170584181521 2793.65641677676 125 125 123
105.584057881408 380.743075805308 2801.83138419106 62 63 58
104.421552011882 381.312926822164 2809.98643040365 86 85 81
101.627408489315 381.911598993669 2816.92363853624 64 61 54
99.6736600546697 382.492614937534 2824.44584082366 66 63 56
93.5871412234284 383.15255200513 2828.97539627026 65 62 53
87.497626279085 383.812719358322 2833.50789286536 56 53 44
81.4049056253285 384.47309748914 2838.04320378245 57 54 45
75.309377196203 385.133728093507 2842.58160338851 56 53 44
68.3731399439913 385.811772670596 2846.53501834657 62 59 50
63.9489181836215 386.438243844112 2852.25299095049 59 59 51
59.5292487482117 387.064095193817 2857.96619679613 64 64 56
51.7406954621471 387.760738619346 2861.34631595596 67 66 61
40.5600442284828 388.531071142064 2862.41597219293 37 36 32
27.6585169785881 389.341192926827 2862.35444644025 20 21 16
21.5169936047337 390.006678423584 2866.93780215538 50 52 49
11.1165579275099 390.766558007444 2868.65114706861 66 68 65
6.66534695651722 391.395707527379 2874.39518665723 83 85 82
-2.05608806256263 392.120634637253 2877.28058153456 89 91 88
-15.9339070599183 392.964512628439 2876.76662944907 92 94 91
-33.2850718632791 393.892056940621 2874.02142013585 94 96 93
-47.2462632304818 394.746032561973 2873.58876562076 84 86 83
-58.656917997955 395.543798010831 2874.88276419237 89 91 88
-71.8233128481089 396.385747891279 2875.07955170357 90 92 89
-80.6904896712122 397.128281476548 2878.10706811738 79 81 78
-92.1778421538297 397.935362078117 2879.47585187843 73 75 72
-109.785116803776 398.893997282847 2876.98003036654 50 52 51
-135.297096475693 400.051859327316 2869.55139261112 58 60 59
-183.629758102088 401.783573650696 2847.85720711731 64 66 65
-243.542457653592 403.822904298925 2819.19519456877 66 68 67
-259.783818545095 404.785024653657 2818.17664187661 92 94 93
-269.909636536152 405.596142481405 2821.02696153753 105 107 106
-280.054202141262 406.4096367817 2823.89520877274 104 106 105
-291.985164340427 407.271078762807 2825.69646895192 137 139 136
78.2456010093857 367.914863581325 2689.17347529233 178 180 175
93.6802661641711 368.318472538696 2710.62931639635 168 170 165
103.570738304489 368.784001262786 2727.66243049947 173 175 172
109.493252244701 369.294595872913 2741.54390276165 193 195 192
108.987454317722 369.887389080199 2750.46068459335 175 177 174
107.69333167591 370.48833881382 2758.74183182972 96 98 93
107.233900859626 371.075050834754 2767.61346923176 45 46 41
110.880141844435 371.59927701324 2779.50257149514 56 57 52
112.115037238322 372.154247856655 2789.53022789135 16 15 11
110.921638784176 372.742103370698 2797.71362768232 21 20 16
112.214592698402 373.289607593046 2807.6847346729 20 19 14
109.419392120655 373.897081440645 2814.62169159303 136 135 130
108.288562802417 374.476767314701 2822.74382893433 155 151 140
102.210715598334 375.133488308154 2827.26524866133 119 116 101
97.7894802731183 375.763399521285 2832.97940941265 70 67 52
90.0460750987633 376.447645310244 2836.3168660374 49 46 29
88.1277716503623 377.03507259888 2843.80292333555 49 46 27
82.0475303323507 377.691489273666 2848.32642758924 48 46 25
78.4772313473616 378.304790566371 2854.61529807426 42 39 20
71.5573669940288 378.975699760324 2858.55350910822 52 51 33
66.3135198032361 379.617487213767 2863.66587098164 51 49 34
57.6971455298749 380.319764219472 2866.45028666089 45 43 28
47.3753774329548 381.054571516453 2868.08921917702 34 32 19
31.1004341345837 381.901589453513 2865.70411708066 31 31 21
24.1174355491389 382.579766541171 2869.70428499088 29 31 26
2.27185325006518 384.63549631933 2881.17439427945 90 92 87
-21.0225789534921 385.636894397454 2874.4006430479 101 103 98
-44.3971126954827 386.648023696391 2867.70533339995 84 86 81
-37.7241416473142 387.06312673139 2880.85570427322 63 65 60
-53.4270091960214 387.927657601914 2879.31718125641 57 59 54
-64.8524587286548 388.708814476807 2880.62798814653 62 64 59
-78.9037107026234 389.547224399358 2880.28706574878 53 55 50
-78.2276235951147 390.079887795541 2889.4563525893 52 54 49
-117.564982944784 391.459657317975 2873.05148510875 68 70 67
-142.221641272429 392.539484367153 2866.20194347043 68 70 67
-257.505797123708 396.169698127002 2811.51989931511 89 91 88
-264.996000559827 396.909382276852 2816.01430058099 97 99 96
-271.612952073345 397.63029192963 2821.06157180087 100 102 99
-284.407304538799 398.490896399887 2822.30306790176 99 101 98
-299.883581012128 399.415710995346 2821.94753600696 131 133 130
76.698064147096 360.302015113391 2689.00155931683 171 173 168
89.7142829816437 360.799875751259 2708.59395721568 182 184 179
101.207487504592 361.30238043243 2726.86388797524 162 167 161
109.549219757224 361.827305587383 2742.59198843745 108 110 105
113.095229108987 362.394431601725 2754.57394377514 7 9 4
115.060165601142 362.973389886296 2765.29036039516 13 15 10
114.617951183176 363.574560715732 2774.14276465358 38 39 33
116.648727104145 364.145041987676 2784.79505464627 34 35 29
115.442341766222 364.748552838971 2792.98869891081 16 15 10
115.076512646836 365.339740274849 2801.76672697977 24 23 18
111.446563941838 365.967342777601 2808.11271680595 14 13 8
111.121383106652 366.553199460489 2816.85116841076 64 61 54
109.994189737994 367.146314123964 2824.96771043117 49 45 33
106.403785486709 367.768548122618 2831.2752254928 70 64 48
101.992087711027 368.400411808301 2836.97962674185 65 59 43
95.0898653091072 369.0647332608 2840.90129272256 94 89 69
94.0168183164265 369.650655062363 2848.96546753504 96 91 69
88.7858037670966 370.291650321018 2854.06520349183 91 89 66
83.5556406378659 370.932420306988 2859.16412727109 82 80 59
74.9684396442944 371.62099485673 2861.92159866925 59 56 37
68.8907305327207 372.274497678295 2866.44301907075 70 67 48
63.6536403384005 372.915787117927 2871.54874475302 38 35 20
57.572103847519 373.569582497078 2876.07426040086 41 39 26
3.17980832643894 377.232175466882 2882.78389837311 28 31 24
-44.1058411290198 378.573125612677 2860.10743124867 28 31 24
-49.4964494585215 379.232530107195 2865.36292531138 24 27 20
-26.6293083044551 379.971875172924 2897.80975872406 27 30 23
-25.8895790128353 380.516076664455 2906.9138047675 43 46 39
-268.839471964739 388.380074564855 2805.50453643705 77 82 76
-273.720230807855 389.067709628052 2811.66647927482 86 91 85
-279.476345918641 389.771747323766 2817.27833020688 99 104 100
-289.641679428472 390.561782489226 2820.17100537037 111 116 112
-300.709619981615 391.371639233967 2822.53980589037 116 121 117
72.7427080748759 352.69181037441 2686.96884903176 191 193 188
88.1623741447397 353.238275184462 2708.4184704162 32 34 29
96.4250484613633 353.819427892802 2724.21676616972 25 30 23
107.988648140365 354.37009744773 2742.41001259337 20 25 18
118.013618737865 354.921878988451 2759.29648176963 19 22 15
124.051696287069 355.494227077404 2773.05440836452 22 25 18
119.559050402136 356.140452860737 2778.83706957093 31 32 26
120.784763469163 356.740660480148 2788.86715817772 22 23 15
117.951606281549 357.370315165339 2795.83852825444 32 32 24
117.591365118806 357.977427359561 2804.60865372752 33 33 25
114.47135541542 359.204500167728 2820.27870604548 47 44 37
111.70002274734 359.825859654855 2827.18990948703 48 42 30
108.941127154627 360.445562797776 2834.08900753582 85 77 64
105.364895376383 361.071713660677 2840.38153236939 90 85 66
102.629152258913 361.688291675323 2847.25810156061 72 67 47
96.5712690377178 362.33760147892 2851.7607921281 71 66 44
88.8391057268536 363.004845835666 2855.08926037849 97 93 68
82.7713609491667 363.655133485434 2859.60159909212 71 69 46
75.8610681212639 364.314958758085 2863.53194365856 54 52 31
73.1511162351373 364.92778414319 2870.3834564128 78 75 56
66.2367864316158 365.587882465457 2874.31776939908 32 29 14
61.8516809417144 366.218680517307 2879.99625945746 35 33 20
48.9988485933925 366.951429193609 2879.89781465931 29 29 17
25.0730421919405 367.824691736945 2872.35305639807 27 30 23
12.1272294046824 368.568660839949 2872.34528417612 27 30 23
-26.0565985517207 370.81362721945 2873.08857759242 31 34 27
-2.49141335556713 372.788210385252 2923.0805099569 37 40 33
14.7928634889176 373.101970132777 2942.71293898474 40 43 36
-185.210992339525 378.427272745378 2850.04529068624 61 66 60
-279.809340454455 381.12932542316 2808.96730397809 79 84 78
-287.339121656901 381.864062732058 2813.50173769192 101 106 102
-297.52164063829 382.643232288621 2816.41308421496 116 121 117
-305.955070031008 383.395255794816 2820.42538972998 140 145 141
71.1957375881607 345.047414190404 2686.80069553361 28 30 25
97.0702116409923 345.634726110468 2716.28367335379 0 1 0
103.740816302897 346.264685096574 2730.82188562758 31 36 29
115.321159121993 346.870338774599 2748.99004139424 10 15 8
124.552914162501 347.47471065669 2765.23984103926 23 26 19
128.168888398141 348.093223657559 2777.14472523882 29 32 25
126.943004728807 348.727307675665 2785.35355077598 23 24 18
119.207666657533 349.388760534625 2788.68602759123 26 27 19
110.643219200298 350.055373777703 2791.423812421 39 39 31
117.646119642705 350.643117272168 2805.63828950374 42 42 34
116.487800039468 351.268212015582 2813.78135153536 52 49 42
116.173543004103 351.885904067149 2822.5039125499 40 37 30
112.579991074749 352.520328645934 2828.81275153995 53 46 36
110.650705640198 353.143106432474 2836.30448932454 54 46 35
103.759326481113 353.796318027642 2840.21736767888 47 39 26
101.01953019536 354.421928003979 2847.09662680613 67 60 44
96.6248693878833 355.057658729414 2852.78353854711 54 47 29
89.7282245914366 355.711104913551 2856.70127324305 58 53 33
84.4998393743213 356.352505813433 2861.7983382805 62 57 37
76.7539519454581 357.013519521745 2865.14135567005 42 36 20
72.3631187312068 357.648371382954 2870.82493429212 43 37 23
63.7600401437899 358.317997175781 2873.6006351517 35 31 20
58.5236657404908 358.959962973326 2878.70555007749 42 38 29
47.3577188408649 359.654671779168 2879.77178184572 26 23 16
38.7130595259801 360.329143148101 2882.5883946503 17 18 12
24.9472576486998 361.053522308502 2881.98086978366 20 21 15
3.46653576113498 361.856978805455 2876.26948955345 21 22 16
-12.9570706287168 362.618186358005 2874.04469484194 22 23 17
10.8432665450362 362.974182745803 2898.53662514849 25 26 20
34.7757462539726 363.313887318252 2922.89940604537 20 21 15
51.9546197370571 363.711137222197 2942.62416236057 18 19 13
7.1222124557746 364.777014388393 2921.803310953 15 16 10
-13.6782192000409 365.593023119288 2916.83144656915 33 34 28
-24.14869915631 366.29829888669 2918.62275474914 32 33 27
-55.4850741126676 367.250288431626 2907.08887672706 29 32 25
-117.400244569534 368.580596828656 2876.26941261543 23 26 19
-236.304214705417 371.88828113755 2828.06338590285 42 47 41
-277.99457934977 373.050303589562 2811.1934517502 64 69 63
-289.040592185318 373.826024581395 2813.54552297186 115 120 114
-298.34500712008 374.580867610041 2817.00540396376 108 113 109
117.805491631509 337.428154201383 2723.82946563225 37 39 34
114.827974616817 338.093845806571 2730.93886091025 19 24 17
113.476003290021 338.758125117772 2739.26843050406 32 37 30
123.46212557127 339.418205943264 2756.17747004565 16 21 14
145.678728138863 340.063755218646 2782.19927643768 28 31 24
132.286348628179 340.718414526932 2781.23124220451 25 26 18
138.398072908859 341.357811716766 2794.90578883653 26 27 19
130.689802698002 342.008245263214 2798.21301551582 25 26 18
135.742781937226 343.274218821477 2819.93152618409 29 29 21
128.050714531676 343.922196965078 2823.22302614566 44 41 32
115.404272264868 344.583402958159 2822.93020692291 38 35 26
107.679130417526 345.235123136688 2826.25399722298 38 31 23
102.426734977602 345.880568118918 2831.374307053 36 27 20
95.5159077457224 346.531189618016 2835.3068804462 34 25 16
92.7563941137022 347.167716117035 2842.20376789048 51 43 30
89.1760380814439 347.805754853287 2848.49896898876 46 39 23
84.768679832746 348.446078960886 2854.1978105767 51 44 26
80.3662519307453 349.085680028795 2859.89220096443 53 48 29
73.4500120016142 349.73636300741 2863.82980231737 32 26 12
69.0511174937694 350.375310539652 2869.52044274276 37 31 19
62.1272664278596 351.026733594192 2873.46583052613 42 35 29
56.8869337557847 351.669655402815 2878.57453477331 40 33 27
46.5642952018603 352.341593728051 2880.22362367268 31 26 20
48.9563099283874 352.939597484716 2890.51313038013 34 35 27
30.1075504258472 353.666672032286 2886.45052760795 36 37 29
7.78576670622799 354.423533820882 2880.16431156998 35 36 28
-6.9182078959491 355.137308634566 2879.072726246 35 36 28
-5.38331895191213 355.741131661299 2888.79560212282 35 36 28
31.3936232567382 356.083177176906 2921.65862486682 36 37 29
25.324527945132 356.72816401998 2926.17275029552 26 27 19
-12.6655500582746 357.623724062699 2909.918825631 19 20 12
-41.2911685276587 358.460107349458 2899.96161653663 27 28 20
-44.8914715271878 359.09931747278 2906.27611429579 36 37 29
-64.9835691783474 359.879425275169 2902.02341707548 36 39 30
-87.7517232677461 360.690672138962 2896.1724153229 33 36 29
-86.1716778472261 361.288727058998 2905.8509648327 32 37 30
-278.814043210904 365.007332456071 2811.77869193951 66 71 65
-288.981785189922 365.758781306277 2814.67946178904 114 119 113
111.246013265084 329.210393775421 2710.30271488536 10 13 6
119.468557101572 329.935654061269 2726.11956176187 29 32 25
121.321684681836 330.627862013185 2736.92993019087 20 23 16
124.823838797308 331.321153857961 2748.93712501385 22 25 18
120.285334342098 331.98289069911 2754.76303193089 19 22 15
128.717234396055 332.681566658528 2770.37591414044 20 23 16
150.21269135151 333.405733241162 2795.68496202242 14 17 10
111.584070433923 333.97476418195 2775.8623149746 21 24 17
112.789538524082 334.643451150379 2785.90238592481 24 27 20
132.843639082151 335.340327643719 2809.81293684441 23 26 19
124.316860320319 335.981405637876 2812.51709020143 20 21 15
116.597798705047 336.625063618561 2815.83637217249 16 17 9
109.691734927957 337.270542304558 2819.7646376482 19 20 14
106.082409879766 337.918513225588 2826.08713743496 22 19 12
99.9981428100818 338.5646608573 2830.61615707966 24 20 11
93.0814082766336 339.211088426405 2834.55521637165 25 21 12
86.1576202313166 339.858211849774 2838.50083921625 23 19 8
84.2287283657868 340.503023846202 2845.98892953439 23 19 8
82.3163338292234 341.145682381149 2853.46095604164 29 25 14
80.4204761493219 341.786228402437 2860.91721127637 36 32 21
73.5041964205303 342.431963017008 2864.855583517 43 39 28
66.5811150240812 343.078437152207 2868.80060061334 45 42 33
60.4946428236675 343.723950463172 2873.33224157977 41 38 29
52.7146721940928 344.373589934856 2876.71078519868 37 33 24
44.0768332252022 345.026650854778 2879.52378975388 32 29 22
21.8388248637371 345.719923711129 2873.16378196325 34 37 30
27.6085175556 346.335246588546 2885.76461987426 33 36 29
-17.7488606183656 347.117120450083 2864.0901385703 28 31 24
-21.396921984941 347.768277641482 2870.45029532248 26 29 22
-6.18566333962578 348.344513719683 2889.26864954446 24 27 20
-5.48005838019927 348.970310514809 2898.39452180398 17 20 13
0.417737151021669 349.569631415921 2910.87051678691 19 22 15
-49.7046878509622 350.427031368815 2886.83141242761 25 28 21
-51.6114175089961 351.067870090315 2894.29808259438 25 28 21
-47.4364139184238 351.674921611485 2905.64953638222 39 42 35
-46.6917780768079 352.29578320153 2914.7373798199 18 21 14
-75.5114588437942 353.083671943862 2904.9800449283 18 23 16
-70.4151977688321 353.679459934209 2916.8355883201 27 32 25
-273.486417555646 356.916587169941 2816.18622111726 63 70 63
-285.402470712976 357.665995861564 2817.98923486876 125 132 125
86.4852256367148 321.475522489943 2692.10618636084 35 38 31
119.526535308648 322.441146799834 2727.16967344541 17 20 13
132.642557721147 323.238960391235 2746.61863200046 21 24 17
133.751985089506 323.942428332453 2756.74893219457 26 29 22
132.468404474927 324.625815998348 2765.00776459366 23 26 19
121.481123144032 325.245857985558 2765.90761453416 24 27 20
121.026843260511 325.93160574644 2774.75916170272 21 24 17
104.312714485805 326.52260725186 2771.43110707579 22 25 18
105.50063212809 327.215503809684 2781.48536555544 21 24 17
119.80970698725 327.969955196699 2801.17292362698 19 22 15
122.732448523657 328.658585477091 2812.33892552373 18 21 14
109.25548721062 329.269700571771 2811.4613180864 21 24 17
106.451551102579 329.929298448878 2818.39924560845 22 25 18
102.83413998944 330.584080729781 2824.72843041924 23 23 15
95.914494806034 331.226025046584 2828.6710426524 27 24 15
89.8174732756987 331.871377601042 2833.21284517714 28 25 16
83.7176867564038 332.516947750729 2837.7576990583 26 23 14
83.4501493217221 333.17809392414 2846.42778216048 26 23 14
82.3710497499999 333.834227580554 2854.48725214993 31 28 19
80.4750468325977 334.486040214989 2861.94198640714 30 27 18
74.3981195041954 335.128328856571 2866.4642879373 35 32 23
70.001162962066 335.773358188378 2872.15244288876 38 35 26
64.7656255737856 336.416677945336 2877.25632653166 43 40 31
56.9953330193025 337.057519847674 2880.62655995585 44 41 32
47.5198565745525 337.698565401155 2882.85587961334 43 43 35
31.2335012233205 338.339422255183 2880.51258037221 35 38 31
3.83446544976485 338.98561495224 2870.78237593247 40 43 36
-10.8699578561708 339.64121632031 2869.70017202981 45 48 41
-14.5024298848559 340.296365783734 2876.04459612495 46 49 42
17.0031811964324 340.923388237079 2905.59787754577 51 54 47
-1.99049958395747 341.582770607624 2901.68918861902 47 50 43
-26.209214138782 342.256331719353 2894.46480826843 42 45 38
-47.0614359236761 342.934721826894 2889.56505006278 29 32 25
-40.3170888164004 343.570082830674 2902.61198942263 24 27 20
-36.9836660098861 344.206055679114 2913.37796149263 55 58 51
-56.1893717606936 344.891282633721 2909.67599667758 51 54 47
-53.697466877312 345.52600633007 2919.86088379158 33 38 31
-101.761823353825 346.304585559192 2898.04080242634 39 44 37
-59.0975292198706 346.815878999961 2933.53471449833 35 40 33
-276.061214759416 348.886895457835 2815.67875193627 30 37 30
58.5237097856233 313.536472246747 2671.45023072486 0 3 0
78.65522937673 314.50106450491 2696.66124444478 25 28 21
112.588121959803 315.59420314379 2732.23743927415 30 33 26
118.487297124747 316.37510463664 2746.10213604595 41 44 37
118.783156248594 317.0930090199 2755.62127851607 29 32 25
121.538294043328 317.830544436613 2766.94682309014 28 31 24
108.900149323383 318.420133448978 2766.65634923916 28 31 24
108.440890913629 319.122962839083 2775.51065334252 21 24 17
103.925103236264 319.787437907945 2781.31359745448 24 27 20
113.321273111047 320.566798518524 2797.37392963893 24 27 20
108.028066171803 321.219172245712 2802.5337418256 26 29 22
108.489618252856 321.915511961756 2811.89187383021 29 32 25
97.4445053853343 322.523073529688 2812.85065810001 27 30 23
106.193269793211 323.274062135853 2828.14149537764 30 31 23
104.247758038298 323.943775527058 2835.64240907635 33 33 25
99.8295325679819 324.595228961398 2841.35039706637 38 38 30
92.0895530317316 325.225453268881 2844.69209849122 38 38 30
89.3404329288439 325.88620470457 2851.57542241437 38 38 30
87.4392271450346 326.549993553372 2859.03321527359 40 40 32
84.7171066467114 327.20720858004 2865.89025086998 37 37 29
76.9711578929835 327.837698909416 2869.23784049811 35 35 27
73.4211930571438 328.489139992002 2875.50088182815 33 33 25
63.976955756194 329.113480604105 2877.70164953708 28 28 20
56.2046919804309 329.746949289384 2881.0749301714 25 25 17
54.3517868677763 330.404237993633 2888.48605831066 24 27 20
71.1945015386455 331.12520632834 2908.49677985304 28 31 24
40.4827247954547 331.679537188236 2896.40144035201 33 36 29
11.3618833153555 332.252992853088 2885.55794629799 34 37 30
55.6519553981558 333.035322775718 2923.64844355486 35 38 31
19.6281751588856 333.598316209398 2908.32492797835 43 46 39
-13.9577314803159 334.183666905936 2894.82832928004 39 42 35
-20.1293143547066 334.834586128821 2899.44334957049 41 44 37
13.3757709198812 335.546827441465 2929.83268472694 47 50 43
-52.5246518629592 336.775667800735 2904.40254133724 47 50 43
-60.4757746709459 337.430519874656 2907.95027117908 58 61 54
-71.0486517127382 338.085532362047 2909.85035222754 48 53 46
-109.55598891236 338.738806495379 2894.14554550097 43 48 41
63.3877107408303 305.885555106015 2676.25313967558 1 4 0
62.6645631986773 306.638649678517 2685.3620604164 34 37 30
86.9038480850195 307.735205536773 2713.55938274235 26 29 22
100.80462823576 308.671481254553 2733.62584778037 35 38 31
111.566022858219 309.553142433625 2751.14952810673 20 23 16
116.734010190362 310.351687323154 2764.32078820141 19 22 15
130.075636026913 311.245955992747 2783.53146320291 19 22 15
127.224067963886 311.929249282566 2790.51318778874 19 22 15
119.488378524209 312.552401957677 2793.85167426845 20 23 16
117.468269821343 313.243224791525 2801.42354387281 25 28 21
122.024637451099 314.006009877821 2813.79052733894 25 28 21
119.230835701077 314.681562093314 2820.71569540742 23 26 19
107.387318075031 315.258794614593 2821.05521854916 22 25 18
98.8169050128307 315.873782561143 2823.80689535112 25 26 20
105.958865488465 316.648291123892 2837.85534212766 26 27 21
108.181965756135 317.367010673482 2848.2947416483 29 30 24
101.293109639005 317.995034096554 2852.20883738552 29 30 24
96.8979226648341 318.646546345919 2857.89393911546 28 29 23
88.3301721752217 319.260623686829 2860.6431065306 28 29 23
82.2599597549738 319.897716856589 2865.15950794616 33 34 28
71.9900589519153 320.500676700771 2866.76642246868 33 34 28
62.5392615361107 321.112961335298 2868.97582417886 34 35 29
58.1293686077804 321.765782042207 2874.67533574923 33 34 28
55.4146136242437 322.43027993779 2881.52398087571 32 33 27
61.1834593032343 323.152428428361 2894.10987110405 21 24 17
56.8149790254906 323.799925217198 2899.76904617296 23 26 19
49.0475881855916 324.424997410685 2903.13906674974 26 29 22
48.9452933890933 325.098215024835 2911.6429394738 26 29 22
41.1736549002493 325.723658833394 2915.01678526224 28 31 24
18.8261460845993 326.269839518835 2908.78725319995 37 40 33
9.28292485704407 326.89284688437 2911.08684830651 40 43 36
-4.5820883382075 327.496773246297 2910.59564461624 40 43 36
15.1555961829279 328.262244678586 2931.97610655855 40 43 36
-22.9159159676673 328.760152228017 2915.86148222886 35 38 31
-51.6024564715099 329.315003095757 2906.00637998388 34 37 30
-23.9484945499759 330.097767073212 2932.27616515634 47 50 43
-22.255781865161 330.770147149426 2941.83218702353 47 52 45
-84.2044737376257 331.231631530978 2911.17408414119 51 56 49
-100.072693541533 331.861553019998 2909.83409568028 51 56 49
-117.738474469253 332.492357280836 2907.44516287944 44 51 44
61.8474389025332 298.151332196077 2676.09194851338 14 17 10
90.8125133519158 299.444157498101 2708.06961499544 54 57 50
81.3322863470933 300.049639302324 2710.30890833592 32 35 28
96.02519201268 301.066512214909 2730.99377811546 34 37 30
101.116154486243 301.910237060865 2744.23484745551 22 25 18
110.309747893953 302.813289265602 2760.4780595028 22 25 18
126.071819046544 303.810850435737 2781.52099573339 21 24 17
140.307422676608 304.770281573679 2801.25121590387 28 31 24
133.418984755375 305.394360333966 2805.16547938581 31 34 27
145.338058157687 306.299905779414 2822.95294680372 33 36 29
130.280845249365 306.800227131687 2820.82710919222 34 37 30
133.259787295573 307.564033957769 2831.92619209133 33 36 29
112.386898716262 307.989680126892 2825.66706460205 32 35 28
117.040650770655 308.772901315579 2837.9343234479 35 38 31
102.70403806615 309.296863685681 2836.50599652519 34 37 30
99.1115079768568 309.9659215685 2842.80870202576 35 38 31
92.2011227627015 310.591645021788 2846.74417856711 36 39 32
95.2864256435948 311.341586366249 2857.7396928972 37 40 33
94.234108799593 312.036301658611 2865.76720273516 37 40 33
81.4781994982581 312.59098182032 2865.59883036727 31 34 27
70.3671252075111 313.168899395984 2866.62783451652 30 33 26
61.753724537629 313.777969856635 2869.42307325022 30 33 26
52.2824718958681 314.379637218193 2871.65401868847 30 33 26
56.3151739612806 315.125307811079 2883.12629215613 35 36 30
49.3793895663881 315.753424117608 2887.08697463876 41 44 37
46.6819041712845 316.424221675973 2893.91753972123 40 43 36
38.8910744751989 317.044522089145 2897.31120285375 38 41 34
43.0300266397223 317.776827653207 2908.67994374775 31 34 27
42.0835394352324 318.457714945126 2916.60440696165 29 32 25
42.014040719236 319.143458489998 2925.07419920786 30 33 26
6.76216899210225 319.53121113748 2910.42697689729 31 34 27
2.35833178397638 320.185922021828 2916.12019568057 31 34 27
-0.315639066938989 320.853475096341 2922.92789000635 34 37 30
-9.02843568872758 321.474073526017 2925.82012656084 35 38 31
-1.29411957929593 322.215081232072 2939.28530684839 29 32 25
-1.31595643079851 322.894801499402 2947.70866039637 41 44 37
-44.8278360274035 323.283046044923 2928.51081575976 33 38 31
-54.4927853804453 323.907878867089 2930.93068105072 44 49 42
-106.134870504969 324.280810162577 2907.05531659607 48 53 46
-149.220048946123 324.729379519969 2888.84174474116 39 46 39
98.7330701375182 291.224731011302 2705.67027846031 32 35 28
92.4773136765471 291.882797233683 2710.36782804314 22 25 18
104.720466941586 292.922521037587 2729.23089502351 37 40 33
84.7954825894517 293.297558704201 2723.45521169833 37 40 33
106.024908257721 294.50237914223 2748.95739215124 26 29 22
109.557942371838 295.341999453676 2760.91195755361 24 27 20
113.946935354978 296.191708726211 2773.43229916132 19 22 15
138.736425987114 297.420059817132 2801.06377977033 27 30 23
144.084909022218 298.26687830684 2814.04867014672 27 30 23
133.124583023984 298.80908874484 2814.9332565124 26 29 22
136.077125671879 299.603747334308 2826.05399452712 27 30 23
127.562978117358 300.191342101076 2828.75384754821 28 31 24
128.920035822456 300.950910393476 2838.62995554989 25 28 21
120.399980537531 301.539014048226 2841.33559982117 21 24 17
