ply
format ascii 1.0
comment KinectMotionCapture
element vertex 757
property float x
property float y
property float z
property uchar red
property uchar green
property uchar blue
end_header
-59.5787800848484 521.793007850647 2631.00004196167 161 162 156
-52.3586235940456 521.202325820923 2628.00002098084 161 162 156
-45.2234297990799 521.404445171356 2628.99994850159 163 164 158
-38.0681790411472 521.407723426819 2628.99994850159 160 161 155
-30.9010371565819 521.212041378021 2628.00002098084 160 161 155
-23.721169680357 520.61915397644 2625 162 163 157
-16.5701881051064 520.422458648682 2624.00007247925 160 161 156
-9.44256037473679 521.216750144959 2628.00002098084 162 163 158
-2.29138601571321 521.613955497742 2630.00011444092 166 167 162
4.86883288249373 521.81214094162 2631.00004196167 166 167 162
12.0344776660204 522.009789943695 2631.99996948242 163 163 161
19.2201193422079 522.603571414948 2634.99999046326 160 160 158
26.4620892703533 523.990094661713 2641.99995994568 166 166 164
33.7038710713387 524.781107902527 2645.99990844727 177 177 175
40.9982316195965 525.968194007874 2651.99995040894 174 175 170
48.306941986084 526.95631980896 2657.00006484985 168 169 164
55.5800087749958 527.348935604095 2658.99991989136 168 169 164
62.9110410809517 528.137683868408 2663.00010681152 168 169 164
70.3426599502563 529.520750045776 2670.00007629395 161 162 157
77.8412371873856 531.101584434509 2677.99997329712 157 158 153
85.2559432387352 531.888484954834 2681.99992179871 153 154 149
92.7956998348236 533.269882202148 2688.99989128113 148 149 144
100.373238325119 534.650683403015 2696.00009918213 149 150 145
108.188323676586 537.022292613983 2707.99994468689 143 144 139
116.068363189697 539.393424987793 2720.00002861023 139 140 135
124.149508774281 542.358696460724 2734.99989509583 144 143 141
132.648691534996 546.711504459381 2756.99996948242 139 138 136
167.55273938179 538.326144218445 2714.99991416931 209 214 210
174.549669027328 537.123620510101 2709.00011062622 146 148 145
181.580558419228 536.118805408478 2703.9999961853 155 157 154
188.513845205307 534.915208816528 2697.99995422363 152 152 150
195.631697773933 534.306049346924 2694.9999332428 151 150 148
202.506721019745 533.101618289948 2688.99989128113 158 159 154
209.348559379578 531.896829605103 2683.00008773804 154 155 150
216.237857937813 530.889749526978 2677.99997329712 153 154 149
222.932413220406 529.485881328583 2671.0000038147 155 156 151
229.760617017746 528.477907180786 2665.99988937378 157 158 153
236.827716231346 528.064370155334 2664.00003433228 164 164 162
243.97486448288 527.848541736603 2663.00010681152 170 172 169
252.059191465378 529.614388942719 2671.99993133545 196 198 195
262.812048196793 536.731064319611 2707.99994468689 201 203 200
-296.665042638779 542.232513427734 2773.9999294281 204 209 205
-288.714408874512 541.471540927887 2769.99998092651 194 196 191
-280.784636735916 540.709912776947 2766.00003242493 174 176 171
-273.369818925858 540.925323963165 2766.99995994568 165 167 162
-265.756577253342 540.749251842499 2766.00003242493 161 162 157
-258.334815502167 540.963768959045 2766.99995994568 160 161 156
-250.90679526329 541.177749633789 2767.99988746643 159 160 155
-244.176045060158 542.95539855957 2776.99995040894 154 155 149
-237.566098570824 545.123875141144 2788.00010681152 149 150 144
-230.813190340996 547.096312046051 2798.00009727478 127 126 121
-223.446801304817 547.699689865112 2801.00011825562 119 118 113
-216.448694467545 549.280285835266 2809.00001525879 122 123 117
-209.778130054474 551.838159561157 2822.00002670288 125 126 121
-203.537568449974 555.764555931091 2842.00000762939 117 119 114
-173.688814043999 535.272896289825 2736.99998855591 207 208 203
-165.455147624016 532.743275165558 2723.99997711182 176 177 172
-157.407701015472 530.604064464569 2713.00005912781 156 157 152
-149.419635534286 528.464317321777 2701.99990272522 157 158 153
-141.753852367401 527.301847934723 2696.00009918213 162 161 157
-134.269818663597 526.72553062439 2693.00007820129 160 159 155
-126.707434654236 525.757491588593 2687.99996376038 160 159 155
-118.994168937206 524.006545543671 2678.99990081787 162 162 160
-110.995940864086 520.690143108368 2661.99994087219 195 195 193
-103.245779871941 518.155515193939 2648.9999294281 187 187 185
-95.7110673189163 516.402721405029 2640.00010490417 181 181 179
-88.459737598896 516.018509864807 2638.00001144409 181 182 177
-81.2498554587364 515.829503536224 2637.00008392334 169 170 165
-74.0451216697693 515.639781951904 2635.99991798401 168 169 164
-66.7948797345161 515.058398246765 2632.99989700317 163 164 159
-59.5607534050941 514.476478099823 2630.00011444092 162 163 157
-52.3228272795677 513.698220252991 2625.99992752075 161 162 156
-45.1753288507462 513.702034950256 2625.99992752075 161 162 156
-38.0566492676735 514.09649848938 2628.00002098084 159 160 154
-30.9034343808889 514.09912109375 2628.00002098084 164 165 159
-23.7230136990547 513.514399528503 2625 163 164 158
-16.5714751929045 513.32038640976 2624.00007247925 160 161 156
-9.43610724061728 513.712584972382 2625.99992752075 162 163 158
-2.29069264605641 514.299929141998 2628.99994850159 168 169 164
4.86365891993046 514.104187488556 2628.00002098084 167 168 163
12.0262680575252 514.494836330414 2630.00011444092 165 165 163
19.1997271031141 514.884829521179 2631.99996948242 163 163 161
26.4441147446632 516.448140144348 2640.00010490417 165 165 163
33.6682684719563 517.032623291016 2642.99988746643 172 172 170
40.9550331532955 518.203437328339 2648.9999294281 174 175 170
48.2561402022839 519.178152084351 2654.00004386902 172 173 168
55.5843152105808 520.15221118927 2658.99991989136 171 172 167
62.8686547279358 520.538866519928 2661.00001335144 170 171 166
70.2690631151199 521.707475185394 2667.00005531311 165 166 161
77.7600407600403 523.266613483429 2674.99995231628 162 163 158
85.2625146508217 524.629652500153 2681.99992179871 161 162 157
92.9063782095909 526.578962802887 2691.99991226196 159 160 155
100.52989423275 528.136372566223 2700.00004768372 156 157 152
108.276538550854 530.084431171417 2710.00003814697 152 153 148
116.119928658009 532.227456569672 2720.99995613098 151 152 147
124.113611876965 534.761011600494 2733.99996757507 149 148 146
132.803171873093 539.836704730988 2759.99999046326 148 147 145
168.059140443802 532.543122768402 2723.00004959106 209 214 210
174.884989857674 530.770123004913 2713.99998664856 146 148 145
181.661337614059 528.996646404266 2704.99992370605 150 152 149
188.527971506119 527.613878250122 2697.99995422363 151 151 149
195.646315813065 527.012884616852 2694.9999332428 157 156 154
202.521800994873 525.824785232544 2688.99989128113 152 153 148
209.442138671875 524.831891059875 2684.00001525879 153 154 149
216.173112392426 523.447334766388 2677.00004577637 157 158 153
222.781911492348 521.866917610168 2668.99991035461 160 161 156
229.432761669159 520.481646060944 2661.99994087219 168 168 166
236.578330397606 520.269095897675 2661.00001335144 170 170 168
243.717789649963 520.056128501892 2660.00008583069 171 173 170
251.794427633286 521.797657012939 2668.99991035461 194 196 193
261.666387319565 527.057647705078 2696.00009918213 204 206 203
-296.15131020546 533.76179933548 2769.00005340576 200 205 201
-288.318008184433 533.204078674316 2766.00003242493 193 195 190
-280.500113964081 532.64594078064 2763.00001144409 172 174 169
-273.191839456558 533.051371574402 2765.00010490417 164 166 161
-265.775740146637 533.263444900513 2766.00003242493 162 163 158
-258.540213108063 533.860623836517 2769.00005340576 161 162 157
-251.015663146973 533.879160881042 2769.00005340576 159 160 155
-244.018003344536 535.053908824921 2775.00009536743 154 155 149
-237.327829003334 536.999583244324 2785.00008583069 152 153 147
-230.912610888481 539.716124534607 2799.00002479553 137 136 131
-223.622784018517 540.504157543182 2802.99997329712 131 130 125
-216.695860028267 542.255878448486 2812.00003623962 123 124 118
-209.867998957634 544.392764568329 2822.99995422363 116 117 112
-203.194558620453 547.107875347137 2836.99989318848 127 129 124
-184.653624892235 538.072645664215 2789.99996185303 210 211 206
-173.511445522308 527.285873889923 2733.99996757507 209 210 205
-165.467575192451 525.369882583618 2723.99997711182 178 179 174
-157.477587461472 523.453295230865 2713.99998664856 161 162 157
-149.596810340881 521.728932857513 2704.99992370605 165 166 161
-141.817167401314 520.196974277496 2697.00002670288 161 160 156
-134.280011057854 519.435882568359 2693.00007820129 161 160 156
-126.622781157494 518.095552921295 2686.00010871887 161 160 156
-118.869967758656 516.175925731659 2676.00011825562 167 167 165
-111.087813973427 513.870000839233 2664.00003433228 197 197 195
-103.331625461578 511.370480060577 2651.00002288818 174 174 172
-95.7546457648277 509.449064731598 2641.00003242493 191 191 189
-88.4665176272392 508.877396583557 2638.00001144409 171 172 167
-81.2560841441154 508.6909532547 2637.00008392334 169 170 165
-74.0508139133453 508.504033088684 2635.99991798401 168 169 164
-66.7746514081955 507.737755775452 2631.99996948242 164 165 160
-59.5200322568417 506.970942020416 2628.00002098084 162 163 157
-52.3069277405739 506.396472454071 2625 162 163 157
-45.1788119971752 506.59316778183 2625.99992752075 161 162 156
-38.0740649998188 507.175087928772 2628.99994850159 159 160 154
-30.894061550498 506.791949272156 2627.00009346008 163 164 158
-23.6977301537991 505.829453468323 2621.99997901917 163 164 158
-16.5538061410189 505.638062953949 2621.00005149841 160 161 156
-9.42246150225401 505.832016468048 2621.99997901917 161 162 157
-2.28738412261009 506.411254405975 2625 167 168 163
4.86033270135522 506.604015827179 2625.99992752075 167 168 163
12.0271975174546 507.375061511993 2630.00011444092 165 165 163
19.2157998681068 508.14551115036 2634.0000629425 164 164 162
26.4461543411016 509.3013048172 2640.00010490417 166 166 164
33.6453877389431 509.491860866547 2641.00003242493 173 173 171
40.8808849751949 510.067820549011 2644.00005340576 174 175 170
48.0962023139 510.257244110107 2644.99998092651 171 172 167
55.4631650447845 511.796593666077 2653.00011634827 171 172 167
62.8262236714363 512.949526309967 2658.99991989136 170 171 166
70.2744647860527 514.487743377686 2667.00005531311 167 168 163
77.7369365096092 515.832364559174 2674.00002479553 165 166 161
85.269071161747 517.369449138641 2681.99992179871 158 159 154
92.9480046033859 519.484519958496 2693.00007820129 154 155 150
100.686520338058 521.599054336548 2703.9999961853 150 151 146
108.40468108654 523.327231407166 2713.00005912781 147 148 143
116.128787398338 524.861812591553 2720.99995613098 148 149 144
124.077677726746 527.16737985611 2733.00004005432 149 148 146
132.765144109726 532.172739505768 2759.0000629425 150 149 147
168.503820896149 526.522576808929 2730.00001907349 210 215 211
175.155848264694 524.195373058319 2717.99993515015 134 136 133
182.010740041733 522.639214992523 2710.00003814697 145 147 144
188.961312174797 521.468341350555 2703.9999961853 148 148 146
196.314260363579 521.454036235809 2703.9999961853 149 148 146
203.139379620552 520.089387893677 2697.00002670288 132 133 128
209.847763180733 518.531441688538 2688.99989128113 136 137 132
216.189011931419 516.201794147491 2677.00004577637 149 150 145
222.881719470024 514.835953712463 2670.00007629395 154 155 150
229.449510574341 513.276934623718 2661.99994087219 163 163 161
236.595556139946 513.067185878754 2661.00001335144 167 167 165
243.735447525978 512.856960296631 2660.00008583069 172 174 171
251.812636852264 514.574229717255 2668.99991035461 193 195 192
260.714560747147 517.833352088928 2686.00010871887 202 204 201
-295.744299888611 525.506734848022 2765.00010490417 197 202 198
-287.712901830673 524.576902389526 2759.99999046326 188 190 185
-280.215471982956 524.596989154816 2759.99999046326 174 176 171
-272.914856672287 524.996757507324 2762.00008392334 165 167 162
-265.698671340942 525.586247444153 2765.00010490417 156 157 152
-258.558809757233 526.365339756012 2769.00005340576 154 155 150
-251.124411821365 526.573717594147 2769.99998092651 154 155 150
-244.035631418228 527.542054653168 2775.00009536743 153 154 148
-237.089425325394 528.890252113342 2782.00006484985 150 151 145
-230.846956372261 531.949043273926 2798.00009727478 137 136 131
-223.878517746925 533.486604690552 2805.99999427795 134 133 128
-216.865882277489 535.02368927002 2813.99989128113 126 127 121
-209.883466362953 536.750495433807 2822.99995422363 108 109 104
-183.211207389832 526.336133480072 2767.99988746643 208 209 204
-173.651307821274 520.264446735382 2736.00006103516 187 188 183
-165.662199258804 518.565714359283 2726.99999809265 159 160 155
-157.721504569054 516.866266727448 2717.99993515015 168 169 164
-149.773985147476 514.97608423233 2707.99994468689 181 182 177
-141.932994127274 513.275444507599 2698.99988174438 160 159 155
-134.339988231659 512.335002422333 2694.00000572205 161 160 156
-126.490905880928 510.252833366394 2683.00008773804 160 159 155
-118.790119886398 508.550405502319 2674.00002479553 180 180 178
-110.971130430698 506.086647510529 2661.00001335144 176 176 174
-103.300489485264 504.002690315247 2650.00009536743 176 176 174
-95.798172056675 502.488672733307 2641.99995994568 180 180 178
-88.5403379797935 502.115368843079 2640.00010490417 169 170 165
-81.3239067792892 501.931548118591 2638.99993896484 169 170 165
-74.0564689040184 501.366853713989 2635.99991798401 168 169 164
-66.83050096035 500.991821289063 2634.0000629425 165 166 161
-59.5472380518913 500.045597553253 2628.99994850159 163 164 158
-52.3308590054512 499.479234218597 2625.99992752075 162 163 157
-45.1478622853756 499.102562665939 2624.00007247925 160 161 155
-38.0335338413715 499.486148357391 2625.99992752075 160 161 155
-30.8729074895382 499.298602342606 2625 162 163 157
-23.7085837870836 498.920232057571 2622.99990653992 163 164 158
-16.5550783276558 498.541384935379 2621.00005149841 162 163 158
-9.42318513989449 498.732566833496 2621.99997901917 162 163 158
-2.28494498878717 498.73298406601 2621.99997901917 164 165 160
4.86070616170764 499.493807554245 2625.99992752075 165 166 161
12.0235467329621 500.06377696991 2628.99994850159 166 166 164
19.2099791020155 500.823438167572 2632.99989700317 167 167 165
26.4081079512835 501.392304897308 2635.99991798401 168 168 166
33.6097478866577 501.770377159119 2638.00001144409 173 173 171
40.8530868589878 502.528369426727 2641.99995994568 175 176 171
48.027154058218 502.334833145142 2641.00003242493 172 173 168
55.4464980959892 504.423141479492 2651.99995040894 171 172 167
62.7837777137756 505.369663238525 2657.00006484985 170 171 166
70.3061744570732 507.45677947998 2667.99998283386 165 166 161
77.742874622345 508.592367172241 2674.00002479553 163 164 159
85.3391587734222 510.488152503967 2684.00001525879 156 157 152
92.955082654953 512.193143367767 2693.00007820129 153 154 149
100.656941533089 514.087736606598 2703.00006866455 150 151 146
108.293026685715 515.411138534546 2710.00003814697 144 145 140
116.009533405304 516.924202442169 2717.99993515015 142 143 138
123.905442655087 519.007205963135 2729.00009155273 150 149 147
132.486402988434 523.561835289001 2753.00002098084 145 144 142
168.701574206352 519.702136516571 2733.00004005432 212 217 213
175.362259149551 517.407476902008 2720.99995613098 126 128 125
182.427257299423 516.443490982056 2716.00008010864 140 142 139
189.464494585991 515.479028224945 2710.99996566772 128 128 126
196.691796183586 515.084505081177 2709.00011062622 133 132 130
203.304961323738 513.168454170227 2698.99988174438 129 130 125
209.941208362579 511.442184448242 2690.00005722046 138 139 134
216.204822063446 508.955001831055 2677.00004577637 155 156 151
222.897946834564 507.60817527771 2670.00007629395 157 158 153
229.37998175621 505.880832672119 2661.00001335144 160 160 158
236.523747444153 505.673885345459 2660.00008583069 163 163 161
243.753015995026 505.656599998474 2660.00008583069 171 173 170
251.453310251236 506.589293479919 2664.99996185303 190 192 189
260.053694248199 509.232223033905 2678.99990081787 198 200 197
-295.764982700348 518.021523952484 2765.00010490417 194 199 195
-287.733107805252 517.105162143707 2759.99999046326 189 191 186
-280.133724212646 516.937732696533 2759.0000629425 175 177 172
-272.736549377441 517.144560813904 2759.99999046326 167 169 164
-265.621483325958 517.913103103638 2763.99993896484 155 156 151
-258.670628070831 519.056022167206 2769.99998092651 153 154 149
-251.233100891113 519.261538982391 2770.99990844727 153 154 149
-244.053214788437 520.02888917923 2775.00009536743 153 154 148
-236.936077475548 520.983219146729 2779.99997138977 149 150 144
-230.863675475121 524.373352527618 2798.00009727478 135 134 129
-223.89480471611 525.889158248901 2805.99999427795 133 132 127
-216.881722211838 527.404487133026 2813.99989128113 124 125 119
-209.750145673752 528.731942176819 2821.00009918213 115 116 111
-182.298004627228 516.216933727264 2753.99994850159 207 208 203
-174.045011401176 513.980686664581 2742.00010299683 169 170 165
-165.795981884003 511.556386947632 2729.00009155273 167 168 163
-157.617151737213 509.13143157959 2716.00008010864 172 173 168
-149.619191884995 507.080733776093 2704.99992370605 185 186 181
-141.891002655029 505.779385566711 2697.99995422363 162 161 157
-134.30018723011 504.852414131165 2693.00007820129 162 161 157
-126.547530293465 503.174841403961 2684.00001525879 167 166 162
-118.843458592892 501.496732234955 2674.99995231628 192 192 190
-111.06289178133 499.255686998367 2663.00010681152 174 174 172
-103.386238217354 497.201412916183 2651.99995040894 188 188 186
-95.9504693746567 496.084004640579 2645.99990844727 173 173 171
-88.6141061782837 495.341062545776 2641.99995994568 171 172 167
-81.3916996121407 495.159983634949 2641.00003242493 168 169 164
-74.0339830517769 494.040876626968 2634.99999046326 167 168 163
-66.8101832270622 493.671208620071 2632.99989700317 164 165 160
-59.529110789299 492.738515138626 2628.00002098084 163 164 158
-52.3747019469738 492.742747068405 2628.00002098084 161 162 156
-45.1512970030308 491.996467113495 2624.00007247925 159 160 154
-38.0074605345726 491.999626159668 2624.00007247925 160 161 155
-30.8517329394817 491.814702749252 2622.99990653992 161 162 156
-23.7194299697876 492.004305124283 2624.00007247925 162 163 157
-16.5626555681229 491.63082242012 2621.99997901917 162 163 158
-9.42390318959951 491.631805896759 2621.99997901917 162 163 158
-2.28424789384007 491.444766521454 2621.00005149841 162 163 158
4.85737435519695 492.007166147232 2624.00007247925 164 165 160
12.0107410475612 492.381513118744 2625.99992752075 166 166 164
19.1895551979542 493.130385875702 2630.00011444092 167 167 165
26.4001004397869 494.066119194031 2634.99999046326 169 169 167
33.6123071610928 494.626373052597 2638.00001144409 172 172 170
40.8716611564159 495.56103348732 2642.99988746643 174 175 170
48.0853579938412 495.745122432709 2644.00005340576 172 173 168
55.4716251790524 497.428745031357 2653.00011634827 171 172 167
62.8594383597374 498.736709356308 2660.00008583069 170 171 166
70.4169273376465 500.981569290161 2671.99993133545 164 165 160
77.8359994292259 501.913487911224 2677.00004577637 161 162 157
85.3456184267998 503.219783306122 2684.00001525879 156 157 152
92.8585454821587 504.337906837463 2690.00005722046 155 156 151
100.515559315681 506.017982959747 2698.99988174438 153 154 149
108.181290328503 507.51006603241 2707.00001716614 151 152 147
115.890204906464 509.001493453979 2714.99991416931 150 151 146
123.823925852776 511.242210865021 2726.99999809265 155 154 152
132.303833961487 515.357077121735 2749.00007247925 145 144 142
167.973294854164 510.05232334137 2720.99995613098 209 214 210
175.761923193932 511.164367198944 2726.99999809265 131 133 130
182.910919189453 510.401427745819 2723.00004959106 138 140 137
190.107464790344 509.82540845871 2720.00002861023 120 120 118
197.214514017105 509.061515331268 2716.00008010864 129 128 126
203.696474432945 506.797671318054 2703.9999961853 146 147 142
210.034564137459 504.346191883087 2690.99998474121 149 150 145
215.97820520401 501.144587993622 2674.00002479553 153 154 149
222.496658563614 499.442100524902 2664.99996185303 151 152 147
228.965476155281 497.739166021347 2655.99989891052 157 157 155
236.096113920212 497.535109519959 2654.99997138977 162 162 160
243.587180972099 498.080164194107 2657.99999237061 170 172 169
251.18812918663 498.812019824982 2661.99994087219 187 189 186
259.586781263351 501.042485237122 2674.00002479553 194 196 193
270.744323730469 508.33123922348 2713.00005912781 203 205 202
-307.244658470154 517.161130905151 2801.00011825562 209 214 210
-296.320408582687 511.458158493042 2769.99998092651 193 198 194
-288.065999746323 510.185956954956 2763.00001144409 187 189 184
-280.458003282547 510.021209716797 2762.00008392334 167 169 164
-272.854566574097 509.855806827545 2760.99991798401 160 162 157
-265.736371278763 510.61350107193 2765.00010490417 160 161 156
-258.782356977463 511.739909648895 2770.99990844727 158 159 154
-251.432329416275 512.127459049225 2773.00000190735 156 157 152
-244.246557354927 512.88378238678 2776.99995040894 155 156 150
-237.038314342499 513.639748096466 2780.99989891052 150 151 145
-230.962827801704 516.981065273285 2799.00002479553 139 138 133
-224.150359630585 518.844485282898 2809.00001525879 139 138 133
-217.205762863159 520.522832870483 2818.00007820129 134 133 128
-210.211515426636 522.200644016266 2826.99990272522 118 120 115
-182.245180010796 508.573710918427 2753.00002098084 210 211 206
-173.867374658585 506.000399589539 2739.00008201599 184 185 180
-165.625914931297 503.611207008362 2726.0000705719 180 181 176
-157.570764422417 501.590847969055 2714.99991416931 175 176 171
-149.685606360435 499.939411878586 2706.00008964539 183 184 179
-141.954138875008 498.656898736954 2698.99988174438 160 159 155
-134.360030293465 497.743338346481 2694.00000572205 163 162 158
-126.604110002518 496.090173721313 2684.99994277954 184 185 180
-118.852324783802 494.251608848572 2674.99995231628 196 196 194
-111.071199178696 492.042988538742 2663.00010681152 184 184 182
-103.393986821175 490.018457174301 2651.99995040894 192 192 190
-95.9576591849327 488.917261362076 2645.99990844727 178 178 176
-88.5872170329094 488.000243902206 2641.00003242493 171 172 167
-81.3978165388107 488.006621599197 2641.00003242493 166 167 162
-74.067659676075 487.088561058044 2635.99991798401 166 167 162
-66.8405964970589 486.7242872715 2634.0000629425 164 165 160
-59.5335997641087 485.62029004097 2628.00002098084 162 163 158
-52.358727902174 485.439717769623 2627.00009346008 160 161 155
-45.1547093689442 484.889060258865 2624.00007247925 158 159 153
-37.9813611507416 484.522551298141 2621.99997901917 158 159 153
-30.8423042297363 484.525114297867 2621.99997901917 158 159 153
-23.7121842801571 484.71200466156 2622.99990653992 159 160 154
-16.5702253580093 484.713494777679 2622.99990653992 160 161 156
-9.42821055650711 484.714478254318 2622.99990653992 159 160 155
-2.28529237210751 484.53015089035 2621.99997901917 159 160 155
4.8558902926743 484.714835882187 2622.99990653992 161 162 157
12.0116509497166 485.268592834473 2625.99992752075 165 165 163
19.1764123737812 485.637009143829 2628.00002098084 168 168 166
26.3820588588715 486.559242010117 2632.99989700317 169 169 167
33.5893593728542 487.111330032349 2635.99991798401 171 171 169
40.8592857420444 488.217264413834 2641.99995994568 170 171 166
48.1617450714111 489.322692155838 2648.00000190735 172 173 168
55.5594526231289 490.981906652451 2657.00006484985 172 173 168
62.935084104538 492.086201906204 2663.00010681152 170 171 166
70.4222247004509 493.744224309921 2671.99993133545 163 164 159
77.8127759695053 494.477838277817 2676.00011825562 159 160 155
85.3202268481255 495.765209197998 2683.00008773804 155 156 151
92.8309857845306 496.867150068283 2688.99989128113 154 155 150
100.448615849018 498.338162899017 2697.00002670288 152 153 148
108.069486916065 499.6238052845 2703.9999961853 153 154 149
115.813478827477 501.278340816498 2713.00005912781 155 156 151
123.787745833397 503.67146730423 2726.0000705719 151 150 148
132.313683629036 507.911503314972 2749.00007247925 142 141 139
169.899508357048 508.410036563873 2752.00009346008 209 214 210
176.032647490501 504.51785326004 2730.99994659424 127 129 126
183.193013072014 503.765821456909 2726.99999809265 133 135 132
190.261140465736 502.828478813171 2721.99988365173 128 128 126
197.156220674515 501.521348953247 2714.99991416931 139 138 136
203.33456993103 498.551309108734 2698.99988174438 150 151 146
209.581419825554 495.95046043396 2684.99994277954 153 154 149
215.751454234123 493.349224328995 2671.0000038147 157 158 153
222.262158989906 491.671174764633 2661.99994087219 156 157 152
228.895664215088 490.362137556076 2654.99997138977 161 161 159
236.024051904678 490.160942077637 2654.00004386902 164 164 162
243.604481220245 490.882605314255 2657.99999237061 168 170 167
251.017242670059 491.234511137009 2660.00008583069 185 187 184
259.216755628586 493.063241243362 2670.00007629395 193 195 192
270.463943481445 500.431180000305 2710.00003814697 203 205 202
-296.447843313217 504.138767719269 2770.99990844727 192 197 193
-288.190186023712 502.885401248932 2763.99993896484 185 187 182
-280.579060316086 502.723097801209 2763.00001144409 174 175 170
-273.071318864822 502.742409706116 2763.00001144409 159 160 155
-265.754997730255 503.125071525574 2765.00010490417 151 152 147
-258.61382484436 503.871262073517 2769.00005340576 156 157 152
-251.359462738037 504.435181617737 2772.0000743866 159 160 155
-244.351863861084 505.544543266296 2778.00011634827 151 152 147
-237.310916185379 506.653487682343 2783.99991989136 153 154 149
-231.226906180382 509.94598865509 2802.00004577637 135 136 131
-224.32604432106 511.600136756897 2811.00010871887 136 137 132
-217.606768012047 513.799965381622 2822.99995422363 125 126 121
-210.672870278358 515.635430812836 2832.99994468689 121 123 118
-182.192236185074 500.934481620789 2752.00009346008 163 165 160
-173.626124858856 497.852951288223 2734.99989509583 177 179 174
-165.334224700928 495.316833257675 2720.99995613098 169 170 165
-157.292112708092 493.326187133789 2710.00003814697 187 188 183
-149.419993162155 491.698980331421 2700.99997520447 165 166 161
-141.701579093933 490.435361862183 2694.00000572205 157 158 153
-133.970931172371 488.98908495903 2686.00010871887 159 160 155
-126.283377408981 487.542241811752 2677.99997329712 197 198 193
-118.550099432468 485.730677843094 2667.99998283386 176 176 174
-110.996000468731 484.464764595032 2661.00001335144 192 194 191
-103.440657258034 483.016192913055 2653.00011634827 194 196 193
-95.9647968411446 481.74911737442 2645.99990844727 170 172 169
-88.5938182473183 480.84557056427 2641.00003242493 161 163 160
-81.3730731606483 480.669885873795 2640.00010490417 165 167 164
-74.1293877363205 480.31148314476 2638.00001144409 165 167 164
-66.8709725141525 479.770511388779 2634.99999046326 163 165 162
-59.5607124269009 478.682786226273 2628.99994850159 161 163 160
-52.3427128791809 478.140711784363 2625.99992752075 156 158 155
-45.1752990484238 477.962255477905 2625 155 157 152
-37.9986949265003 477.601170539856 2622.99990653992 158 159 154
-30.8563802391291 477.603763341904 2622.99990653992 158 159 154
-23.7230062484741 477.787911891937 2624.00007247925 158 159 154
-16.5841076523066 477.971494197845 2625 158 159 154
-9.43970307707787 478.154540061951 2625.99992752075 159 160 155
-2.2880791220814 477.972954511642 2625 162 163 158
4.85810684040189 477.790772914886 2624.00007247925 163 164 159
12.0125534012914 478.154271841049 2625.99992752075 165 166 161
19.170556217432 478.335171937943 2627.00009346008 169 170 165
26.3740196824074 479.243934154511 2631.99996948242 170 171 166
33.5918813943863 479.96997833252 2635.99991798401 171 172 167
40.8468805253506 480.877608060837 2641.00003242493 170 172 169
48.2017286121845 482.513040304184 2650.00009536743 168 170 167
55.5636137723923 483.783721923828 2657.00006484985 166 168 165
62.9634186625481 485.053837299347 2664.00003433228 165 167 164
70.3747794032097 486.141353845596 2670.00007629395 163 165 162
77.8185799717903 487.22830414772 2676.00011825562 162 164 161
85.3265821933746 488.496720790863 2683.00008773804 153 155 152
92.8378999233246 489.582449197769 2688.99989128113 149 151 148
100.493334233761 491.213947534561 2697.99995422363 149 151 148
108.197420835495 492.844790220261 2707.00001716614 161 163 160
115.950144827366 494.475066661835 2716.00008010864 156 158 155
123.933158814907 496.833026409149 2729.00009155273 138 138 136
132.323458790779 500.464677810669 2749.00007247925 148 148 146
176.303312182426 497.848331928253 2734.99989509583 143 148 144
183.340713381767 496.743202209473 2729.00009155273 133 138 134
190.274924039841 495.4554438591 2721.99988365173 137 139 136
197.09786772728 493.985384702683 2713.99998664856 143 143 141
203.273892402649 491.058826446533 2697.99995422363 149 150 145
209.440365433693 488.314002752304 2683.00008773804 151 152 147
215.605333447456 485.750734806061 2668.99991035461 156 157 152
222.194507718086 484.279185533524 2661.00001335144 156 157 152
228.825762867928 482.989281415939 2654.00004386902 156 156 154
236.040756106377 482.972830533981 2654.00004386902 157 157 155
243.438377976418 483.319848775864 2655.99989891052 165 167 164
251.034885644913 484.030425548553 2660.00008583069 181 183 180
259.429097175598 486.196130514145 2671.99993133545 187 189 186
271.081686019897 494.183748960495 2716.00008010864 199 201 198
-306.847840547562 501.272678375244 2796.99993133545 207 212 208
-296.040207147598 495.916545391083 2766.99995994568 193 198 194
-288.001507520676 495.040416717529 2762.00008392334 181 182 177
-280.598402023315 495.23913860321 2763.00001144409 173 174 169
-273.090273141861 495.258241891861 2763.00001144409 168 169 164
-265.581279993057 495.276898145676 2763.00001144409 161 162 157
-258.445084095001 496.01212143898 2766.99995994568 154 155 150
-251.286387443542 496.746897697449 2770.99990844727 147 148 143
-244.369074702263 498.019248247147 2778.00011634827 148 149 144
-237.498193979263 499.470353126526 2786.00001335144 147 148 143
-231.078252196312 501.99681520462 2799.99995231628 130 131 126
-224.5814204216 504.522919654846 2813.99989128113 113 114 109
-218.007773160934 507.048785686493 2828.00006866455 113 114 109
-211.580395698547 510.112166404724 2845.00002861023 117 119 114
-182.006776332855 492.940813302994 2749.00007247925 145 147 142
-173.575207591057 490.263789892197 2733.99996757507 170 172 167
-165.163919329643 487.4067902565 2717.99993515015 172 173 168
-157.187461853027 485.625207424164 2707.99994468689 180 181 176
-149.375572800636 484.201699495316 2700.00004768372 162 163 158
-141.606733202934 482.777535915375 2691.99991226196 163 164 159
-133.731335401535 480.814874172211 2680.99999427795 159 160 155
-125.915378332138 478.851556777954 2670.00007629395 177 178 173
-118.203312158585 477.067023515701 2660.00008583069 160 162 159
-110.837310552597 476.537376642227 2657.00006484985 197 199 196
-103.448286652565 475.827783346176 2653.00011634827 181 183 180
-96.0444286465645 474.938333034515 2648.00000190735 157 159 156
-88.6003822088242 473.689705133438 2641.00003242493 164 166 163
-81.3482701778412 473.337173461914 2638.99993896484 168 170 167
-74.10679012537 472.984194755554 2637.00008392334 165 167 164
-66.850557923317 472.45129942894 2634.0000629425 161 163 160
-59.5651343464851 471.559137105942 2628.99994850159 158 160 157
-52.3864738643169 471.383929252625 2628.00002098084 156 158 155
-45.2647134661675 471.746295690537 2630.00011444092 156 158 155
-38.0884520709515 471.569955348969 2628.99994850159 157 158 153
-30.9057421982288 471.213817596436 2627.00009346008 156 157 152
-23.7338151782751 470.857083797455 2625 156 157 152
-16.5853425860405 470.858573913574 2625 157 158 153
-9.4404062256217 471.038907766342 2625.99992752075 158 159 154
-2.28912127204239 471.039354801178 2625.99992752075 161 162 157
4.86587500199676 471.397995948792 2628.00002098084 162 163 158
12.0317488908768 471.756130456924 2630.00011444092 164 165 160
19.2084740847349 472.11366891861 2631.99996948242 168 169 164
26.3860039412975 472.29140996933 2632.99989700317 170 171 166
33.5943847894669 472.827315330505 2635.99991798401 171 172 167
40.8344604074955 473.542094230652 2640.00010490417 170 172 169
48.1689348816872 474.97370839119 2648.00000190735 170 172 169
55.5050000548363 476.046085357666 2654.00004386902 169 171 168
62.873549759388 477.117955684662 2660.00008583069 167 169 166
70.2745616436005 478.189170360565 2665.99988937378 161 163 160
77.7371004223824 479.439288377762 2673.00009727478 159 161 158
85.3010937571526 481.047540903091 2681.99992179871 157 159 156
92.9483473300934 482.834547758102 2691.99991226196 155 157 154
100.537978112698 484.082937240601 2698.99988174438 159 161 158
108.245365321636 485.689431428909 2707.99994468689 161 163 160
116.00136756897 487.295418977737 2717.00000762939 154 156 153
124.033078551292 489.797532558441 2730.99994659424 143 143 141
132.285013794899 492.83704161644 2747.99990653992 146 146 144
176.509499549866 490.976482629776 2737.99991607666 169 174 170
183.42113494873 489.529073238373 2730.00001907349 131 136 132
190.148815512657 487.722486257553 2720.00002861023 135 137 134
196.748867630959 485.73625087738 2709.00011062622 142 142 140
202.761024236679 482.494592666626 2690.99998474121 148 149 144
208.986893296242 479.969829320908 2677.00004577637 150 151 146
215.378299355507 477.982491254807 2665.99988937378 154 155 150
222.293764352798 477.249920368195 2661.99994087219 155 156 151
229.014337062836 476.1583507061 2655.99989891052 155 155 153
236.235246062279 476.141959428787 2655.99989891052 156 156 154
243.455439805984 476.125240325928 2655.99989891052 162 164 161
251.241147518158 477.183520793915 2661.99994087219 181 183 180
259.544253349304 479.137659072876 2673.00009727478 185 187 184
270.501583814621 485.751509666443 2710.00003814697 197 199 196
-305.332630872726 491.224646568298 2782.99999237061 207 212 208
-295.73929309845 487.89119720459 2763.99993896484 192 197 193
-288.125455379486 487.734526395798 2763.00001144409 179 180 175
-280.414521694183 487.4007999897 2760.99991798401 170 171 166
-273.010224103928 487.596303224564 2762.00008392334 166 167 162
-265.407353639603 487.438201904297 2760.99991798401 162 163 158
-258.276224136353 488.162487745285 2765.00010490417 158 159 154
-251.303851604462 489.239394664764 2770.99990844727 155 156 151
-244.386151432991 490.492612123489 2778.00011634827 150 151 146
-237.514838576317 491.921901702881 2786.00001335144 145 146 141
-230.846911668777 493.880569934845 2796.99993133545 136 137 132
-224.437654018402 496.545225381851 2812.00003623962 128 129 124
-218.254506587982 499.915957450867 2831.00008964539 120 121 116
-212.487950921059 504.522502422333 2857.00011253357 127 129 124
-182.218447327614 486.021518707275 2752.00009346008 156 158 153
-173.587650060654 482.855260372162 2733.99996757507 164 166 161
-165.115043520927 479.864984750748 2717.00000762939 180 181 176
-157.140746712685 478.110373020172 2707.00001716614 173 174 169
-149.331033229828 476.708352565765 2698.99988174438 163 164 159
-141.459181904793 474.952608346939 2688.99989128113 162 163 158
-133.441731333733 472.489714622498 2674.99995231628 173 174 169
-125.830203294754 471.262693405151 2667.99998283386 161 162 157
-118.211932480335 469.85849738121 2660.00008583069 168 170 167
-110.887132585049 469.513535499573 2657.99999237061 188 190 187
-103.416852653027 468.461453914642 2651.99995040894 164 166 163
-96.0151925683022 467.585474252701 2647.0000743866 157 159 156
-88.5733291506767 466.355711221695 2640.00010490417 171 173 170
-81.292599439621 465.831965208054 2637.00008392334 165 167 164
-74.056014418602 465.484291315079 2634.99999046326 162 164 161
-66.8300986289978 465.136140584946 2632.99989700317 155 157 154
-59.6148334443569 464.78745341301 2631.00004196167 154 156 153
-52.450142800808 464.791595935822 2631.00004196167 154 156 153
-45.2852733433247 464.79520201683 2631.00004196167 156 158 155
-38.1202436983585 464.798241853714 2631.00004196167 154 155 150
-30.9550855308771 464.800775051117 2631.00004196167 154 155 150
-23.7807836383581 464.626163244247 2630.00011444092 154 155 150
-16.6055262088776 464.274317026138 2628.00002098084 156 157 152
-9.44829545915127 464.275240898132 2628.00002098084 156 157 152
-2.29016249068081 464.099019765854 2627.00009346008 158 159 154
4.8699383623898 464.628964662552 2630.00011444092 159 160 155
12.037212960422 464.804977178574 2631.00004196167 162 163 158
19.2171912640333 465.157091617584 2632.99989700317 167 168 163
26.3879559934139 465.155452489853 2632.99989700317 169 170 165
33.5841216146946 465.506613254547 2634.99999046326 172 173 168
40.8529378473759 466.563791036606 2641.00003242493 169 171 168
48.1906831264496 467.973858118057 2648.9999294281 174 176 173
55.5300004780293 469.02996301651 2654.99997138977 176 178 175
62.9018172621727 470.085561275482 2661.00001335144 175 177 174
70.2797248959541 470.96398472786 2665.99988937378 168 170 167
77.655553817749 471.665173768997 2670.00007629395 166 168 165
85.2119326591492 473.249077796936 2678.99990081787 161 163 160
92.8170457482338 474.832475185394 2687.99996376038 160 162 159
100.470848381519 476.41521692276 2697.00002670288 156 158 155
108.173325657845 477.997452020645 2706.00008964539 152 154 151
115.924440324306 479.57906126976 2714.99991416931 147 149 146
123.860448598862 481.690049171448 2726.99999809265 150 150 148
131.861358880997 483.800411224365 2739.00008201599 149 149 147
177.166879177094 485.323339700699 2747.99990653992 206 211 207
183.770209550858 483.014523983002 2734.99989509583 126 131 127
190.302178263664 480.705380439758 2721.99988365173 145 147 144
196.690231561661 478.219270706177 2707.99994468689 139 139 137
202.77538895607 475.20312666893 2690.99998474121 146 147 142
209.001675248146 472.716361284256 2677.00004577637 149 150 145
215.393498539925 470.759034156799 2665.99988937378 154 155 150
222.058832645416 469.507664442062 2658.99991989136 154 155 150
228.857904672623 468.609035015106 2654.00004386902 155 155 153
235.895946621895 468.2397544384 2651.99995040894 156 156 154
243.197381496429 468.399703502655 2653.00011634827 170 172 169
251.069813966751 469.618499279022 2660.00008583069 182 184 181
259.076625108719 471.013247966766 2667.99998283386 183 185 182
269.022792577744 475.761651992798 2694.9999332428 188 190 187
-305.24343252182 483.510673046112 2782.00006484985 205 210 206
-296.187251806259 481.097489595413 2767.99988746643 190 195 191
-288.144946098328 480.248153209686 2763.00001144409 177 178 173
-280.331999063492 479.745894670486 2759.99999046326 172 173 168
-272.8311419487 479.764670133591 2759.99999046326 169 170 165
-265.329420566559 479.782968759537 2759.99999046326 159 160 155
-258.200585842133 480.496227741241 2763.99993896484 156 157 152
-251.411974430084 481.904476881027 2772.0000743866 156 157 152
-244.31511759758 482.79082775116 2776.99995040894 146 147 142
-237.275555729866 483.850538730621 2782.99999237061 148 149 144
-230.532854795456 485.605418682098 2792.99998283386 143 144 139
-224.533200263977 489.098638296127 2812.99996376038 128 129 124
-218.732416629791 493.287086486816 2836.99989318848 123 124 119
-182.165145874023 478.389143943787 2750.99992752075 170 172 167
-173.7270206213 475.793272256851 2736.00006103516 151 153 148
-165.248394012451 472.849011421204 2719.00010108948 181 182 177
-157.268106937408 471.121370792389 2709.00011062622 162 163 158
-149.452432990074 469.741016626358 2700.99997520447 161 162 157
-141.627162694931 468.186140060425 2691.99991226196 162 163 158
-133.750677108765 466.282933950424 2680.99999427795 194 195 190
-126.122280955315 465.074777603149 2674.00002479553 158 159 154
-118.442699313164 463.518261909485 2664.99996185303 184 186 183
-111.02032661438 462.830781936646 2661.00001335144 172 174 171
-103.385359048843 461.099237203598 2651.00002288818 150 152 149
-95.949612557888 460.062801837921 2644.99998092651 164 166 163
-88.5126516222954 458.851873874664 2638.00001144409 177 179 176
-81.2676772475243 458.510160446167 2635.99991798401 160 162 159
-74.0052089095116 457.993984222412 2632.99989700317 159 161 158
-66.7842030525208 457.651168107986 2631.00004196167 156 158 155
-59.6191957592964 457.655787467957 2631.00004196167 155 157 154
-52.5137931108475 458.181738853455 2634.0000629425 155 157 154
-45.340221375227 458.185255527496 2634.0000629425 155 157 154
-38.1520129740238 458.014339208603 2632.99989700317 153 154 149
-30.9573523700237 457.668960094452 2631.00004196167 154 155 150
-23.773480206728 457.323044538498 2628.99994850159 154 155 150
-16.5877845138311 456.628739833832 2625 155 156 151
-9.43820178508759 456.629693508148 2625 156 157 152
-2.2894584108144 456.804007291794 2625.99992752075 158 159 154
4.87029599025846 457.499802112579 2630.00011444092 159 160 155
12.0426695793867 457.847028970718 2631.99996948242 161 162 157
19.2113015800714 457.845896482468 2631.99996948242 167 168 163
26.3798665255308 457.844287157059 2631.99996948242 170 171 166
33.5610881447792 458.016037940979 2632.99989700317 173 174 169
40.8404618501663 459.231019020081 2640.00010490417 168 170 167
48.1760129332542 460.619360208511 2648.00000190735 170 172 169
55.5340610444546 461.833208799362 2654.99997138977 170 172 169
62.882773578167 462.698698043823 2660.00008583069 169 171 168
70.2321380376816 463.38963508606 2664.00003433228 165 167 164
77.6612162590027 464.427888393402 2670.00007629395 163 165 162
85.1545259356499 465.639621019363 2677.00004577637 160 162 159
92.7547216415405 467.198580503464 2686.00010871887 158 160 157
100.403629243374 468.757063150406 2694.9999332428 153 155 152
108.061231672764 470.140993595123 2703.00006866455 150 152 149
115.804731845856 471.698313951492 2711.99989318848 149 151 148
123.687706887722 473.602920770645 2723.00004959106 149 149 147
131.630122661591 475.506901741028 2733.99996757507 156 156 154
141.310676932335 483.14967751503 2778.00011634827 155 157 154
177.888706326485 479.788482189178 2759.0000629425 211 216 212
183.850452303886 475.776076316834 2736.00006103516 143 148 144
190.52542746067 473.850041627884 2724.99990463257 134 136 133
196.849405765533 471.228122711182 2710.00003814697 133 133 131
202.940389513969 468.258112668991 2693.00007820129 147 148 143
209.0163230896 465.461641550064 2677.00004577637 149 150 145
215.327754616737 463.360369205475 2664.99996185303 155 156 151
221.990823745728 462.128162384033 2657.99999237061 155 156 151
228.78760099411 461.243242025375 2653.00011634827 156 156 154
235.823318362236 460.879445075989 2651.00002288818 157 157 155
243.122488260269 461.036831140518 2651.99995040894 168 170 167
250.898241996765 462.062954902649 2657.99999237061 181 183 180
258.803009986877 463.262379169464 2664.99996185303 186 188 185
268.242508172989 467.068731784821 2687.00003623962 185 187 184
-305.263727903366 475.971817970276 2782.00006484985 206 211 207
-295.886039733887 473.083198070526 2765.00010490417 190 195 191
-288.060009479523 472.589373588562 2762.00008392334 178 179 174
-280.249357223511 472.09507226944 2759.0000629425 168 169 164
-272.651880979538 471.942484378815 2757.99989700317 168 169 164
-265.155166387558 471.960663795471 2757.99989700317 160 161 156
-258.124768733978 472.834050655365 2763.00001144409 156 157 152
-251.338452100754 474.220454692841 2770.99990844727 155 156 151
-244.243919849396 475.093096494675 2776.00002288818 147 148 143
-237.377196550369 476.478755474091 2783.99991989136 155 156 151
-230.466261506081 477.864027023315 2792.00005531311 140 141 136
-224.389120936394 481.131732463837 2811.00010871887 126 127 122
-219.36446428299 486.966609954834 2845.00002861023 119 120 115
-191.456124186516 475.369691848755 2776.99995040894 212 214 211
-181.91309273243 470.247238874435 2746.99997901917 159 161 158
-173.54878783226 467.863112688065 2733.00004005432 165 167 164
-165.260091423988 465.478330850601 2719.00010108948 179 179 177
-157.279267907143 463.777780532837 2709.00011062622 166 166 164
-149.463057518005 462.418973445892 2700.99997520447 163 163 161
-141.637280583382 460.88844537735 2691.99991226196 182 182 180
-133.860021829605 459.357380867004 2683.00008773804 187 187 185
-126.272827386856 458.339333534241 2677.00004577637 174 174 172
-118.495620787144 456.464648246765 2665.99988937378 193 195 192
-110.986575484276 455.44558763504 2660.00008583069 151 153 150
-103.353783488274 453.741014003754 2650.00009536743 154 156 153
-95.8839654922485 452.549576759338 2642.99988746643 178 180 177
-88.485486805439 451.52884721756 2637.00008392334 169 171 168
-81.273540854454 451.363652944565 2635.99991798401 159 161 158
-74.0105509757996 450.855523347855 2632.99989700317 159 161 158
-66.7890459299088 450.518190860748 2631.00004196167 156 158 155
-59.6461743116379 450.693964958191 2631.99996948242 155 157 154
-52.5574684143066 451.38293504715 2635.99991798401 153 155 152
-45.3607253730297 451.215237379074 2634.99999046326 152 154 151
-38.1692722439766 451.047003269196 2634.0000629425 151 152 147
-30.9831351041794 450.878232717514 2632.99989700317 151 152 147
-23.8113813102245 450.880229473114 2632.99989700317 152 153 148
-16.6016295552254 449.854284524918 2627.00009346008 154 155 150
-9.43529233336449 449.341505765915 2624.00007247925 155 156 151
-2.28788121603429 449.341922998428 2624.00007247925 159 160 155
4.86324168741703 449.684292078018 2625.99992752075 159 160 155
12.0252417400479 450.026124715805 2628.00002098084 162 163 158
19.1688984632492 449.682533740997 2625.99992752075 165 166 161
26.3717602938414 450.537145137787 2631.00004196167 168 169 164
33.5635207593441 450.87742805481 2632.99989700317 172 173 168
40.8743657171726 452.415883541107 2641.99995994568 175 177 174
48.2158958911896 453.782588243485 2650.00009536743 173 175 172
55.6008405983448 455.148756504059 2657.99999237061 170 172 169
62.9582479596138 456.000685691834 2663.00010681152 167 169 166
70.2899396419525 456.509590148926 2665.99988937378 159 161 158
77.6377394795418 457.017958164215 2668.99991035461 157 159 156
85.1606577634811 458.381921052933 2677.00004577637 146 148 145
92.7614197134972 459.916681051254 2686.00010871887 144 146 143
100.522622466087 461.964398622513 2697.99995422363 144 146 143
108.108974993229 462.984293699265 2703.9999961853 143 145 142
115.81302434206 464.346021413803 2711.99989318848 145 147 144
123.469427227974 465.364813804626 2717.99993515015 153 153 151
131.398797035217 467.239111661911 2729.00009155273 164 164 162
140.964642167091 474.42027926445 2770.99990844727 157 159 156
184.064984321594 468.873202800751 2739.00008201599 200 205 201
190.888404846191 467.319428920746 2730.00001907349 108 110 107
197.226375341415 464.738249778748 2714.99991416931 134 134 132
203.255996108055 461.643248796463 2697.00002670288 147 148 143
209.108933806419 458.376735448837 2677.99997329712 150 151 146
215.342670679092 456.136971712112 2664.99996185303 156 157 152
221.922636032104 454.752683639526 2657.00006484985 157 158 153
228.975847363472 454.394936561584 2654.99997138977 158 158 156
235.750555992126 453.523308038712 2650.00009536743 159 159 157
242.955759167671 453.507006168365 2650.00009536743 165 167 164
250.348955392838 453.832447528839 2651.99995040894 178 180 177
258.43209028244 455.355376005173 2661.00001335144 189 191 188
268.160820007324 459.615617990494 2686.00010871887 182 184 181
-304.405957460403 467.084646224976 2773.9999294281 204 209 205
-296.119689941406 465.925753116608 2766.99995994568 191 196 192
-287.870556116104 464.766323566437 2759.99999046326 181 182 177
-280.064910650253 464.27994966507 2756.99996948242 162 163 158
-272.472470998764 464.129954576492 2756.00004196167 166 167 162
-265.269190073013 464.653193950653 2759.0000629425 157 158 153
-258.142232894897 465.344429016113 2763.00001144409 159 160 155
-251.446217298508 466.877430677414 2772.0000743866 158 159 154
