ply
format ascii 1.0
comment KinectMotionCapture
element vertex 799
property float x
property float y
property float z
property uchar red
property uchar green
property uchar blue
end_header
100.462593138218 197.311326861382 2690.99998474121 18 24 14
107.804365456104 197.307571768761 2690.99998474121 17 23 13
114.760585129261 196.643695235252 2681.99992179871 16 22 10
123.351395130157 198.692366480827 2710.00003814697 16 19 12
132.914632558823 201.987072825432 2755.00011444092 18 21 14
144.398763775826 197.138369083405 2688.99989128113 23 26 19
-290.595144033432 196.164160966873 2780.99989891052 116 108 97
-282.211124897003 195.609211921692 2773.00000190735 102 90 78
-273.572534322739 194.842383265495 2762.00008392334 103 91 77
-265.281766653061 194.286867976189 2753.99994850159 109 91 77
-258.063286542892 194.50718164444 2756.99996948242 100 81 67
-251.91804766655 195.573911070824 2772.0000743866 108 90 78
-244.632288813591 195.793852210045 2775.00009536743 109 92 82
-236.560389399529 195.378541946411 2769.00005340576 113 103 94
-227.03155875206 193.692833185196 2744.99988555908 38 31 25
-219.392269849777 193.559199571609 2743.00003051758 17 16 11
-211.840316653252 193.495899438858 2742.00010299683 13 14 8
-207.423344254494 196.396291255951 2782.99999237061 15 18 9
-194.596141576767 191.251412034035 2710.00003814697 19 22 13
-187.416300177574 191.469639539719 2713.00005912781 20 23 14
-178.560480475426 189.92318212986 2690.99998474121 17 20 11
-170.078456401825 188.658714294434 2673.00009727478 17 20 11
-163.03376853466 188.946723937988 2677.00004577637 16 19 10
-155.908435583115 189.16392326355 2680.0000667572 17 20 11
-149.209707975388 189.945593476295 2690.99998474121 20 23 14
-141.606912016869 189.597696065903 2686.00010871887 19 22 13
-134.430721402168 189.814195036888 2688.99989128113 16 19 10
-127.190411090851 189.95988368988 2690.99998474121 15 18 9
-120.695799589157 191.305428743362 2710.00003814697 11 14 7
-113.219030201435 191.168263554573 2707.99994468689 10 13 6
-105.674587190151 190.889701247215 2703.9999961853 10 13 6
-97.2790941596031 188.916549086571 2676.00011825562 13 16 9
-90.0110825896263 188.990414142609 2677.00004577637 15 18 11
-82.3974087834358 188.287407159805 2667.00005531311 16 19 12
-74.218325316906 186.030969023705 2634.99999046326 17 20 13
-67.002147436142 185.962826013565 2634.0000629425 20 23 16
-60.222614556551 187.235862016678 2651.99995040894 20 23 16
-52.9450103640556 187.096670269966 2650.00009536743 17 20 13
-45.2468432486057 185.192063450813 2622.99990653992 16 19 12
-38.1750725209713 185.617163777351 2628.99994850159 16 19 10
-31.329806894064 187.595292925835 2657.00006484985 16 19 10
-24.5671737939119 191.408902406693 2710.99996566772 16 19 10
-17.0853845775127 190.491765737534 2697.99995422363 14 17 8
-9.64566692709923 189.00953233242 2677.00004577637 15 18 9
-2.3284088820219 188.162490725517 2664.99996185303 17 20 11
4.92706242948771 187.456384301186 2654.99997138977 17 20 11
12.178361415863 187.526702880859 2655.99989891052 17 20 11
19.3180367350578 186.467066407204 2641.00003242493 17 20 11
26.4862347394228 186.183869838715 2637.00008392334 15 18 9
33.951822668314 187.665477395058 2657.99999237061 15 18 9
42.1985313296318 192.182794213295 2721.99988365173 12 13 7
49.700491130352 192.463591694832 2726.0000705719 11 14 7
56.6581375896931 190.837889909744 2703.00006866455 12 15 8
63.7979805469513 190.129771828651 2693.00007820129 12 15 8
70.5659538507462 188.574180006981 2671.0000038147 12 15 6
78.5543918609619 190.265983343124 2694.9999332428 12 15 6
86.0040709376335 190.474927425385 2697.99995422363 14 17 8
94.0234735608101 191.813141107559 2717.00000762939 14 20 10
100.951485335827 190.891996026039 2703.9999961853 16 22 12
108.449175953865 191.100165247917 2707.00001716614 16 22 12
116.133935749531 191.590428352356 2713.99998664856 17 23 11
123.628854751587 191.727459430695 2716.00008010864 21 26 19
130.458727478981 190.875962376595 2703.9999961853 17 20 13
139.465495944023 193.130180239677 2736.00006103516 18 21 14
145.585268735886 191.360548138618 2710.99996566772 20 23 16
-293.634861707687 190.553396940231 2809.99994277954 119 112 102
-282.830893993378 188.460245728493 2779.00004386902 110 100 90
-274.769961833954 188.129961490631 2773.9999294281 87 75 63
-266.638964414597 187.731623649597 2767.99988746643 64 48 35
-259.288549423218 187.875673174858 2769.99998092651 84 66 54
-251.744478940964 187.883824110031 2769.99998092651 95 78 68
-244.728460907936 188.298776745796 2776.00002288818 87 73 64
-236.909851431847 188.103020191193 2773.00000190735 67 58 51
-229.024067521095 187.839210033417 2769.00005340576 28 21 15
-219.31953728199 186.014845967293 2742.00010299683 32 31 27
-213.238000869751 187.242984771729 2759.99999046326 19 20 15
-208.175584673882 189.488679170609 2792.99998283386 15 18 11
-201.711744070053 190.580904483795 2809.00001525879 16 19 10
-190.25494158268 186.855673789978 2753.99994850159 16 19 10
-177.504733204842 181.501567363739 2674.99995231628 16 19 10
-171.165883541107 182.525083422661 2690.00005722046 16 19 10
-163.526460528374 182.19131231308 2684.99994277954 17 20 11
-156.786322593689 182.875171303749 2694.9999332428 17 20 11
-149.270206689835 182.676672935486 2691.99991226196 17 20 11
-141.717150807381 182.410046458244 2687.99996376038 16 19 10
-134.735256433487 182.88965523243 2694.9999332428 12 15 6
-127.667397260666 183.301210403442 2700.99997520447 11 14 5
-120.610818266869 183.780387043953 2707.99994468689 10 13 6
-113.181091845036 183.71644616127 2707.00001716614 11 14 7
-105.990841984749 184.059426188469 2711.99989318848 11 14 7
-97.6459607481956 182.298257946968 2686.00010871887 11 14 7
-89.8124128580093 181.283354759216 2671.0000038147 13 16 9
-82.2766423225403 180.743247270584 2663.00010681152 14 17 10
-75.0377178192139 180.813759565353 2664.00003433228 15 18 11
-68.1746080517769 181.902170181274 2680.0000667572 18 21 14
-61.4509768784046 183.669090270996 2706.00008964539 18 21 14
-53.3064603805542 181.091740727425 2667.99998283386 16 19 12
-45.3346520662308 178.378373384476 2628.00002098084 14 17 10
-38.2054261863232 178.583398461342 2631.00004196167 16 19 12
-31.4723812043667 181.163892149925 2668.99991035461 16 19 12
-24.3323985487223 182.250887155533 2684.99994277954 15 18 11
-16.9276520609856 181.437060236931 2673.00009727478 14 17 10
-9.63518861681223 181.505382061005 2674.00002479553 15 18 11
-2.32324656099081 180.487394332886 2658.99991989136 18 21 14
4.93279984220862 180.419489741325 2657.99999237061 18 21 14
12.132927775383 179.604664444923 2645.99990844727 16 19 12
19.4723159074783 180.690184235573 2661.99994087219 15 18 11
27.3308772593737 184.694170951843 2720.99995613098 13 16 9
34.7449779510498 184.625238180161 2720.00002861023 11 14 7
42.5875671207905 186.456605792046 2746.99997901917 12 13 7
49.5198778808117 184.350907802582 2716.00008010864 11 14 7
56.8068139255047 183.941856026649 2710.00003814697 12 15 8
63.8949275016785 183.057442307472 2697.00002670288 13 16 9
71.0175186395645 182.444304227829 2687.99996376038 13 16 7
78.3530324697495 182.441785931587 2687.99996376038 15 18 9
86.2301662564278 183.592855930328 2704.99992370605 17 20 11
93.9228758215904 184.200674295425 2713.99998664856 16 22 12
101.925663650036 185.283333063126 2730.00001907349 15 21 11
109.013743698597 184.668958187103 2720.99995613098 15 21 11
116.908147931099 185.411721467972 2732.00011253357 17 23 11
122.904725372791 183.236017823219 2700.00004768372 19 24 17
130.173668265343 183.096066117287 2697.99995422363 16 21 14
138.348743319511 184.177413582802 2713.99998664856 18 23 16
148.006841540337 187.022835016251 2756.00004196167 23 26 19
153.886869549751 185.049891471863 2726.99999809265 24 27 18
-283.144980669022 181.082606315613 2782.00006484985 109 99 89
-275.967180728912 181.351467967033 2786.00001335144 85 73 61
-268.381267786026 181.35978281498 2786.00001335144 53 39 28
-260.794430971146 181.367918848991 2786.00001335144 65 49 36
-252.570360898972 180.920079350471 2779.00004386902 77 60 50
-244.824305176735 180.797547101974 2776.99995040894 73 59 50
-237.173691391945 180.739909410477 2776.00002288818 66 57 50
-229.279488325119 180.486738681793 2772.0000743866 31 26 20
-219.406485557556 178.605452179909 2743.00003051758 18 17 13
-211.467757821083 178.221493959427 2736.99998855591 19 20 15
-205.4243683815 179.465234279633 2756.00004196167 16 19 12
-198.702126741409 180.187895894051 2766.99995994568 15 18 9
-188.741192221642 177.914753556252 2732.00011253357 14 17 8
-177.974969148636 174.664348363876 2681.99992179871 15 18 9
-170.47144472599 174.474462866783 2678.99990081787 16 19 10
-164.93259370327 176.368519663811 2707.99994468689 16 19 10
-157.722264528275 176.569014787674 2710.99996566772 16 19 10
-149.829551577568 175.987720489502 2701.99990272522 16 19 10
-142.354443669319 175.86213350296 2700.00004768372 15 18 9
-134.989619255066 175.866559147835 2700.00004768372 13 16 7
-127.577021718025 175.805613398552 2698.99988174438 12 15 6
-119.144931435585 174.246266484261 2674.99995231628 12 15 8
-111.345067620277 173.468291759491 2663.00010681152 12 15 8
-104.743659496307 174.579158425331 2680.0000667572 11 14 7
-96.7766344547272 173.409834504128 2661.99994087219 9 12 5
-89.949868619442 174.259722232819 2674.99995231628 10 13 6
-82.4956446886063 173.936799168587 2670.00007629395 12 15 8
-75.8852437138557 175.502836704254 2694.00000572205 14 17 10
-69.4233775138855 177.785307168961 2729.00009155273 16 19 12
-61.4984184503555 176.419332623482 2707.99994468689 16 19 12
-53.8676790893078 175.639420747757 2696.00009918213 14 17 10
-45.5776713788509 172.123029828072 2641.99995994568 12 15 8
-38.0179136991501 170.560792088509 2618.00003051758 13 16 9
-31.3083305954933 172.972455620766 2654.99997138977 13 16 9
-24.1428893059492 173.559695482254 2664.00003433228 12 15 8
-16.9218797236681 174.081578850746 2671.99993133545 11 14 7
-9.72919724881649 175.906226038933 2700.00004768372 13 16 9
-2.34604137949646 174.929141998291 2684.99994277954 14 17 10
4.96080191805959 174.147307872772 2673.00009727478 13 16 9
12.4726602807641 177.209094166756 2720.00002861023 13 16 9
20.1020631939173 179.032772779465 2747.99990653992 11 14 7
27.5728572160006 178.836554288864 2744.99988555908 11 14 7
35.0399352610111 178.705245256424 2743.00003051758 11 14 7
41.813787072897 175.707116723061 2697.00002670288 12 13 7
49.2844767868519 176.096528768539 2703.00006866455 12 15 8
56.6200204193592 175.964519381523 2700.99997520447 13 16 9
63.7312009930611 175.245955586433 2690.00005722046 15 18 11
70.5442875623703 173.940852284431 2670.00007629395 16 19 10
78.1807154417038 174.72018301487 2681.99992179871 19 22 13
85.8823284506798 175.49929022789 2694.00000572205 19 22 13
94.0297842025757 176.994696259499 2717.00000762939 17 23 13
101.406283676624 176.926404237747 2716.00008010864 14 20 10
109.377920627594 177.834987640381 2730.00001907349 15 21 11
115.200228989124 175.356030464172 2691.99991226196 17 23 11
122.681148350239 175.547644495964 2694.9999332428 17 22 15
129.936665296555 175.413325428963 2693.00007820129 23 28 21
138.608142733574 177.102565765381 2719.00010108948 24 29 22
147.313490509987 178.661227226257 2743.00003051758 25 28 21
154.964104294777 178.851798176765 2746.00005149841 20 23 14
-272.14640378952 176.198944449425 2825.00004768372 123 120 113
-262.861758470535 175.146505236626 2808.00008773804 112 109 102
-253.94132733345 174.280852079391 2793.99991035461 45 42 35
-245.977878570557 174.038752913475 2789.99996185303 39 39 31
-237.778961658478 173.609271645546 2782.99999237061 103 104 98
-229.203760623932 172.867640852928 2770.99990844727 19 20 14
-218.53332221508 170.441299676895 2732.00011253357 12 15 8
-210.856109857559 170.260563492775 2729.00009155273 20 23 16
-204.088971018791 170.828327536583 2737.99991607666 18 21 12
-196.553811430931 170.771956443787 2736.99998855591 17 20 11
-188.194304704666 169.966638088226 2723.99997711182 15 18 9
-178.577721118927 167.913094162941 2690.99998474121 13 16 7
-170.413106679916 167.107224464417 2677.99997329712 17 20 11
-164.815917611122 168.859556317329 2706.00008964539 15 18 9
-156.796306371689 168.178007006645 2694.9999332428 15 18 9
-148.891553282738 167.558640241623 2684.99994277954 14 17 8
-141.357094049454 167.313456535339 2680.99999427795 14 17 8
-134.543880820274 167.941763997078 2690.99998474121 14 17 8
-126.635625958443 167.196869850159 2678.99990081787 14 17 8
-119.059607386589 166.826203465462 2673.00009727478 14 17 8
-109.592437744141 163.584291934967 2621.00005149841 13 16 9
-103.418081998825 165.147915482521 2645.99990844727 8 11 4
-96.4161232113838 165.525481104851 2651.99995040894 6 9 2
-89.5491912961006 166.214942932129 2663.00010681152 7 10 3
-83.3942964673042 168.464630842209 2698.99988174438 10 13 6
-76.5918791294098 169.715493917465 2719.00010108948 11 14 7
-68.6878114938736 168.531775474548 2700.00004768372 14 17 10
-61.6366378962994 169.407665729523 2713.99998664856 14 17 10
-54.3489456176758 169.783994555473 2720.00002861023 13 16 9
-47.4078096449375 171.533361077309 2747.99990653992 10 13 6
-39.1808971762657 168.413639068604 2697.99995422363 9 12 5
-31.1442334204912 164.856687188148 2641.00003242493 9 12 5
-24.1708476096392 166.480541229248 2667.00005531311 8 11 4
-17.0744173228741 168.291434645653 2696.00009918213 8 11 4
-9.7403172403574 168.728813529015 2703.00006866455 10 13 6
-2.36271834000945 168.791428208351 2703.9999961853 11 14 7
5.02035021781921 168.853804469109 2704.99992370605 11 14 7
12.4317845329642 169.228062033653 2710.99996566772 11 14 7
20.2563274651766 172.848075628281 2769.00005340576 11 14 7
27.7244113385677 172.285526990891 2759.99999046326 11 14 7
34.5683842897415 168.913766741753 2706.00008964539 12 15 8
41.753102093935 168.101102113724 2693.00007820129 13 14 8
48.6296266317368 166.476726531982 2667.00005531311 13 16 9
56.2235191464424 167.411401867867 2681.99992179871 15 18 11
63.1645992398262 166.410833597183 2665.99988937378 17 20 13
70.3087225556374 166.096657514572 2661.00001335144 18 21 12
77.9208391904831 166.843384504318 2673.00009727478 18 21 12
85.9488099813461 168.276444077492 2696.00009918213 18 21 12
93.4444069862366 168.523326516151 2700.00004768372 16 22 12
100.700072944164 168.333068490028 2697.00002670288 14 20 10
108.179368078709 168.517082929611 2700.00004768372 14 20 10
115.67460000515 168.700858950615 2703.00006866455 18 24 12
122.548423707485 168.010652065277 2691.99991226196 24 29 22
130.230233073235 168.443635106087 2698.99988174438 23 28 21
138.306602835655 169.313251972198 2713.00005912781 20 25 18
-227.225244045258 163.881212472916 2746.99997901917 0 3 0
-219.179645180702 163.469985127449 2740.00000953674 18 21 14
-210.939586162567 162.879556417465 2730.00001907349 19 22 15
-203.722298145294 163.064524531364 2733.00004005432 18 21 12
-187.025368213654 161.52448952198 2707.00001716614 13 16 7
-177.919402718544 159.978345036507 2680.99999427795 13 16 7
-174.045458436012 163.205787539482 2734.99989509583 14 17 8
-164.394453167915 161.062434315681 2698.99988174438 16 17 9
-156.800985336304 160.828441381454 2694.9999332428 16 17 9
-148.507833480835 159.818395972252 2677.99997329712 17 18 10
-141.466796398163 160.121038556099 2683.00008773804 17 18 10
-134.547919034958 160.602554678917 2690.99998474121 17 18 10
-127.632141113281 161.14354133606 2700.00004768372 17 18 10
-118.885017931461 159.297004342079 2668.99991035461 17 19 8
-111.101053655148 158.58419239521 2657.00006484985 16 18 7
-103.186704218388 157.572701573372 2640.00010490417 15 16 8
-96.8917012214661 159.067839384079 2664.99996185303 13 14 6
-90.0226980447769 159.786880016327 2677.00004577637 11 12 4
-83.3659246563911 161.042898893356 2697.99995422363 8 11 2
-75.7772698998451 160.567760467529 2690.00005722046 9 12 3
-67.494198679924 158.361330628395 2653.00011634827 10 13 4
-60.343973338604 158.601999282837 2657.00006484985 10 13 6
-54.950051009655 164.15511071682 2750 9 12 5
-46.7536672949791 161.768928170204 2710.00003814697 8 11 4
-39.8065634071827 163.620695471764 2740.9999370575 8 11 4
-31.5343551337719 159.62228178978 2674.00002479553 9 12 5
-23.9903200417757 158.011347055435 2647.0000743866 10 13 6
-17.0116052031517 160.340070724487 2686.00010871887 11 14 7
-9.63250640779734 159.564435482025 2673.00009727478 12 15 8
-2.34793545678258 160.400331020355 2687.00003623962 11 14 7
5.0464877858758 162.310540676117 2719.00010108948 11 14 7
12.482606805861 162.489339709282 2721.99988365173 11 14 7
19.8399536311626 161.891907453537 2711.99989318848 11 14 7
27.3334868252277 162.428468465805 2720.99995613098 11 14 7
34.6205420792103 161.770910024643 2710.00003814697 12 15 8
41.4907932281494 159.740194678307 2676.00011825562 13 16 9
48.9228628575802 160.156682133675 2683.00008773804 15 18 11
56.24620616436 160.15513241291 2683.00008773804 17 20 13
63.4508356451988 159.854859113693 2677.99997329712 17 20 13
70.7336217164993 159.793183207512 2677.00004577637 17 20 11
78.0398100614548 159.790962934494 2677.00004577637 18 21 12
86.0470458865166 161.101683974266 2698.99988174438 17 20 11
93.2741910219193 160.860285162926 2694.9999332428 17 20 11
100.441746413708 160.558968782425 2690.00005722046 20 23 14
107.581630349159 160.257443785667 2684.99994277954 21 24 15
116.790808737278 162.880301475525 2729.00009155273 21 24 13
124.509677290916 163.23484480381 2734.99989509583 20 23 16
130.813211202621 161.798685789108 2710.99996566772 21 24 17
140.044122934341 163.943246006966 2746.99997901917 20 23 16
147.805899381638 164.237409830093 2752.00009346008 19 22 15
158.133998513222 167.21685230732 2802.00004577637 22 25 18
-226.652547717094 155.992850661278 2740.00000953674 7 10 3
-217.825904488564 155.031085014343 2723.00004959106 17 20 13
-210.636466741562 155.207797884941 2726.0000705719 12 15 8
-203.578934073448 155.498176813126 2730.99994659424 18 21 12
-194.48247551918 154.194056987762 2707.99994468689 18 21 12
-186.823397874832 153.9715975523 2703.9999961853 15 18 9
-181.043609976768 155.343323945999 2727.9999256134 14 17 8
-173.095852136612 154.892697930336 2720.00002861023 14 17 8
-166.409239172935 155.580803751945 2732.00011253357 16 17 9
-157.620057463646 154.275521636009 2709.00011062622 16 17 9
-151.50673687458 155.589699745178 2732.00011253357 17 18 10
-141.998171806335 153.372719883919 2693.00007820129 17 18 10
-134.451791644096 153.148755431175 2688.99989128113 17 18 10
-126.879453659058 152.867674827576 2684.00001525879 17 18 10
-119.823880493641 153.212904930115 2690.00005722046 16 18 7
-111.355170607567 151.678323745728 2663.00010681152 16 18 7
-104.51865196228 152.307912707329 2674.00002479553 16 17 9
-97.5489616394043 152.823403477669 2683.00008773804 15 16 8
-90.6978845596313 153.623521327972 2697.00002670288 13 14 6
-83.2138508558273 153.398141264915 2693.00007820129 8 11 2
-75.8921578526497 153.457373380661 2694.00000572205 9 12 3
-60.5501383543015 151.866286993027 2665.99988937378 9 12 5
-52.2540286183357 148.962706327438 2615.00000953674 7 10 3
-47.6694330573082 157.394960522652 2763.00001144409 6 9 2
-39.778683334589 156.029030680656 2739.00008201599 9 12 5
-31.9834202528 154.491975903511 2711.99989318848 9 12 5
-24.2176093161106 152.214124798775 2671.99993133545 10 13 6
-16.961432993412 152.556508779526 2677.99997329712 11 14 7
-9.62558016180992 152.158141136169 2671.0000038147 11 14 7
-2.32441048137844 151.531666517258 2660.00008583069 11 14 7
4.97610447928309 152.727916836739 2680.99999427795 11 14 7
12.560935690999 156.031757593155 2739.00008201599 11 14 7
19.8990646749735 154.948934912682 2720.00002861023 11 14 7
27.1233264356852 153.808921575546 2700.00004768372 12 15 8
34.6215516328812 154.377698898315 2710.00003814697 14 17 10
41.4920039474964 152.439787983894 2676.00011825562 14 17 10
48.6689992249012 152.039736509323 2668.99991035461 17 20 13
56.4784482121468 153.4623503685 2694.00000572205 19 22 15
63.8554915785789 153.517618775368 2694.9999332428 19 22 15
71.1848735809326 153.458699584007 2694.00000572205 18 21 12
78.3627554774284 153.114810585976 2687.99996376038 19 22 13
85.9220251441002 153.511211276054 2694.9999332428 18 21 12
93.4845581650734 153.850436210632 2700.99997520447 17 20 11
100.332640111446 153.050243854523 2687.00003623962 19 22 13
107.584737241268 152.933374047279 2684.99994277954 20 23 14
117.264948785305 156.062886118889 2740.00000953674 20 23 12
125.788003206253 157.369464635849 2763.00001144409 18 21 14
133.326187729836 157.365798950195 2763.00001144409 19 22 15
140.557959675789 157.020211219788 2756.99996948242 19 22 15
149.74370598793 158.781677484512 2788.00010681152 19 22 15
157.29196369648 158.720418810844 2786.99994087219 23 26 19
-226.162299513817 148.196280002594 2733.99996757507 13 16 9
-217.751726508141 147.551596164703 2721.99988365173 14 17 10
-210.564821958542 147.719845175743 2724.99990463257 24 27 20
-203.286230564117 147.833690047264 2726.99999809265 18 21 12
-193.913176655769 146.375223994255 2700.00004768372 18 21 12
-186.482980847359 146.326020359993 2698.99988174438 17 20 11
-179.721191525459 146.818816661835 2707.99994468689 16 19 10
-174.691542983055 148.829564452171 2744.99988555908 14 17 8
-167.022898793221 148.671463131905 2742.00010299683 17 18 10
-159.893587231636 149.001151323318 2747.99990653992 17 18 10
-150.679022073746 147.324413061142 2717.00000762939 16 17 9
-142.634809017181 146.677643060684 2704.99992370605 16 17 9
-134.855508804321 146.247550845146 2697.00002670288 15 16 8
-127.544805407524 146.305322647095 2697.99995422363 15 16 8
-119.916275143623 145.983278751373 2691.99991226196 13 14 6
-112.487308681011 145.877957344055 2690.00005722046 13 14 6
-105.146951973438 145.88089287281 2690.00005722046 14 15 7
-98.1334149837494 146.371707320213 2698.99988174438 15 16 8
-91.3393795490265 147.296234965324 2716.00008010864 13 14 6
-83.8959887623787 147.24437892437 2714.99991416931 10 13 6
-76.5140429139137 147.300779819489 2716.00008010864 10 13 6
-69.4825276732445 148.116275668144 2730.99994659424 10 13 6
-52.3753836750984 142.153650522232 2621.00005149841 8 11 4
-47.6190000772476 149.693921208382 2759.99999046326 8 11 4
-39.8378893733025 148.773089051247 2743.00003051758 9 12 5
-31.8663753569126 146.550297737122 2701.99990272522 10 13 6
-24.3179854005575 145.520552992821 2683.00008773804 10 13 6
-16.9239025563002 144.924491643906 2671.99993133545 11 14 7
-9.68711357563734 145.792663097382 2687.99996376038 11 14 7
-2.33234022744 144.762307405472 2668.99991035461 10 13 6
5.07833017036319 148.396253585815 2736.00006103516 10 13 6
19.8703538626432 147.310808300972 2716.00008010864 12 15 8
27.3450929671526 147.635564208031 2721.99988365173 13 16 9
34.3542248010635 145.844876766205 2688.99989128113 15 18 11
41.6327081620693 145.626917481422 2684.99994277954 13 16 9
48.779770731926 145.083323121071 2674.99995231628 17 20 13
56.5009862184525 146.166607737541 2694.9999332428 19 22 15
64.1889944672585 146.924272179604 2709.00011062622 18 21 14
71.4246854186058 146.597012877464 2703.00006866455 16 19 10
78.3357843756676 145.727232098579 2687.00003623962 16 19 10
85.76500415802 145.887702703476 2690.00005722046 15 18 9
93.3487042784691 146.264910697937 2697.00002670288 14 17 8
100.522123277187 145.991116762161 2691.99991226196 17 20 11
108.108632266521 146.313682198524 2697.99995422363 18 21 12
114.871464669704 145.551458001137 2684.00001525879 18 21 10
124.971970915794 148.856177926064 2744.99988555908 17 20 13
131.110116839409 147.334381937981 2717.00000762939 18 21 14
139.185264706612 148.035690188408 2730.00001907349 19 22 15
-239.00118470192 143.977969884872 2796.99993133545 12 15 8
-228.236123919487 142.027646303177 2759.0000629425 13 16 9
-212.424799799919 141.523823142052 2749.00007247925 9 12 5
-204.036951065063 140.911236405373 2736.99998855591 17 20 11
-195.067316293716 139.835074543953 2716.00008010864 17 20 11
-186.211422085762 138.758629560471 2694.9999332428 18 21 12
-179.593101143837 139.329627156258 2706.00008964539 17 20 11
-173.105046153069 140.054926276207 2720.00002861023 15 18 9
-166.296258568764 140.574157238007 2730.00001907349 18 19 11
-158.966764807701 140.681266784668 2732.00011253357 18 19 11
-150.461107492447 139.706805348396 2713.00005912781 16 17 9
-143.007650971413 139.659017324448 2711.99989318848 15 16 8
-135.509088635445 139.559596776962 2710.00003814697 14 15 7
-127.737239003181 139.150977134705 2701.99990272522 14 15 7
-121.567659080029 140.544667840004 2729.00009155273 13 14 6
-113.117523491383 139.311641454697 2704.99992370605 12 13 5
-105.736047029495 139.314442873001 2704.99992370605 13 14 6
-98.972275853157 140.192642807961 2721.99988365173 14 15 7
-84.6707448363304 141.124442219734 2740.00000953674 11 14 7
-77.1922096610069 141.126543283463 2740.00000953674 11 14 7
-69.3317130208015 140.355840325356 2724.99990463257 10 13 6
-62.2796341776848 141.233175992966 2742.00010299683 10 13 6
-55.394284427166 142.779916524887 2772.0000743866 10 13 6
-39.5049005746841 140.103951096535 2720.00002861023 10 13 6
-31.5841697156429 137.941464781761 2677.99997329712 10 13 6
-24.2189280688763 137.633144855499 2671.99993133545 10 13 6
-16.9496927410364 137.83971965313 2676.00011825562 10 13 6
-9.59367025643587 137.118935585022 2661.99994087219 11 14 7
-2.33327620662749 137.531161308289 2670.00007629395 10 13 6
4.95039019733667 137.376591563225 2667.00005531311 10 13 6
12.3827587813139 139.076188206673 2700.00004768372 11 14 7
19.6294467896223 138.200119137764 2683.00008773804 12 15 8
27.1448995918036 139.178186655045 2701.99990272522 13 16 9
34.3168079853058 138.353243470192 2686.00010871887 15 18 11
41.525274515152 137.94019818306 2677.99997329712 13 16 9
49.2369644343853 139.072209596634 2700.00004768372 16 19 12
56.7331127822399 139.379888772964 2706.00008964539 17 20 13
64.1907006502151 139.532849192619 2709.00011062622 16 19 12
71.0037723183632 138.397932052612 2687.00003623962 15 18 9
78.396163880825 138.49900662899 2688.99989128113 15 18 9
85.7991501688957 138.599917292595 2690.99998474121 14 17 8
93.212716281414 138.700604438782 2693.00007820129 14 17 8
101.047575473785 139.367669820786 2706.00008964539 16 19 10
108.391970396042 139.313459396362 2704.99992370605 18 21 12
116.072870790958 139.671102166176 2711.99989318848 18 21 10
121.378526091576 137.299031019211 2665.99988937378 20 23 16
129.424557089806 138.119801878929 2681.99992179871 19 22 15
155.15561401844 141.559213399887 2749.00007247925 20 23 16
164.251253008842 142.945498228073 2776.00002288818 19 22 15
-239.861473441124 136.837840080261 2806.99992179871 32 35 28
-230.061650276184 135.575875639915 2780.99989891052 12 15 8
-221.922621130943 135.239943861961 2773.9999294281 18 21 14
-211.734503507614 133.587464690208 2740.00000953674 19 22 15
-205.309271812439 134.27497446537 2753.99994850159 18 21 12
-194.856628775597 132.280692458153 2713.00005912781 15 18 9
-187.183350324631 132.090225815773 2709.00011062622 18 21 12
-179.066568613052 131.55822455883 2697.99995422363 19 22 13
-172.53652215004 132.196351885796 2710.99996566772 18 21 12
-165.386617183685 132.395446300507 2714.99991416931 18 19 11
-158.330634236336 132.691949605942 2720.99995613098 18 19 11
-151.463121175766 133.183345198631 2730.99994659424 16 17 9
-144.276812672615 133.430764079094 2736.00006103516 15 16 8
-136.712566018105 133.336633443832 2733.99996757507 13 14 6
-127.88225710392 131.925478577614 2704.99992370605 12 13 5
-122.728936374187 134.367123246193 2755.00011444092 13 14 6
-114.625841379166 133.687183260918 2740.9999370575 13 14 6
-105.895064771175 132.129117846489 2709.00011062622 13 14 6
-98.6838787794113 132.375493645668 2713.99998664856 14 15 7
-92.891164124012 134.719043970108 2762.00008392334 12 13 7
-84.6419706940651 133.599355816841 2739.00008201599 10 13 6
-76.9405961036682 133.211120963097 2730.99994659424 10 13 6
-69.2571252584457 132.773905992508 2721.99988365173 10 13 6
-62.1222034096718 133.409634232521 2734.99989509583 10 13 6
-55.2158281207085 134.776905179024 2763.00001144409 10 13 6
-47.9492917656899 135.558634996414 2779.00004386902 11 13 8
-32.0921167731285 132.731348276138 2720.99995613098 10 13 6
-24.5458520948887 132.097899913788 2707.99994468689 10 13 6
-16.9881228357553 130.830124020576 2681.99992179871 10 13 6
-9.61914006620646 130.196303129196 2668.99991035461 10 13 6
-2.31323530897498 129.123255610466 2647.0000743866 10 13 6
4.98207053169608 130.928114056587 2684.00001525879 10 13 6
12.3005183413625 130.830347537994 2681.99992179871 10 13 6
19.7250563651323 131.512895226479 2696.00009918213 11 14 7
26.9245635718107 130.731821060181 2680.0000667572 13 16 9
34.2537946999073 130.779847502708 2680.99999427795 14 17 10
41.6503772139549 131.022825837135 2686.00010871887 13 16 9
49.1834916174412 131.558269262314 2697.00002670288 15 18 11
57.0699945092201 132.776439189911 2721.99988365173 15 18 11
64.1923174262047 132.140845060349 2709.00011062622 15 18 11
71.0584074258804 131.163612008095 2688.99989128113 14 17 8
78.8063034415245 131.84466958046 2703.00006866455 17 20 11
85.9926119446754 131.549999117851 2697.00002670288 16 19 10
93.4573486447334 131.694123148918 2700.00004768372 15 18 9
100.938081741333 131.838083267212 2703.00006866455 17 20 11
109.156049787998 132.859766483307 2723.99997711182 18 21 12
115.519374608994 131.637707352638 2698.99988174438 17 20 9
122.383192181587 131.098315119743 2687.99996376038 20 23 16
130.682483315468 132.070675492287 2707.99994468689 18 21 14
140.874907374382 134.749725461006 2763.00001144409 19 22 15
148.412585258484 134.746223688126 2763.00001144409 21 24 17
156.006082892418 134.791314601898 2763.99993896484 20 23 16
164.018645882607 135.177612304688 2772.0000743866 19 22 15
-237.132459878922 127.709716558456 2775.00009536743 19 22 15
-231.55602812767 128.819465637207 2799.00002479553 16 19 12
-221.527710556984 127.443790435791 2769.00005340576 11 14 7
-212.82123029232 126.758262515068 2753.99994850159 17 20 13
-203.077480196953 125.382080674171 2723.99997711182 17 20 11
-195.579394698143 125.340551137924 2723.00004959106 17 20 11
-187.809586524963 125.11470913887 2717.99993515015 17 20 11
-180.929139256477 125.487148761749 2726.0000705719 16 19 10
-173.558875918388 125.537201762199 2726.99999809265 15 18 9
-166.547924280167 125.863313674927 2733.99996757507 15 16 8
-158.974438905716 125.774934887886 2732.00011253357 15 16 8
-151.688531041145 125.916585326195 2734.99989509583 15 16 8
-144.438400864601 126.104131340981 2739.00008201599 15 16 8
-137.015834450722 126.153409481049 2740.00000953674 18 19 11
-129.729092121124 126.340627670288 2743.99995803833 20 21 13
-121.395356953144 125.468671321869 2724.99990463257 15 16 8
-113.750331103802 125.241175293922 2720.00002861023 15 16 8
-106.327570974827 125.243708491325 2720.00002861023 14 15 7
-99.1589203476906 125.568404793739 2726.99999809265 13 14 8
-92.1198129653931 126.123175024986 2739.00008201599 12 13 7
-84.0568244457245 125.250294804573 2720.00002861023 12 15 8
-76.322615146637 124.745644629002 2709.00011062622 11 14 7
-69.3351104855537 125.484094023705 2724.99990463257 9 11 6
-62.7142637968063 127.143412828445 2760.99991798401 10 12 7
-55.3970076143742 127.651333808899 2772.0000743866 10 12 7
-48.088476061821 128.343284130096 2786.99994087219 9 11 6
-40.2040183544159 127.469345927238 2767.99988746643 9 12 5
-32.2698056697845 125.996559858322 2736.00006103516 10 13 6
-24.8999521136284 126.5037804842 2746.99997901917 8 11 4
-17.2989089041948 125.767454504967 2730.99994659424 10 13 6
-9.64099541306496 123.188860714436 2674.99995231628 11 14 7
-2.36310460604727 124.524503946304 2703.9999961853 10 13 6
5.05829649046063 125.491559505463 2724.99990463257 10 13 6
12.4750984832644 125.2611130476 2720.00002861023 12 15 8
19.7767447680235 124.477848410606 2703.00006866455 13 16 9
27.2667910903692 124.983854591846 2713.99998664856 14 17 10
34.1779515147209 123.187147080898 2674.99995231628 15 18 11
41.4497815072536 123.094163835049 2673.00009727478 13 16 9
49.0387752652168 123.829931020737 2688.99989128113 13 16 9
56.4842969179153 124.058954417706 2694.00000572205 14 17 10
63.9094859361649 124.195694923401 2697.00002670288 14 17 10
71.5357810258865 124.654643237591 2707.00001716614 14 17 8
79.216368496418 125.113368034363 2717.00000762939 17 20 11
86.7280289530754 125.249594449997 2720.00002861023 17 20 11
93.5287997126579 124.418653547764 2701.99990272522 17 20 11
100.828431546688 124.324321746826 2700.00004768372 18 21 12
108.75790566206 124.966539442539 2713.99998664856 18 21 12
115.950137376785 124.733746051788 2709.00011062622 19 22 11
122.340559959412 123.718023300171 2687.00003623962 20 23 16
131.361186504364 125.326603651047 2721.99988365173 18 21 14
140.317380428314 126.704752445221 2752.00009346008 17 20 13
149.436682462692 128.082662820816 2782.00006484985 19 22 15
157.082185149193 128.125175833702 2782.99999237061 20 23 16
163.904130458832 127.52303481102 2769.99998092651 16 19 12
-230.568289756775 120.665498077869 2786.99994087219 15 18 11
-220.732480287552 119.457930326462 2759.0000629425 15 18 11
-211.512133479118 118.50992590189 2736.99998855591 18 21 14
-202.932804822922 117.864795029163 2721.99988365173 17 20 11
-196.301937103271 118.345357477665 2733.00004005432 17 20 11
-188.91929090023 118.392750620842 2733.99996757507 17 20 11
-173.435389995575 118.010722100735 2724.99990463257 15 18 9
-166.368842124939 118.274211883545 2730.99994659424 16 17 9
-159.85082089901 118.970647454262 2746.99997901917 16 17 9
-151.636436581612 118.410959839821 2733.99996757507 15 16 8
-143.017753958702 117.461286485195 2711.99989318848 14 15 7
-136.018753051758 117.810808122158 2720.00002861023 16 17 9
-129.117354750633 118.290103971958 2730.99994659424 17 18 10
-121.219880878925 117.859676480293 2720.99995613098 14 15 9
-113.543763756752 117.602318525314 2714.99991416931 14 15 9
-106.642693281174 118.167817592621 2727.9999256134 15 16 10
-99.2702320218086 118.256695568562 2730.00001907349 15 16 10
-91.180145740509 117.435730993748 2710.99996566772 15 16 10
-83.8114842772484 117.480956017971 2711.99989318848 13 16 9
-76.5215381979942 117.655977606773 2716.00008010864 12 15 8
-69.8455572128296 118.913859128952 2744.99988555908 9 11 6
-62.7611055970192 119.695074856281 2763.00001144409 9 11 6
-55.3383007645607 119.956292212009 2769.00005340576 9 11 6
-47.6754419505596 119.697481393814 2763.00001144409 7 9 4
-40.1758812367916 119.828425347805 2766.00003242493 5 8 1
-32.3059186339378 118.659511208534 2739.00008201599 7 10 3
-24.9549020081759 119.266659021378 2753.00002098084 6 9 2
-17.5020024180412 119.700342416763 2763.00001144409 10 13 6
-9.91152785718441 119.137451052666 2750 11 14 7
-2.39549414254725 118.747673928738 2740.9999370575 9 12 5
12.4111669138074 117.231160402298 2706.00008964539 12 15 8
19.7259765118361 116.797596216202 2696.00009918213 13 16 9
26.9459076225758 116.190552711487 2681.99992179871 14 17 10
33.9359603822231 115.063518285751 2655.99989891052 14 17 10
41.3421653211117 115.495912730694 2665.99988937378 14 17 10
48.6204214394093 115.494921803474 2665.99988937378 14 17 10
56.12912774086 115.970313549042 2677.00004577637 14 17 10
63.6265575885773 116.315558552742 2684.99994277954 14 17 10
71.8809366226196 117.830291390419 2720.00002861023 15 18 9
79.4222429394722 118.00192296505 2723.99997711182 17 20 11
86.1241370439529 117.00377613306 2700.99997520447 17 20 11
92.9078236222267 116.265423595905 2684.00001525879 18 21 12
100.382559001446 116.436585783958 2687.99996376038 18 21 12
108.319535851479 117.084078490734 2703.00006866455 19 22 13
115.4390797019 116.821750998497 2697.00002670288 19 22 11
123.299464583397 117.295630276203 2707.99994468689 20 23 16
131.171077489853 117.726005613804 2717.99993515015 17 20 13
140.575438737869 119.412295520306 2756.99996948242 16 19 12
157.311424612999 120.705209672451 2786.99994087219 18 21 14
-226.436406373978 111.034914851189 2736.99998855591 15 18 11
-218.976855278015 111.039310693741 2736.99998855591 17 20 13
-209.043502807617 109.745286405087 2704.99992370605 18 21 14
-201.744109392166 109.789930284023 2706.00008964539 17 20 11
-196.593269705772 111.051671206951 2736.99998855591 17 20 11
-188.577681779861 110.730908811092 2729.00009155273 17 20 11
-180.538609623909 110.36941409111 2720.00002861023 16 19 10
-172.420650720596 109.926603734493 2709.00011062622 15 18 9
-166.981488466263 111.22852563858 2740.9999370575 18 19 11
-159.097641706467 110.947750508785 2733.99996757507 18 19 11
-151.41773223877 110.788561403751 2730.00001907349 17 18 10
-142.282426357269 109.492883086205 2697.99995422363 16 17 9
-134.871408343315 109.455101191998 2697.00002670288 16 17 9
-128.741830587387 110.512979328632 2723.00004959106 18 19 11
-120.153211057186 109.460279345512 2697.00002670288 14 15 9
-113.253399729729 109.90908741951 2707.99994468689 14 15 9
-107.15314000845 111.250720918179 2740.9999370575 14 15 9
-99.1632342338562 110.684603452682 2726.99999809265 14 15 9
-91.0811722278595 109.915353357792 2707.99994468689 14 15 9
-84.4313502311707 110.891304910183 2732.00011253357 14 16 11
-77.3965790867805 111.501805484295 2746.99997901917 12 14 9
-69.7198063135147 111.219167709351 2740.00000953674 8 10 5
-62.8078728914261 112.235330045223 2765.00010490417 8 10 5
-53.5208024084568 108.705028891563 2677.99997329712 5 7 2
-46.6583892703056 109.761454164982 2703.9999961853 4 6 1
-39.7700257599354 111.142486333847 2737.99991607666 9 12 5
-31.6224917769432 108.829438686371 2680.99999427795 12 15 8
-24.6200356632471 110.250771045685 2716.00008010864 11 14 7
-17.2109864652157 110.291793942451 2717.00000762939 11 14 7
-10.0378887727857 113.052420318127 2785.00008583069 10 13 6
-2.40952847525477 111.915923655033 2756.99996948242 10 13 6
5.03809843212366 110.170379281044 2713.99998664856 11 14 7
12.3059377074242 108.91180485487 2683.00008773804 15 18 11
19.5507872849703 108.464956283569 2671.99993133545 16 19 12
26.785722002387 108.220919966698 2665.99988937378 14 17 10
33.9622348546982 107.89555311203 2657.99999237061 13 16 9
41.0949252545834 107.570044696331 2650.00009536743 16 19 12
48.1837540864944 107.24438726902 2641.99995994568 16 19 12
55.5641949176788 107.568062841892 2650.00009536743 16 19 12
63.6753067374229 109.068721532822 2687.00003623962 16 19 12
71.4860484004021 109.797969460487 2704.99992370605 16 19 10
78.8699313998222 109.796427190304 2704.99992370605 18 21 12
85.6157690286636 108.982942998409 2684.99994277954 18 21 12
92.7366986870766 108.737602829933 2678.99990081787 19 22 13
100.422009825706 109.141506254673 2688.99989128113 19 22 13
107.6405569911 109.017640352249 2686.00010871887 19 22 13
115.527100861073 109.542973339558 2698.99988174438 20 23 12
123.210988938808 109.824664890766 2706.00008964539 19 22 15
130.932539701462 110.10617762804 2713.00005912781 19 22 15
145.414263010025 109.857082366943 2707.00001716614 21 24 17
-227.185323834419 103.909268975258 2746.00005149841 13 16 9
-219.381093978882 103.76201570034 2742.00010299683 18 21 14
-210.51587164402 103.084817528725 2723.99997711182 18 21 14
-203.089997172356 103.088654577732 2723.99997711182 17 20 11
-197.746336460114 104.18988019228 2753.00002098084 17 20 11
-188.581332564354 103.285171091557 2729.00009155273 17 20 11
-180.873990058899 103.137224912643 2724.99990463257 16 19 10
-173.63329231739 103.254072368145 2727.9999256134 15 18 9
-166.131839156151 103.219419717789 2726.99999809265 17 18 10
-157.820492982864 102.654695510864 2711.99989318848 18 19 11
-148.037299513817 101.02991014719 2668.99991035461 17 18 10
-143.498167395592 103.001050651073 2720.99995613098 16 17 9
-136.574327945709 103.382237255573 2730.99994659424 16 17 9
-126.947700977325 101.64338350296 2684.99994277954 17 18 10
-120.200127363205 102.137863636017 2697.99995422363 14 15 9
-113.590225577354 102.821528911591 2716.00008010864 14 15 9
-105.904258787632 102.558605372906 2709.00011062622 13 14 8
-99.4560942053795 103.544868528843 2734.99989509583 12 13 7
-92.226542532444 103.811718523502 2742.00010299683 12 13 7
-84.7111642360687 103.775553405285 2740.9999370575 12 14 9
-77.9052823781967 104.68577593565 2765.00010490417 11 13 8
-69.5176348090172 103.437766432762 2732.00011253357 8 10 5
-60.6511160731316 101.09157115221 2670.00007629395 8 10 5
-53.9015978574753 102.114960551262 2697.00002670288 6 8 3
-46.7628538608551 102.608129382133 2710.00003814697 5 7 2
-39.6546088159084 103.366211056709 2730.00001907349 7 10 3
-32.3898121714592 103.972710669041 2746.00005149841 10 13 6
-23.9587798714638 100.07332265377 2642.99988746643 9 12 5
-16.9326029717922 101.20964050293 2673.00009727478 10 13 6
-9.73892770707607 102.307930588722 2701.99990272522 9 12 5
-2.40957643836737 104.390554130077 2756.99996948242 11 14 7
5.06975734606385 103.406071662903 2730.99994659424 12 15 8
12.4162631109357 102.497175335884 2707.00001716614 16 19 12
19.6389816701412 101.625993847847 2684.00001525879 17 20 13
26.8364939838648 101.133331656456 2671.0000038147 15 18 11
33.9629128575325 100.640520453453 2657.99999237061 14 17 10
41.2818305194378 100.791245698929 2661.99994087219 17 20 13
48.2576638460159 100.184589624405 2645.99990844727 17 20 13
56.1943352222443 101.470910012722 2680.0000667572 17 20 13
63.3210986852646 101.166874170303 2671.99993133545 16 19 12
70.5096274614334 101.014129817486 2667.99998283386 16 19 10
77.7051895856857 100.899130105972 2664.99996185303 18 21 12
85.0434899330139 100.973300635815 2667.00005531311 18 21 12
92.2885090112686 100.933738052845 2665.99988937378 19 22 13
99.826455116272 101.196929812431 2673.00009727478 19 22 13
108.604483306408 102.59572416544 2710.00003814697 19 22 13
115.486577153206 102.139286696911 2697.99995422363 20 23 12
123.896397650242 103.007741272449 2720.99995613098 18 21 14
132.045120000839 103.573143482208 2736.00006103516 19 22 15
147.834464907646 104.173541069031 2752.00009346008 21 24 17
152.632683515549 102.353751659393 2703.9999961853 19 22 15
-232.792630791664 95.6416875123978 2723.99997711182 12 15 8
-229.092255234718 97.225658595562 2769.00005340576 13 16 9
-220.265105366707 96.6676995158196 2753.00002098084 18 21 14
-213.301807641983 96.9172045588493 2759.99999046326 17 20 13
-206.970602273941 97.4826812744141 2776.00002288818 17 20 11
-195.594966411591 95.6249609589577 2723.00004959106 17 20 11
-188.170090317726 95.6282764673233 2723.00004959106 17 20 11
-181.939274072647 96.2636396288872 2740.9999370575 16 19 10
-174.654826521873 96.3720977306366 2743.99995803833 15 18 9
-165.952086448669 95.6726297736168 2723.99997711182 13 14 6
-157.997936010361 95.3593626618385 2714.99991416931 14 15 7
-149.426653981209 94.6244448423386 2694.00000572205 15 16 8
-145.241141319275 96.7345088720322 2753.99994850159 14 15 7
-136.326789855957 95.7534834742546 2726.0000705719 13 14 6
-127.517402172089 94.7371274232864 2697.00002670288 14 15 7
-119.890451431274 94.528540968895 2690.99998474121 14 15 9
-113.759592175484 95.5493077635765 2720.00002861023 13 14 8
-106.8444699049 96.0079357028008 2733.00004005432 13 14 8
-98.5851734876633 95.2369049191475 2710.99996566772 12 13 7
-92.5646051764488 96.6789498925209 2752.00009346008 12 13 8
-86.3198339939117 98.120890557766 2792.99998283386 12 13 8
-77.2304832935333 96.2955057621002 2740.9999370575 10 12 7
-68.4247314929962 94.4699496030808 2688.99989128113 8 10 5
-61.3337196409702 94.8575660586357 2700.00004768372 8 10 5
-54.4821918010712 95.7720428705215 2726.0000705719 7 9 6
-47.057069838047 95.8080813288689 2726.99999809265 6 8 3
-40.0184914469719 96.7925935983658 2755.00011444092 7 10 3
-32.5791426002979 97.039170563221 2762.00008392334 10 13 6
-17.0912854373455 94.7914868593216 2697.99995422363 14 17 10
-9.91572346538305 96.6538265347481 2750.99992752075 16 19 12
-2.39651137962937 96.3377431035042 2742.00010299683 16 19 12
5.02344127744436 95.0728878378868 2706.00008964539 16 19 12
12.3614529147744 94.6862548589706 2694.9999332428 18 21 14
19.5954442024231 94.0886959433556 2677.99997329712 18 21 14
26.736518368125 93.4910029172897 2661.00001335144 18 21 14
34.0274311602116 93.5607329010963 2663.00010681152 17 20 13
41.5617451071739 94.1573232412338 2680.0000667572 18 21 14
49.1157583892345 94.613254070282 2693.00007820129 17 20 13
56.3840866088867 94.4717600941658 2688.99989128113 17 20 13
63.3696690201759 93.9437225461006 2674.00002479553 16 19 12
70.1409354805946 93.239888548851 2654.00004386902 16 19 10
77.7066275477409 93.6250239610672 2664.99996185303 17 20 11
85.0769430398941 93.7289819121361 2667.99998283386 17 20 11
92.4979150295258 93.8679203391075 2671.99993133545 18 21 12
100.612588226795 94.6390703320503 2694.00000572205 18 21 12
108.24578255415 94.8831215500832 2700.99997520447 19 22 13
116.601631045341 95.6890881061554 2723.99997711182 19 22 11
123.579919338226 95.3356996178627 2713.99998664856 18 21 14
131.613180041313 95.7901105284691 2726.99999809265 19 22 15
141.399562358856 97.4035039544106 2773.00000190735 19 22 15
144.130483269691 94.2397341132164 2683.00008773804 20 23 16
158.110916614532 98.3817428350449 2801.00011825562 15 18 11
-228.185907006264 89.3151238560677 2757.99989700317 12 15 8
-221.148818731308 89.5129814743996 2763.99993896484 17 20 13
-215.855732560158 90.4556289315224 2792.99998283386 17 20 13
-203.618884086609 88.4509608149529 2730.99994659424 17 20 11
-196.46018743515 88.5837003588676 2734.99989509583 17 20 11
-188.795194029808 88.4896218776703 2732.00011253357 17 20 11
-182.539716362953 89.0756174921989 2750 16 19 10
-174.594104290009 88.8517573475838 2743.00003051758 15 18 9
-166.259482502937 88.4009897708893 2729.00009155273 14 15 7
-156.720295548439 87.2374251484871 2693.00007820129 15 16 8
-151.703327894211 88.6004790663719 2734.99989509583 16 17 9
-144.030600786209 88.4732976555824 2730.99994659424 15 16 8
-135.929003357887 88.0544111132622 2717.99993515015 14 15 7
-128.701612353325 88.1861448287964 2721.99988365173 15 16 8
-121.095426380634 88.0585908889771 2717.99993515015 13 14 8
-114.054299890995 88.3520990610123 2726.99999809265 13 14 8
-107.432708144188 89.0342891216278 2747.99990653992 13 14 8
-100.223310291767 89.2951935529709 2756.00004196167 14 15 9
-92.5325378775597 89.1347602009773 2750.99992752075 14 15 10
-83.8797017931938 87.9373624920845 2713.99998664856 13 15 10
-76.1047452688217 87.5174552202225 2700.99997520447 11 13 8
-61.8118233978748 88.1677716970444 2720.99995613098 8 10 5
-54.7629371285439 88.7843817472458 2740.00000953674 8 10 5
-48.0242297053337 90.1785641908646 2782.99999237061 6 8 3
-40.4113791882992 90.1468992233276 2782.00006484985 7 9 4
-32.4499495327473 89.1429781913757 2750.99992752075 9 12 5
-24.8752310872078 88.9166072010994 2743.99995803833 7 10 3
-17.4716711044312 89.3706157803535 2757.99989700317 11 14 7
-9.93752107024193 89.3384367227554 2756.99996948242 13 16 9
-2.36159167252481 87.556317448616 2701.99990272522 17 20 13
5.00125018879771 87.2970521450043 2694.00000572205 17 20 13
12.334143742919 87.1348902583122 2688.99989128113 18 21 14
19.6030978113413 86.8105888366699 2678.99990081787 18 21 14
26.8173590302467 86.4861682057381 2668.99991035461 18 21 14
34.245241433382 86.8421047925949 2680.0000667572 19 22 15
41.7795740067959 87.2951373457909 2694.00000572205 18 21 14
49.3172258138657 87.6184180378914 2703.9999961853 17 20 13
56.8253993988037 87.8119617700577 2710.00003814697 17 20 13
64.2239078879356 87.8109559416771 2710.00003814697 16 19 12
71.4107230305672 87.5506401062012 2701.99990272522 15 18 9
78.3786028623581 87.0957672595978 2687.99996376038 17 20 11
84.8551765084267 86.2195938825607 2661.00001335144 17 20 11
92.8803011775017 86.9309678673744 2683.00008773804 17 20 11
100.726328790188 87.3829871416092 2697.00002670288 18 21 12
108.688466250896 87.8672748804092 2711.99989318848 18 21 12
115.619085729122 87.5090509653091 2700.99997520447 19 22 13
123.081132769585 87.5719115138054 2703.00006866455 21 24 15
132.435888051987 88.898129761219 2743.99995803833 22 25 18
139.566212892532 88.6691436171532 2736.99998855591 21 24 17
149.451270699501 90.1246294379234 2782.00006484985 21 24 17
159.016758203506 91.2559628486633 2816.99991226196 15 18 11
-229.347690939903 82.2056457400322 2772.0000743866 15 18 11
