ply
format ascii 1.0
comment KinectMotionCapture
element vertex 771
property float x
property float y
property float z
property uchar red
property uchar green
property uchar blue
end_header
-57.1839857201546 461.386085375822 2820.7513360722 128 130 129
-66.6852867764955 460.488350404849 2820.03486506408 138 140 139
-72.5387399992212 460.027523092888 2815.78923772286 140 142 141
-78.3932698941958 459.566489070837 2811.54282883193 135 135 135
-85.6907410976313 458.931818068306 2808.71988922248 177 177 177
-94.4178209772157 458.124564882871 2807.32979486995 237 237 235
-100.978664267142 457.577613975425 2803.80596576877 235 235 233
-105.393108574769 457.289388150444 2798.13401322522 235 235 233
-111.241705981785 456.828207416019 2793.89190417828 212 212 210
-115.671539149909 456.538506304833 2788.20908292575 196 196 194
-120.818916824798 456.162217438202 2783.24069639225 147 148 143
-123.855001410841 456.041859070593 2776.09842877287 136 137 132
-128.316493703731 455.749219818383 2770.39264226289 122 123 118
-134.189945211072 455.28535350673 2766.13250234524 119 120 115
-140.763244443216 454.736273332517 2762.59963288057 122 123 118
-149.423121981409 453.932881075094 2761.25827449584 114 114 112
-167.094482205123 452.030463258417 2769.43538730437 113 113 111
-189.537791404393 449.542523870038 2782.79638651534 117 117 115
-207.045445425201 447.652725835486 2791.0922373657 136 136 134
-216.224650142951 446.777892543524 2790.6090823918 129 129 127
-221.954524684042 446.324223715788 2786.45307613333 132 132 132
-228.368808503977 445.786542326352 2783.03583254865 139 139 139
-235.460578479698 445.16540344459 2780.36178421489 151 151 151
-245.260556749802 444.211070548445 2780.66354566997 167 167 167
-250.973996476107 443.757986326304 2776.51945632062 167 167 167
-254.664469830446 443.553836871984 2770.13771500561 164 166 165
-259.041493289026 443.265471553323 2764.49318340459 164 166 165
-262.757896450501 443.058848096603 2758.0926324877 170 172 171
-267.156282045475 442.768398321342 2752.43230998291 172 174 171
-267.56991166287 442.971096479071 2742.25260576446 177 179 176
-268.683193947179 443.088551768243 2732.8003132537 185 187 182
106.604689384895 469.886914529552 2807.36995786586 193 197 198
100.520553070265 469.4085941908 2802.95701482267 227 231 232
86.8724047610856 468.062537242712 2805.40761252668 212 213 215
74.7754178631368 466.892984608582 2806.51320653484 210 211 213
60.4566440810577 465.466824764156 2809.71257889095 208 209 211
49.1841434762108 464.389282260838 2810.18129002864 192 193 195
32.7087760493301 462.711536893541 2815.52113718497 175 176 178
20.0204783413143 461.467963208368 2817.43303354273 170 172 171
5.88449843536987 460.055914294232 2820.76469407828 165 167 166
-4.499656752746 459.075226631935 2820.64283972646 156 158 157
-17.8132181474349 457.754975527359 2823.33611733691 168 170 169
-26.6647463014225 456.949260815866 2821.85581556708 205 207 206
-36.2341829614441 456.059687434805 2821.08999294582 225 227 226
-46.5147465878095 455.086839214004 2821.04327403619 213 215 214
-56.7696922200402 454.115891682559 2821.01484130755 206 208 207
-64.0886943452725 453.484883250518 2818.17631202504 167 169 168
-69.223382248558 453.107382003838 2813.21711843685 147 149 148
-75.0867702352869 452.645182298953 2808.96428222175 145 145 145
-83.8355038446701 451.846854126881 2807.55853582532 142 142 142
-91.8488543605078 451.133496964195 2805.45127809297 143 143 141
-98.4165410416393 450.588291802627 2801.92249691402 148 148 146
-102.837561274441 450.293599103135 2796.246039063 179 179 177
-108.692850224527 449.831428200481 2791.99907415829 220 220 218
-113.838957527941 449.45219989111 2787.0312991783 206 206 204
-119.698493327658 448.989431035059 2782.78125261291 188 189 184
-125.558961363045 448.526467169892 2778.53052926223 173 174 169
-130.013697774058 448.228430709846 2772.82961289728 137 138 133
-135.880600804737 447.76464681922 2768.57422052759 125 126 121
-139.651377222765 447.547390229597 2762.13419941773 119 120 115
-146.920447598526 446.918504665655 2759.33158300173 111 111 109
-161.822696224442 445.389175200415 2764.5775326755 110 110 108
-185.670001763635 442.801763910268 2779.3903143905 117 117 115
-204.571966634488 440.794051456529 2789.14517002524 120 120 118
-213.758835937637 439.931930476836 2788.6568176972 143 143 141
-220.181211868663 439.396182033739 2785.23342328222 138 138 138
-227.967281540262 438.698444130785 2783.29100539891 145 145 145
-234.378130884225 438.163271006897 2779.87596976699 152 152 152
-241.464728248068 437.547490387515 2777.20599278764 164 164 164
-247.18934200296 437.09314248155 2773.0537967457 167 167 167
-251.565241192966 436.799241964177 2767.40975763707 163 165 164
-257.295903953678 436.344090366251 2763.25317247085 164 166 165
-259.005442495836 436.368488475192 2754.60320635027 171 173 172
-264.082902450089 435.991575687129 2749.6855015043 173 175 172
-267.167873163359 435.852869096936 2742.50799682767 175 177 174
-270.93493166326 435.633105740831 2736.07065821874 184 186 181
103.231448768423 461.909467361386 2811.05969403485 152 156 157
98.675503562883 461.599871270666 2805.28535070303 152 156 157
87.3017109384806 460.533181261171 2805.68068806409 154 155 157
76.7119133785013 459.552622285432 2805.40975982011 155 156 158
61.6352411344963 458.071948609417 2809.29418143568 151 152 154
49.6094064008843 456.929289891158 2810.45178586624 139 140 142
34.6270772034365 455.455881077636 2814.40493004463 127 128 130
21.1874962974421 454.152843398408 2817.00694061134 123 125 124
6.30445765250753 452.687124341645 2821.03180710333 123 125 124
-5.56289466780302 451.556662220297 2822.30436059564 138 140 139
-15.9180307651146 450.594147180633 2822.20334037293 141 143 142
-25.5114611487306 449.716012654978 2821.42018212945 131 133 132
-34.3493093079594 448.921741855653 2819.94985524544 163 165 164
-44.6352318476577 447.964411101764 2819.89933014419 174 176 175
-54.1657610666015 447.090954065235 2819.16179398976 184 186 185
-62.2193198888441 446.382648549203 2817.02511950858 178 180 179
-68.8097100934471 445.838362722913 2813.48017919458 171 173 172
-76.8435090662025 445.131384550312 2811.35813025026 178 178 178
-84.865216084502 444.425251537292 2809.24485130269 145 145 145
-91.4364547903797 443.882178246621 2805.71350598354 148 148 146
-98.0043640275881 443.33924025646 2802.1845749526 148 148 146
-102.425128024563 443.038623805316 2796.50827284743 148 148 146
-108.280512580617 442.575997078899 2792.26123632707 141 141 139
-112.716387222922 442.273937035234 2786.57367840352 154 154 152
-117.870201030318 441.890749117821 2781.60059123516 143 144 139
-123.735219783378 441.426998387065 2777.34656498649 143 144 139
-130.304795273167 440.883148742265 2773.81642143579 157 158 153
-137.572517990429 440.259699911619 2771.01510398134 149 150 145
-141.336244717652 440.034366508323 2764.58015243214 137 138 133
-147.20522571367 439.569682417594 2760.32324914134 127 127 125
-158.633384348075 438.471473742711 2761.91405240247 119 119 117
-180.415893113955 436.190991796486 2774.51979965641 118 118 116
-199.336366462815 434.233562901434 2784.26149279659 118 118 116
-211.980326617978 432.990334294409 2787.4405687697 136 136 134
-219.779335694915 432.299613570368 2785.48880637871 138 138 138
-230.300942632269 431.296553290094 2786.50223362798 152 152 152
-236.703208027303 430.764435442501 2783.0934361594 157 157 157
-242.422686031028 430.310354230118 2778.94496448394 163 163 163
-246.788852191717 430.011532084738 2773.30825060398 166 166 166
-249.814694862482 429.866970767921 2766.17328497485 161 163 162
-254.877294510317 429.488513614906 2761.26634485961 162 164 163
-257.263235522618 429.418390645458 2753.36089249161 170 172 171
-261.676746723932 429.115095355343 2747.68954004693 173 175 172
-263.435677314568 429.118405426376 2739.00366176126 174 176 173
-265.885891094134 429.042612631422 2731.05158797384 180 182 177
113.554271463559 455.428460222023 2802.45344683996 183 187 188
103.658410504447 454.540283450228 2801.45099935216 169 173 174
88.4873084002451 453.084590383897 2805.26738775558 157 158 160
74.8766894400696 451.795163933845 2807.74547813024 145 146 148
59.804682830491 450.347189630271 2811.63344759255 129 130 132
47.7842141138471 449.226353905069 2812.79505250109 122 123 125
33.5545714359999 447.86632665346 2816.05907839441 117 118 120
19.3722183933795 446.509936222295 2819.35740397472 122 124 123
6.72396429853839 445.317774967368 2821.29858921633 127 129 128
-5.14462124295334 444.208660971005 2822.57035685276 127 129 128
-14.7617585049555 443.341933372179 2821.76977628852 132 134 133
-25.8317505523795 442.31724004772 2822.38555789274 150 152 151
-32.4643236495765 441.772285152191 2818.8100349107 147 149 148
-42.7554908930488 440.830500630993 2818.75549207947 143 145 144
-50.1005456018206 440.207508225814 2815.89811732592 134 136 135
-60.349927242785 439.268850315634 2815.87417608362 135 137 136
-68.3964149901073 438.56873039439 2813.74296351422 137 139 138
-77.8778759635652 437.71208299486 2813.04078864522 131 133 132
-85.895607627501 437.014053661806 2810.9304325636 129 131 130
-93.1820818900435 436.395164680066 2808.11554481034 134 136 133
-99.0266213237565 435.933192490199 2803.87637346597 138 140 137
-102.72785025367 435.704991114014 2797.48671337696 146 148 145
-108.581092473981 435.242104798023 2793.24122856663 141 143 140
-113.724987633673 434.856658531161 2788.27532019868 146 148 145
-119.582475053091 434.393144523578 2784.02675477355 125 127 122
-125.440943678967 433.929446475651 2779.77747711871 132 134 129
-129.189134583655 433.696932833345 2773.35375144949 133 135 130
-135.757697491246 433.155315996342 2769.82435325084 124 126 121
-139.52551939174 432.920987985137 2763.38638746368 118 120 115
-145.399027032669 432.455518978981 2759.12619873563 106 106 104
-155.443138447353 431.531279725207 2759.25113529438 98 98 96
-175.852618981758 429.465057541354 2770.38293754771 125 125 123
-196.860969002083 427.329862695907 2782.31558827627 143 143 141
-209.513189802969 426.113043768688 2785.48880970125 138 138 136
-219.377740281886 425.20243986005 2785.74398288007 140 140 140
-230.584353989757 424.142596243798 2787.49558311303 164 164 164
-236.303073358901 423.68835244997 2783.34766056445 166 166 166
-239.984219703139 423.45949278626 2776.97255543602 163 163 163
-242.324994654112 423.379422117576 2769.09979452271 164 164 164
-246.038791232713 423.147618701681 2762.70100563192 161 163 162
-251.785208589279 422.690518687869 2758.53298975384 159 161 160
-255.520487290664 422.456706133285 2752.11861783711 164 166 165
-259.938251290215 422.147256233057 2746.44415127391 168 170 167
-263.033265159128 421.985167809064 2739.25924766582 171 173 170
-266.146805977789 421.821414200031 2732.06090504199 179 181 176
-266.631662905463 421.951175167047 2721.829197185 181 184 177
115.507891161447 448.007860161124 2801.36200739063 152 156 157
101.812096601501 446.738657229683 2803.77845459138 155 159 160
84.375549116686 445.079974242332 2809.65665499503 203 204 206
73.0401043175117 444.053517037913 2810.08028977709 211 212 214
58.725131715974 442.716493826317 2813.28257470769 201 202 204
47.4581071090778 441.695389830693 2813.75554138533 202 203 205
33.2289471659002 440.365004746405 2817.02006736673 205 206 208
19.04693444932 439.038300112111 2820.3190844981 206 208 207
6.39941698936708 437.870335034163 2822.26092630046 212 214 213
-6.20934122355532 436.705380041472 2824.23058627782 215 217 216
-14.3447136774686 436.006483345666 2822.0349454836 215 217 216
-24.6788742635284 435.077416816537 2821.94959475697 217 219 218
-31.3136932315947 434.53449507916 2818.37215951653 222 224 223
-41.6081935978225 433.608417430835 2818.31557446891 247 249 248
-51.8772424513081 432.684282151254 2818.27744960452 245 247 246
-61.3927155441392 431.838336685113 2817.55067283173 238 240 239
-70.1613956891023 431.070112009499 2816.13091372315 226 228 227
-80.3608075079674 430.151189541254 2816.14300215818 182 184 183
-87.6487701239186 429.537332890349 2813.32706095552 172 174 173
-93.4901586416206 429.075227625021 2809.09017310336 159 161 158
-99.3326014093316 428.612947337962 2804.85252011635 159 161 158
-104.461139952633 428.225728065622 2799.89773510672 162 164 161
-111.020548452158 427.68778028471 2796.37499171834 142 144 141
-114.734382759836 427.44968577579 2789.97614361131 132 134 131
-119.879249378823 427.060830092194 2785.00951374242 126 128 123
-124.323290263309 426.746010369264 2779.31597130534 127 129 124
-127.369358755658 426.579074853886 2772.1665246938 104 106 101
-132.539313460332 426.187828292668 2767.18169582592 105 107 102
-137.015063265634 425.870096266586 2761.46515216406 114 116 111
-144.289903345152 425.255943515684 2758.6587222683 105 105 103
-155.032259074302 424.273803729381 2759.5122299738 101 101 99
-174.05945735899 422.411608482964 2769.17703830758 118 118 116
-194.384917965764 420.409158578052 2780.37007141869 141 141 139
-207.733801502728 419.145589977696 2784.27306699165 132 132 130
-217.603790540622 418.250631507369 2784.52437689023 153 153 153
-228.132199525088 417.284733468761 2785.53306142446 165 165 165
-234.539584722471 416.75694591581 2782.12086891272 162 162 162
-238.904396102046 416.4466926081 2776.48478476439 161 161 161
-240.569188769439 416.424710058601 2767.86702095618 165 165 165
-244.962360927802 416.111870850821 2762.21065885298 162 164 163
-250.038009527903 415.726192615804 2757.29392822055 160 162 161
-255.789743804256 415.268168985718 2753.12205331554 164 166 165
-258.199519361475 415.167841391781 2745.1991697849 169 171 168
-261.298504754597 414.994094841102 2738.01132808345 173 175 172
-261.75922670306 415.103680504644 2727.79671951905 181 183 178
-264.242088134641 414.9970139331 2719.82082237017 180 183 176
109.087210933588 439.737666176556 2807.78184220024 80 84 83
96.1689781068178 438.572822306888 2809.52715798837 209 213 214
77.9905789703204 436.880019388292 2816.10273257985 206 208 207
68.1833117144239 436.025053061952 2815.16467677565 194 196 195
58.3972762581992 435.171721710024 2814.24172616058 179 181 180
47.131292807721 434.169327194068 2814.71554236193 180 182 181
30.6580126122236 432.643152101866 2820.05796480718 188 190 189
12.7535089681845 430.971746167177 2826.83220046631 189 191 188
0.868247074553352 429.904211709104 2828.09179519071 191 193 192
-8.01684981213957 429.13780732988 2826.58735784474 199 201 200
-16.1460521639347 428.447117433317 2824.39623145828 202 204 201
-24.2631168915324 427.757321203953 2822.21390842123 204 206 203
-32.3680904899364 427.068385003267 2820.04035485798 202 204 203
-41.9262443726591 426.232484019388 2819.28268874703 181 183 182
-54.3857426818168 425.103080549336 2821.36102496648 166 168 165
-62.4366066256674 424.418199243134 2819.22671718542 137 139 136
-69.7492919377751 423.807567361955 2816.3928703068 132 134 133
-79.2257861965005 422.977758959931 2815.69443186011 128 130 127
-87.2379935492174 422.29565080583 2813.5881611135 113 115 112
-93.0794527748622 421.833076797802 2809.35121962937 112 114 109
-98.9219164544668 421.370301930171 2805.11354897774 112 114 111
-104.765411136579 420.90736886007 2800.87513012906 118 120 115
-111.32282667271 420.371852796396 2797.3538437995 167 169 164
-113.612824896838 420.269623266133 2789.5177797801 174 176 173
-119.468241513717 419.805395795375 2785.27071191009 151 153 148
-124.618414339889 419.412809404031 2780.30021656159 136 138 133
-127.661616418615 419.234654801137 2773.15249657055 125 127 122
-131.425429551567 418.983430390081 2766.71735124093 120 122 117
-135.90330182086 418.659592269511 2760.99953250807 114 116 111
-143.878171087938 417.979179616865 2758.92033752462 94 94 92
-154.621756753021 417.015714685959 2759.77304821515 103 103 101
-173.651935758225 415.205045983803 2769.43595675312 85 85 83
-192.599029306823 413.400828924681 2779.15883391353 119 119 117
-206.642875082535 412.096125327903 2783.79315927775 146 146 144
-217.2024521275 411.146760605844 2784.77933316427 147 147 145
-226.363703288011 410.339782425253 2784.3098312837 156 156 156
-231.411552814043 409.953832049067 2779.41325141487 154 154 154
-235.785134866546 409.63700874757 2773.77107041727 164 164 164
-239.490698250214 409.388875196862 2767.37816722983 166 166 166
-243.885743681733 409.070048852706 2761.7201223479 156 157 159
-248.963694793031 408.681072832637 2756.80200034905 154 156 155
-253.37584027918 408.36057741023 2751.13155081838 164 166 165
-257.128916010127 408.108027263274 2744.70418254551 170 172 171
-259.563159072111 407.99151343652 2736.76348001203 173 175 172
-261.355837781438 407.941516394009 2728.05286698387 177 179 174
-263.175855722349 407.889170145259 2719.32242326409 186 188 183
92.6920119360144 430.449249306218 2832.90331406258 200 205 201
101.901960108588 431.442643635947 2814.88233433492 10 15 11
85.2078219337145 429.937086050807 2820.06446207229 41 45 44
73.1166728458792 428.874962709551 2821.17483218414 45 47 44
66.3434881705594 428.326069748994 2817.49735692124 65 67 64
58.0684266586289 427.631882960057 2815.20047640436 91 93 90
46.0531697749507 426.575638886544 2816.36589217427 91 93 90
30.3305132529781 425.15993002722 2821.01768616659 80 82 79
9.44138658054872 423.242840727652 2830.56750145657 64 66 61
-0.946501467132377 422.341608655382 2830.44334353341 79 81 78
-8.3421483287982 421.729951139448 2827.54905638497 93 95 92
-17.2092757651578 420.975348524509 2826.05799973231 95 97 92
-22.373145281172 420.579805067844 2821.0772659059 85 87 82
-31.2181640178208 419.826814272698 2819.60224448567 66 68 65
-38.5807391694035 419.217477471217 2816.73194348053 39 41 38
-53.9731011560807 417.827361148405 2821.62330466156 34 36 31
-62.7529404455998 417.079296730064 2820.19526368959 25 27 22
-67.8849058858364 416.685855331243 2815.23796293295 23 25 22
-76.6425875048569 415.939391763923 2813.82599263783 20 22 17
-81.052662511925 415.616102176983 2808.15732436565 18 20 15
-89.0708050613411 414.941160414103 2806.04678736747 17 19 14
-94.9244137451992 414.477034598221 2801.80103062159 13 15 10
-104.355202140499 413.663714057312 2801.13580884498 12 15 8
-112.338973875884 412.991213186745 2799.050200347 11 14 7
-113.912860692037 412.944661955787 2790.49821168516 13 15 10
-119.766157395412 412.480143207097 2786.25267911031 10 13 6
-124.914034387183 412.084531573877 2781.28383273772 10 13 6
-129.36302154042 411.757317577115 2775.58664186543 28 31 24
-131.715912491047 411.635445415607 2767.7048860726 42 45 38
-135.491396290308 411.374478273637 2761.26123107905 52 55 48
-143.46676856223 410.701821439872 2759.18171074141 91 93 88
-154.906887537498 409.688839233363 2760.76427538506 77 79 74
-173.244722291988 407.997935763926 2769.69464905105 107 109 104
-189.43085764215 406.516783212661 2776.48019912288 126 128 123
-203.485506526825 405.243779758811 2781.10685365033 141 143 138
-211.995396341965 404.515015274404 2779.87460257132 139 141 136
-223.226071452355 403.518024942162 2781.6093730214 142 144 143
-228.282705217128 403.128271202237 2776.70640600565 154 156 155
-233.344813165026 402.737905119362 2771.79976201312 159 160 162
-237.056640746433 402.480646053434 2765.40227155253 162 163 165
-241.45810387435 402.155459846364 2759.73954213156 156 155 160
-247.889336350893 401.629937400866 2756.31007369144 156 156 158
-252.303470145019 401.303440945403 2750.63815239747 161 161 161
-256.058429656075 401.042135081862 2744.20937418276 166 166 166
-258.494205481634 400.911412479733 2736.26748854602 170 170 168
-258.294910043642 401.04180763747 2725.29640944551 174 175 170
-259.460756259797 401.037608065098 2715.80539601293 183 185 180
131.307322338862 426.51637665252 2799.12020727452 178 183 179
90.1433700147143 422.777310558624 2826.07644826706 87 92 88
88.6708211840115 422.72343544269 2817.59788457661 70 75 71
72.026165558055 421.259554971336 2822.8160943725 63 65 60
72.807707686346 421.415356919703 2812.26722701396 65 67 62
57.7390520640111 420.097054609598 2816.15857696967 66 68 63
45.7247807796697 419.062263730507 2817.32481588623 72 74 69
26.2600051126789 417.333192666814 2825.43805270824 24 26 21
18.0670573535964 416.653036368793 2823.2007692704 43 45 40
10.6303506422112 416.043130771412 2820.27672583444 64 66 61
3.94296103020375 415.502935674392 2816.66148930029 64 66 61
-13.0958238947885 413.997009037513 2822.82881001326 51 53 48
-16.795851042458 413.734955596108 2816.43984965446 28 30 25
-23.4512090247672 413.197086571152 2812.84784531428 32 34 29
-54.326456940643 410.562837280296 2812.68450790834 23 25 20
-66.7468255763644 409.484757265224 2814.79147002656 24 26 21
-102.302185907133 406.323557297774 2829.75977196655 27 30 23
-85.7806056309229 407.954014399094 2803.45579640802 26 29 22
-108.866086842276 405.874691667121 2816.35334114673 27 30 23
-120.399899625669 404.876821867025 2817.86806169667 27 30 23
-118.348570748732 405.152663426264 2805.77022461671 29 32 25
-121.323811600453 404.957381893101 2798.67197889523 31 34 27
-127.861629680351 404.427769932587 2795.16492908537 30 33 26
-129.449905922101 404.362951330581 2786.602416694 27 30 23
-134.58770497488 403.964825405114 2781.64086329907 15 18 11
-138.326482264397 403.698198918501 2775.22378897211 11 14 7
-140.67948111143 403.56205875788 2767.34158821562 8 11 4
-147.940089281739 402.964218943448 2764.54555796281 12 14 9
-153.106078505606 402.563391093031 2759.56355522547 13 15 10
-167.98438597155 401.247509170486 2764.82794151092 17 20 13
-184.87947148865 399.740582315188 2772.33446455426 0 2 0
-198.949329623207 398.498936993667 2776.95025240701 129 132 125
-208.159995951287 397.714855286199 2776.44504439205 118 120 115
-220.771985285257 396.609237694574 2779.64799372266 126 128 125
-225.835162871274 396.215832217807 2774.74026445447 121 123 122
-230.903838713181 395.821812447925 2769.82884074876 164 165 167
-233.944077411375 395.619547729635 2762.68344133004 152 153 157
-240.38123214928 395.096074268689 2759.24939561777 157 156 161
-245.467917859245 394.700222099798 2754.32490689289 156 155 160
-249.217283598947 394.430930580225 2747.90014327349 155 155 157
-253.649720432374 394.096991928892 2742.21491601953 161 161 161
-256.091484133214 393.951729509561 2734.26861599716 166 166 166
-257.891380610392 393.86752691536 2725.55259739719 173 173 171
-257.069048951825 394.032389268915 2713.79830850317 179 181 176
128.673193854993 418.566435657852 2811.9917262845 201 206 202
19.0063741222333 409.134320645393 2852.25152007531 42 44 39
33.3829537596144 410.479708715361 2829.33158484009 47 49 44
52.8797003508656 412.284246555701 2801.4801427022 38 40 35
27.4421709177197 410.06949898019 2815.1420247946 31 33 28
-5.28235869263805 407.322223548634 2816.10789885844 23 25 20
-16.3798555766075 406.388786160495 2816.70420384898 32 34 29
-153.04766617595 394.604670512831 2870.72683458857 25 28 21
-136.452058855779 396.155327934091 2844.47641308994 25 28 21
-137.883224241437 396.086463987463 2836.02777322059 25 28 21
-143.622124978893 395.630301494611 2831.86521104884 25 28 21
-139.405637006369 396.069876358843 2817.63207450388 23 26 19
-133.834303508932 396.631940987572 2801.9119360472 28 31 24
-138.935535742627 396.233630473582 2796.97659530781 29 32 25
-143.337830234447 395.898245762511 2791.31350603299 25 28 21
-136.512410062343 396.574621425996 2774.03239856579 22 25 18
-137.468983857185 396.550199664619 2764.69298874814 20 23 16
-143.342830868205 396.082567324308 2760.43254304575 16 18 13
-152.696349565038 395.300937842453 2759.82379072106 5 7 2
-164.109088057408 394.333129563538 2761.42643287595 19 22 15
-183.783114829326 392.618983775818 2771.85812796422 23 26 19
-195.100788092245 391.658498864265 2773.53001650405 113 116 109
-204.323174713186 390.886825002639 2773.01608056983 121 123 118
-215.578414474498 389.931073887588 2774.73295798795 114 116 113
-222.704558355614 389.348159887694 2772.03447937018 110 112 109
-227.781994363498 388.950338704236 2767.11668597829 158 159 161
-230.152437665817 388.797386379824 2759.22175420696 150 151 155
-237.276778705659 388.214230095381 2756.52458128008 159 158 163
-243.045849093056 387.753562362798 2752.34012566532 157 156 161
-247.472819105239 387.414361050602 2746.65883477033 155 155 157
-251.240336036107 387.134891421052 2740.22086141096 159 159 159
-255.68902356971 386.793657322675 2734.52411120178 165 165 165
-258.81771034993 386.57211426481 2727.31449623223 173 173 171
-257.989369849317 386.709657233188 2715.56413042096 175 177 172
80.0576668491928 406.783861562152 2855.73784599977 150 155 151
116.12351451918 409.910847889253 2813.96656674595 9 14 10
29.2117022546701 402.65286126007 2843.56009627375 46 48 43
15.77866615149 401.538621480488 2846.16780760627 46 48 43
6.1323468527883 400.748929341633 2845.34646256065 21 23 18
-43.8067949867362 396.501683574015 2881.99546145911 36 38 33
-111.816594977404 390.956865742338 2869.71936961857 21 23 18
-106.621900425051 391.44058783593 2854.96083736154 25 27 22
-109.464167733911 391.233502948536 2847.95892721276 21 24 17
-123.882338226529 390.030707451653 2852.3221183088 22 25 18
-131.047548308886 389.451529064434 2849.59533868965 23 26 19
-136.051145320103 389.058240875664 2844.73109572276 23 26 19
-138.912779614431 388.849285436984 2837.71484208117 23 26 19
-140.366187098042 388.761607580995 2829.24998314418 23 26 19
-132.600103331597 389.468006595606 2811.41619271329 28 31 24
-130.591481935719 389.678909096358 2799.28677266273 23 26 19
-137.115458873396 389.154879695333 2795.79007934604 22 25 18
-143.635895841792 388.631022161246 2792.29565862215 21 24 17
-141.723070461641 388.834010179262 2780.09704838401 21 24 17
-138.459271106323 389.153687047225 2766.40801132829 20 23 16
-161.780598215928 387.180890864089 2780.3698680723 10 12 7
-168.987712657189 386.597331983518 2777.61268890104 14 16 11
-178.267766943518 385.834734943339 2777.05699442138 14 17 10
-183.378117036519 385.431753047634 2772.11531476674 9 12 5
-190.561595465591 384.849735548802 2769.37527765253 4 7 0
-200.485238216638 384.030950256272 2769.58807866158 112 114 109
-211.068061805451 383.154934704191 2770.55777216037 109 111 108
-218.207733687392 382.576044927114 2767.84921271256 115 117 114
-224.659220528401 382.056454180788 2764.40509149662 147 148 150
-229.072406922213 381.712888000355 2758.73377053183 159 160 164
-236.875285745578 381.07620571957 2756.77947659444 163 163 165
-240.623106804826 380.789975009125 2750.35574694653 160 160 162
-244.384980168291 380.50249388567 2743.92182414982 156 156 158
-248.830276879906 380.155840992893 2738.22721009557 159 159 159
-253.95244464436 379.750557498164 2733.27695190065 164 164 164
-258.414958508579 379.4022588032 2727.57014290576 172 172 170
-258.910649915665 379.397327956076 2717.32960418581 175 177 174
101.171743954081 401.073968478358 2837.66633007411 55 60 56
101.265386926023 401.09753820231 2827.85345126057 0 2 0
48.4602185068979 396.8422373641 2826.60605298695 34 36 31
8.12035618420648 393.576795966526 2834.40003495865 24 26 21
-78.685178538817 386.477401403037 2896.18471881979 26 28 23
-57.7370852097177 388.21351056827 2866.91467456528 18 20 15
-39.1621623962064 389.754977560758 2839.6286868217 18 20 15
-61.9330258850883 387.899367649581 2851.52010670502 24 26 21
-77.2686896121031 386.654444119199 2856.4533050946 19 21 16
-99.1299024735213 384.87300219223 2867.76948917694 17 19 14
-89.5438575496239 385.676016838056 2848.78485459376 16 18 13
-90.9548749230005 385.575253888843 2840.35065887376 19 21 16
-100.365153175594 384.816836995943 2839.70087791213 21 24 17
-101.806880792657 384.71346668687 2831.24440647429 22 25 18
-104.716757695724 384.489381579987 2824.19339857835 22 25 18
-107.645263616422 384.263727571103 2817.12887816316 22 25 18
-130.6370312291 382.387990849064 2830.09509461575 21 24 17
-137.82330467516 381.811893067673 2827.35306131862 20 23 16
-136.464070144766 381.938633022027 2815.987791677 25 28 21
-135.14973540875 382.061717765947 2804.58966022484 22 25 18
-136.001932002717 382.006582183053 2795.32576009606 22 25 18
-141.115174144143 381.600811951073 2790.38196981033 23 26 19
-142.72051787042 381.483634282165 2781.80681962619 22 25 18
-163.265355511515 379.807726356245 2792.8427701199 16 18 13
-157.883737074016 380.265408242296 2776.98427997136 18 20 15
-183.413804336717 378.193253754348 2783.16899294912 20 23 16
-189.88948411351 377.674657538868 2779.7070443182 9 12 5
-186.710229761457 377.950914635819 2765.95649885564 14 17 10
-198.020362211992 377.034063629082 2767.63407490562 69 71 66
-207.925849290508 376.232690388785 2767.85983106761 108 110 107
-216.44049401396 375.545685387819 2766.62463905113 110 112 109
-222.215973260733 375.084162407192 2762.43553318543 144 146 145
-227.992312524886 374.622450267936 2758.24580291665 157 158 160
-235.121726629889 374.04913365052 2755.5447077794 164 164 166
-239.547594352837 373.698441694275 2749.86445223205 160 160 162
-241.967808609303 373.512929695762 2741.93327551272 157 157 159
-245.080596359105 373.270255770019 2734.73507905761 159 159 159
-250.213787129274 372.860987546459 2729.77680986716 163 163 163
-254.021987685368 372.56080676742 2723.30923917358 171 171 169
-257.18122262866 372.314038619628 2716.07705694162 173 175 172
103.894241226524 393.772254060832 2835.89783193725 32 37 33
-23.6365367958373 383.744931655516 2921.25519605903 40 45 41
-20.2564145113189 384.004076672674 2908.88550847761 46 48 43
25.3866801691882 387.57959267691 2858.00259777385 44 46 41
32.3035982812319 388.11598246816 2842.02244116616 33 35 30
13.602113143818 386.642095137465 2849.45496503218 29 31 26
33.9253227045826 388.230201141648 2820.96621616234 28 30 25
-8.64262293866802 384.883740558815 2850.61206542409 33 35 30
-48.7621136456575 381.729582212502 2878.32842160587 32 34 29
-71.6037805286132 379.931071994412 2890.16880381901 28 30 25
-57.3323501837342 381.044084613902 2867.17176106721 22 24 19
-31.3717545260905 383.073888192563 2832.89102898443 19 21 16
-51.9606144841514 381.45198736766 2842.66000921149 20 22 17
-84.9346480349091 378.858675405203 2864.44288748107 18 20 15
-87.7571917726026 378.630388613565 2857.45516797813 18 20 15
-95.7031710960072 378.000193568446 2855.39717029347 21 23 18
-102.909968946751 377.427922044402 2852.64027779811 23 25 20
-102.860374971876 377.424665137879 2842.79503656736 25 28 21
-102.124490686027 377.47510672229 2832.21253719343 28 31 24
-99.2680892471371 377.691712490598 2819.46297772457 28 31 24
-112.984917920178 376.608641928235 2823.10015627419 28 31 24
-128.086491563293 375.416982723192 2828.20332135563 26 29 22
-145.987031727113 374.005874898266 2836.2167853166 23 26 19
-146.734725273694 373.939542044486 2827.02858496069 15 18 11
-139.710712211179 374.482358048184 2809.89105968895 15 18 11
-135.595857812132 374.796907768789 2795.58361352061 16 19 12
-135.773963740336 374.774781846452 2785.57350667249 19 22 15
-157.775048264735 373.042015761124 2798.02357798326 17 20 13
-170.567962598948 372.030990260804 2801.09585004765 19 21 16
-189.603156902093 370.530702590216 2810.75669503023 7 9 4
-156.342218190624 373.12878927175 2765.71436180248 14 17 10
-151.08820973917 373.531698863234 2749.76308701924 15 18 11
-169.425623560759 372.085813585831 2758.6947124169 22 25 18
-180.099446916759 371.240415636235 2759.59859332662 11 14 7
-189.368720196086 370.504989614919 2759.0511463326 29 31 26
-200.672051719167 369.610157102337 2760.73346957102 105 107 104
-211.258246679006 368.771450181761 2761.70120254361 102 104 101
-219.091239433633 368.148336788774 2759.72485262685 141 143 142
-226.23360138777 367.579231597317 2757.01468712617 150 151 153
-233.367964169818 367.010647472401 2754.31032303536 163 163 165
-238.471879552174 366.600992307866 2749.37297976135 160 160 162
-241.565630628815 366.34862125972 2742.18853427904 157 157 159
-244.008284536314 366.147075261603 2734.24130383945 158 158 158
-247.141100308142 365.891349947662 2727.02822805888 163 163 163
-250.957734086445 365.581912746094 2720.55449705694 170 170 170
-252.136398746099 365.478859175419 2711.05369054611 172 174 171
81.3134750721374 384.558241971159 2856.53563103595 18 23 19
-49.5437067293987 374.702528314112 2954.30410075986 32 37 33
-5.75133448384113 377.954560236112 2905.7833277206 22 27 23
4.40221422446774 378.687088808116 2887.21002619303 21 23 18
25.7996156715952 380.260672441076 2858.26487175814 25 27 22
19.1543101672678 379.735033425223 2854.67992214416 38 40 35
11.0095029395509 379.097207256244 2852.47775121532 33 35 30
16.3625056938295 379.469046333457 2837.83341324279 21 23 18
-53.3809356494208 374.167932088968 2873.70680108698 33 35 30
-41.3794121341389 375.036440230023 2852.76842033343 39 41 36
-50.1543807787885 374.351800113265 2851.34423145247 40 42 37
-47.8726498990096 374.493262663257 2839.41244256819 43 45 40
-79.395850776024 372.109254671932 2859.77804731276 49 51 46
-85.8911956252044 371.595121895542 2856.30186565939 50 52 47
-110.618447124961 369.719599374539 2870.48036162557 39 41 36
-112.688911427411 369.535994742978 2862.80303025015 31 33 28
-98.8323295233275 370.540944282557 2839.50470764951 18 21 14
-92.3235778787736 370.996918173997 2823.22796065943 23 26 19
-97.4205105523978 370.586584425001 2818.29597033985 30 33 26
-108.988544561741 369.693461677773 2819.78670823428 34 37 30
-149.885712511133 366.613263465827 2850.64479409684 40 43 36
-154.155023012044 366.265015794214 2845.07804260162 39 42 35
-154.875171659244 366.181206393437 2835.90972160896 32 35 28
-147.821827920424 366.676457257096 2818.79292336659 30 33 26
-136.604836994091 367.48143191302 2797.28549638692 28 31 24
-136.777369869377 367.437316199541 2787.27931818117 25 28 21
-148.233288873087 366.55260100979 2788.85107874475 21 24 17
-166.662361986057 365.148780590482 2797.71647143277 13 16 9
-171.042358366847 364.791118049581 2792.0694336929 13 16 9
-169.164981271097 364.89901689208 2779.84435011445 13 16 9
-157.619603163702 365.725887934651 2757.34005229079 15 18 9
-159.331889590491 365.565835912168 2748.68715989372 15 18 9
-175.555540417279 364.326335342412 2755.44703268787 11 14 5
-186.213786381595 363.500891681445 2756.36230705367 9 12 5
-196.841983760669 362.677777739317 2757.29937608066 120 122 117
-208.806453023745 361.755401362368 2759.7376180531 116 118 113
-217.327565178723 361.088981507615 2758.49754744829 147 149 148
-224.474524551188 360.524631483731 2755.78377878979 152 153 155
-230.93729721213 360.011019402805 2752.33150652525 160 160 162
-236.047780488495 359.597710551264 2747.38938353806 159 159 161
-239.147597832369 359.333519146863 2740.20048061674 155 155 157
-240.256540320904 359.216809129328 2730.75014802311 154 154 154
-242.732474015004 358.998392877195 2722.77870690482 160 160 160
-246.562019374722 358.679351392012 2716.29556737438 167 167 167
-248.416073200016 358.506560009096 2707.5398402373 168 170 167
32.1028184254519 373.41110310295 2862.79950353236 35 37 32
25.4562826100417 372.887589875295 2859.21367280716 35 37 32
14.2904402790389 372.04233885382 2859.76087940591 41 43 38
-3.60982391247822 370.718029465445 2866.53994644709 31 33 28
-14.5459627744722 369.839382123886 2857.37261884606 20 22 17
-27.0960937275686 368.896490143258 2859.38619824519 18 20 15
-10.6088819553349 369.965943147411 2824.40862126988 22 24 19
-51.2245209846214 367.029828238834 2853.0014500067 25 27 22
-68.8132946297326 365.730080940638 2860.00644760433 31 33 28
-45.2306473580124 367.352451086807 2827.70523062262 31 33 28
-81.8298200511141 364.704273294497 2853.03566235742 33 35 30
-94.8991083555211 363.726091577527 2855.90775139294 40 42 37
-104.288452794943 363.009097303657 2855.27306113594 45 47 42
-97.7035220431883 363.424047828753 2839.05162469199 42 45 38
-91.1945661698272 363.832865945332 2822.77508137545 44 47 40
-99.1765588049163 363.215010497141 2820.69103937508 39 42 35
-115.768952936255 361.987839144831 2827.18366472831 36 39 32
-138.027002440162 360.360390160233 2839.44799009341 31 34 27
-147.330067760846 359.649907506672 2838.8758783935 27 30 23
-150.916673037685 359.343616594985 2832.5689158979 31 34 27
-146.001004690824 359.637847574379 2817.60715177994 30 33 26
-145.397485556414 359.626828670292 2806.92838677343 27 30 23
-145.539943396998 359.562690273094 2796.94361470631 25 28 21
-150.640636396942 359.14822082358 2792.0088774978 22 25 18
-155.045900685568 358.782693746344 2786.34348267687 14 17 10
-162.255514546467 358.219242391674 2783.58429899453 15 18 11
-156.920626686942 358.539917339851 2767.69123888558 15 18 11
-159.988764750339 358.267844610784 2760.52526103029 17 20 11
-164.459568822047 357.896728874653 2754.81203223723 15 18 9
-172.389524816352 357.281938906251 2752.76572823554 10 13 4
-178.931996050647 356.764805266981 2749.25566293694 16 19 12
-191.639775978922 355.814027829955 2752.38995591737 65 67 62
-204.304266476961 354.866637831925 2755.55564748768 121 123 118
-214.882408078059 354.066159292577 2756.52911766914 144 146 145
-222.036553244018 353.506330657904 2753.81045725434 157 158 160
-228.505986994626 352.994573284612 2750.35307114118 157 157 159
-232.948678485637 352.624943375486 2744.66022928383 157 157 159
-236.728944610977 352.3015747316 2738.21279140415 155 155 157
-238.51338038039 352.117874150804 2729.50747662426 153 153 153
-242.328656731348 351.791478011198 2723.03493822703 159 159 159
-244.826633560653 351.557106376704 2715.04714227542 165 165 165
-246.684260160727 351.367215143186 2706.28873854354 166 168 167
28.7234657602231 365.835684745533 2866.48684530195 41 43 38
34.9414615343964 366.184014873661 2851.23440352275 45 47 42
13.1934517066412 364.642170847843 2861.39853340445 40 42 37
15.6916389280282 364.665642059055 2839.74217870459 35 37 32
-5.91692209711936 363.134836452635 2850.00774838807 36 38 33
-55.0033588438872 359.752848026063 2886.04394299869 32 34 29
-10.9364925845536 362.57621859741 2825.36873555071 30 32 27
-50.8187289407238 359.817830830656 2853.25908713067 26 28 23
-60.2377598014112 359.037475548889 2842.72196810674 28 30 25
-65.324555642712 358.621731813226 2837.79700431357 26 28 23
-75.5249903806352 357.862491797333 2837.80945451287 19 21 16
-92.2477443288279 356.665818783035 2844.20773373294 16 18 13
-100.926903389924 356.0094175037 2842.85314229906 15 18 11
-103.081498284315 355.790519069624 2835.11434961502 18 21 14
-110.305651957586 355.231643060611 2832.34494336444 22 25 18
-121.834079786193 354.38465189654 2833.86433181306 25 28 21
-125.44693171734 354.067654007685 2827.53828832467 30 33 26
-133.35979200838 353.462889431177 2825.50442814371 28 31 24
-142.684692931973 352.763829187867 2824.91683968304 30 33 26
-141.340297253379 352.777578883535 2813.54024072314 32 35 28
-139.333236287338 352.834917918699 2801.40891165447 31 34 27
-145.841588832919 352.323460784708 2797.92360847406 33 36 29
-151.643147415152 351.859108161281 2793.71558280882 30 33 26
-142.022488783113 352.422148630626 2773.51978829566 24 27 20
-149.272364001444 351.860531707641 2770.73172206487 21 24 17
-156.51419970694 351.299488504686 2767.9491922775 18 21 12
-157.498445651624 351.154547172436 2758.58911187249 16 19 10
-159.89913878241 350.914975597333 2750.67210708838 16 19 10
-167.152685132005 350.352752194321 2747.88108202723 16 19 10
-175.086342507606 349.745399196823 2745.83213248497 11 14 7
-190.549129664537 348.63881420697 2751.90891372844 80 82 77
-201.167432671618 347.854053697568 2752.85364414156 109 111 106
-211.074251205011 347.116752388048 2753.07875964045 120 122 119
-216.202884041425 346.695941984799 2748.12373613004 124 126 125
-222.690239193225 346.185115062777 2744.65336312361 152 152 154
-227.825001093733 345.763636373515 2739.69389313884 155 155 157
-234.30964936766 345.252834571389 2736.22548253319 155 155 157
-235.429763505808 345.096042518833 2726.76684834893 154 154 154
-241.25702891857 344.628248183647 2722.54016982068 158 158 158
-242.425255432378 344.467394196607 2713.04663737404 164 164 164
-246.27914726376 344.129114413109 2706.54575112094 169 171 170
-252.130891445687 343.659060709481 2702.30131596637 191 193 192
94.0739907577228 363.068421541845 2847.15012917914 19 24 20
18.5157645549343 357.850275521895 2876.338602377 37 39 34
13.423230574781 357.431176825932 2871.40946189099 40 42 37
31.7011624659416 358.505842465382 2845.14114575504 38 40 35
16.0032761129965 357.408020752872 2849.81250633257 38 40 35
-20.6292933117982 354.974869085064 2873.88448610733 43 45 40
-56.3351165401573 352.603693551203 2897.39356126977 44 46 41
-60.5647387248605 352.241372709299 2891.85550939858 40 42 37
-41.7687898442518 353.345206155305 2864.72753146778 38 40 35
-38.6773793083857 353.447245284238 2852.14746032902 33 35 30
-53.3681501394225 352.417649138153 2856.31420938804 28 30 25
-72.4258557404944 351.111403197238 2864.72438720373 25 27 22
-69.3773142568599 351.209887307106 2852.11322136727 20 22 17
-58.3298962190792 351.814890071867 2831.71689111397 16 18 13
-68.5510495311172 351.069945622997 2831.7143943866 23 25 20
-89.6619527460898 349.635629971474 2842.34121557787 30 32 27
-105.60299599977 348.529993201339 2848.07130357323 32 35 28
-111.357807339121 348.069464965811 2843.89718535328 33 36 29
-113.50829082948 347.836613361505 2836.1613024382 31 34 27
-119.276216460547 347.374925638394 2831.97767151528 30 33 26
-122.895394939788 347.048710457924 2825.64728956678 30 33 26
-127.243068822058 346.676278059253 2820.02331380662 28 31 24
-130.888414359639 346.347850549111 2813.6736571162 31 34 27
-135.257940946649 345.973550753948 2808.03383040529 33 36 29
-137.514084096162 345.731873582132 2800.22160232218 31 34 27
-139.793099223879 345.488303294722 2792.39248978795 32 35 28
-140.688429165227 345.331118538516 2783.09680447596 29 32 25
-146.524143837502 344.863506004401 2778.86400182004 26 29 22
-150.263836863506 344.527114172498 2772.44591028092 22 25 18
-154.017730756614 344.189534572101 2766.01751821389 18 21 12
-157.785895259332 343.850716745431 2759.57877480555 15 18 9
-150.490420929291 344.202886621121 2741.40203531049 16 19 10
-161.914109004476 343.384872673779 2742.99749861693 17 20 11
-171.239676599264 342.698259815996 2742.40948992055 18 21 14
-186.029975365406 341.6714162396 2747.73913962689 85 87 82
-196.662492983063 340.904357939485 2748.67336075361 107 109 104
-206.583701052221 340.181994765686 2748.88841511257 119 121 118
-211.725334539399 339.757014127971 2743.92365155289 126 128 127
-216.872423088509 339.331512312058 2738.95522533954 149 149 151
-223.374107848223 338.821817200894 2735.47447022738 153 153 155
-229.199751307976 338.353989966499 2731.24896732084 155 155 157
-233.015412065373 338.010465596162 2724.77576902429 154 154 154
-237.513359046908 337.624406035462 2719.04308254025 158 158 158
-240.689180639075 337.319757021428 2711.79887759156 164 164 164
-245.210666208826 336.931615918703 2706.04882246214 168 170 169
-251.72604355938 336.420288796595 2702.55813303221 187 189 188
95.2599963469787 355.66388745127 2846.73734788726 53 58 54
68.6031751582483 353.932703360118 2860.75282533865 37 42 38
46.6420131214527 352.487956226461 2870.76292845002 33 38 34
28.5760571635905 351.280472942262 2877.42247374098 31 36 32
3.75169988217161 349.666108357953 2890.29686184093 38 43 37
-16.4252425404496 348.334317213219 2899.1308827137 37 39 34
-14.6472890295004 348.327725264054 2888.06847604462 26 31 25
-38.4830742245854 346.777512146631 2900.42449498072 29 31 26
-30.7216557115686 347.130610492838 2883.8202752227 30 32 27
-58.9267918663192 345.320017044166 2900.41864273013 31 33 28
-51.9656354595177 345.623895118562 2884.4690832117 32 34 29
-43.5941268159592 346.010847915976 2867.07256013657 35 37 32
-61.9841497260514 344.792071764129 2874.73216180652 39 41 36
-79.5616039837581 343.623415767879 2881.74602907294 37 39 34
-86.7567926603576 343.07715182446 2878.99738957217 32 34 29
-64.5674766773607 344.286866114809 2848.15439455626 29 31 26
-60.119670039638 344.434042049113 2834.08746479007 26 28 23
-63.0349237000058 344.140838381384 2827.03220906887 25 27 22
-84.8921940234024 342.718813513158 2838.35307169942 26 28 23
-99.3974933751094 341.73621303444 2842.65451103429 24 27 20
-102.276151448715 341.445791895518 2835.62550385196 25 28 21
-104.452493747736 341.196644237663 2827.87108726893 23 26 19
-121.031849847171 340.092597771334 2834.37349334454 23 26 19
-125.360726962255 339.715753969198 2828.76341589445 24 27 20
-123.982579818708 339.676444654521 2817.41101533744 22 25 18
-124.786797771075 339.507097289988 2808.18131744468 21 24 17
-132.014430483115 338.957659855557 2805.40914249587 24 27 20
-137.110530732342 338.534070671433 2800.47768847712 24 27 20
-140.09465216932 338.234772655357 2793.37247816587 27 30 23
-151.540160489573 337.436961812855 2794.95222584371 26 29 22
-144.014732678302 337.755197973223 2776.94171817666 21 24 17
-158.947018850128 336.752690654617 2782.1685614504 19 22 15
-160.58094498979 336.531394030376 2773.57216388178 16 19 10
-151.126750837609 336.959074527793 2753.25530456671 15 18 9
-154.236106356024 336.649332435395 2746.0592564959 15 18 9
-153.221970996394 336.580142881447 2734.44253020201 13 16 7
-163.95110518856 335.824311260768 2735.30706325433 7 10 1
-180.823101870828 334.710875567176 2742.83231699709 10 12 7
-190.788584468017 334.001131172714 2743.01533972242 104 106 101
-200.047012222122 333.33301141441 2742.47609580058 118 120 117
-207.246233989798 332.784912214302 2739.72452333008 113 115 114
-213.083517113254 332.315932933984 2735.49057674758 141 143 142
-219.596595051613 331.807707491298 2732.00186439826 148 148 150
-224.08802133932 331.416475222744 2726.27358422653 152 152 154
-227.918782649056 331.063139365828 2719.78938952021 153 153 153
-233.768230085434 330.592875921428 2715.54661826313 156 156 156
-240.284635569485 330.08404485147 2712.0554906373 163 163 163
-245.469590010716 329.65188795669 2707.05928644435 162 164 163
-254.629384024475 328.990967025799 2706.59158068932 189 191 190
94.7456894101997 348.294340307137 2857.44340069764 29 36 29
80.3272600396858 347.333932556552 2860.57259524009 44 51 44
83.5592401145813 347.380543396506 2848.09414520487 48 55 48
22.8968108899883 343.653254501705 2883.14801001571 29 36 29
10.9854600760904 342.840549763329 2884.38998308782 48 55 48
-21.3193966217424 340.871834104731 2904.19105238405 33 38 32
-42.1556894594388 339.556448150972 2913.78221579443 34 41 34
-28.3049518723752 340.205905893738 2891.71289251682 31 36 30
-22.8193395439233 340.379837128379 2877.16338913538 38 41 34
-27.1220114948516 339.999634741743 2871.57229135614 41 44 37
-40.381407671193 339.114195940479 2874.30703689935 40 43 36
-35.0133198103315 339.278628786505 2859.67228941204 38 41 34
-58.6185566320838 337.812037075986 2872.19615582006 34 37 30
-88.7699318352166 335.980259272703 2891.08865569118 31 34 27
-78.2541679514956 336.433124131049 2871.54118401626 26 29 22
-70.7746049308322 336.71349548537 2854.73227282019 22 25 18
-51.6574411215616 337.642998226788 2826.60123079765 18 21 14
-61.1679540853614 336.969183605611 2825.87921608194 19 22 15
-75.0251945301073 336.053282515526 2829.41545388805 22 25 18
-87.3836718682326 335.222014541831 2831.56853248037 32 35 28
-94.6383672860245 334.675701925975 2828.77675502644 32 35 28
-103.328164668319 334.049774455051 2827.41460600233 32 35 28
-118.473865847773 333.065884173686 2832.48683448151 32 35 28
-134.280324189348 332.046721631008 2838.31521843787 26 29 22
-126.439213220383 332.337942154424 2820.53341938931 23 26 19
-125.095894306982 332.267836323226 2809.15561511457 23 26 19
-136.583670691533 331.488318172952 2810.70481442664 23 26 19
-140.247835183307 331.140831307887 2804.34141893532 22 25 18
-153.103303193446 330.287039804147 2807.36914092626 25 28 21
-149.026425782679 330.364902602212 2793.03326003975 24 27 20
-173.77433736412 328.859165366997 2808.43368873638 20 23 14
-166.236073484625 329.125720365536 2790.43251891086 18 21 12
-157.388299337085 329.461698064738 2770.91033045222 16 19 10
-152.108784858724 329.600238917023 2754.97620645243 14 17 10
-147.59366408889 329.695171535764 2739.72306736229 14 17 10
-141.074227959123 329.897485589137 2722.21774431727 16 19 12
-160.789305180184 328.670705147362 2732.62214966045 14 17 10
-174.928616633623 327.748947509525 2737.18920961433 8 10 5
-188.331814098405 326.868402580861 2741.0547719523 97 99 94
-197.597695524666 326.213024266706 2740.51018924238 116 118 115
