ply
format ascii 1.0
comment KinectMotionCapture
element vertex 756
property float x
property float y
property float z
property uchar red
property uchar green
property uchar blue
end_header
48.3763441443443 498.745113611221 2660.00008583069 162 163 158
55.7643510401249 500.053703784943 2667.00005531311 164 165 160
63.213899731636 501.549124717712 2674.99995231628 166 167 162
70.6277638673782 502.481579780579 2680.0000667572 169 169 167
78.0685991048813 503.413379192352 2684.99994277954 170 170 168
85.5045989155769 504.157185554504 2688.99989128113 173 173 171
93.1347012519836 505.837798118591 2697.99995422363 172 172 170
100.739009678364 507.142901420593 2704.99992370605 156 156 154
108.381107449532 508.447468280792 2711.99989318848 145 145 143
116.231687366962 510.501325130463 2723.00004959106 153 153 153
124.822877347469 515.366673469543 2749.00007247925 184 186 183
235.716208815575 442.564815282822 2361.99998855591 205 197 186
239.570513367653 437.864005565643 2336.99989318848 174 155 138
243.498757481575 433.537870645523 2313.99989128113 178 155 137
248.056963086128 430.523097515106 2298.00009727478 191 164 145
253.412812948227 429.006904363632 2289.99996185303 199 170 152
258.044242858887 426.366567611694 2276.00002288818 204 173 153
262.831091880798 424.100697040558 2263.99993896484 201 170 150
268.977761268616 424.082517623901 2263.99993896484 190 163 146
275.852799415588 425.187826156616 2269.99998092651 182 156 141
282.262742519379 425.543576478958 2272.0000743866 187 169 157
287.921011447906 424.775123596191 2267.99988746643 189 172 162
295.242458581924 426.441162824631 2276.99995040894 200 186 177
303.935766220093 429.979503154755 2296.0000038147 202 197 194
-303.515136241913 510.883569717407 2766.99995994568 204 206 203
-295.250654220581 509.611785411835 2759.99999046326 184 186 183
-287.544697523117 509.26274061203 2757.99989700317 175 177 174
-280.1533639431 509.467244148254 2759.0000629425 159 159 157
-273.249864578247 510.594487190247 2765.00010490417 160 161 156
-265.928566455841 510.982811450958 2766.99995994568 157 158 153
-258.688986301422 511.555254459381 2769.99998092651 155 156 151
-251.432329416275 512.127459049225 2773.00000190735 150 151 146
-244.598358869553 513.622522354126 2780.99989891052 145 146 141
-238.146379590034 516.040802001953 2793.99991035461 143 144 139
-231.622949242592 518.458664417267 2806.99992179871 137 138 132
-225.267514586449 521.430373191834 2822.99995422363 127 128 122
-218.978554010391 524.771213531494 2841.00008010864 119 118 113
-181.715577840805 507.095813751221 2744.99988555908 170 175 171
-173.61344397068 505.261421203613 2734.99989509583 172 177 171
-165.322124958038 502.687454223633 2720.99995613098 159 164 158
-157.396644353867 501.036584377289 2711.99989318848 188 190 185
-149.574965238571 499.569892883301 2703.9999961853 157 159 154
-142.006739974022 498.841673135757 2700.00004768372 157 160 153
-134.459778666496 498.112857341766 2696.00009918213 155 158 151
-126.651272177696 496.274948120117 2686.00010871887 155 156 150
-118.807896971703 494.06686425209 2674.00002479553 190 191 186
-111.071199178696 492.042988538742 2663.00010681152 189 188 184
-103.510946035385 490.572780370712 2654.99997138977 186 185 181
-96.1752533912659 490.02593755722 2651.99995040894 174 173 169
-88.7213870882988 488.739371299744 2644.99998092651 159 158 154
-81.4594551920891 488.376170396805 2642.99988746643 167 166 162
-74.2081552743912 488.012492656708 2641.00003242493 165 164 160
-66.9928565621376 487.832993268967 2640.00010490417 162 161 157
-59.7827844321728 487.6529276371 2638.99993896484 161 160 156
-52.5580383837223 487.287580966949 2637.00008392334 160 159 155
-45.3612059354782 487.106502056122 2635.99991798401 156 155 151
-38.1841585040092 487.10960149765 2635.99991798401 159 158 154
-31.0305114835501 487.48180270195 2638.00001144409 160 159 155
-23.8297060132027 487.114310264587 2635.99991798401 161 160 156
-16.6523493826389 487.115800380707 2635.99991798401 160 159 155
-9.47493873536587 487.116783857346 2635.99991798401 159 158 154
-2.30010924860835 487.67164349556 2638.99993896484 159 158 154
4.88921348005533 488.041132688522 2641.00003242493 159 158 154
12.0894107967615 488.410085439682 2642.99988746643 159 158 154
19.3004608154297 488.778501749039 2644.99998092651 161 160 156
26.5022963285446 488.77677321434 2644.99998092651 161 160 156
33.7550155818462 489.513635635376 2648.9999294281 159 158 154
41.0603322088718 490.619540214539 2654.99997138977 161 162 157
48.434566706419 492.094546556473 2663.00010681152 164 165 160
55.7476431131363 492.644965648651 2665.99988937378 166 167 162
63.1477758288383 493.749231100082 2671.99993133545 168 169 164
70.5540105700493 494.668155908585 2677.00004577637 169 169 167
78.0163183808327 495.771318674088 2683.00008773804 170 170 168
85.4474306106567 496.504306793213 2687.00003623962 176 176 174
93.0726528167725 498.160630464554 2696.00009918213 177 177 175
100.709326565266 499.631583690643 2703.9999961853 165 165 163
108.429193496704 501.286745071411 2713.00005912781 147 147 145
116.283044219017 503.310799598694 2723.99997711182 148 148 148
124.559715390205 506.812453269959 2743.00003051758 181 183 180
233.636945486069 432.291299104691 2341.00008010864 185 177 166
238.664627075195 429.874271154404 2328.00006866455 166 147 130
243.620947003365 427.45703458786 2315.00005722046 168 145 127
248.829826712608 425.593554973602 2305.0000667572 181 154 135
254.094332456589 423.91449213028 2296.0000038147 192 163 145
258.628904819489 421.127438545227 2280.99989891052 199 166 147
262.965202331543 418.15572977066 2265.00010490417 196 165 145
268.520802259445 417.214572429657 2259.99999046326 183 156 139
275.263845920563 418.119221925735 2265.00010490417 176 150 135
281.287789344788 417.915880680084 2263.99993896484 187 167 156
287.051618099213 417.343080043793 2260.99991798401 184 167 157
293.317079544067 417.508363723755 2262.00008392334 194 180 171
301.440566778183 420.257270336151 2276.99995040894 197 192 189
-303.097188472748 502.662777900696 2763.00001144409 204 209 205
-295.377999544144 502.31945514679 2760.99991798401 180 182 179
-287.773132324219 502.157628536224 2759.99999046326 179 180 175
-280.375957489014 502.359211444855 2760.99991798401 163 162 158
-272.972494363785 502.560436725616 2762.00008392334 154 155 149
-265.851110219955 503.307044506073 2766.00003242493 155 156 150
-258.61382484436 503.871262073517 2769.00005340576 155 156 150
-251.631498336792 504.981100559235 2775.00009536743 153 154 148
-244.615733623505 506.090402603149 2780.99989891052 149 150 144
-238.333806395531 508.837342262268 2796.0000038147 136 137 131
-232.052132487297 511.765897274017 2812.00003623962 123 124 118
-225.682690739632 514.694154262543 2828.00006866455 126 129 122
-219.610944390297 518.53209733963 2848.99997711182 116 117 111
-182.192236185074 500.934481620789 2752.00009346008 153 155 152
-173.943549394608 498.763114213943 2740.00000953674 173 175 170
-165.394991636276 495.498836040497 2721.99988365173 165 166 161
-157.234087586403 493.144184350967 2709.00011062622 186 187 182
-149.419993162155 491.698980331421 2700.99997520447 163 164 159
-141.859382390976 490.98151922226 2697.00002670288 160 161 155
-134.320065379143 490.263432264328 2693.00007820129 164 165 159
-126.472011208534 488.270461559296 2681.99992179871 181 182 176
-118.638969957829 486.094802618027 2670.00007629395 184 185 180
-110.996000468731 484.464764595032 2661.00001335144 193 194 189
-103.479646146297 483.198255300522 2654.00004386902 186 187 182
-96.073605120182 482.295334339142 2648.9999294281 170 171 166
-88.660903275013 481.209695339203 2642.99988746643 163 164 159
-81.4347118139267 481.034010648727 2641.99995994568 163 164 159
-74.1855949163437 480.675637722015 2640.00010490417 164 165 160
-67.0232474803925 480.862975120544 2641.00003242493 164 165 160
-59.7646087408066 480.321496725082 2638.00001144409 163 164 159
-52.5819025933743 480.325669050217 2638.00001144409 160 161 156
-45.3646034002304 479.965150356293 2635.99991798401 156 157 152
-38.1870232522488 479.968249797821 2635.99991798401 155 156 151
-31.0093089938164 479.970842599869 2635.99991798401 158 159 154
-23.8224528729916 479.790806770325 2634.99999046326 157 158 153
-16.640966758132 479.6102643013 2634.0000629425 155 156 151
-9.47565026581287 479.975402355194 2635.99991798401 156 157 152
-2.30028224177659 480.522125959396 2638.99993896484 160 161 156
4.8932833597064 481.25034570694 2642.99988746643 160 161 156
12.0948944240808 481.431812047958 2644.00005340576 160 161 156
19.3092059344053 481.794744729996 2645.99990844727 159 160 155
26.504285633564 481.611013412476 2644.99998092651 160 161 156
33.7702929973602 482.519179582596 2650.00009536743 161 162 157
41.0634130239487 483.426749706268 2654.99997138977 161 161 159
48.420000821352 484.697967767715 2661.99994087219 168 168 166
55.7518191635609 485.422402620316 2665.99988937378 168 168 166
63.0815923213959 485.964179039001 2668.99991035461 168 168 166
70.53292542696 487.233817577362 2676.00011825562 171 171 169
78.0221447348595 488.502830266953 2683.00008773804 170 170 168
85.4855924844742 489.407032728195 2687.99996376038 176 176 174
93.0450558662415 490.67485332489 2694.9999332428 175 175 173
100.716821849346 492.306351661682 2703.9999961853 172 172 170
108.557142317295 494.483351707459 2716.00008010864 173 173 171
116.46243929863 496.659755706787 2727.9999256134 164 164 162
124.523527920246 499.199777841568 2742.00010299683 188 190 187
233.154192566872 425.041675567627 2335.99996566772 157 145 133
238.681212067604 423.569709062576 2328.00006866455 150 127 111
244.164019823074 422.097474336624 2319.9999332428 148 121 102
249.386757612228 420.261114835739 2309.99994277954 162 135 114
254.111737012863 417.696923017502 2296.0000038147 177 149 128
258.646547794342 414.950639009476 2280.99989891052 182 151 130
263.099163770676 412.204265594482 2266.00003242493 181 150 129
268.30130815506 410.731077194214 2257.99989700317 163 136 115
274.431556463242 410.712838172913 2257.99989700317 164 139 119
280.933827161789 411.239951848984 2260.99991798401 185 164 147
286.435902118683 410.311728715897 2256.00004196167 183 164 149
292.428731918335 410.110741853714 2255.00011444092 191 175 162
300.136476755142 412.273615598679 2266.99995994568 194 184 175
311.015993356705 418.618530035019 2302.00004577637 194 190 181
-312.646210193634 498.384267091751 2780.99989891052 204 209 205
-303.556650876999 495.896130800247 2766.99995994568 202 207 203
-295.826226472855 495.558112859726 2765.00010490417 175 177 172
-288.105756044388 495.219618082047 2763.00001144409 172 173 168
-280.293732881546 494.701415300369 2759.99999046326 168 167 162
-272.892564535141 494.899749755859 2760.99991798401 162 161 156
-265.773504972458 495.635420084 2765.00010490417 154 155 149
-258.818715810776 496.729165315628 2770.99990844727 152 153 147
-251.649141311646 497.464001178741 2775.00009536743 148 149 143
-244.808882474899 498.915582895279 2782.99999237061 148 149 143
-238.350659608841 501.26314163208 2796.0000038147 152 153 147
-232.316181063652 504.686117172241 2815.00005722046 116 119 112
-226.177603006363 508.108735084534 2834.00011062622 116 119 112
-191.484376788139 498.127490282059 2778.00011634827 219 221 218
-182.337805628777 493.837356567383 2753.99994850159 142 144 141
-174.083113670349 491.698384284973 2742.00010299683 164 166 161
-165.528520941734 488.482743501663 2723.99997711182 157 159 154
-157.361596822739 486.163198947906 2710.99996566772 172 173 168
-149.375572800636 484.201699495316 2700.00004768372 158 159 154
-141.817152500153 483.494937419891 2696.00009918213 159 160 154
-134.230136871338 482.608288526535 2690.99998474121 152 153 147
-126.481279730797 481.003671884537 2681.99992179871 185 186 180
-118.692122399807 479.0398478508 2671.0000038147 171 172 167
-111.004173755646 477.254778146744 2661.00001335144 194 195 190
-103.565260767937 476.365834474564 2655.99989891052 182 183 178
-96.1532443761826 475.476413965225 2651.00002288818 157 158 153
-88.7681171298027 474.586457014084 2645.99990844727 161 162 157
-81.5024003386498 474.234014749527 2644.00005340576 169 170 165
-74.1629898548126 473.342925310135 2638.99993896484 166 167 162
-66.9774487614632 473.34811091423 2638.99993896484 162 163 158
-59.7463920712471 472.994118928909 2637.00008392334 160 161 156
-52.5658838450909 472.998261451721 2637.00008392334 158 159 154
-45.3851893544197 473.001897335052 2637.00008392334 156 157 152
-38.2043533027172 473.004966974258 2637.00008392334 155 156 151
-31.035153195262 473.186910152435 2638.00001144409 157 158 153
-23.8242298364639 472.650825977325 2634.99999046326 157 158 153
-16.6485253721476 472.652316093445 2634.99999046326 155 156 151
-9.4691663980484 472.473949193954 2634.0000629425 156 157 152
-2.30045360513031 473.371237516403 2638.99993896484 159 160 155
4.88994549959898 473.729878664017 2641.00003242493 159 160 155
12.091220356524 474.087953567505 2642.99988746643 159 160 155
19.2960500717163 474.266201257706 2644.00005340576 159 160 155
26.4862161129713 474.085122346878 2642.99988746643 159 160 155
33.7218306958675 474.621057510376 2645.99990844727 160 161 156
41.0510078072548 476.053297519684 2654.00004386902 163 163 161
48.4054163098335 477.30553150177 2661.00001335144 169 169 167
55.7559616863728 478.198498487473 2665.99988937378 169 169 167
63.0390048027039 478.373527526855 2667.00005531311 170 170 168
70.5117955803871 479.803472757339 2674.99995231628 173 173 171
78.0279263854027 481.232941150665 2683.00008773804 172 172 170
85.5237245559692 482.303082942963 2688.99989128113 177 177 175
93.0519327521324 483.372628688812 2694.9999332428 177 177 175
100.72423517704 484.979748725891 2703.9999961853 175 175 173
108.525171875954 486.944913864136 2714.99991416931 180 180 178
116.342917084694 488.730192184448 2724.99990463257 173 173 171
124.305583536625 490.873605012894 2736.99998855591 187 189 186
133.825451135635 498.576074838638 2779.99997138977 192 194 191
233.369991183281 419.072717428207 2338.00005912781 159 147 135
239.517942070961 418.69792342186 2335.99996566772 148 125 109
245.12805044651 417.42667555809 2328.9999961853 144 117 98
250.699430704117 416.155159473419 2322.00002670288 149 122 101
255.235880613327 413.270473480225 2305.99999427795 177 149 128
259.004265069962 409.310400485992 2283.99991989136 177 146 125
263.000786304474 405.887991189957 2265.00010490417 171 140 119
268.556982278824 404.974162578583 2259.99999046326 156 128 106
274.936079978943 405.314445495605 2262.00008392334 160 133 112
281.698048114777 406.191855669022 2266.99995994568 179 156 138
286.96271777153 404.918909072876 2259.99999046326 178 157 138
292.447954416275 404.004096984863 2255.00011444092 183 166 150
299.626469612122 405.418008565903 2263.00001144409 189 176 167
309.685051441193 410.593509674072 2292.00005531311 190 183 173
-312.442421913147 490.497887134552 2779.00004386902 204 209 205
-304.016053676605 489.10653591156 2770.99990844727 202 207 203
-296.060293912888 488.420754671097 2766.99995994568 174 176 173
-288.021177053452 487.558037042618 2762.00008392334 168 169 164
-280.211418867111 487.047761678696 2759.0000629425 169 168 163
-272.812515497208 487.243205308914 2759.99999046326 164 163 158
-265.791863203049 488.144427537918 2765.00010490417 157 158 152
-258.836656808853 489.221781492233 2770.99990844727 156 157 151
-251.575946807861 489.769071340561 2773.9999294281 154 155 149
-244.738027453423 491.198837757111 2782.00006484985 140 141 135
-238.282114267349 493.511021137238 2795.00007629395 150 151 145
-232.66264796257 497.765243053436 2819.00000572205 131 134 127
-226.752266287804 501.666069030762 2841.00008010864 112 115 108
-191.842719912529 491.482973098755 2782.99999237061 208 210 207
-182.350859045982 486.374706029892 2753.99994850159 147 149 146
-174.09560084343 484.268188476563 2742.00010299683 163 165 160
-165.540441870689 481.101274490356 2723.99997711182 184 185 180
-157.314911484718 478.640228509903 2710.00003814697 164 165 160
-149.386361241341 476.88502073288 2700.00004768372 156 157 152
-141.827434301376 476.18904709816 2696.00009918213 159 160 154
-134.190008044243 475.139200687408 2690.00005722046 156 157 151
-126.490473747253 473.735570907593 2681.99992179871 178 179 173
-118.745215237141 471.97812795639 2671.99993133545 173 174 169
-111.012287437916 470.043450593948 2661.00001335144 187 188 183
-103.572838008404 469.168037176132 2655.99989891052 171 172 167
-96.1965546011925 468.468695878983 2651.99995040894 150 151 146
-88.8417288661003 467.768877744675 2648.00000190735 163 164 159
-81.5700367093086 467.421799898148 2645.99990844727 167 168 163
-74.2527469992638 466.720879077911 2641.99995994568 165 166 161
-67.0585334300995 466.726064682007 2641.99995994568 158 159 154
-59.8187632858753 466.377377510071 2640.00010490417 156 157 152
-52.6494979858398 466.558218002319 2641.00003242493 155 156 151
-45.4401820898056 466.385185718536 2640.00010490417 156 157 152
-38.2071770727634 465.858221054077 2637.00008392334 155 156 151
-31.0139115899801 465.684086084366 2635.99991798401 154 155 150
-23.8169506192207 465.332806110382 2634.0000629425 154 155 150
-16.6623946279287 465.864300727844 2637.00008392334 155 156 151
-9.4734625890851 465.51188826561 2634.99999046326 156 157 152
-2.29975208640099 466.042339801788 2638.00001144409 157 158 153
4.88475197926164 466.042250394821 2638.00001144409 157 158 153
12.0875388383865 466.748267412186 2641.99995994568 157 158 153
19.2901771515608 466.923743486404 2642.99988746643 159 160 155
26.4881756156683 466.922104358673 2642.99988746643 160 161 156
33.7243191897869 467.449873685837 2645.99990844727 162 163 158
41.0695001482964 469.037055969238 2654.99997138977 164 164 162
48.4089888632298 470.093816518784 2661.00001335144 170 170 168
55.7809844613075 471.149891614914 2667.00005531311 170 170 168
63.1145611405373 471.675485372543 2670.00007629395 170 170 168
70.5960690975189 473.083853721619 2677.99997329712 173 173 171
78.0918225646019 474.314957857132 2684.99994277954 172 172 170
85.5618193745613 475.192278623581 2690.00005722046 174 174 172
93.1278169155121 476.422339677811 2697.00002670288 177 177 175
100.768871605396 477.828353643417 2704.99992370605 179 179 177
108.493126928806 479.410588741302 2713.99998664856 177 177 175
116.266027092934 480.992197990417 2723.00004959106 169 169 167
124.087549746037 482.573270797729 2732.00011253357 172 174 171
133.305609226227 489.099442958832 2769.00005340576 181 183 180
234.583884477615 414.857089519501 2349.99990463257 172 159 150
238.611474633217 410.780727863312 2326.99990272522 135 113 99
244.82898414135 410.587787628174 2325.99997520447 129 103 86
250.932365655899 410.21791100502 2323.99988174438 130 103 84
256.470710039139 408.965289592743 2316.99991226196 190 163 144
259.021669626236 403.123378753662 2283.99991989136 167 138 120
262.786120176315 399.399548768997 2263.00001144409 153 125 104
268.693715333939 399.028897285461 2260.99991798401 146 117 99
274.954289197922 399.187415838242 2262.00008392334 159 132 113
282.089412212372 400.580823421478 2269.99998092651 164 138 121
286.981552839279 398.797601461411 2259.99999046326 166 143 125
292.596697807312 398.072928190231 2256.00004196167 170 151 137
299.51348900795 399.112433195114 2262.00008392334 170 153 145
308.759152889252 403.150916099548 2285.00008583069 176 166 157
-314.599573612213 486.270725727081 2798.00009727478 202 207 203
-303.926765918732 481.425076723099 2769.99998092651 200 205 201
-295.652240514755 480.22848367691 2763.00001144409 173 175 172
-287.623524665833 479.379057884216 2757.99989700317 168 169 164
-280.128866434097 479.398220777512 2757.99989700317 166 165 161
-272.92999625206 479.938507080078 2760.99991798401 161 160 156
-265.713959932327 480.478316545486 2763.99993896484 157 158 153
-258.761078119278 481.539279222488 2769.99998092651 155 156 151
-251.411974430084 481.904476881027 2772.0000743866 153 154 149
-244.491085410118 483.138561248779 2779.00004386902 151 152 147
-238.042891025543 485.415309667587 2792.00005531311 145 146 141
-232.843980193138 490.473657846451 2821.00009918213 127 129 124
-228.683829307556 498.139947652817 2865.00000953674 129 131 126
-190.339654684067 480.114936828613 2760.99991798401 212 214 211
-181.900277733803 477.69358754158 2746.99997901917 153 155 152
-173.790514469147 475.967168807983 2736.99998855591 151 153 148
-165.369942784309 473.196804523468 2720.99995613098 184 185 180
-157.32616186142 471.295267343521 2710.00003814697 163 164 159
-149.397104978561 469.567120075226 2700.00004768372 158 159 154
-141.784995794296 468.707889318466 2694.9999332428 159 160 154
-134.099885821342 467.500358819962 2687.99996376038 166 167 161
-126.546785235405 466.640114784241 2683.00008773804 165 166 160
-118.753805756569 464.735746383667 2671.99993133545 185 186 181
-111.02032661438 462.830781936646 2661.00001335144 177 178 173
-103.541351854801 461.794942617416 2654.99997138977 158 159 154
-96.2398201227188 461.454302072525 2653.00011634827 151 152 147
-88.9152884483337 460.939168930054 2650.00009536743 169 170 165
-81.6376358270645 460.597455501556 2648.00000190735 163 164 159
-74.3143856525421 459.907382726669 2644.00005340576 162 163 158
-67.0888051390648 459.738492965698 2642.99988746643 158 159 154
-59.891115874052 459.743142127991 2642.99988746643 157 158 153
-52.6732839643955 459.573298692703 2641.99995994568 156 157 152
-45.4779267311096 459.576845169067 2641.99995994568 155 156 151
-38.2534451782703 459.232032299042 2640.00010490417 154 155 150
-31.0750156641006 459.408491849899 2641.00003242493 152 153 148
-23.8639079034328 459.062576293945 2638.99993896484 152 153 148
-16.676252707839 459.064066410065 2638.99993896484 154 155 150
-9.47775226086378 458.543181419373 2635.99991798401 155 156 151
-2.29992042295635 458.891481161118 2638.00001144409 156 157 152
4.8869620077312 459.06537771225 2638.99993896484 157 158 153
12.0930001139641 459.760516881943 2642.99988746643 157 158 153
19.2769933491945 459.411472082138 2641.00003242493 160 161 156
26.4901146292686 459.757745265961 2642.99988746643 162 163 158
33.7140448391438 460.103452205658 2644.99998092651 164 165 160
41.0415716469288 461.492389440537 2653.00011634827 165 165 163
48.3215600252151 462.010949850082 2655.99989891052 171 171 169
55.6804798543453 463.050842285156 2661.99994087219 171 171 169
63.0718991160393 464.090257883072 2667.99998283386 171 171 169
70.5748572945595 465.650916099548 2677.00004577637 174 174 172
78.0393406748772 466.689169406891 2683.00008773804 174 174 172
85.5680480599403 467.90087223053 2690.00005722046 172 172 170
93.1691080331802 469.285815954208 2697.99995422363 174 174 172
100.813448429108 470.670372247696 2706.00008964539 175 175 173
108.42103511095 471.706360578537 2711.99989318848 179 179 177
116.060934960842 472.741901874542 2717.99993515015 180 180 178
123.82397800684 474.124699831009 2726.0000705719 171 173 170
132.496759295464 478.637546300888 2752.00009346008 179 181 178
236.679270863533 401.173084974289 2308.00008773804 126 104 91
243.161290884018 401.504546403885 2309.99994277954 118 95 79
250.841289758682 403.74743938446 2322.99995422363 134 108 91
257.594883441925 404.425621032715 2326.99990272522 197 171 154
259.492605924606 397.630512714386 2288.00010681152 165 138 121
263.500362634659 394.311249256134 2269.00005340576 149 122 103
269.186854362488 393.598586320877 2265.00010490417 145 118 101
275.458633899689 393.754482269287 2266.00003242493 164 137 120
283.226370811462 395.995169878006 2279.00004386902 157 131 116
286.492228507996 391.98026061058 2256.00004196167 159 136 120
292.615622282028 391.961604356766 2256.00004196167 169 147 134
299.797594547272 393.332481384277 2263.99993896484 161 142 135
308.643728494644 396.78755402565 2283.99991989136 170 157 149
-318.331122398376 484.33443903923 2831.00008964539 203 208 204
-303.508073091507 473.234385251999 2766.00003242493 201 206 202
-295.243978500366 472.05662727356 2759.0000629425 176 178 175
-287.329941987991 471.391648054123 2755.00011444092 166 167 162
-280.147761106491 471.923917531967 2757.99989700317 164 163 159
-272.849589586258 472.284764051437 2759.99999046326 160 159 155
-265.635877847672 472.816318273544 2763.00001144409 158 159 154
-258.498460054398 473.518550395966 2766.99995994568 155 156 151
-251.247763633728 474.04932975769 2769.99998092651 151 152 147
-244.155943393707 474.921941757202 2775.00009536743 152 153 148
-237.803533673286 477.334529161453 2789.00003433228 146 147 142
-232.694983482361 482.485204935074 2819.00000572205 129 131 126
-190.077245235443 471.946060657501 2756.99996948242 212 214 211
-181.780636310577 469.904869794846 2744.99988555908 150 152 149
-173.421785235405 467.520713806152 2730.99994659424 157 159 154
-165.077745914459 464.964747428894 2716.00008010864 175 176 171
-157.279267907143 463.777780532837 2709.00011062622 161 162 157
-149.463057518005 462.418973445892 2700.99997520447 161 162 157
-141.637280583382 460.88844537735 2691.99991226196 165 166 160
-133.860021829605 459.357380867004 2683.00008773804 186 187 181
-126.319989562035 458.510518074036 2677.99997329712 167 168 162
-118.717856705189 457.320749759674 2671.0000038147 198 199 194
-111.070021986961 455.787986516953 2661.99994087219 155 156 151
-103.587791323662 454.768300056458 2655.99989891052 146 147 142
-96.2467566132545 454.261869192123 2653.00011634827 174 175 170
-88.9217033982277 453.754812479019 2650.00009536743 173 174 169
-81.6126987338066 453.247219324112 2647.0000743866 160 161 156
-74.3197500705719 452.739119529724 2644.00005340576 160 161 156
-67.093662917614 452.572971582413 2642.99988746643 157 158 153
-59.9181205034256 452.7488052845 2644.00005340576 156 157 152
-52.7169778943062 452.752858400345 2644.00005340576 154 155 150
-45.5328710377216 452.927619218826 2644.99998092651 152 153 148
-38.2851995527744 452.416896820068 2641.99995994568 151 152 147
-31.100807711482 452.590644359589 2642.99988746643 147 148 143
-23.883730173111 452.250212430954 2641.00003242493 148 149 144
-16.677463427186 451.909154653549 2638.99993896484 152 153 148
-9.478441439569 451.396405696869 2635.99991798401 153 154 149
-2.30095977894962 451.910525560379 2638.99993896484 154 155 150
4.88916924223304 452.081739902496 2640.00010490417 155 156 151
12.0847281068563 452.252298593521 2641.00003242493 156 157 152
19.2710943520069 452.079951763153 2640.00010490417 160 161 156
26.5020653605461 452.763289213181 2644.00005340576 162 163 158
33.7674766778946 453.6172747612 2648.9999294281 165 166 161
41.0600192844868 454.470783472061 2654.00004386902 168 168 166
48.3432598412037 454.981237649918 2657.00006484985 174 174 172
55.6845143437386 455.833703279495 2661.99994087219 174 174 172
63.100092113018 457.028061151505 2668.99991035461 174 174 172
70.579968392849 458.393186330795 2677.00004577637 177 177 175
78.0158936977386 459.243983030319 2681.99992179871 177 177 175
85.478775203228 460.094213485718 2687.00003623962 171 171 169
93.1067690253258 461.628943681717 2696.00009918213 167 167 165
100.746177136898 462.991744279861 2703.9999961853 161 161 159
108.468808233738 464.525312185287 2713.00005912781 163 163 161
116.069249808788 465.373337268829 2717.99993515015 170 170 168
123.83284419775 466.73458814621 2726.0000705719 185 187 184
132.121026515961 469.807267189026 2743.99995803833 186 188 185
242.756515741348 394.560128450394 2305.99999427795 110 88 74
250.318109989166 396.596908569336 2318.00007820129 142 119 103
260.984271764755 393.654584884644 2301.00011825562 162 136 121
264.330685138702 389.360398054123 2276.00002288818 147 120 103
270.274132490158 389.000773429871 2273.9999294281 145 118 101
277.907967567444 391.035705804825 2286.00001335144 171 143 129
283.617585897446 390.333354473114 2282.00006484985 150 124 109
286.0027551651 385.183662176132 2252.00009346008 154 128 113
291.856110095978 384.823054075241 2250 164 142 129
299.419432878494 386.68555021286 2260.99991798401 149 130 123
308.528184890747 390.428721904755 2282.99999237061 162 147 140
-314.641088247299 471.105396747589 2798.00009727478 205 210 206
-303.308606147766 465.400844812393 2763.99993896484 199 204 200
-295.049518346787 464.241862297058 2756.99996948242 184 186 183
-287.453383207321 464.092761278152 2756.00004196167 168 169 164
-280.166476964951 464.44833278656 2757.99989700317 159 158 154
-272.769063711166 464.635193347931 2759.0000629425 162 161 157
-265.653759241104 465.326845645905 2763.00001144409 157 158 153
-258.515924215317 466.018110513687 2766.99995994568 158 159 154
-251.446217298508 466.877430677414 2772.0000743866 153 154 149
-244.084566831589 467.231005430222 2773.9999294281 151 152 147
-237.649217247963 469.437003135681 2786.99994087219 142 143 138
-232.380747795105 474.169373512268 2815.00005722046 127 129 124
-190.228387713432 464.808344841003 2759.0000629425 204 206 203
-181.793317198753 462.462604045868 2744.99988555908 148 150 147
-173.179909586906 459.442436695099 2726.99999809265 169 171 166
-164.906963706017 457.095503807068 2713.00005912781 169 170 165
-157.290324568748 456.432789564133 2709.00011062622 156 157 152
-149.639591574669 455.601036548615 2703.9999961853 158 159 154
-141.805112361908 454.09482717514 2694.9999332428 168 169 163
-133.969262242317 452.419549226761 2684.99994277954 191 192 186
-126.328930258751 451.249241828918 2677.99997329712 180 181 175
-118.770748376846 450.246900320053 2671.99993133545 195 196 191
-111.244820058346 449.24396276474 2665.99988937378 147 148 143
-103.790193796158 448.409020900726 2661.00001335144 145 146 141
-96.3261723518372 447.405070066452 2654.99997138977 181 182 177
-88.9280512928963 446.569055318832 2650.00009536743 170 171 166
-81.5877020359039 445.901036262512 2645.99990844727 162 163 158
-74.3250697851181 445.569545030594 2644.00005340576 161 162 157
-67.1238526701927 445.574581623077 2644.00005340576 156 157 152
-59.9224120378494 445.579141378403 2644.00005340576 154 155 150
-52.7606420218945 445.920199155808 2645.99990844727 152 153 148
-45.5877892673016 446.260780096054 2648.00000190735 151 152 147
-38.3749045431614 446.263790130615 2648.00000190735 151 152 147
-31.1618857085705 446.266263723373 2648.00000190735 146 147 142
-23.9216238260269 445.762634277344 2644.99998092651 146 147 142
-16.6913047432899 445.089995861053 2641.00003242493 151 152 147
-9.49350744485855 444.922417402267 2640.00010490417 152 153 148
-2.30286922305822 445.091336965561 2641.00003242493 153 154 149
4.89322515204549 445.259749889374 2641.99995994568 154 155 150
12.0901744812727 445.259183645248 2641.99995994568 155 156 151
19.2797835916281 445.089548826218 2641.00003242493 159 160 155
26.5240184962749 445.930540561676 2645.99990844727 162 163 158
33.7826572358608 446.602493524551 2650.00009536743 165 166 161
41.0784408450127 447.442471981049 2654.99997138977 167 167 165
48.3285300433636 447.607755661011 2655.99989891052 173 173 171
55.6675940752029 448.446720838547 2661.00001335144 173 173 171
63.0809813737869 449.622094631195 2667.99998283386 174 174 172
70.5322772264481 450.797021389008 2674.99995231628 177 177 175
77.9923871159554 451.802879571915 2680.99999427795 176 176 174
85.4530856013298 452.639698982239 2686.00010871887 172 172 170
93.1479558348656 454.48699593544 2697.00002670288 173 173 171
100.753366947174 455.659717321396 2703.9999961853 172 172 170
108.39655995369 456.831872463226 2710.99996566772 172 172 170
115.863978862762 457.160979509354 2713.00005912781 175 175 173
123.796187341213 459.174573421478 2724.99990463257 186 188 185
131.93778693676 461.693078279495 2740.00000953674 185 187 184
244.983494281769 391.846060752869 2326.99990272522 107 89 79
251.630574464798 392.334818840027 2329.99992370605 156 138 126
264.580219984055 383.528798818588 2278.00011634827 138 116 103
271.242618560791 384.184896945953 2282.00006484985 142 118 106
279.506415128708 387.029081583023 2299.00002479553 182 155 144
283.88437628746 384.485840797424 2283.99991989136 146 120 107
286.656022071838 379.92262840271 2256.99996948242 146 120 107
292.134135961533 379.062622785568 2252.00009346008 154 130 118
299.570798873901 380.727142095566 2262.00008392334 135 112 106
309.088170528412 384.915769100189 2286.99994087219 152 133 127
-316.573351621628 466.337084770203 2815.00005722046 205 210 206
-303.438186645508 458.073914051056 2765.00010490417 199 204 200
-295.496940612793 457.430750131607 2760.99991798401 184 186 183
-287.680894136429 456.952750682831 2757.99989700317 169 170 165
-280.388206243515 457.302838563919 2759.99999046326 160 159 155
-272.886037826538 457.321107387543 2759.99999046326 162 161 157
-265.671491622925 457.836031913757 2763.00001144409 156 157 152
-258.533239364624 458.516269922256 2766.99995994568 156 157 152
-251.372396945953 459.196150302887 2770.99990844727 148 149 144
-244.101017713547 459.709882736206 2773.9999294281 146 147 142
-237.665325403214 461.880534887314 2786.99994087219 151 152 147
-232.148841023445 466.039597988129 2812.00003623962 111 113 108
-199.75608587265 461.954742670059 2786.99994087219 214 216 213
-190.793111920357 458.653002977371 2766.99995994568 178 180 177
-182.137072086334 455.847889184952 2750 158 160 157
-173.255398869514 452.213257551193 2727.9999256134 179 181 176
-164.918422698975 449.738413095474 2713.00005912781 160 161 156
-157.359346747398 449.252277612686 2710.00003814697 159 160 155
-149.871408939362 448.931336402893 2707.99994468689 157 158 153
-142.183393239975 447.946816682816 2701.99990272522 188 189 183
-134.228155016899 445.967018604279 2690.00005722046 160 161 155
-126.432150602341 444.318175315857 2680.0000667572 187 188 182
-118.823550641537 443.166255950928 2673.00009727478 158 159 154
-111.33611947298 442.345321178436 2667.99998283386 152 153 148
-103.992536664009 442.021250724792 2665.99988937378 166 167 162
-96.4418277144432 440.701931715012 2657.99999237061 165 166 161
-88.9678969979286 439.547777175903 2651.00002288818 162 163 158
-81.5934762358665 438.724726438522 2645.99990844727 161 162 157
-74.3022337555885 438.232868909836 2642.99988746643 160 161 156
-67.0778453350067 438.071995973587 2641.99995994568 157 158 153
-59.8813369870186 438.076466321945 2641.99995994568 157 158 153
-52.764393389225 438.743740320206 2645.99990844727 155 156 151
-45.608252286911 439.24468755722 2648.9999294281 151 152 147
-38.3921265602112 439.247608184814 2648.9999294281 146 147 142
-31.1641059815884 439.08429145813 2648.00000190735 146 147 142
-23.9233281463385 438.58876824379 2644.99998092651 147 148 143
-16.705134883523 438.258588314056 2642.99988746643 149 150 145
-9.49418544769287 437.7621114254 2640.00010490417 150 151 146
-2.30390555225313 438.094168901443 2641.99995994568 153 154 149
4.89542633295059 438.259840011597 2642.99988746643 156 157 152
12.1047645807266 438.590854406357 2644.99998092651 157 158 153
19.3103589117527 438.589751720428 2644.99998092651 156 157 152
26.5559833496809 439.25142288208 2648.9999294281 161 162 157
33.8105596601963 439.746737480164 2651.99995040894 165 166 161
41.1123111844063 440.573185682297 2657.00006484985 169 171 168
48.4047643840313 441.067457199097 2660.00008583069 174 176 173
55.7761527597904 442.058593034744 2665.99988937378 175 177 174
63.1091073155403 442.551910877228 2668.99991035461 171 173 170
70.5900266766548 443.873673677444 2677.00004577637 178 180 177
78.0270099639893 444.697469472885 2681.99992179871 176 178 175
85.5545774102211 445.852309465408 2688.99989128113 174 176 173
93.1200012564659 447.006672620773 2696.00009918213 172 174 171
100.723206996918 448.160499334335 2703.00006866455 173 175 172
108.324237167835 449.147939682007 2709.00011062622 175 177 174
115.829423069954 449.637472629547 2711.99989318848 180 182 179
123.71402233839 451.452821493149 2723.00004959106 180 182 179
131.850734353065 453.930765390396 2737.99991607666 181 183 180
264.481157064438 377.188324928284 2276.99995040894 125 105 94
271.497786045074 378.330647945404 2283.99991989136 144 122 111
281.226515769959 383.116573095322 2312.99996376038 189 165 155
284.026771783829 378.460943698883 2285.00008583069 137 110 99
287.81732916832 375.295996665955 2266.00003242493 144 117 106
292.930901050568 373.952805995941 2257.99989700317 150 123 112
300.781548023224 376.087129116058 2270.99990844727 137 114 108
309.648096561432 379.380166530609 2290.99988937378 140 121 115
-316.368788480759 458.379209041595 2812.99996376038 205 210 206
-303.787052631378 451.066225767136 2767.99988746643 200 205 201
-295.409142971039 449.781864881516 2759.99999046326 185 187 184
-287.699669599533 449.474781751633 2757.99989700317 171 171 169
-280.508160591125 449.982196092606 2760.99991798401 161 160 158
-273.00289273262 450.000315904617 2760.99991798401 161 160 158
-265.689045190811 450.34396648407 2763.00001144409 154 154 152
-258.456945419312 450.85021853447 2766.00003242493 155 155 153
-251.389116048813 451.682031154633 2770.99990844727 143 143 141
-244.205340743065 452.350527048111 2775.00009536743 144 144 142
-237.851828336716 454.648733139038 2789.00003433228 134 134 132
-232.24700987339 458.576858043671 2812.99996376038 100 102 99
-199.984714388847 454.885274171829 2789.99996185303 207 209 206
-191.012993454933 451.63768529892 2769.99998092651 153 155 152
-182.083293795586 448.22633266449 2749.00007247925 164 166 163
-173.330798745155 444.977402687073 2729.00009155273 181 183 178
-165.051341056824 442.706137895584 2714.99991416931 158 159 154
-157.312110066414 441.738814115524 2709.00011062622 163 164 159
-149.660363793373 440.934062004089 2703.9999961853 158 159 154
-141.982734203339 439.965635538101 2697.99995422363 182 183 177
-134.237468242645 438.670605421066 2690.00005722046 152 153 147
-126.535296440125 437.374979257584 2681.99992179871 171 172 166
-118.920728564262 436.241924762726 2674.99995231628 148 149 144
-111.385606229305 435.271382331848 2668.99991035461 158 159 154
-103.921793401241 434.46347117424 2664.00003433228 172 173 168
-96.412293612957 433.328807353973 2657.00006484985 158 159 154
-88.9741256833076 432.356715202332 2651.00002288818 163 164 159
-81.6300436854362 431.710302829742 2647.0000743866 160 161 156
-74.3355676531792 431.226462125778 2644.00005340576 159 160 155
-67.1079456806183 431.068241596222 2642.99988746643 157 158 153
-59.9308907985687 431.235820055008 2644.00005340576 156 157 152
-52.7681075036526 431.565999984741 2645.99990844727 155 156 151
-45.6286855041981 432.221859693527 2650.00009536743 151 152 147
-38.3948348462582 432.061642408371 2648.9999294281 147 148 143
-31.1663039028645 431.901007890701 2648.00000190735 146 147 142
-23.9431075751781 431.739836931229 2647.0000743866 146 147 142
-16.7189557105303 431.415051221848 2644.99998092651 149 150 145
-9.50564350932837 431.089758872986 2642.99988746643 150 151 146
-2.30319611728191 430.763959884644 2641.00003242493 151 152 147
4.89391945302486 430.926948785782 2641.99995994568 154 155 150
12.1010430157185 431.252598762512 2644.00005340576 155 156 151
19.3190220743418 431.577652692795 2645.99990844727 157 158 153
26.5478305518627 431.902319192886 2648.00000190735 161 162 157
33.800195902586 432.38952755928 2651.00002288818 165 166 161
41.0997346043587 433.202385902405 2655.99989891052 168 170 167
48.4081730246544 433.851689100266 2660.00008583069 175 177 174
55.8219216763973 435.152798891068 2667.99998283386 174 176 173
63.1608366966248 435.637950897217 2671.0000038147 170 172 169
70.6213563680649 436.774969100952 2677.99997329712 180 182 179
78.0324786901474 437.422156333923 2681.99992179871 176 178 175
85.5923891067505 438.721209764481 2690.00005722046 177 179 176
93.1955948472023 440.019726753235 2697.99995422363 175 177 174
100.767515599728 440.991520881653 2703.9999961853 175 177 174
108.331792056561 441.799700260162 2709.00011062622 181 183 180
115.880206227303 442.444264888763 2713.00005912781 182 184 181
123.677179217339 443.903625011444 2721.99988365173 182 184 181
131.667241454124 445.851802825928 2733.99996757507 183 185 182
265.311181545258 372.15581536293 2283.99991989136 133 120 112
276.259034872055 370.166331529617 2272.0000743866 197 177 168
283.920377492905 372.103720903397 2283.99991989136 136 112 100
288.59755396843 370.130866765976 2272.0000743866 135 111 99
294.376313686371 369.623959064484 2269.00005340576 133 109 97
302.124798297882 371.560275554657 2280.99989891052 127 107 100
311.559557914734 375.450760126114 2305.0000667572 136 121 114
-317.40128993988 452.19361782074 2822.00002670288 204 209 205
-303.587019443512 443.239778280258 2766.00003242493 200 205 201
-295.4281270504 442.297369241714 2759.99999046326 186 188 185
-287.718266248703 441.995561122894 2757.99989700317 174 174 172
-280.526369810104 442.494601011276 2760.99991798401 161 160 158
-273.020684719086 442.512542009354 2760.99991798401 159 158 156
-265.706419944763 442.85061955452 2763.00001144409 151 151 149
-258.47390294075 443.348497152328 2766.00003242493 152 152 150
-251.31493806839 444.006323814392 2769.99998092651 150 150 148
-244.309484958649 444.984376430511 2776.00002288818 141 141 139
-237.952888011932 447.244435548782 2789.99996185303 135 135 133
-232.510179281235 451.427966356277 2815.99998474121 117 119 116
-199.711471796036 446.675956249237 2786.00001335144 149 151 148
-191.232785582542 444.604724645615 2773.00000190735 133 135 132
-182.095617055893 440.769255161285 2749.00007247925 175 177 174
-173.406079411507 437.734752893448 2730.00001907349 183 185 180
-165.062576532364 435.341030359268 2714.99991416931 158 159 154
-157.206699252129 434.069186449051 2707.00001716614 155 156 151
-149.504542350769 433.1174492836 2700.99997520447 179 180 175
-141.887217760086 432.325631380081 2696.00009918213 159 160 154
-134.096950292587 430.891782045364 2687.00003623962 169 170 164
-126.543998718262 430.098831653595 2681.99992179871 144 145 139
-118.97337436676 429.145067930222 2676.00011825562 149 150 145
-111.393287777901 428.030371665955 2668.99991035461 163 164 159
-103.850953280926 426.915168762207 2661.99994087219 165 166 161
-96.3826775550842 425.959825515747 2655.99989891052 172 173 168
-89.0138670802116 425.324678421021 2651.99995040894 174 175 170
-81.7590653896332 425.17015337944 2651.00002288818 155 156 151
-74.4250789284706 424.534052610397 2647.0000743866 155 156 151
-67.112609744072 423.897415399551 2642.99988746643 154 155 150
-59.9123872816563 423.901796340942 2642.99988746643 154 155 150
-52.7717806398869 424.38679933548 2645.99990844727 154 155 150
-45.6146448850632 424.871444702148 2648.9999294281 151 152 147
-38.3830182254314 424.713909626007 2648.00000190735 150 151 146
-31.1449337750673 424.395561218262 2645.99990844727 148 149 144
-23.9266864955425 424.237102270126 2644.99998092651 147 148 143
-16.7138036340475 424.078106880188 2644.00005340576 149 150 145
-9.5027107745409 423.758208751678 2641.99995994568 151 152 147
-2.30248481966555 423.437893390656 2640.00010490417 150 151 146
4.89611318334937 423.918902873993 2642.99988746643 152 153 148
12.1110426262021 424.399554729462 2645.99990844727 154 155 150
19.3203706294298 424.398452043533 2645.99990844727 157 158 153
26.5296325087547 424.396872520447 2645.99990844727 160 161 156
33.7770469486713 424.875915050507 2648.9999294281 165 166 161
41.1025993525982 425.996065139771 2655.99989891052 164 166 163
48.4479442238808 426.955312490463 2661.99994087219 174 176 173
55.8676645159721 428.234845399857 2670.00007629395 171 173 170
63.2125362753868 428.711861371994 2673.00009727478 166 168 165
70.6526339054108 429.6695291996 2678.99990081787 178 180 177
78.0669972300529 430.305957794189 2683.00008773804 173 175 172
85.6301411986351 431.583315134048 2690.99998474121 180 182 179
93.098409473896 432.218641042709 2694.9999332428 176 178 175
100.737221539021 433.495044708252 2703.00006866455 173 175 172
108.379274606705 434.610486030579 2710.00003814697 181 183 180
116.059057414532 435.725390911102 2717.00000762939 182 184 181
123.776577413082 436.839699745178 2723.99997711182 172 174 171
131.724432110786 438.594967126846 2734.99989509583 176 178 175
284.932613372803 367.192775011063 2292.00005531311 136 114 103
289.504677057266 365.0923371315 2279.00004386902 133 109 97
295.821696519852 365.23449420929 2279.99997138977 140 114 101
303.997784852982 367.618918418884 2295.00007629395 125 106 99
314.282089471817 372.40543961525 2325.00004768372 119 106 98
-313.034534454346 438.396573066711 2782.99999237061 203 208 204
-303.167194128037 435.107827186584 2762.00008392334 199 204 200
-295.125812292099 434.339016675949 2756.99996948242 186 188 185
-287.632346153259 434.357523918152 2756.99996948242 176 176 174
-280.137926340103 434.375554323196 2756.99996948242 161 160 158
-272.642701864243 434.393256902695 2756.99996948242 160 159 157
-265.338897705078 434.725672006607 2759.0000629425 153 153 151
-258.210331201553 435.372829437256 2763.00001144409 153 153 151
-251.240640878677 436.334788799286 2769.00005340576 153 153 151
-244.501486420631 437.769055366516 2778.00011634827 127 127 125
-238.139092922211 439.991056919098 2792.00005531311 134 134 132
-233.020931482315 444.734245538712 2822.00002670288 114 116 113
-199.509680271149 438.644558191299 2782.99999237061 147 149 146
-190.969705581665 436.450868844986 2769.00005340576 135 137 134
-182.041555643082 433.153182268143 2747.99990653992 170 172 169
-173.354223370552 430.170118808746 2729.00009155273 175 177 172
-165.195286273956 428.289890289307 2717.00000762939 156 157 152
-157.217293977737 426.724284887314 2707.00001716614 152 153 148
-149.348601698875 425.315886735916 2697.99995422363 173 174 169
-141.581013798714 424.064517021179 2690.00005722046 157 158 152
-133.956328034401 423.127949237823 2684.00001525879 175 176 170
-126.505434513092 422.663778066635 2680.99999427795 144 145 139
-118.98148804903 421.883791685104 2676.00011825562 151 152 147
-111.40089482069 420.788019895554 2668.99991035461 158 159 154
-103.780031204224 419.376462697983 2660.00008583069 159 160 155
-96.3892638683319 418.752551078796 2655.99989891052 175 176 171
-89.1542285680771 418.758898973465 2655.99989891052 167 168 163
-81.9188877940178 418.764710426331 2655.99989891052 153 154 149
-74.5707824826241 418.139427900314 2651.99995040894 153 154 149
-67.2188103199005 417.355924844742 2647.0000743866 153 154 149
-59.9845238029957 417.202591896057 2645.99990844727 154 155 150
-52.7953654527664 417.364150285721 2647.0000743866 154 155 150
-45.6350110471249 417.840510606766 2650.00009536743 151 152 147
-38.400162011385 417.685687541962 2648.9999294281 152 153 148
-31.1706271022558 417.530387639999 2648.00000190735 149 150 145
-23.9554792642593 417.532354593277 2648.00000190735 149 150 145
-16.7339239269495 417.376071214676 2647.0000743866 150 151 146
-9.51775535941124 417.219221591949 2645.99990844727 152 153 148
-2.30613281019032 416.904330253601 2644.00005340576 151 152 147
4.90015698596835 417.061865329742 2644.99998092651 150 151 146
12.1164564043283 417.376667261124 2647.0000743866 151 152 147
19.329009577632 417.375594377518 2647.0000743866 155 156 151
26.5214368700981 417.058646678925 2644.99998092651 156 157 152
33.7793789803982 417.687267065048 2648.9999294281 165 166 161
41.1054342985153 418.788462877274 2655.99989891052 158 160 157
48.4512820839882 419.731438159943 2661.99994087219 168 170 167
55.8296591043472 420.673936605453 2667.99998283386 171 173 170
63.2405281066895 421.615898609161 2674.00002479553 165 167 164
70.6838741898537 422.557353973389 2680.0000667572 171 173 170
78.1305581331253 423.34058880806 2684.99994277954 171 173 170
85.6678411364555 424.438655376434 2691.99991226196 174 176 173
93.1738838553429 425.220906734467 2697.00002670288 178 180 177
100.781381130219 426.317930221558 2703.9999961853 181 183 180
108.346678316593 427.099168300629 2709.00011062622 175 177 174
116.066977381706 428.352773189545 2717.00000762939 167 169 166
123.739570379257 429.290592670441 2723.00004959106 165 167 164
131.685242056847 431.016147136688 2733.99996757507 176 178 175
141.166150569916 437.31290102005 2773.9999294281 189 191 188
291.428059339523 361.274808645248 2293.99991035461 124 102 89
