ply
format ascii 1.0
comment KinectMotionCapture
element vertex 801
property float x
property float y
property float z
property uchar red
property uchar green
property uchar blue
end_header
27.2605058718787 224.927741524399 2936.64545604967 29 30 24
19.4590966598005 225.450809260201 2940.06399574522 25 22 15
12.5093132568659 226.016980213923 2944.04739710387 32 29 22
5.55285220976742 226.583979952886 2948.0376448098 77 72 66
0.321708645481866 227.234463343679 2953.13610653856 32 25 19
-14.4574482070476 227.43291563225 2952.19534274475 24 19 13
-25.7981355077823 227.799909132307 2953.48353049349 22 25 18
-51.1159206682921 227.52053684148 2946.0744773246 24 27 20
-59.9182301195764 228.018958589082 2949.07365910228 27 30 23
-58.2254508758608 229.000636511585 2958.58390078889 26 29 22
-55.6235608526956 230.018257507046 2968.60264113763 32 37 30
-61.7824343839466 230.635062282882 2973.21042080482 34 39 33
-70.5891231021143 231.134036106658 2976.21386966264 34 39 33
-100.614983102544 230.694982601944 2966.41838294902 35 40 34
-136.060497322256 230.035764022821 2953.53543954591 44 51 44
189.666910835723 191.316728165055 2723.66076139601 125 111 98
199.317683787176 193.002989047277 2740.75147665723 160 138 125
197.185285022916 193.878151860802 2748.40760658401 173 149 137
183.182108619829 193.953187013207 2746.71452373163 163 139 127
165.959601995893 193.821532432546 2742.5811947604 119 95 85
153.457630121972 194.013229836905 2742.21430746621 69 49 40
148.904510695123 194.733809869347 2748.04603026816 67 52 45
144.356427773229 195.453668221371 2753.87319625228 46 36 27
132.593156672905 195.704975138505 2754.18086722767 35 26 19
111.954328092724 195.390768470791 2747.79866462539 20 21 13
118.649256925475 196.836605328621 2762.19213624482 21 24 15
99.5467726965895 196.634697319862 2757.10187977504 22 25 16
94.1485199552154 197.308082882408 2762.362898456 20 23 14
125.286727455202 200.266100643475 2794.77065345321 18 21 12
121.605241242493 201.029251840427 2801.14744890661 19 22 13
113.853698093013 201.539767728886 2804.51832602239 26 29 20
111.815485528163 202.401884869992 2812.08285580553 27 30 21
116.351109007389 203.660338186484 2824.39717897183 22 25 16
93.8214379788538 203.277153656772 2817.068987135 26 29 20
100.035073937252 204.63022131587 2830.53685378082 28 31 22
109.605835223826 206.172653376197 2846.3110324854 27 30 23
120.902476047334 207.803897288719 2863.19275526307 25 28 21
109.884631104708 208.113125571323 2864.16855560965 22 25 18
102.16612550653 208.61900650518 2867.50764883486 23 26 19
88.6039404676953 208.789324653781 2866.77948157122 27 30 23
100.894615266781 210.448379940366 2884.0869127254 29 32 25
98.1994697530419 211.239775984894 2890.8973298675 27 30 23
95.5169948897638 212.029515723777 2897.69540966763 26 29 22
86.1190408430188 212.440473440375 2899.88175531972 24 27 20
88.5037784422686 213.510363869455 2910.10874367804 25 28 21
101.907278193698 215.182468801967 2927.72610378972 29 32 25
90.8398420391983 215.497396012052 2928.75030664378 28 30 25
72.1080844337458 215.399910792754 2924.69372667362 28 30 25
65.2243294558024 215.953180359201 2928.61346764958 28 30 25
61.7442521580434 216.690094789584 2934.7944766977 25 30 23
49.727428203616 216.97123582391 2935.34951993592 24 29 22
36.8242247850801 217.21087598479 2935.37397557835 23 28 21
23.8872604970908 217.454737088482 2935.43167025172 20 23 16
20.3797215207566 218.194912775711 2941.63912929828 31 32 24
18.6056507202474 219.023017357658 2948.94672728807 32 32 24
6.47739186255381 219.317926430243 2949.61039212251 22 19 12
-0.48416654579686 219.880680026793 2953.60599131951 24 19 13
-15.2648037029257 220.050249004122 2952.67130427282 27 24 17
-30.957284908133 220.181459279203 2951.23051408514 23 26 19
-54.5422709104186 219.928623517489 2944.93100012668 27 30 23
-73.8383449440549 219.901054043136 2941.42412335327 29 32 25
-70.4252191047465 220.994380718755 2952.04335243755 27 30 23
-63.4617338265215 222.253126051662 2964.78088626459 31 36 29
-66.9992463868701 222.996969818868 2971.01756738256 31 36 30
-90.8039578783684 222.771487504508 2964.93220125545 32 37 31
-105.854189416686 222.974569682355 2964.25993433623 35 40 34
180.291070163826 183.216909601995 2717.16399624927 128 114 101
194.649380878743 185.296264273683 2738.02408942106 155 136 122
196.457520702665 186.464884417803 2748.8087178432 173 151 138
190.37723637389 187.069865289075 2753.3402048385 171 147 135
172.377947926965 186.840212918407 2748.5754685713 133 111 100
160.688142514934 187.061458768966 2748.8149678867 89 66 58
149.766305068425 187.341595092355 2749.70006899123 64 49 42
142.819187102676 187.899557687033 2753.68203672324 48 38 29
124.63484812714 187.692644187563 2749.09769757127 30 21 14
119.255125999027 188.364445524405 2754.34054922719 22 23 15
111.458070763999 188.873438397644 2757.75684561771 22 25 16
87.4904456538714 188.30441562127 2749.04987377503 22 25 16
103.931419819611 190.432408118805 2770.66881918073 20 23 14
96.9334565205666 190.996213000689 2774.70041359284 17 20 11
111.90195634753 192.998186630893 2794.96601684025 18 21 12
112.284715207624 194.033953469178 2804.35188665563 26 29 20
111.877741789598 195.013365476866 2813.1130543572 27 30 21
113.134524397669 196.094728186776 2823.04151378018 22 25 16
111.958373092692 197.015203231666 2831.15828803367 25 28 19
96.8030278450791 197.048648700655 2829.19890133741 26 29 20
101.412759721399 198.330522326075 2841.43583441645 22 25 18
109.379791683713 199.812582918992 2855.97764428858 22 25 18
99.9938337693265 200.209418079029 2858.15450275358 21 24 17
97.2395738243956 201.016956967701 2865.02123549441 22 25 18
92.8314199880131 201.721222497538 2870.7114165984 27 30 23
86.7579109649736 202.323698106725 2875.2365458916 29 32 25
83.1925335557462 203.077474911869 2881.49942911775 27 30 23
80.4750736886781 203.880212401725 2888.33032848191 26 29 22
75.2472752476279 204.531777791658 2893.42530853485 25 28 21
91.9356980840131 206.473075101664 2913.40888006012 25 28 21
99.4326381382593 207.858597387308 2927.01485714813 29 32 25
89.2064413361098 208.205032095626 2928.61628725474 28 30 25
77.260471052512 208.456417532075 2929.10536961479 28 30 25
69.5377689087859 208.954739702551 2932.4494094117 28 30 25
64.3620978450636 209.599586186235 2937.49361925978 25 30 23
56.6240022425029 210.09981379557 2940.85300120784 22 27 20
48.0184776558494 210.553391321109 2943.66306282037 21 26 19
29.098337332913 210.43657063778 2939.79640744662 23 26 19
16.1391016803574 210.659406919555 2939.87898753173 26 27 19
9.18158357094034 211.21686732618 2943.87135698332 31 32 24
4.80978661334763 211.916033516526 2949.52618884937 20 20 12
-12.5486104044508 211.913799318118 2946.92558208982 32 29 22
-21.2799009628584 212.382975358417 2949.85856355978 23 23 15
-39.5955248376261 212.34531003377 2946.79648676488 25 28 21
-66.6868535284837 211.854785081122 2938.34597817519 28 31 24
-80.7666672413965 212.062534338174 2938.12662937737 30 33 26
-77.369268860068 213.185352667323 2948.75711720641 28 31 24
-73.0547334336524 214.34851432524 2959.88782098325 30 35 28
-88.9277925868095 214.470448838133 2958.62805616291 31 36 30
-105.728062495767 214.553278784849 2956.87755780786 32 37 31
-190.829697154273 212.167035923137 2922.70825812972 44 51 44
-87.2136998011532 218.276602032167 2993.20539606259 102 109 102
186.827488604522 177.320279578593 2732.80008442967 109 89 78
189.406552370425 178.574957694004 2744.22370181021 129 107 96
186.478370840474 179.414299440404 2751.25844080752 150 126 116
178.796452231101 179.901774964389 2754.56358508155 163 141 130
168.714791425217 180.216138310676 2756.02622894053 157 134 126
151.426377349177 180.01223929031 2751.96868689817 29 14 7
139.682026579404 180.218955765889 2752.26449799541 34 21 13
119.083837543178 179.797948838865 2745.85772475691 32 21 15
132.988387664049 181.843651468623 2765.75613550379 25 25 17
98.6254781021785 180.46277881448 2749.0706533513 22 25 16
85.938975483951 180.629261209059 2748.8910724235 19 22 13
70.788533092387 180.630641764121 2746.93121845698 18 21 12
95.3733276500577 183.390648114032 2774.53958731552 18 21 12
119.288988879941 186.076591748589 2801.40645257943 18 21 12
124.583470723624 187.463790001825 2814.36509904413 26 29 20
122.570136560107 188.345407483406 2821.90204206516 27 30 21
124.671466382071 189.500972562006 2832.39779586008 22 25 16
116.128482128215 189.937335772378 2835.14863610788 25 28 19
105.100424422489 190.211270454613 2836.14013209989 23 26 17
99.8241270221358 190.869841812484 2841.28223685737 20 23 16
97.8583081344175 191.745211249948 2848.77291996532 21 24 17
99.2262031821678 192.834471686073 2858.58953797068 23 26 19
96.4698235897683 193.650909351965 2865.45706031739 24 27 20
98.7252801151395 194.786823177529 2875.80266846403 24 27 20
96.0057847598361 195.598544659338 2882.63426126801 24 27 20
84.9282197995294 195.878285622556 2883.67406052988 27 30 23
76.3415328923442 196.319612785141 2886.46756448851 26 29 22
76.9905306392786 197.340826056815 2895.5912061643 23 26 19
93.6822618329427 199.352417289872 2915.56110303076 23 26 19
96.1136576011392 200.466075762988 2925.73495239779 27 30 23
89.2668920310911 201.005145723447 2929.62039888247 26 27 22
73.077813591095 200.977526804969 2927.27930265771 26 27 22
63.6441290620011 201.366814128747 2929.50433208156 25 27 22
70.390673582108 202.729398230311 2942.44194396372 23 28 21
68.6473497222102 203.576416418982 2949.71587652216 22 27 20
59.2126030047098 203.96575656635 2951.94195290749 21 26 19
24.8676165702726 202.896254898387 2938.02680880616 20 25 18
13.6194785762429 203.196865387916 2939.23290510518 22 25 16
1.48297255761776 203.450784115104 2939.91081784748 31 34 25
-8.95506980987726 203.807769568862 2941.72139217855 22 23 15
-15.9513186658513 204.365196075588 2945.75222684441 33 33 25
-22.0862398014852 204.972656864729 2950.33760246583 20 21 13
-34.3139009158948 205.237882862552 2951.10436235611 26 29 22
-53.5464432364243 205.117285900707 2947.54814707444 29 32 25
-64.9756586938053 205.440385010941 2948.93073216306 29 32 25
-72.0523516487308 206.007851283394 2953.04030297736 27 30 23
-83.5242537904284 206.336272759623 2954.46448993117 29 34 27
-102.938682275314 206.238362192437 2951.08553726025 32 37 31
-131.229245561757 205.673088572692 2942.41968701256 31 36 30
-129.582265355876 206.726885788228 2951.96441077877 42 47 41
-131.444974894191 207.588681707802 2959.35471093854 42 49 42
177.429337967476 169.166140119374 2726.33350201285 111 95 82
180.775112239059 170.512808691102 2738.39907769564 104 82 71
180.994945757931 171.608646084477 2747.93785638152 123 99 89
181.243093317867 172.700893634072 2757.44938722539 180 158 147
172.759806120575 173.120375447518 2760.14310463464 189 166 158
157.077914112733 172.996303683706 2757.31262047358 38 21 14
138.945968539876 172.697355780266 2752.69019438493 27 14 6
127.971518631 172.946884222294 2753.63172643185 24 20 11
87.2207265364464 170.984807539781 2732.0394575404 26 26 18
105.138222235181 173.396004371429 2754.98415639539 21 24 15
80.3481088653828 172.646058416907 2745.70375860217 16 19 10
82.1919006766016 173.858921796627 2756.44644494299 15 18 9
114.921461015071 177.305033319959 2790.0359794796 16 19 10
144.579206850582 180.493562197864 2821.04562887506 16 19 10
127.093419551243 180.273583987332 2817.18645785843 25 28 19
134.080105146797 181.805575530392 2831.27747707459 26 29 20
121.455561079475 181.94003865758 2831.04076498157 23 26 17
110.440192084249 182.19404179231 2832.0226067705 28 31 22
101.86911373451 182.623568196404 2834.8023553478 27 30 21
104.013630992962 183.79834344869 2845.25204628258 24 27 20
101.230088745385 184.626881187459 2852.14475316194 23 26 19
88.5077771274298 184.773317359205 2852.00369392321 23 26 19
93.2070656546391 186.109710156137 2864.14363801429 23 26 19
97.120874261905 187.383923001574 2875.65619397135 24 27 20
100.243107649205 188.596639814205 2886.54663775055 24 27 20
90.0123481562352 188.912521552921 2888.15711439215 25 28 21
78.9204107474766 189.175631891153 2889.21364370691 24 27 20
88.8249672328083 190.823405829091 2904.64078936122 21 24 17
103.857346006738 192.792397876272 2923.43058737384 21 24 17
98.7088319612654 193.435073873861 2928.44815069824 23 26 19
78.3203861077695 193.096031857721 2923.23823216039 24 25 20
62.1064532126296 193.03697576371 2920.92646317782 24 25 20
57.7512617915477 193.740748895237 2926.56412459675 22 24 19
66.1888609712236 195.251004123 2940.63448711106 20 25 18
66.1447008895557 196.217731476314 2949.03758843463 20 27 19
43.8585210195535 195.794981430943 2942.89036336156 20 27 19
20.6374420836486 195.328641436595 2936.26070229699 23 30 22
6.79909386294808 195.453578442606 2935.81381431043 34 42 31
-13.112309831679 195.214997132443 2931.53224712609 30 36 26
-28.7677842841179 195.246301796752 2930.06981253348 22 28 18
-34.0762861401256 195.908682420453 2935.24333378367 21 27 17
-23.7602077347416 197.504754388033 2950.26947361659 29 32 25
-22.0727014961768 198.575653491787 2959.77176462365 28 31 24
-23.8410000058109 199.43700209561 2967.06837934936 28 31 24
-43.0684768387488 199.273213169157 2963.51351771714 27 30 23
-55.3512603215882 199.524314233017 2964.3371025932 25 28 21
-75.5627035346507 199.323115405386 2960.34795397147 29 34 27
-96.7184453634102 199.079587006712 2955.88585480882 28 33 27
-96.7870514624782 200.049248746884 2964.31279768795 26 31 25
-131.285238997559 199.067801272463 2951.95367949066 40 45 39
-188.043725037129 196.859345276863 2926.45528242066 36 43 36
171.354298637421 162.326470995624 2731.96009666494 98 82 69
174.720057559422 163.700709028336 2744.00175254014 102 84 72
178.129460676785 165.069408161227 2756.00088773114 95 76 62
175.212498001185 165.924252274873 2763.02219499712 103 83 72
163.52778059195 166.081214595855 2763.26614292812 77 59 49
141.41065944815 165.422174228407 2755.56871648749 61 44 34
113.598371195739 164.333521173547 2743.6714686773 46 32 23
130.704250011556 166.762002606195 2766.00231327874 18 18 10
101.979066247742 165.62427484297 2753.60192810919 16 19 12
136.16014851128 169.342722459726 2788.54364739654 15 18 11
106.552857163437 168.151998416581 2775.6094559232 16 19 12
153.140224596183 172.765582547169 2819.35457882886 15 18 11
130.8082885995 172.133005536813 2811.86689328206 14 17 10
110.842766675831 171.693735833571 2806.25148079631 23 26 19
112.066611752528 172.84558906816 2816.2018913641 25 28 21
107.585744754123 173.56901816782 2821.96178318762 21 24 17
99.8235757093462 174.050239313863 2825.34754172465 26 29 22
106.872688272145 175.615254122645 2839.37135137325 24 27 18
105.727273386349 176.573856604474 2847.45230653159 27 28 20
104.602036081626 177.529847337373 2855.51327322701 27 29 18
98.5216975730641 178.12680053626 2860.04600051012 25 27 16
94.1007210625373 178.842405053182 2865.74723882175 22 23 15
98.8492808455344 180.20556644594 2877.83463728269 24 25 17
106.150623705464 181.738800064498 2891.61301360562 25 28 19
95.9335276413298 182.037303087476 2893.212490827 24 27 18
86.5330281576027 182.396755469478 2895.4089766016 23 26 19
93.0912872025713 183.859705936927 2908.5187246389 19 22 15
86.2192727806539 184.392234726789 2912.4298725469 18 21 12
80.1854080122402 184.983056441471 2916.91735694972 20 23 16
67.3749061536135 185.116343017945 2916.86547758611 23 24 18
53.6819923715086 185.196844625292 2916.28073858462 22 23 17
44.2039867408863 185.565780415603 2918.55278746523 20 23 16
56.0201529503166 187.349727594199 2934.89570653666 21 24 15
48.2628764470259 187.829714489267 2938.27712697142 21 27 17
30.2182823757247 187.638698181986 2934.96857878338 21 28 20
13.8332810900326 187.56635740032 2932.82864671252 27 32 25
16.3241281252544 188.722108212849 2942.93757670515 31 37 27
8.50461070930653 189.209762953149 2946.3793321401 21 27 17
-14.0152202791359 188.762718258484 2940.4677168202 26 32 22
-24.4870304886029 189.09266127632 2942.31548213576 18 24 14
-24.5655684693289 190.080322234706 2950.74962724361 30 33 26
-20.2707388169321 191.336654802574 2961.88612852555 29 32 25
-23.7787529715736 192.100708132671 2968.090868168 28 31 24
-31.6470792054773 192.594420175671 2971.58019621401 25 28 21
-76.3771132924553 191.824550318217 2960.84805022755 29 34 27
-77.3051098838824 192.7552776856 2968.7168878933 28 33 27
-75.5684016622231 193.842197974077 2978.1679526797 25 30 24
171.839367352749 157.149994658044 2752.08157901804 113 95 83
169.702886440282 158.081596652026 2759.73342089212 124 104 93
160.399303498022 158.417053845243 2761.83755142877 64 46 36
144.676018049213 158.228690878166 2759.05767377826 46 29 19
123.288608459617 157.587863695628 2752.05018823612 19 9 0
123.532815673646 158.718958134659 2761.55955250644 17 17 9
128.640924411474 160.23664324378 2774.68398432005 15 18 11
96.6369707308905 158.767669712328 2759.920111172 17 20 13
122.004609960833 161.897100561393 2788.11341223649 19 22 15
97.1902272521032 161.02130828798 2778.87571428657 18 21 14
117.038384892111 163.680128883014 2802.70045724479 17 20 13
104.381427707488 163.771158399919 2802.50268916703 23 26 19
99.0488008542902 164.43852633412 2807.69942977374 25 28 21
98.6342660215662 165.485673774266 2816.45809480455 21 24 17
99.0657827327306 166.592854364019 2825.78533027375 25 28 21
102.818943139806 167.947812408254 2837.4451403213 24 27 18
99.1875702713676 168.733874150814 2843.76912415638 24 25 17
98.8738870034993 169.768211824402 2852.42953537033 24 26 15
92.7799630650039 170.364681093809 2856.97582471076 23 25 14
94.9949218036501 171.580214792235 2867.34987997585 21 23 12
93.9130946404472 172.544686485602 2875.36648627676 23 25 14
97.0270870067904 173.813511722698 2886.25682071096 24 26 15
92.6478518679632 174.527047468505 2891.91725282891 26 28 17
79.8840365946574 174.630868299592 2891.82336802022 23 25 14
67.9271418037119 174.799563510523 2892.33552015678 19 21 10
62.6828273205513 175.455333887747 2897.4462793884 19 21 10
66.731586531751 176.772932885804 2908.81841494641 19 21 10
60.6638557854726 177.365812614111 2913.33922459237 19 23 9
51.1985954808987 177.720249593869 2915.60076009367 17 21 7
35.7610915076529 177.660815102963 2913.93495095855 18 22 8
37.3279120957308 178.791236252574 2923.54828726821 22 26 12
29.5279353883817 179.268997503929 2926.972100744 26 29 18
12.2975959237395 179.102084513394 2924.26867039468 25 28 17
1.880179163257 179.409668942449 2926.06572680097 25 28 19
3.48335510958275 180.535438877263 2935.64331130799 27 30 21
16.326475892197 182.411253788731 2952.37011845598 24 27 18
5.05728698351415 182.659468976721 2953.60452478513 26 29 22
-12.2998792673528 182.508338126891 2951.02470271588 29 32 25
-25.3706626050794 182.650223245135 2951.23001584796 30 33 24
-25.4272448710622 183.65189296795 2959.64028811724 29 32 23
-41.1520359366877 183.628249760147 2958.25480721771 28 31 22
-63.9122364943834 183.157838465801 2952.58533600662 23 26 17
-82.370663332997 182.97854711051 2949.68599693132 22 25 16
-78.0687118155981 184.26421811991 2960.81108988719 24 29 22
-70.2052860741746 185.767826212043 2974.03568823955 19 24 17
-69.3349232777387 186.819386731341 2982.93502583886 28 33 26
-147.057260161303 182.941524537847 2944.49259154739 29 34 27
-150.729358607201 183.732079100561 2950.85635244607 27 34 27
160.78430277538 148.771775959913 2744.45963681587 81 67 56
161.00913444047 149.924920129557 2753.98498235216 79 65 56
153.280452845321 150.387383834753 2757.34025969824 110 96 87
143.140633015497 150.645739159372 2758.86893428888 93 80 71
127.364051154784 150.429303444237 2756.14612990316 41 32 23
126.00991510119 151.442641520073 2764.42625836971 22 22 14
121.746574885201 153.326517357077 2779.71733242769 25 28 21
105.872780378557 153.122027254267 2777.08929608016 27 30 23
137.843293621141 156.877060445983 2809.96966995637 25 28 21
100.828631552835 154.934714742623 2791.7493369192 24 27 20
113.417919619487 157.068856879382 2810.10693237311 23 26 19
99.9307758899799 157.071296830542 2809.32939814625 24 27 20
97.8790617474141 158.002885983883 2816.89706726257 21 24 17
100.772669324297 159.327113749564 2827.99805858106 25 28 21
104.529611010309 160.711877300201 2839.6500463639 23 26 17
95.9497194263266 161.111539672102 2842.44262266201 20 21 13
95.6282698641449 162.163627374817 2851.10846031646 21 23 12
90.3557809003486 162.823701445536 2856.24656113983 21 23 12
95.0581819048688 164.258564807139 2868.36919843047 20 22 11
91.4769291575324 165.044077981653 2874.64315548051 22 24 13
96.254925796861 166.469396570117 2886.69213590158 23 25 14
91.8735381045459 167.186408405136 2892.35385393049 26 28 17
84.9805205672598 167.711952643687 2896.28722839816 24 26 15
61.2636030593667 166.971020461138 2888.7736176532 20 22 11
53.4753858828889 167.439928133466 2892.18706229611 19 21 10
57.5024433179983 168.790453320087 2903.5755437203 19 21 10
53.1067684879321 169.509135300271 2909.25154008347 17 21 7
43.6241519027356 169.852809286466 2911.53190139375 16 20 6
28.1698014556757 169.763686583674 2909.88754680291 18 22 8
19.4892339624722 170.175524776375 2912.77829618614 22 25 14
15.0664341977236 170.897515719023 2918.48073894723 23 26 15
9.79197168655688 171.557455289375 2923.62081941141 22 25 14
2.80185078568662 172.094885432558 2927.64852438106 23 26 17
1.82640029544912 173.059769179046 2935.55977401391 26 29 20
7.76809633463982 174.507726546251 2947.86674704438 24 27 18
14.624850850065 176.009734171293 2960.67397419412 27 30 23
3.35110688907658 176.24024496409 2961.91585830141 30 33 26
-2.7414721318979 176.833882012682 2966.46089287787 30 33 24
-17.5353110739178 176.830545445072 2965.56487076277 29 32 23
-38.4731591182339 176.415944237993 2960.91168433748 27 30 21
-68.2168525635771 175.417381132288 2950.91869733815 22 25 16
-80.5549311136997 175.6124833867 2951.80580547501 21 24 15
-83.2698916459571 176.457812988058 2958.62792786727 21 26 19
-72.7800747439056 178.179500348086 2973.46297690453 20 25 18
-124.02462367764 176.836796092217 2959.36546422902 24 29 22
135.433610931871 139.023198533854 2725.7296074678 98 85 76
144.35409673793 140.991794448912 2742.08653250576 66 53 45
140.575352686587 141.808810753167 2748.55228303331 61 48 40
135.205106654591 142.482318006677 2753.78547265197 55 45 36
125.023552118163 142.730090467636 2755.35715456585 40 33 25
118.035611053913 143.263381368388 2759.38364454574 27 27 19
125.546951593194 145.065409245907 2774.33033387037 25 28 21
141.200140200327 147.561472872923 2795.25991406948 25 28 21
156.145522702486 149.974756788131 2815.48768168166 25 28 21
107.061653184696 146.868504143308 2788.16928386139 22 25 18
125.304120228837 149.554214690659 2810.75037051713 20 23 16
109.404304098369 149.318209733824 2808.1528319084 19 22 15
101.630753498738 149.778204952872 2811.55336752238 20 23 16
109.41669218914 151.545493747053 2826.23251124499 20 23 16
103.301356782335 152.140453372265 2830.80028561472 22 25 18
108.710454535236 153.691255154978 2843.62093625703 20 23 14
98.4898530411793 153.943397272628 2845.23074654371 19 20 12
89.0743129221394 154.266074976478 2847.44794101488 20 22 11
83.7862365747566 154.92864480401 2852.60115146881 22 24 13
89.303923678012 156.46569820487 2865.3160032858 23 25 14
90.7075007220595 157.661093247979 2875.0815018928 23 25 14
94.6481416097789 159.052822590313 2886.54970626981 22 24 13
93.6107408584568 160.039786607567 2894.51920997333 24 26 15
88.3992388145334 160.692603517538 2899.5978224889 23 25 14
76.4622408351032 160.816739979144 2900.09714040318 22 24 13
61.1240414647947 160.681299252343 2898.34395401782 21 23 12
55.0320724316165 161.272963047476 2902.88901235537 20 22 11
44.7039700826992 161.538244574215 2904.60363058115 17 21 7
43.6877044908073 162.522372929126 2912.55222802659 17 21 7
31.6355294254058 162.660822901615 2913.16380295921 18 22 8
22.1104295272707 162.996835215992 2915.48748321901 19 22 11
12.5671295332719 163.335162073696 2917.82923219654 18 21 10
18.4187042524004 164.8300794087 2930.21875636734 17 20 9
6.29854829024001 164.976939270379 2930.89625651544 22 25 16
0.16971856720005 165.573065663578 2935.47725849288 25 28 21
-1.65171626847238 166.48656316861 2942.81893079102 26 29 22
-11.2328555873273 166.829557079007 2945.19756498916 31 34 27
-3.51350047340304 168.433222501954 2958.55010133259 32 35 28
-8.75344396923605 169.08934849248 2963.6564675497 25 28 19
-15.7320862508845 169.620505204952 2967.67403913309 23 26 17
-26.204786917007 169.903739230773 2969.52959225389 21 24 15
-56.7944629486918 168.76485531916 2958.98050850484 19 22 13
-79.6146584738726 168.19528113892 2953.38526941458 20 23 14
-84.9603837069859 168.864639402786 2958.59472273632 19 24 17
-116.689497401592 167.697106008111 2947.7644424939 18 23 16
-145.889200643194 166.726904914126 2938.64432044737 18 23 16
-108.94271981797 170.325444825495 2969.44043322964 22 27 20
125.477018232696 132.920982669393 2737.9354653611 50 39 33
120.869988908795 133.67348132533 2743.81634177113 53 44 35
118.67354964786 134.646235825171 2751.52164084919 26 22 13
118.101578404814 135.763658048441 2760.42659382253 28 29 21
117.553675028792 136.877981775975 2769.30776716244 25 28 21
138.841528861762 139.957658702339 2794.47482461389 23 26 19
140.01437040793 141.204580963964 2804.46216912277 21 24 17
149.336089393829 143.171612898383 2820.42089483749 19 22 15
128.623703547179 142.459298544991 2814.17091367226 17 20 13
114.362959820707 142.331511162324 2812.76357606165 18 21 14
109.05353339982 142.997480131778 2817.93748506249 18 21 14
97.1893223091227 143.091761019187 2818.3689371611 21 24 17
108.294608840521 145.183366798074 2835.37229845478 22 25 18
107.951552109759 146.271694834464 2844.05423604155 20 23 14
98.5543303899967 146.579088366894 2846.25516122331 22 24 13
97.4111668637616 147.593501125267 2854.32563201383 22 24 13
91.3132025144479 148.183917766415 2858.87649027575 24 26 15
96.8479321790006 149.754487764994 2871.56946483894 25 27 16
97.435975784351 150.900134198809 2880.73558155336 23 25 14
101.391795268541 152.320215788071 2892.18452290998 22 24 13
96.1850924125929 152.973002630199 2897.25837420496 22 24 13
92.6569630032441 153.763660441333 2903.47881862003 23 25 14
92.5008553102056 154.828298957814 2911.97861434942 23 25 14
85.6272719991704 155.341655975876 2915.894491609 22 24 13
60.1638970474556 154.353556091235 2907.31751372413 21 23 12
43.9213112399162 154.125447742622 2905.05918335654 19 23 9
42.0547434126086 155.05610611943 2912.44347485521 18 22 8
32.5500418273093 155.376665899325 2914.74918316667 17 21 7
21.322294592558 155.564880055882 2915.95164326922 17 20 9
22.8834091460843 156.762439849443 2925.5603848513 17 20 9
28.7578724679007 158.290144166862 2937.92233439959 17 20 9
28.6760856691486 159.345313843814 2946.34972787264 23 26 17
10.5556510374942 159.004179937514 2943.13901563973 24 27 20
4.44686910154024 159.595628607693 2947.70046339166 25 28 21
-13.7606825059509 159.265403469395 2944.57464729244 30 33 26
-21.6342191840373 159.729738811238 2948.07349125015 30 33 26
-21.7075021817239 160.783795907878 2956.49260476192 21 24 15
-27.8455779993889 161.378889625136 2961.08260303506 19 22 13
-36.601640808096 161.779681527989 2964.05029086142 17 20 11
-55.8562132483917 161.4064751964 2960.55328736887 17 20 11
-90.9321709722195 159.881532180319 2947.431322596 19 22 13
-104.20077396944 159.977132324134 2947.83991447328 18 23 16
-134.212616613828 158.862395550931 2938.13071185189 15 20 13
-127.313917755671 160.435808069493 2950.88573403717 21 26 19
-104.46075885316 163.144330210837 2973.13636761252 16 21 14
101.600981647921 123.084936322257 2720.58816588746 18 13 7
96.9353804829431 123.847916734075 2726.52531796061 24 21 14
80.2450193896211 123.465121840806 2723.31758835716 36 31 25
84.4031898626385 125.067565912517 2735.95588625502 28 29 21
107.949546687366 128.484513718758 2763.08143415524 24 27 18
109.018064973888 129.766632850593 2773.1668332791 21 24 15
123.88450470287 132.325946694917 2793.45140907228 21 24 15
133.978771291436 134.422185056518 2810.0411341034 21 24 15
151.470289049522 137.182911795421 2831.9399278232 19 22 13
147.051097498994 137.914669881329 2837.63700615272 18 21 12
112.388832290476 135.893280006384 2821.34345674815 18 21 12
101.351916065039 136.03960618313 2822.36260986257 24 27 18
104.252443572606 137.445573221943 2833.44464855873 24 27 18
99.7829738440368 138.18356817993 2839.19106989732 23 26 17
95.3181204517564 138.9209094456 2844.93266591918 26 28 17
93.3397789964676 139.877144824437 2852.42383217102 25 27 16
108.790149119397 142.362867077641 2872.13943325597 27 29 18
100.236854977078 142.728307943039 2874.91099366704 28 30 19
98.3331101044436 143.67511343848 2882.32947814221 23 25 14
98.9508049100123 144.836420906984 2891.46349824042 20 22 11
81.1846892084809 144.411082852745 2887.9130495664 20 22 11
74.2665495939714 144.925217771508 2891.87305692061 22 24 13
82.4753912536034 146.726704369559 2906.12753516463 24 26 15
76.4209640787952 147.309347416058 2910.63630930256 23 25 14
65.2959768667767 147.46641515599 2911.74133061024 22 24 13
43.1392953685279 146.707061658841 2905.51526158286 23 27 13
41.2705008419509 147.649324742412 2912.89971121423 21 25 11
35.165901378106 148.238235538619 2917.45771864818 14 17 6
18.8297964835424 147.98728362798 2915.29563038497 13 16 5
12.6962006907521 148.579809331115 2919.88189732054 17 20 11
27.1096750954136 150.841424873174 2937.82611757847 20 23 14
27.8819631487566 151.983147582068 2946.80951891524 18 21 12
26.1019446421056 152.914196924424 2954.10747003253 18 21 14
1.06302599146746 151.985486637917 2946.51747016912 19 22 15
-7.64817356321945 152.370472805495 2949.44294420181 23 25 20
-25.8991503476755 152.00576164541 2946.36500912222 21 23 18
-43.3390567399758 151.716268413678 2943.88779913615 19 22 13
-61.7019834068162 151.365631478308 2940.91928962243 16 19 10
-65.3032094213715 152.171213197498 2947.21011429994 14 17 8
-96.8519881687371 150.820491540466 2936.22783393424 15 18 9
-113.631033477476 150.625018123005 2934.4973923531 17 20 11
-129.582041329325 150.502607219287 2933.35080804672 16 21 14
-141.181388493 150.719044358852 2934.91810102739 17 22 15
-138.705111446948 152.000871896315 2945.02286514977 22 27 20
-132.660267952035 153.542817452327 2957.21351981865 9 14 7
84.1112180039847 113.722549815484 2708.1651464853 52 49 44
58.602648925616 112.43246662747 2698.26110856093 26 26 18
69.0856994488147 114.711648012172 2715.85463581647 32 29 22
62.7656598890898 115.32601204525 2720.62281647312 21 22 14
67.7243956939439 117.040562244259 2733.866481243 19 22 13
102.622422885454 121.646350668486 2769.38202435237 19 22 13
135.286520991459 125.993357338476 2802.9030741023 22 25 16
130.797401823429 126.737152083821 2808.66781257671 24 27 18
126.313318184311 127.48033215279 2814.42797938737 25 28 19
131.620524517737 129.150959475806 2827.33209955292 24 27 18
112.454339915044 128.502154138487 2822.370811884 21 24 15
99.7788705454505 128.476352468792 2822.20869427793 22 25 16
109.246121692186 130.523254027981 2838.01109970991 26 29 20
114.667763350043 132.17941073343 2850.8037226576 21 24 15
100.334953903625 132.002135611683 2849.47559948044 23 26 15
104.985495042657 133.575297186272 2861.62895612666 26 29 18
100.563487996891 134.310481978917 2867.32866166081 26 29 18
100.301482675115 135.422009094205 2875.92668518657 24 27 16
99.2305790844239 136.455306085614 2883.92227186951 18 21 10
94.0054775968884 137.111503290886 2889.01388922746 15 18 7
71.2070269976759 136.199658519924 2882.03073523038 16 19 8
68.4596050704949 137.083949400111 2888.87933380767 17 20 9
71.6099677364572 138.48587810732 2899.71387936194 20 23 12
77.3281669824502 140.104601104507 2912.21754892642 22 25 14
55.2251619282229 139.285099308535 2905.94706828893 24 27 16
66.061180186284 141.339608382703 2921.8060526756 20 23 12
50.6688336509447 141.115440172954 2920.12008695078 18 21 10
36.9317050982847 141.042882240337 2919.60187600323 18 21 10
12.9284603739763 140.102428835664 2912.40208156636 15 18 7
-1.761595691117 139.96977754483 2911.4221141799 12 15 6
-1.93756318196758 141.070261185911 2919.93599524635 17 20 11
16.7903547311985 143.75151585868 2940.61910911346 18 21 14
18.4253843797926 144.984094666456 2950.14927611847 19 22 15
19.2305275312923 146.141184797388 2959.09811840081 18 21 14
3.648176337812 145.940757913106 2957.59698331078 17 19 14
13.997041060545 147.876613897121 2972.54034591667 16 18 13
-66.7045710335912 142.372037106545 2930.21191922752 15 18 11
-88.7726233824173 142.806147220255 2933.64048765212 13 16 7
-106.395013234593 142.502394315398 2931.34659401277 15 18 9
-130.199495419741 141.716636996399 2925.34347074007 16 19 10
-152.54616133382 142.18572335493 2929.04353707993 13 18 11
-172.12861266033 141.768578758087 2925.87861622475 26 31 24
-133.476526815139 145.902440627925 2957.73641197646 6 11 4
101.871038953395 109.12101839355 2732.30289687051 25 26 20
111.656619313021 111.359879297152 2749.17807234076 17 18 10
91.7737414961342 110.57337565796 2743.53225190136 18 21 12
83.1030547701919 110.93324397552 2746.42087066149 18 21 12
96.2273712029265 113.482574710763 2765.60271966289 18 21 12
145.878566563656 119.65559892932 2811.74290669326 20 23 14
139.79145637066 120.238365070324 2816.28445520008 22 25 16
128.819905521919 120.339724380482 2817.24534561241 24 27 18
125.161764461939 121.164759560829 2823.58981255832 23 26 17
120.695062719992 121.908910568793 2829.33257538378 22 25 16
108.858346099057 121.936372689724 2829.74626300998 22 25 16
112.59713687196 123.474591176527 2841.39325650331 24 27 18
122.96594659734 125.639893581477 2857.70014850563 18 21 12
115.254433208747 126.061573908428 2861.0444053343 16 19 8
90.9890631852717 124.912894915322 2852.71877152774 16 19 8
81.5593713380549 125.185432774878 2854.95742952128 18 21 10
80.421481391193 126.241205356002 2863.01621276379 18 21 10
83.4688920514965 127.683688096848 2873.94699731314 18 21 10
68.1881449242541 127.413749735906 2872.15697653469 18 21 10
67.9250305015122 128.542112219992 2880.75361315395 17 20 9
67.6859412940152 129.667396327482 2889.32650952004 16 19 8
83.4451030574588 132.250353193798 2908.72110470782 18 21 10
78.2354945458019 132.905092969985 2913.79755271908 19 22 11
69.6484602762664 133.254139011379 2916.60504072307 21 24 13
62.7398088297264 133.75729832297 2920.55691053417 19 22 11
59.2184869009604 134.564921132335 2926.76842544305 18 21 10
44.6503831188898 134.387809583301 2925.67359100151 18 21 10
14.6989125800889 132.858385701667 2914.54881924262 16 19 8
-5.11283684023578 132.245019980282 2910.22334902105 13 16 7
-13.0023671133825 132.688874961608 2913.74110184342 17 20 11
-0.307237635346347 134.926681464032 2930.56136434551 17 20 13
9.02964422667729 136.856339805115 2945.09364758314 17 20 13
-4.8408310979724 136.774078493294 2944.70928610662 16 19 12
-11.8376196291394 137.288242003845 2948.74705092986 15 17 12
-96.3588556555708 133.489757381861 2921.2953578182 12 15 6
-95.6790146348254 134.681994964788 2930.36309434863 13 16 7
-106.327679117211 134.924997069842 2932.39966624252 14 17 8
-128.38056587254 134.22818396715 2927.47819337578 15 18 9
-140.854078239909 134.335384376869 2928.5124433075 13 18 11
-174.462426259767 132.717858722968 2916.7809605542 12 17 10
-218.769329817909 130.254358569996 2898.79373524304 21 26 19
125.138165085805 103.984111733755 2751.05094002241 18 19 11
136.583323118925 106.436702426531 2769.08035979576 17 18 10
108.722662819845 104.752182599386 2757.3192149917 18 21 12
94.4525026447782 104.508785196483 2755.93865300624 18 21 12
97.9105737784742 106.112669661105 2767.85469984826 18 21 12
141.896277897995 111.885333274528 2809.76093564707 20 23 14
155.278228423077 114.464885586325 2828.68248345043 22 25 16
148.411434971526 114.958127923018 2832.59425337829 25 28 19
145.615384174408 115.8659948037 2839.48765661973 24 27 18
134.657543541711 115.947174008918 2840.43791519555 24 27 18
119.576515715091 115.620299596591 2838.45764748073 23 26 17
124.982944124493 117.349674856055 2851.25455573872 23 26 17
132.910568869574 119.317901878371 2865.76364237415 17 20 11
123.571942238827 119.565988359853 2867.91514732256 17 20 9
97.6722750114378 118.190640603012 2858.41207770768 16 19 8
73.3347847880324 116.989416341172 2850.16582649356 16 19 8
57.2192250326298 116.607285173052 2847.80412188387 17 20 9
52.7155080506709 117.359156158192 2853.58216253859 19 22 11
79.1077569974599 121.082011476628 2880.67064097231 20 23 12
78.0326855157378 122.143901215555 2888.66614043706 17 20 9
75.3006242305156 123.043570364427 2895.49721276843 16 19 8
69.2183616618829 123.623324248451 2900.03439272285 16 19 8
75.7726316969265 125.393509611729 2913.10235488056 17 20 9
55.3559058761879 124.62570646902 2907.98388947549 19 22 11
43.3353908399869 124.655033126514 2908.5798160674 19 22 11
51.6475835141295 126.574749766424 2922.71419087766 19 22 11
59.1723314726971 128.408194903899 2936.22635150372 20 23 12
34.368175135568 127.26556360263 2928.43484662513 19 22 13
3.49613171280305 125.588827307715 2916.82840505722 17 20 11
-4.37381765091605 126.022755952027 2920.32851869734 17 20 11
4.04930521752966 127.928447675748 2934.3544732193 13 16 9
-48.5275907645879 124.348660851448 2909.15778114173 11 13 8
-47.0118010149538 125.64056101737 2918.79758745826 10 12 7
-71.3814037711318 124.628552387856 2911.97216779378 10 12 7
-102.761698662889 123.01576197638 2900.86131411627 11 13 8
-116.033606857517 123.017161329502 2901.28744878115 12 14 9
-102.378933070808 125.376772830681 2918.55343835017 11 14 5
-98.2261123080552 126.893002901483 2929.79288166337 11 14 5
-115.869291813925 126.517524210527 2927.52989565533 11 14 5
-134.440735435686 126.073528244369 2924.78224498426 12 15 6
-139.030760877589 126.836130517428 2930.64440513592 11 16 9
-195.497877408653 123.18960573035 2905.06921977609 13 18 11
-224.868137138579 121.879963333191 2896.16863212012 12 17 10
-192.516810941477 125.779783107909 2924.39838791417 3 8 1
122.806171170743 96.2068206351603 2750.265058886 17 18 10
128.631835334236 98.1072719291306 2764.03728419726 16 18 7
171.48893970286 103.999339403672 2805.62967907625 18 21 12
171.874311110476 105.267814319978 2814.978560441 17 20 11
139.979411989214 103.075295099439 2800.21333424029 17 20 11
146.010880555448 104.949788578916 2813.78502929093 20 23 14
110.706439943287 102.43401869684 2796.7853293867 21 24 15
115.936011592091 104.221337138111 2809.74929504542 23 26 17
144.050226916124 108.394998615139 2839.31193441099 22 25 16
142.897706119973 109.480810900361 2847.38114428997 22 25 16
127.836315032161 109.119547773311 2845.38645964025 22 25 16
116.835913044117 109.187653698713 2846.38091449615 20 23 14
123.920594832308 111.117642428643 2860.31579823396 19 22 13
120.336878743081 111.945077867504 2866.58600532656 20 23 12
103.52828358548 111.427529982032 2863.51560033016 17 20 9
71.7433805004677 109.409188845138 2850.03231231244 16 19 8
56.4551399020714 109.076439857087 2848.25867820288 16 19 8
62.7777634472957 110.91422019423 2861.54701608372 18 21 10
91.6967217195705 114.986484476292 2890.32552026653 19 22 11
88.9771238931045 115.893244375929 2897.14316818924 17 20 9
71.1729241346979 115.312889785906 2893.65378676497 16 19 8
67.6028139807698 116.138561146874 2899.91074369262 16 19 8
52.2451828516122 115.814556113766 2898.20506089517 16 19 8
25.862754313156 114.432871408875 2889.18197915487 17 20 9
30.704461369873 116.080789052827 2901.13479414647 19 22 11
38.9870481589831 118.047948766072 2915.2912181307 20 23 12
54.1356086160714 120.65576362792 2933.87156612344 21 24 15
31.0248389338552 119.614657519644 2927.21731651992 20 23 14
12.9593295029649 119.067162240965 2923.98256287143 18 21 14
-18.8618576381518 117.241420768504 2911.92374862922 16 19 12
-97.4810948794298 112.277404676826 2878.78354851853 9 11 6
-95.2135498595745 113.68499528589 2889.07699890149 8 10 5
-100.685371026216 114.373816638374 2894.40879071327 7 9 4
-124.338236337024 113.40097829089 2888.28309797935 9 11 8
-109.022793102282 115.98771360298 2906.70050661315 10 12 7
-97.09248668862 118.248141006273 2922.85965920535 10 13 4
-92.0567313316853 119.871594857294 2934.62339710419 10 13 4
-123.662526115937 118.206868836474 2923.7441442138 10 13 4
-151.881313307495 116.868213041187 2915.12132479064 11 14 5
-148.613252551642 118.337947001557 2925.82897281495 11 16 9
-150.581781868701 119.338196607682 2933.30389018491 12 17 10
-178.971785387827 118.021097709363 2924.8479050061 9 14 7
93.2777218793226 85.3490490895792 2728.76265841819 21 22 14
119.077564665112 89.5438744983025 2757.78655727164 15 17 6
128.954029334629 91.9268211698235 2774.55018746508 16 19 8
139.710895603296 94.3897291986362 2791.84465691987 15 18 7
178.00754289311 99.8735818175031 2829.52351763916 15 18 7
146.887095200406 97.6856381012126 2815.40548278158 18 21 10
122.947435785204 96.3111234390742 2806.78979193937 20 23 12
113.562699540724 96.5391081357719 2808.99039329284 21 24 13
129.438405937343 99.5024962397952 2829.62993968396 16 19 8
142.146254651909 102.101350024432 2847.80078064125 16 19 8
124.625392256841 101.445368183006 2844.04121870142 19 22 11
116.081240393359 101.758323234052 2846.81145807489 17 20 9
111.638497234885 102.509028622867 2852.52912309616 21 24 13
117.927567438239 104.389366924809 2865.84415205088 20 23 12
107.730120103922 104.528787834343 2867.44763005999 18 21 10
82.5880133888401 103.114857812781 2858.61490341719 16 19 8
74.803982255125 103.522920029518 2862.03318418952 16 19 8
79.5029557268778 105.221805219068 2874.12020276 16 19 8
81.7449330117306 106.657532455184 2884.43488370058 16 19 8
70.6340514156025 106.72109101936 2885.53938069651 17 20 9
87.1747898166531 109.60064818271 2905.53093065267 16 19 8
64.3066219502844 108.472923916307 2898.64891382764 16 19 8
52.3118282181221 108.456996713632 2899.22632512717 16 19 8
35.2196686912492 107.937816514071 2896.43740715463 17 20 9
33.3106016555074 108.94198595107 2903.85269825094 18 21 10
51.7795727134907 111.960416133665 2924.74311578009 20 23 12
48.2492863345758 112.787061947 2930.9607209288 19 22 13
31.0913103581667 112.276167439335 2928.23593504196 19 22 13
8.75509503130756 111.272301665018 2922.22428456816 16 19 12
-32.4923216626214 108.451189575169 2904.08595493884 11 14 7
-73.9010513196901 105.650447500354 2886.10513862922 8 11 4
-86.2316422181708 105.676771001045 2887.00941900141 8 10 5
-108.935162966768 104.719179966274 2881.35566885488 8 10 5
-118.757017270102 105.002182347265 2883.98220331287 8 10 7
-127.731821725958 105.369308358418 2887.17174279054 8 10 7
-91.8058253458498 111.151812663174 2927.16089216107 8 11 2
-110.291759337088 110.617333708478 2924.34136466703 9 12 3
-131.45505879294 109.84751042012 2919.96455649466 12 15 6
-152.68719049413 109.086314452823 2915.65448680316 13 16 7
-151.175975486461 110.423194264827 2925.29252577604 12 17 10
90.1476527865785 77.3542647052796 2727.38451382586 11 14 7
116.740595309987 81.748689584183 2757.00826151889 15 18 11
136.255927155937 85.2923342429549 2781.03272880048 19 22 13
136.555399805872 86.6104291847518 2790.45957508333 14 17 8
143.344432942428 88.6597811024482 2804.67040047568 13 16 7
139.667833315216 89.5108112920458 2811.0296928427 16 19 10
135.188262232139 90.2693709235023 2816.7827676839 17 20 11
112.003352045874 88.9316853540759 2808.82906569401 20 23 12
139.2904297025 93.2385954079397 2837.77646159147 10 13 2
120.961409933976 92.4508123176485 2833.42198271955 11 14 3
138.620459473224 95.6474615101431 2855.08998575581 16 19 8
101.36565206647 92.7911870818625 2837.24319885613 15 18 7
71.3692808066395 90.7628955680069 2824.81949943544 22 25 14
86.6394963652795 93.6797394269849 2844.65027708085 21 24 13
95.3909846274401 95.8690078568269 2859.7254945591 19 22 11
85.1423197444761 95.9992074457883 2861.3811952583 18 21 10
87.3355367315236 97.4659354401445 2871.73971399689 17 20 9
73.739857542757 97.2434254512477 2871.10320458842 17 20 9
62.6109857470554 97.290943388913 2872.22827475806 17 20 9
64.8438104274653 98.7526350374275 2882.54786899935 17 20 9
67.9512479622675 100.297766398505 2893.40387455372 16 19 8
69.4173198253822 101.662513185483 2903.08262260974 16 19 8
61.6470269383207 102.061289709474 2906.48863352139 17 20 9
42.0431799873486 101.240559210455 2901.98769933995 18 21 10
41.8424213718298 102.428088039421 2910.51367096092 16 19 8
32.3336990868963 102.658676242035 2912.83666964638 19 22 13
33.860530927591 104.01572010165 2922.45588279378 18 21 12
-2.93123485653846 101.488493594438 2906.93481205621 18 21 12
-41.5735477931176 98.8072150634135 2890.43997434155 19 22 13
-74.3728539918229 96.7450404994813 2877.97082001472 8 11 4
-83.2701842566093 97.0922190124297 2881.08637470691 7 10 3
-93.0417082063055 97.3559993654922 2883.66577138705 8 10 5
-103.693584849351 97.5370661377116 2885.71434917711 8 10 5
-118.686819986164 97.2971277337221 2885.05130007914 8 10 5
-132.855907145376 97.1469454716458 2884.97350325542 8 10 7
-128.84107313759 98.7713483142961 2896.33364372568 8 10 5
-115.216786214725 101.314672756067 2913.6029930493 7 10 1
-139.855358767907 100.160339098342 2907.06569994637 9 12 5
-156.716530583758 99.7685420484109 2905.44582774798 12 15 6
-156.118609087499 101.049047553365 2914.5818656169 12 17 10
-234.853418542504 96.0631130027316 2884.39382643901 12 17 10
99.8158150998716 70.8663488958152 2735.7467221889 22 24 19
124.827610264341 75.1760178189354 2764.11928084082 16 19 12
139.539251639993 78.2313431363286 2784.4842634081 18 21 12
150.320355566755 80.8002916377584 2801.73899177456 13 16 7
119.990610783719 78.5369667132489 2788.26382786632 13 16 7
125.972453327087 80.5327147669491 2801.86688091815 16 19 10
120.648364033232 81.2045808030169 2807.05447878474 16 19 10
121.418848359383 83.8580477080266 2825.73561486731 12 15 6
115.307330885672 84.4327992453532 2830.30224687761 12 15 6
144.42218821587 89.0106486728897 2860.22874229599 11 14 5
100.612284218908 85.3049431533767 2837.6808585311 11 14 5
78.8463077965154 84.122234074012 2831.12938535788 12 15 6
72.6804955971425 84.7038653369567 2835.74891601294 14 17 6
73.1284061931872 86.0227605621701 2845.02858078144 15 18 7
85.2099315926478 88.6241527451293 2862.40408555751 18 21 10
82.4174137897407 89.5660470431595 2869.28895124604 19 22 11
59.6490603631259 88.3134067303583 2862.3262797439 18 21 10
51.8264978366037 88.7112193651639 2865.78433764262 18 21 10
68.2584603355054 91.7460275423419 2885.86095764558 16 19 8
68.018606001103 92.9551926733981 2894.42221621534 16 19 8
61.9189471676496 93.5285670398682 2898.97761380781 16 19 8
55.8164821515339 94.1023006985789 2903.5357448779 16 19 8
35.3548725864337 93.1479756766104 2898.4890797048 16 19 8
23.288821519023 93.0989743812579 2899.14213892806 15 16 10
14.5861402166583 93.4114266053539 2902.06987469544 16 17 11
-12.8372017031038 91.7638753285705 2892.70282097581 16 17 11
-89.3364816367974 86.2893450125682 2860.36674433481 10 11 5
-91.4243742843293 87.3388873492165 2867.95324365439 7 8 2
-106.366320313948 87.0633602779626 2867.24418586228 8 9 3
-103.29085267773 88.6401281167151 2878.12726214095 10 11 5
-107.070654181197 89.5102197577486 2884.5862182225 11 12 6
-111.705741124836 90.2917384864805 2890.49032926762 11 12 6
-129.322098939985 89.7643377256223 2888.22350078178 10 11 5
-127.902825699682 91.1571469652677 2897.94423510183 10 11 5
-149.930827383782 90.2041290824561 2893.0362557881 10 9 5
-135.426969458907 92.892866495452 2910.82759544835 10 11 6
-197.698453086729 87.9805096742939 2881.28428093371 12 14 9
-192.814491551448 89.7219830378223 2893.18097126697 12 17 11
-218.589662942744 88.4559133614495 2886.37194282934 9 16 9
107.88420950448 64.2469235544601 2742.88314215012 12 15 8
87.212952089212 63.0715848116672 2736.66075464709 13 16 9
105.851178681194 66.6953392122378 2760.1274509093 16 19 10
79.4894287873102 64.8438508290073 2749.73636243002 14 17 8
74.8331617505777 65.6310848320665 2755.66066090564 12 15 6
119.564472668167 72.3357806515832 2798.10565349657 15 18 9
136.94674424926 75.7197278184718 2820.02115641999 16 19 10
90.5024616465129 72.8179067585702 2804.22116373502 13 16 7
29.557072653255 66.9653312352432 2769.2489157634 12 15 6
43.7206736725626 69.9588122242248 2788.75034175306 11 14 5
94.1107560304841 77.1444347134792 2834.00680364829 10 13 4
89.6157529475516 77.9114529464054 2839.77429035785 10 13 4
66.9736819215885 76.5865979101815 2832.69655402766 11 14 5
75.6779748353917 78.8747938705264 2847.8043535807 13 16 7
