ply
format ascii 1.0
comment KinectMotionCapture
element vertex 792
property float x
property float y
property float z
property uchar red
property uchar green
property uchar blue
end_header
-154.101699590683 29.3315574526787 2778.00011634827 15 18 11
-146.732956171036 29.3745901435614 2782.00006484985 14 17 10
-138.191416859627 29.1747264564037 2763.00001144409 14 17 10
-130.887895822525 29.2282365262508 2767.99988746643 14 17 10
-123.511992394924 29.2711518704891 2772.0000743866 12 15 8
-116.657510399818 29.451310634613 2789.00003433228 11 14 7
-107.754833996296 29.1034337133169 2756.00004196167 11 14 7
-100.632071495056 29.2201526463032 2766.99995994568 10 13 6
-93.2470262050629 29.2734764516354 2772.0000743866 10 13 6
-86.0815495252609 29.4112432748079 2785.00008583069 10 12 7
-79.0983512997627 29.6440199017525 2806.99992179871 11 13 8
-71.1548998951912 29.5282546430826 2796.0000038147 11 13 8
-63.2939264178276 29.4230096042156 2786.00001335144 9 11 6
-55.1275126636028 29.1276182979345 2757.99989700317 10 12 7
-47.5106947124004 29.0750879794359 2753.00002098084 9 11 6
-39.9355180561543 29.0330797433853 2749.00007247925 4 6 1
-25.2491254359484 29.4136460870504 2785.00008583069 61 63 58
-17.7583005279303 29.6038649976254 2802.99997329712 4 6 1
-10.1222367957234 29.6567492187023 2808.00008773804 9 11 6
-2.41774087771773 29.2131993919611 2766.00003242493 12 15 8
5.08523639291525 28.928030282259 2739.00008201599 12 15 8
12.6379877328873 29.0969666093588 2755.00011444092 11 14 7
19.8755785822868 28.6849793046713 2716.00008010864 12 15 8
27.4628195911646 28.8643967360258 2733.00004005432 13 16 9
35.1044498383999 29.0120858699083 2746.99997901917 15 18 11
42.5276979804039 28.9590712636709 2742.00010299683 13 14 8
49.8140268027782 28.8426466286182 2730.99994659424 14 17 10
57.4594885110855 28.9374087005854 2740.00000953674 15 18 11
65.1538595557213 29.0321279317141 2749.00007247925 16 19 12
72.8706642985344 29.116241261363 2756.99996948242 17 20 11
79.7851830720901 28.894055634737 2736.00006103516 17 20 11
87.031178176403 28.8196858018637 2729.00009155273 17 20 11
93.82314234972 28.6185499280691 2710.00003814697 15 21 11
101.1833101511 28.6074690520763 2709.00011062622 16 22 12
108.537584543228 28.5963434726 2707.99994468689 16 22 12
116.399675607681 28.7119019776583 2719.00010108948 16 22 10
122.545324265957 28.4155942499638 2690.99998474121 22 25 16
130.66141307354 28.5838712006807 2707.00001716614 23 26 17
-229.860961437225 21.7404887080193 2778.00011634827 34 36 31
-221.968621015549 21.7100512236357 2773.9999294281 19 21 16
-212.628692388535 21.530881524086 2750.99992752075 23 26 19
-205.20293712616 21.5395167469978 2752.00009346008 20 23 12
-199.566811323166 21.7438023537397 2778.00011634827 20 23 14
-193.304345011711 21.893285214901 2796.99993133545 19 22 13
-184.813156723976 21.792259067297 2783.99991989136 18 21 12
-176.51954293251 21.7068623751402 2773.00000190735 18 21 12
-167.675882577896 21.5431470423937 2752.00009346008 17 20 11
-159.819111227989 21.496819332242 2746.00005149841 17 20 11
-153.270304203033 21.6305162757635 2763.00001144409 15 18 11
-146.628141403198 21.7641964554787 2779.99997138977 14 17 10
-131.739675998688 21.8122694641352 2786.00001335144 14 17 10
-124.180912971497 21.820604801178 2786.99994087219 12 15 8
-117.118157446384 21.9228658825159 2799.99995231628 11 14 7
-109.436556696892 21.9154860824347 2799.00002479553 11 14 7
-100.850760936737 21.7123311012983 2773.00000190735 10 13 6
-92.1710133552551 21.4543230831623 2740.00000953674 10 13 6
-78.9860188961029 21.9483058899641 2802.99997329712 12 14 9
-71.0025355219841 21.8468103557825 2789.99996185303 13 15 10
-63.0216002464294 21.7217896133661 2773.9999294281 11 13 8
-55.4275996983051 21.7141974717379 2773.00000190735 11 13 8
-47.0104441046715 21.330701187253 2723.99997711182 6 8 3
-25.2492427825928 21.8088142573833 2785.00008583069 57 59 54
-17.6570154726505 21.8245591968298 2786.99994087219 9 11 6
-10.0357690826058 21.8011233955622 2783.99991989136 14 16 11
-2.4343600962311 21.8089800328016 2785.00008583069 12 15 8
5.17623405903578 21.8324679881334 2788.00010681152 12 15 8
12.6793319359422 21.644489839673 2763.99993896484 11 14 7
19.9854429811239 21.386006847024 2730.99994659424 12 15 8
27.372507378459 21.3310960680246 2723.99997711182 14 17 10
35.2451801300049 21.5972159057856 2757.99989700317 15 18 11
42.6985062658787 21.5579066425562 2753.00002098084 13 14 8
49.5406538248062 21.2679859250784 2716.00008010864 13 16 9
57.438787072897 21.4478764683008 2739.00008201599 13 16 9
64.9408549070358 21.4554648846388 2740.00000953674 16 19 12
72.3952427506447 21.4473586529493 2739.00008201599 16 19 10
79.9896940588951 21.4783754199743 2743.00003051758 16 19 10
86.6488888859749 21.274458616972 2717.00000762939 17 20 11
93.8235819339752 21.2192889302969 2710.00003814697 16 22 12
101.557284593582 21.2893690913916 2719.00010108948 16 22 12
109.700426459312 21.4298851788044 2736.99998855591 16 22 12
116.828322410583 21.3668011128902 2729.00009155273 16 22 10
123.957604169846 21.3115159422159 2721.99988365173 18 21 12
131.82045519352 21.3814750313759 2730.99994659424 17 20 11
140.037894248962 21.4983765035868 2746.00005149841 19 22 13
-219.728857278824 13.9968479052186 2746.00005149841 18 20 15
-214.175209403038 14.1248237341642 2770.99990844727 14 17 10
-205.800101161003 14.0692815184593 2759.99999046326 20 23 12
-198.777228593826 14.105474576354 2766.99995994568 20 23 14
-193.304970860481 14.2589071765542 2796.99993133545 20 23 14
-186.141446232796 14.2950713634491 2803.99990081787 19 22 13
-176.711067557335 14.1527866944671 2776.00002288818 19 22 13
-168.285697698593 14.0818487852812 2762.00008392334 17 20 11
-159.877821803093 14.0057886019349 2746.99997901917 17 20 11
-153.048932552338 14.0673751011491 2759.0000629425 15 18 11
-146.153911948204 14.1289429739118 2770.99990844727 14 17 10
-139.442905783653 14.2159918323159 2788.00010681152 13 16 9
-130.699783563614 14.0939615666866 2763.99993896484 13 16 9
-124.092221260071 14.2013737931848 2785.00008583069 13 16 9
-116.532944142818 14.2067819833755 2786.00001335144 11 14 7
-108.81133377552 14.1917755827308 2782.99999237061 11 14 7
-100.887455046177 14.1461510211229 2773.9999294281 11 14 7
-94.0887331962585 14.2636951059103 2796.99993133545 12 15 8
-85.6495052576065 14.1313364729285 2770.99990844727 11 13 8
-78.7326544523239 14.2488433048129 2793.99991035461 16 18 13
-71.2572634220123 14.2796374857426 2799.99995231628 16 18 13
-63.6124983429909 14.2798135057092 2799.99995231628 9 11 6
-55.8675304055214 14.2544712871313 2795.00007629395 11 13 8
-25.0408034771681 14.086589217186 2762.00008392334 123 125 120
-17.5176952034235 14.1019448637962 2765.00010490417 15 17 12
-2.48244358226657 14.4845107570291 2839.99991416931 9 11 6
5.23937586694956 14.3927037715912 2822.00002670288 10 13 6
12.8124067559838 14.244775287807 2792.99998283386 11 14 7
19.8757387697697 13.8520197942853 2716.00008010864 13 16 9
27.463037520647 13.9386598020792 2733.00004005432 13 16 9
35.2325178682804 14.0609806403518 2756.99996948242 12 15 8
42.69864782691 14.0404785051942 2753.00002098084 14 15 9
49.0483269095421 13.7139558792114 2688.99989128113 13 16 9
56.9776222109795 13.8566186651587 2717.00000762939 13 16 9
64.7751539945602 13.9380590990186 2733.00004005432 15 18 11
72.5012123584747 13.9888795092702 2743.00003051758 16 19 10
80.1065936684608 14.0090798959136 2746.99997901917 15 18 9
87.1913284063339 13.9425667002797 2733.99996757507 17 20 11
94.2047238349915 13.8760358095169 2720.99995613098 18 24 14
102.155238389969 13.9471758157015 2734.99989509583 17 23 13
110.021434724331 13.997895643115 2744.99988555908 16 22 12
117.85614490509 14.0383969992399 2753.00002098084 16 22 10
125.324189662933 14.0329841524363 2752.00009346008 22 25 16
132.786244153976 14.0275508165359 2750.99992752075 19 22 13
140.446305274963 14.0424966812134 2753.99994850159 20 23 14
-222.849950194359 6.5950769931078 2785.00008583069 25 27 22
-216.571658849716 6.63559092208743 2802.00004577637 24 27 20
-207.962870597839 6.6050523892045 2789.00003433228 21 24 15
-199.424147605896 6.57450361177325 2776.00002288818 20 23 14
-193.236216902733 6.62210211157799 2796.0000038147 20 23 14
-186.075419187546 6.63890456780791 2802.99997329712 19 22 13
-178.684756159782 6.6485945135355 2806.99992179871 19 22 13
-169.260889291763 6.5801115706563 2778.00011634827 17 20 11
-161.798760294914 6.58504478633404 2779.99997138977 17 20 11
-153.271093964577 6.54496252536774 2763.00001144409 14 17 10
-146.73438668251 6.59014983102679 2782.00006484985 13 16 9
-139.993324875832 6.6305915825069 2799.00002479553 13 16 9
-132.213205099106 6.62364764139056 2796.0000038147 12 15 8
-123.513206839561 6.56694453209639 2772.0000743866 13 16 9
-116.3240224123 6.58840918913484 2780.99989891052 12 15 8
-108.772449195385 6.59091398119926 2782.00006484985 11 14 7
-100.924022495747 6.57445611432195 2775.00009536743 12 15 8
-93.4161320328712 6.57931109890342 2776.99995040894 12 15 8
-85.8042165637016 6.57705031335354 2776.00002288818 13 15 10
-78.5637348890305 6.6055809147656 2788.00010681152 17 19 14
-71.8172788619995 6.68622832745314 2822.00002670288 16 18 13
-63.9533996582031 6.66972529143095 2815.00005722046 7 9 4
-56.2674030661583 6.66979793459177 2815.00005722046 9 11 6
-24.9048583209515 6.5088733099401 2746.99997901917 207 209 204
-17.5430700182915 6.56102690845728 2769.00005340576 1 3 0
-10.0971031934023 6.63686683401465 2801.00011825562 19 21 16
-2.47720372863114 6.7150667309761 2834.00011062622 7 9 4
5.25980908423662 6.71269558370113 2832.99994468689 9 12 5
12.761970050633 6.59184204414487 2782.00006484985 11 14 7
20.1392266899347 6.52073789387941 2752.00009346008 14 17 10
27.6741124689579 6.52544759213924 2753.99994850159 13 16 9
35.1303517818451 6.51356298476458 2749.00007247925 11 14 7
42.7297502756119 6.52773212641478 2755.00011444092 15 16 10
50.4529289901257 6.55373884364963 2766.00003242493 14 17 10
56.9986961781979 6.43994333222508 2717.99993515015 14 17 10
64.4908621907234 6.44697807729244 2720.99995613098 16 19 12
72.3956301808357 6.48954370990396 2739.00008201599 17 20 11
80.0192579627037 6.50129793211818 2743.99995803833 14 17 8
87.6698791980743 6.51304330676794 2749.00007247925 17 20 11
94.8280990123749 6.48924103006721 2739.00008201599 17 23 13
102.304846048355 6.48912275210023 2739.00008201599 17 23 13
110.342293977737 6.52216235175729 2753.00002098084 16 22 12
118.327282369137 6.54808524996042 2763.99993896484 18 24 12
125.961974263191 6.55267713591456 2766.00003242493 30 33 24
133.220911026001 6.53830729424953 2759.99999046326 20 23 14
-225.810706615448 -1.0188688756898 2822.00002670288 14 22 11
-217.267394065857 -1.01493671536446 2811.00010871887 14 22 11
-208.559483289719 -1.009919680655 2796.99993133545 20 23 12
-199.49609041214 -1.00273464340717 2776.99995040894 21 24 15
-191.301167011261 -0.999519834294915 2767.99988746643 21 24 15
-185.079753398895 -1.00677576847374 2788.00010681152 20 23 14
-178.048267960548 -1.01005844771862 2796.99993133545 19 22 13
-171.027898788452 -1.01370131596923 2806.99992179871 16 19 10
-162.730053067207 -1.00975891109556 2796.0000038147 16 19 10
-154.87989783287 -1.00834318436682 2792.00005531311 15 18 11
-148.000314831734 -1.01342692505568 2805.99999427795 14 17 10
-141.693919897079 -1.02320476435125 2832.99994468689 14 17 10
-132.87527859211 -1.01492274552584 2809.99994277954 12 15 8
-124.359853565693 -1.00808357819915 2790.99988937378 14 17 10
-115.947626531124 -1.00124289747328 2772.0000743866 11 14 7
-108.225122094154 -0.999818672426045 2767.99988746643 11 14 7
-100.92406719923 -1.00236630532891 2775.00009536743 15 18 11
-93.2143405079842 -1.00093928631395 2770.99990844727 17 20 13
-85.6497064232826 -1.00095558445901 2770.99990844727 14 17 10
-79.3527960777283 -1.0172261390835 2815.99998474121 10 13 6
-65.2484074234962 -1.0374819394201 2871.99997901917 7 10 3
-56.0675449669361 -1.01329002063721 2805.0000667572 9 12 5
-17.4417085945606 -0.994538771919906 2753.00002098084 7 9 4
-10.0214080885053 -1.00429530721158 2779.99997138977 7 10 3
-2.45010782964528 -1.01260526571423 2802.99997329712 15 18 11
5.23381866514683 -1.01838517002761 2819.00000572205 10 13 6
12.8950094804168 -1.01549341343343 2811.00010871887 11 14 5
20.1392378658056 -0.994176371023059 2752.00009346008 14 17 8
27.5133457034826 -0.989114167168736 2737.99991607666 15 18 9
35.1048111915588 -0.99235970992595 2746.99997901917 15 18 9
43.0865027010441 -1.0035514133051 2778.00011634827 12 15 6
50.5988784134388 -1.00209761876613 2773.9999294281 12 15 6
57.7746517956257 -0.995223992504179 2755.00011444092 12 15 6
65.0597289204597 -0.991600216366351 2744.99988555908 15 18 9
72.0784813165665 -0.985085382126272 2726.99999809265 17 20 11
80.1359489560127 -0.992657267488539 2747.99990653992 18 21 10
88.0207195878029 -0.996976508758962 2759.99999046326 19 22 11
95.1743647456169 -0.992986257188022 2749.00007247925 20 23 12
101.894028484821 -0.985382706858218 2727.9999256134 21 24 13
110.061787068844 -0.991865061223507 2746.00005149841 20 23 12
118.712641298771 -1.00159645080566 2773.00000190735 19 22 11
126.78174674511 -1.00554700475186 2783.99991989136 21 24 15
134.041547775269 -1.00299494806677 2776.99995040894 19 22 15
-225.250393152237 -8.69879778474569 2815.00005722046 21 28 21
-216.648861765862 -8.66205152124166 2802.99997329712 20 27 19
-210.348904132843 -8.71800351887941 2821.00009918213 20 23 14
-199.855104088783 -8.59778933227062 2782.00006484985 21 24 15
-190.886348485947 -8.53627827018499 2762.00008392334 22 25 16
-184.349358081818 -8.58292635530233 2776.99995040894 20 23 14
-178.939327597618 -8.68829246610403 2811.00010871887 18 21 12
-171.515196561813 -8.70092771947384 2815.00005722046 16 19 10
-163.020923733711 -8.65791272372007 2801.00011825562 16 19 10
-155.268058180809 -8.65197740495205 2799.00002479553 15 18 11
-147.736474871635 -8.6583960801363 2801.00011825562 14 17 10
-141.643792390823 -8.75444896519184 2832.00001716614 14 17 10
-133.726328611374 -8.74229799956083 2828.00006866455 13 16 9
-124.805338680744 -8.65903403609991 2801.00011825562 15 18 11
-116.282157599926 -8.59430059790611 2779.99997138977 12 15 8
-108.185924589634 -8.55428725481033 2766.99995994568 13 16 9
-93.2142585515976 -8.56697000563145 2770.99990844727 16 19 12
-86.1132815480232 -8.61348677426577 2786.00001335144 11 14 7
-78.6482393741608 -8.62907432019711 2790.99988937378 8 11 4
-72.9115679860115 -8.85798595845699 2865.00000953674 9 12 5
-65.5209720134735 -8.91683902591467 2884.0000629425 7 10 3
-56.4672648906708 -8.7345177307725 2825.00004768372 10 13 6
-47.8563085198402 -8.57382081449032 2773.00000190735 3 6 0
-17.4100156873465 -8.49672872573137 2747.99990653992 0 1 0
-9.98174585402012 -8.56168288737535 2769.00005340576 8 11 4
-2.45185405947268 -8.67300387471914 2805.0000667572 12 15 8
5.23381447419524 -8.71628895401955 2819.00000572205 10 13 6
12.8583004698157 -8.66680312901735 2802.99997329712 10 13 4
19.9489500373602 -8.42869561165571 2726.0000705719 11 14 5
27.5434702634811 -8.47503636032343 2740.9999370575 12 15 6
35.2836921811104 -8.53682588785887 2760.99991798401 15 18 9
43.2105399668217 -8.6140614002943 2786.00001335144 16 19 10
50.6353192031384 -8.58306884765625 2776.00002288818 15 18 9
58.047216385603 -8.55824816972017 2767.99988746643 15 18 9
65.3914883732796 -8.53032432496548 2759.0000629425 16 19 10
72.6863443851471 -8.50238930433989 2750 17 20 11
80.5732980370522 -8.54246038943529 2763.00001144409 17 20 9
88.0844220519066 -8.53923708200455 2762.00008392334 18 21 10
95.3127667307854 -8.5112676024437 2753.00002098084 19 22 11
102.267436683178 -8.46473779529333 2737.99991607666 20 23 12
110.262095928192 -8.50476231426001 2750.99992752075 20 23 12
118.669718503952 -8.56950413435698 2772.0000743866 18 21 10
127.009347081184 -8.62186588346958 2789.00003433228 27 30 23
135.006800293922 -8.64639133214951 2796.99993133545 16 19 12
142.843410372734 -8.65854043513536 2801.00011825562 19 22 15
-225.089877843857 -16.3695812225342 2812.99996376038 22 26 25
-219.199016690254 -16.5040623396635 2835.99996566772 24 29 23
-210.944950580597 -16.4639428257942 2828.9999961853 19 22 13
-200.213864445686 -16.2201039493084 2786.99994087219 21 24 15
-191.369697451591 -16.1159094423056 2769.00005340576 21 24 15
-184.813633561134 -16.2037555128336 2783.99991989136 19 22 13
-178.493320941925 -16.3206942379475 2803.99990081787 18 21 12
-171.02737724781 -16.3386631757021 2806.99992179871 17 20 11
-162.78775036335 -16.2809416651726 2796.99993133545 16 19 10
-154.102802276611 -16.170809045434 2778.00011634827 15 18 11
-146.681249141693 -16.1887109279633 2780.99989891052 14 17 10
-139.392778277397 -16.2240564823151 2786.99994087219 15 18 11
-132.354721426964 -16.2943135946989 2799.00002479553 15 18 11
-124.715931713581 -16.2946935743093 2799.00002479553 15 18 11
-116.365544497967 -16.1960776895285 2782.00006484985 18 21 14
-109.006762504578 -16.2313412874937 2788.00010681152 18 21 14
-101.214706897736 -16.2025429308414 2782.99999237061 12 15 8
-94.5932567119598 -16.3716711103916 2812.00003623962 12 15 8
-86.7312699556351 -16.3370072841644 2805.99999427795 11 14 7
-78.7044242024422 -16.26156270504 2792.99998283386 8 11 4
-70.7991346716881 -16.1977410316467 2782.00006484985 9 12 5
-64.8619830608368 -16.6229754686356 2855.00001907349 7 10 3
-57.4265718460083 -16.7279597371817 2872.99990653992 10 13 6
-18.1639045476913 -16.6935902088881 2867.00010299683 16 18 13
-10.1763820275664 -16.4374317973852 2822.99995422363 12 15 8
-2.40115076303482 -15.9949269145727 2746.99997901917 11 14 7
5.21709304302931 -16.361752524972 2809.99994277954 10 13 6
12.9362558946013 -16.4199527353048 2819.9999332428 9 12 3
20.5050744116306 -16.3150932639837 2802.00004577637 10 13 4
35.2708324790001 -16.0703770816326 2759.99999046326 14 17 8
43.117381632328 -16.186710447073 2779.99997138977 17 20 11
50.6899282336235 -16.1807499825954 2779.00004386902 17 20 11
57.8583553433418 -16.0641390830278 2759.0000629425 17 20 11
65.5098408460617 -16.0930659621954 2763.99993896484 17 20 11
73.2148066163063 -16.1277949810028 2769.99998092651 17 20 11
80.748088657856 -16.1217451095581 2769.00005340576 17 20 9
88.1799012422562 -16.0982068628073 2765.00010490417 18 21 10
95.5895185470581 -16.0746444016695 2760.99991798401 19 22 11
102.752767503262 -16.0161312669516 2750.99992752075 20 23 12
110.261842608452 -16.0158164799213 2750.99992752075 19 22 11
118.455402553082 -16.1086283624172 2766.99995994568 18 21 12
127.145662903786 -16.2538085132837 2792.00005531311 19 22 15
134.95822250843 -16.2767060101032 2796.0000038147 18 21 14
141.925126314163 -16.2006244063377 2782.99999237061 20 23 16
-228.454068303108 -23.6010197550058 2760.99991798401 149 153 152
-227.489590644836 -24.3029277771711 2842.99993515015 10 15 11
-218.50261092186 -24.1670906543732 2826.99990272522 18 23 17
-209.229230880737 -23.9884685724974 2805.99999427795 20 23 14
-199.56661760807 -23.7499587237835 2778.00011634827 20 23 14
-192.26747751236 -23.7849876284599 2782.00006484985 20 23 14
-185.144901275635 -23.845637217164 2789.00003433228 19 22 13
-178.174406290054 -23.931909352541 2799.00002479553 18 21 12
-170.173764228821 -23.8813553005457 2792.99998283386 17 20 11
-161.739557981491 -23.7623564898968 2779.00004386902 16 19 10
-153.658449649811 -23.6860755831003 2769.99998092651 15 18 11
-145.520359277725 -23.5926583409309 2759.0000629425 14 17 10
-138.692066073418 -23.7129889428616 2773.00000190735 16 19 12
-131.31394982338 -23.7477757036686 2776.99995040894 16 19 12
-124.047100543976 -23.8081887364388 2783.99991989136 18 21 14
-117.578141391277 -24.0396149456501 2811.00010871887 16 19 12
-110.80489307642 -24.2368075996637 2834.00011062622 12 15 8
-102.850936353207 -24.1859536617994 2828.00006866455 8 11 4
-94.8956683278084 -24.1265222430229 2821.00009918213 11 14 7
-87.2254967689514 -24.1354685276747 2822.00002670288 13 16 9
-79.0704563260078 -23.9989832043648 2805.99999427795 10 13 6
-71.0279047489166 -23.8710194826126 2790.99988937378 12 15 8
-64.1347467899323 -24.145008996129 2822.99995422363 9 12 5
-56.5668679773808 -24.205144494772 2829.99992370605 11 14 7
-10.0465714931488 -23.8382257521153 2786.99994087219 6 9 2
-2.40988261066377 -23.581650108099 2756.99996948242 12 15 8
5.08339749649167 -23.4191305935383 2737.99991607666 11 14 7
12.7756521105766 -23.8211024552584 2785.00008583069 10 13 4
20.1390981674194 -23.5387701541185 2752.00009346008 10 13 4
27.7643762528896 -23.632749915123 2763.00001144409 10 13 4
43.1172214448452 -23.7778443843126 2779.99997138977 14 17 8
50.4708550870419 -23.666450753808 2766.99995994568 16 19 10
57.7323138713837 -23.5464703291655 2753.00002098084 17 20 11
64.7985711693764 -23.3836956322193 2733.99996757507 18 21 12
73.0030909180641 -23.6228778958321 2762.00008392334 18 21 12
80.3978517651558 -23.5797762870789 2756.99996948242 18 21 10
87.2228294610977 -23.3912542462349 2734.99989509583 19 22 11
95.3468084335327 -23.5533565282822 2753.99994850159 20 23 12
102.789752185345 -23.5358215868473 2752.00009346008 21 24 13
109.980866312981 -23.4669428318739 2743.99995803833 20 23 12
117.855623364449 -23.5434174537659 2753.00002098084 19 22 13
125.961199402809 -23.6540641635656 2766.00003242493 19 24 17
135.585233569145 -24.0212175995111 2809.00001525879 20 25 19
143.40353012085 -24.0462739020586 2812.00003623962 11 16 10
-228.866696357727 -31.1919953674078 2766.00003242493 95 100 93
-217.187598347664 -31.6906720399857 2809.99994277954 17 22 15
-207.886040210724 -31.4437411725521 2788.00010681152 20 23 12
-199.709296226501 -31.3546508550644 2779.99997138977 19 22 13
-192.059189081192 -31.3444696366787 2779.00004386902 18 21 12
-185.011208057404 -31.4357578754425 2786.99994087219 18 21 12
-177.791580557823 -31.5044559538364 2792.99998283386 18 21 12
-169.807329773903 -31.4377546310425 2786.99994087219 17 20 11
-161.273136734962 -31.2582030892372 2770.99990844727 16 19 10
-153.158441185951 -31.1462879180908 2760.99991798401 14 17 10
-146.099805831909 -31.2486682087183 2769.99998092651 14 17 10
-138.541325926781 -31.2494747340679 2769.99998092651 16 19 12
-131.218731403351 -31.3066504895687 2775.00009536743 17 20 13
-124.091058969498 -31.4201936125755 2785.00008583069 15 18 11
-110.804341733456 -31.9743640720844 2834.00011062622 10 13 6
-102.668568491936 -31.8508632481098 2822.99995422363 9 12 5
-94.6260765194893 -31.738605350256 2812.99996376038 11 14 7
-87.3486995697021 -31.8858064711094 2825.99997520447 11 14 7
-80.1972150802612 -32.1119464933872 2845.99995613098 9 12 5
-72.9616656899452 -32.3493406176567 2867.00010299683 11 14 7
-64.0435516834259 -31.8081304430962 2819.00000572205 9 12 5
-56.8264238536358 -32.07927942276 2842.99993515015 11 14 7
-17.7329313009977 -31.5838605165482 2799.00002479553 1 4 0
-10.0825689733028 -31.5613783895969 2796.99993133545 7 10 3
-2.42123357020319 -31.2567427754402 2769.99998092651 12 15 8
5.15206577256322 -31.3131548464298 2775.00009536743 12 15 8
12.5599838793278 -30.8955945074558 2737.99991607666 11 14 7
20.2341321855783 -31.2001723796129 2765.00010490417 11 14 7
27.8948694467545 -31.3241556286812 2776.00002288818 11 14 7
35.6155633926392 -31.448096036911 2786.99994087219 10 13 6
42.8378321230412 -31.1657749116421 2762.00008392334 11 14 5
50.2334795892239 -31.0752354562283 2753.99994850159 14 17 8
57.3545508086681 -30.8605339378119 2734.99989509583 16 19 10
64.9404525756836 -30.9166014194489 2740.00000953674 18 21 12
72.6591199636459 -31.0177560895681 2749.00007247925 19 22 13
80.222487449646 -31.0398805886507 2750.99992752075 19 22 11
87.1586203575134 -30.8363102376461 2733.00004005432 19 22 11
94.7577804327011 -30.8809150010347 2736.99998855591 21 24 13
102.453082799911 -30.9480503201485 2743.00003051758 21 24 13
109.459280967712 -30.8120511472225 2730.99994659424 21 24 13
116.870418190956 -30.800124630332 2730.00001907349 20 23 14
125.915020704269 -31.1943013221025 2765.00010490417 18 23 16
134.329587221146 -31.3966311514378 2782.99999237061 19 26 19
-224.126398563385 -39.2318777740002 2801.00011825562 26 29 20
-216.64522588253 -39.2614081501961 2802.99997329712 22 25 16
-208.854049444199 -39.2348654568195 2801.00011825562 18 21 10
-201.863154768944 -39.3623560667038 2809.99994277954 18 21 12
-193.854853510857 -39.2936877906322 2805.0000667572 18 21 12
-186.40410900116 -39.3370389938354 2808.00008773804 18 21 12
-177.917778491974 -39.1561947762966 2795.00007629395 18 21 12
-169.989049434662 -39.0873625874519 2789.99996185303 18 21 12
-161.737725138664 -38.934413343668 2779.00004386902 18 21 12
-154.100492596626 -38.9215126633644 2778.00011634827 15 18 11
-147.206470370293 -39.1047112643719 2790.99988937378 14 17 10
-139.640763401985 -39.1197353601456 2792.00005531311 11 14 7
-131.643444299698 -39.0085987746716 2783.99991989136 11 14 7
-124.714054167271 -39.2196886241436 2799.00002479553 11 14 7
-118.998929858208 -39.8651100695133 2845.00002861023 12 15 8
-109.826169908047 -39.3614768981934 2809.00001525879 13 16 9
-101.758703589439 -39.2080843448639 2798.00009727478 12 15 8
-96.3410288095474 -40.1336476206779 2864.00008201599 11 14 7
-88.8008400797844 -40.2604267001152 2872.99990653992 10 13 6
-72.1977353096008 -39.7570878267288 2836.99989318848 8 11 4
-64.0885755419731 -39.5333543419838 2821.00009918213 10 13 6
-56.9060109555721 -39.8981459438801 2846.99988365173 10 13 6
-17.5427552312613 -38.8063527643681 2769.00005340576 0 1 0
-9.95273143053055 -38.6943332850933 2760.99991798401 8 9 3
-2.42034392431378 -38.8064980506897 2769.00005340576 11 12 6
5.13717997819185 -38.7784577906132 2766.99995994568 12 13 7
12.8030264750123 -39.1147397458553 2790.99988937378 12 13 7
19.9120119214058 -38.1336063146591 2720.99995613098 13 14 8
35.8325727283955 -39.2964072525501 2803.99990081787 10 11 5
50.1601882278919 -38.5390184819698 2750 13 16 7
57.563878595829 -38.468562066555 2744.99988555908 13 16 7
65.0348365306854 -38.4541153907776 2743.99995803833 15 18 9
72.870098054409 -38.6358015239239 2756.99996948242 18 21 12
80.4260969161987 -38.6492647230625 2757.99989700317 20 23 12
87.0304927229881 -38.2422842085361 2729.00009155273 20 23 12
94.7571694850922 -38.3537411689758 2736.99998855591 21 24 13
102.303028106689 -38.381066173315 2739.00008201599 21 24 13
108.977615833282 -38.1000600755215 2719.00010108948 20 23 12
116.313144564629 -38.0712375044823 2717.00000762939 20 23 14
126.506224274635 -38.925115019083 2778.00011634827 16 21 14
136.307701468468 -39.5687222480774 2823.99988174438 18 23 17
-222.204282879829 -46.4739911258221 2776.99995040894 25 28 17
-215.716078877449 -46.710092574358 2790.99988937378 12 15 4
-210.194602608681 -47.1804663538933 2819.00000572205 19 22 11
-202.508166432381 -47.18217253685 2819.00000572205 18 21 12
-195.097327232361 -47.2507737576962 2822.99995422363 18 21 12
-187.597572803497 -47.3025813698769 2825.99997520447 17 20 11
-180.971875786781 -47.5886724889278 2842.99993515015 16 19 10
-171.632796525955 -47.1549294888973 2816.99991226196 16 19 10
-163.773462176323 -47.1061132848263 2813.99989128113 16 19 10
-157.205700874329 -47.442264854908 2834.00011062622 15 18 11
-149.051338434219 -47.3096184432507 2825.99997520447 13 16 9
-141.390159726143 -47.3275855183601 2826.99990272522 12 15 8
-132.588133215904 -46.9436906278133 2803.99990081787 10 13 6
-125.1140832901 -47.0117442309856 2808.00008773804 12 15 8
-120.252817869186 -48.13452064991 2875 12 15 8
-112.366653978825 -48.1187589466572 2874.00007247925 12 15 8
-104.012727737427 -47.8852726519108 2859.99989509583 11 14 7
-89.2946794629097 -48.3724772930145 2888.99993896484 10 13 6
-80.1960751414299 -47.6532131433487 2845.99995613098 12 15 8
-72.7570280432701 -47.8715412318707 2858.99996757507 11 14 7
-64.0426352620125 -47.2023524343967 2819.00000572205 13 16 9
-56.9055639207363 -47.6717129349709 2846.99988365173 12 15 8
-17.4032393842936 -45.9988042712212 2746.99997901917 7 8 2
-9.94904898107052 -46.2166033685207 2759.99999046326 0 1 0
-2.42819148115814 -46.5180762112141 2778.00011634827 11 12 6
5.17241423949599 -46.6520264744759 2786.00001335144 11 12 6
12.6240262761712 -46.0826121270657 2752.00009346008 12 13 7
19.9557635933161 -45.663844794035 2726.99999809265 13 14 8
27.331754565239 -45.5464236438274 2720.00002861023 12 13 7
35.7556194067001 -46.8522645533085 2798.00009727478 11 12 6
43.2404689490795 -46.6844849288464 2788.00010681152 11 14 5
51.3636395335197 -47.1529327332973 2815.99998474121 13 16 7
58.5070997476578 -46.7171035706997 2789.99996185303 13 16 7
65.2239322662354 -46.0802875459194 2752.00009346008 15 18 9
72.8959515690804 -46.1801588535309 2757.99989700317 18 21 12
80.2505016326904 -46.0790395736694 2752.00009346008 20 23 12
87.2530415654182 -45.8104312419891 2736.00006103516 20 23 12
94.5487096905708 -45.72594165802 2730.99994659424 21 24 13
102.22751647234 -45.8255633711815 2736.99998855591 21 24 13
109.097003936768 -45.5735214054585 2721.99988365173 20 23 12
116.611905395985 -45.6060543656349 2723.99997711182 20 23 14
126.869544386864 -46.643041074276 2786.00001335144 18 23 16
136.644512414932 -47.3953038454056 2831.00008964539 17 22 16
-223.08249771595 -54.2661882936955 2788.00010681152 14 18 3
-218.032851815224 -54.9106225371361 2821.00009918213 12 16 2
-209.521666169167 -54.6985529363155 2809.99994277954 16 19 8
-202.578172087669 -54.8951998353004 2819.9999332428 15 18 9
-194.058984518051 -54.6635165810585 2808.00008773804 14 17 8
-188.458830118179 -55.2688501775265 2838.99998664856 13 16 7
-181.161180138588 -55.4069206118584 2845.99995613098 13 16 7
-173.946470022202 -55.5838644504547 2855.00001907349 12 15 6
-164.877742528915 -55.1571808755398 2832.99994468689 12 15 6
-156.427666544914 -54.905641824007 2819.9999332428 12 15 8
-149.260953068733 -55.1018416881561 2829.99992370605 12 15 8
-141.688972711563 -55.16167730093 2832.99994468689 11 14 7
-132.965192198753 -54.7541193664074 2812.00003623962 11 14 7
-125.157505273819 -54.6969771385193 2809.00001525879 14 17 10
-119.749791920185 -55.7496808469296 2862.99991607666 12 15 8
-112.404718995094 -55.9844933450222 2875 10 13 6
-103.720836341381 -55.537685751915 2851.99999809265 9 12 5
-95.6666469573975 -55.3828850388527 2844.00010108948 10 13 6
-86.9139283895493 -54.7606199979782 2812.00003623962 13 16 9
-79.209104180336 -54.7419711947441 2811.00010871887 9 12 5
-71.789339184761 -54.9374669790268 2821.00009918213 10 13 6
-64.2237812280655 -55.0549812614918 2826.99990272522 12 15 8
-56.4852990210056 -55.0361089408398 2825.99997520447 10 13 6
-17.3840709030628 -53.4409582614899 2743.99995803833 12 13 5
-10.215706191957 -55.193904787302 2834.00011062622 7 8 2
-2.45876144617796 -54.7849722206593 2812.99996376038 11 12 6
5.1092435605824 -53.5969510674477 2752.00009346008 10 11 5
12.6284947618842 -53.6163300275803 2753.00002098084 12 13 7
20.233653485775 -53.8498796522617 2765.00010490417 12 13 8
28.1353704631329 -54.5312836766243 2799.99995231628 13 14 9
35.2824702858925 -53.7714250385761 2760.99991798401 13 14 8
42.976401746273 -53.9657846093178 2770.99990844727 10 13 6
49.9039776623249 -53.2836988568306 2736.00006103516 13 16 7
58.5904344916344 -54.4127076864243 2793.99991035461 14 17 8
65.5788406729698 -53.8862720131874 2766.99995994568 14 17 8
72.8688538074493 -53.6908432841301 2756.99996948242 15 18 9
80.1039561629295 -53.4953437745571 2746.99997901917 19 22 11
87.2203484177589 -53.260825574398 2734.99989509583 19 22 11
94.7555601596832 -53.2988756895065 2736.99998855591 21 24 13
102.263927459717 -53.3173717558384 2737.99991607666 21 24 13
109.777353703976 -53.3358082175255 2739.00008201599 21 24 13
117.038913071156 -53.237322717905 2733.99996757507 21 24 15
125.092402100563 -53.4892678260803 2746.99997901917 16 19 12
134.278208017349 -54.1695132851601 2782.00006484985 23 26 19
-230.596706271172 -61.849407851696 2786.99994087219 68 70 57
-226.760879158974 -62.8949478268623 2834.00011062622 15 17 4
-216.562137007713 -62.187172472477 2802.00004577637 18 20 7
-210.041433572769 -62.5224187970161 2816.99991226196 13 16 5
-201.570421457291 -62.280535697937 2805.99999427795 12 15 6
-191.638141870499 -61.5502223372459 2773.00000190735 12 15 6
-185.80162525177 -62.1294155716896 2799.00002479553 12 15 6
-178.804129362106 -62.3534061014652 2809.00001525879 12 15 6
-172.177791595459 -62.7327114343643 2825.99997520447 12 15 6
-163.712069392204 -62.4459870159626 2812.99996376038 12 15 6
-154.76194024086 -61.9371756911278 2789.99996185303 12 15 8
-148.679241538048 -62.5826567411423 2819.00000572205 12 15 8
-140.737235546112 -62.4732710421085 2813.99989128113 12 15 8
-133.342072367668 -62.6080110669136 2819.9999332428 12 15 8
-125.779956579208 -62.6760646700859 2822.99995422363 14 17 10
-119.079299271107 -63.2102862000465 2846.99988365173 11 14 7
-111.035145819187 -63.056156039238 2839.99991416931 10 13 6
-102.992385625839 -62.879741191864 2832.00001716614 9 12 5
-95.3628867864609 -62.9474669694901 2835.00003814697 9 12 5
-87.6238867640495 -62.9484951496124 2835.00003814697 14 17 10
-80.2508443593979 -63.2380992174149 2848.00004959106 10 13 6
-72.7047026157379 -63.4388104081154 2857.00011253357 13 16 9
-64.1549453139305 -62.7068057656288 2823.99988174438 15 18 11
-56.3248060643673 -62.5742748379707 2818.00007820129 14 17 10
-17.8590286523104 -62.5985786318779 2819.00000572205 25 26 18
-10.1651297882199 -62.6209303736687 2819.9999332428 13 14 8
5.1593161188066 -61.7105513811111 2779.00004386902 11 12 6
12.7384522929788 -61.6660341620445 2776.99995040894 11 12 7
20.350519567728 -61.7546699941158 2780.99989891052 12 13 8
28.1652119010687 -62.2429177165031 2802.99997329712 12 13 8
35.7037968933582 -62.0427094399929 2793.99991035461 13 14 8
42.8208559751511 -61.3094754517078 2760.99991798401 10 13 6
50.7789477705956 -61.8196725845337 2783.99991989136 13 16 7
57.4574433267117 -60.8420334756374 2740.00000953674 14 17 8
66.5972456336021 -62.3956844210625 2809.99994277954 13 16 7
72.973795235157 -61.3068640232086 2760.99991798401 14 17 8
79.9864679574966 -60.906320810318 2743.00003051758 18 21 10
87.1875360608101 -60.7055388391018 2733.99996757507 19 22 11
94.7199389338493 -60.748927295208 2736.00006103516 20 23 12
102.56166011095 -60.9698481857777 2746.00005149841 21 24 13
110.537692904472 -61.2350851297379 2757.99989700317 21 24 13
117.808245122433 -61.1005946993828 2752.00009346008 21 24 13
125.819697976112 -61.3434463739395 2763.00001144409 21 22 14
132.828801870346 -61.097789555788 2752.00009346008 19 20 12
-225.718080997467 -70.3041255474091 2821.00009918213 15 16 8
-217.332497239113 -70.0825378298759 2812.00003623962 16 17 9
-210.113599896431 -70.2346935868263 2818.00007820129 13 16 5
-202.286407351494 -70.1873824000359 2815.99998474121 13 16 7
-182.480424642563 -68.5221329331398 2749.00007247925 12 15 6
-176.192224025726 -68.9979493618011 2767.99988746643 12 15 6
-169.616892933846 -69.3989396095276 2783.99991989136 12 15 6
-161.615014076233 -69.2265033721924 2776.99995040894 12 15 6
-155.536681413651 -69.9015632271767 2803.99990081787 12 15 8
-148.624747991562 -70.2524781227112 2818.00007820129 12 15 8
-142.3359811306 -70.9523409605026 2845.99995613098 13 16 9
-133.576929569244 -70.4305246472359 2825.00004768372 13 16 9
-127.516120672226 -71.3546276092529 2861.99998855591 10 13 6
-118.785113096237 -70.8076730370522 2839.99991416931 11 14 7
-102.882064878941 -70.5362036824226 2828.9999961853 10 13 6
-94.95809674263 -70.3878551721573 2822.99995422363 9 12 5
-87.004691362381 -70.1895281672478 2815.00005722046 10 13 6
-80.785259604454 -71.4871808886528 2867.00010299683 7 10 3
-73.1618776917458 -71.6876238584518 2875 15 18 11
-64.6312534809113 -70.9404572844505 2845.00002861023 11 14 7
-56.8038150668144 -70.8664208650589 2842.00000762939 11 14 7
-10.1109407842159 -69.9463337659836 2805.0000667572 10 11 5
-2.47618672437966 -70.6446245312691 2832.99994468689 21 22 16
5.20752323791385 -69.9463933706284 2805.0000667572 11 12 6
12.6970149576664 -69.0236315131187 2767.99988746643 11 12 7
20.1234295964241 -68.574570119381 2750 11 12 7
27.7629531919956 -68.8984394073486 2763.00001144409 12 13 8
35.4605726897717 -69.1972747445107 2775.00009536743 13 14 8
43.4096828103065 -69.7952285408974 2799.00002479553 11 14 7
51.3255149126053 -70.1686590909958 2813.99989128113 13 16 7
59.1552965342999 -70.3425109386444 2821.00009918213 13 16 7
66.4542391896248 -69.9178129434586 2803.99990081787 12 15 6
73.052205145359 -68.9195320010185 2763.99993896484 13 16 7
80.3354382514954 -68.6941593885422 2755.00011444092 17 20 9
87.632954120636 -68.5185492038727 2747.99990653992 17 20 9
95.238097012043 -68.5921981930733 2750.99992752075 19 22 11
103.307411074638 -68.9649507403374 2766.00003242493 20 23 12
111.097484827042 -69.1131949424744 2772.0000743866 20 23 12
118.577376008034 -69.0618753433228 2769.99998092651 20 23 12
126.592323184013 -69.3096593022347 2779.99997138977 22 23 15
134.854376316071 -69.6570500731468 2793.99991035461 18 19 11
-227.395445108414 -78.5821825265884 2842.00000762939 13 14 8
-217.020556330681 -77.6450708508492 2808.00008773804 21 22 16
-208.843350410461 -77.4544030427933 2801.00011825562 15 18 9
-203.864127397537 -78.4803703427315 2838.00005912781 15 18 9
-195.918068289757 -78.4001424908638 2835.00003814697 14 17 8
-185.664281249046 -77.3518681526184 2796.99993133545 12 15 6
-175.998985767365 -76.4693766832352 2765.00010490417 12 15 6
-168.639868497849 -76.5547081828117 2767.99988746643 12 15 6
-163.533389568329 -77.7186155319214 2809.99994277954 12 15 6
-155.59010207653 -77.5825306773186 2805.0000667572 12 15 8
-149.888560175896 -78.6080285906792 2842.00000762939 12 15 8
-143.034264445305 -79.1079327464104 2859.99989509583 12 15 8
-135.324627161026 -79.1651904582977 2861.99998855591 12 15 8
-127.51442193985 -79.1670233011246 2861.99998855591 9 12 5
-121.334865689278 -80.2475586533546 2901.00002288818 11 14 7
-111.501507461071 -78.8937360048294 2851.99999809265 11 14 7
-102.917067706585 -78.2866477966309 2829.99992370605 10 13 6
-94.9568375945091 -78.0943855643272 2822.99995422363 10 13 6
-87.745301425457 -78.5382837057114 2838.99998664856 13 16 9
-80.023393034935 -78.5671249032021 2839.99991416931 10 13 6
-72.9573220014572 -79.3151557445526 2867.00010299683 19 22 15
-65.4709190130234 -79.7310993075371 2881.99996948242 12 15 8
-57.4226565659046 -79.4829726219177 2872.99990653992 12 15 8
-10.0891767069697 -77.4385184049606 2799.00002479553 11 12 6
-2.46741320006549 -78.1026035547256 2822.99995422363 15 16 10
5.27242990210652 -78.5729065537453 2839.99991416931 12 13 7
12.7473026514053 -76.8851339817047 2779.00004386902 11 12 7
20.2841442078352 -76.6912326216698 2772.0000743866 11 12 7
27.8329141438007 -76.6355618834496 2769.99998092651 11 12 7
35.1789742708206 -76.1647894978523 2753.00002098084 12 13 7
43.2385094463825 -77.1325528621674 2788.00010681152 13 16 9
51.1242002248764 -77.5468721985817 2802.99997329712 12 15 6
59.1335296630859 -78.0164077877998 2819.9999332428 11 14 5
65.8134743571281 -76.825924217701 2776.99995040894 10 13 4
73.5533982515335 -76.990932226181 2782.99999237061 12 15 6
80.3926736116409 -76.270580291748 2756.99996948242 15 18 9
88.492788374424 -76.7673477530479 2775.00009536743 16 19 8
96.1023047566414 -76.7937228083611 2776.00002288818 17 20 11
102.932542562485 -76.2390643358231 2756.00004196167 18 21 12
111.336477100849 -76.846145093441 2778.00011634827 19 22 11
120.202481746674 -77.6744037866592 2808.00008773804 19 22 11
127.86565721035 -77.6726678013802 2808.00008773804 26 26 18
133.11505317688 -76.2877985835075 2757.99989700317 20 20 12
-227.232187986374 -86.2758159637451 2839.99991416931 39 42 35
-217.713013291359 -85.58040112257 2816.99991226196 6 9 2
-209.958717226982 -85.5532065033913 2815.99998474121 12 15 8
-204.435870051384 -86.4677652716637 2845.99995613098 19 22 13
-196.606308221817 -86.4403918385506 2845.00002861023 13 16 7
-187.121942639351 -85.6532976031303 2819.00000572205 28 31 20
-178.542509675026 -85.2306634187698 2805.0000667572 16 19 8
-172.719344496727 -86.144894361496 2835.00003814697 11 14 3
-163.007289171219 -85.1142928004265 2801.00011825562 11 14 3
-157.196432352066 -86.1195102334023 2834.00011062622 11 14 5
-149.358987808228 -86.0610604286194 2832.00001716614 11 14 7
-142.282024025917 -86.4583402872086 2845.00002861023 11 14 7
-134.897097945213 -86.7035612463951 2852.9999256134 10 12 7
-127.4234354496 -86.9183018803597 2859.99989509583 8 11 4
-121.96046859026 -88.6221304535866 2915.99988937378 8 11 4
-112.125396728516 -87.1651098132133 2868.00003051758 10 13 6
-103.89743745327 -86.8324413895607 2857.00011253357 10 13 6
-95.7627072930336 -86.5300446748734 2846.99988365173 13 16 9
-87.7749174833298 -86.318701505661 2839.99991416931 17 20 13
-80.0785720348358 -86.3807797431946 2842.00000762939 7 10 3
-72.3709687590599 -86.4427387714386 2844.00010108948 14 17 8
-65.5153915286064 -87.6596122980118 2884.0000629425 11 14 5
-10.0385649129748 -84.6544504165649 2785.00008583069 3 6 0
-2.44989595375955 -85.2016806602478 2802.99997329712 12 13 7
12.8984833136201 -85.4750946164131 2812.00003623962 11 12 6
20.6497143954039 -85.7788026332855 2822.00002670288 10 11 5
27.9430281370878 -84.5321714878082 2780.99989891052 9 10 4
35.2040082216263 -83.7413817644119 2755.00011444092 8 9 3
42.4624383449554 -83.2240432500839 2737.99991607666 11 14 7
50.776906311512 -84.6215337514877 2783.99991989136 11 14 7
58.3777762949467 -84.6206918358803 2783.99991989136 10 13 6
65.9547001123428 -84.5893323421478 2782.99999237061 12 15 8
73.1294527649879 -84.1019526124001 2766.99995994568 13 16 9
81.6453397274017 -85.1037725806236 2799.99995231628 13 16 9
88.8741612434387 -84.7073346376419 2786.99994087219 14 17 8
95.5123826861382 -83.8549062609673 2759.0000629425 18 21 12
103.491246700287 -84.2180848121643 2770.99990844727 16 19 12
111.535228788853 -84.5811441540718 2782.99999237061 17 20 11
120.286330580711 -85.3999480605125 2809.99994277954 22 25 16
126.998633146286 -84.7598537802696 2789.00003433228 18 17 12
134.126678109169 -84.4539552927017 2779.00004386902 23 22 17
139.465838670731 -83.1147134304047 2734.99989509583 25 25 17
-217.70966053009 -93.2665318250656 2816.99991226196 16 18 13
-211.297497153282 -93.832865357399 2834.00011062622 25 28 21
-204.217150807381 -94.1342413425446 2842.99993515015 12 15 6
-194.944709539413 -93.4090539813042 2821.00009918213 31 34 25
-187.98191845417 -93.7764272093773 2832.00001716614 13 16 5
-182.167768478394 -94.7728678584099 2861.99998855591 17 20 9
-174.666151404381 -94.9413776397705 2867.00010299683 13 16 5
-164.983347058296 -93.8844755291939 2835.00003814697 12 15 4
-156.750202178955 -93.5890823602676 2825.99997520447 12 15 6
-149.251118302345 -93.7240794301033 2829.99992370605 12 15 8
-141.029477119446 -93.3952927589417 2819.9999332428 11 14 7
-132.578149437904 -92.8676724433899 2803.99990081787 11 13 8
-126.485794782639 -94.0290167927742 2838.99998664856 7 10 3
-119.114480912685 -94.3291559815407 2848.00004959106 11 14 7
-113.88286203146 -96.4839980006218 2913.00010681152 13 16 9
-103.677578270435 -94.4322422146797 2851.0000705719 13 16 9
-96.6693386435509 -95.1957404613495 2874.00007247925 12 15 8
-88.3916318416595 -94.7335585951805 2859.99989509583 11 14 7
-80.9789225459099 -95.1987132430077 2874.00007247925 12 15 8
-73.3113214373589 -95.4318791627884 2881.00004196167 13 16 9
-65.6960681080818 -95.7974195480347 2891.99995994568 9 12 3
-58.0004900693893 -96.1297154426575 2901.99995040894 15 18 9
-10.1032815873623 -92.8536430001259 2802.99997329712 7 10 3
-2.44461256079376 -92.6549807190895 2796.99993133545 11 12 6
5.25741558521986 -93.8143953680992 2832.00001716614 10 11 5
12.8569919615984 -92.8535684943199 2802.99997329712 9 10 4
28.1837247312069 -92.9191410541534 2805.0000667572 9 10 4
35.6378927826881 -92.3885852098465 2789.00003433228 10 11 5
42.4462482333183 -90.6653702259064 2736.99998855591 8 11 4
50.7396161556244 -92.155247926712 2782.00006484985 8 11 4
58.9220151305199 -93.0818319320679 2809.99994277954 7 10 3
65.882533788681 -92.0870304107666 2779.99997138977 8 11 4
73.2604265213013 -91.8208733201027 2772.0000743866 9 12 5
80.94422519207 -91.9520780444145 2776.00002288818 9 12 5
90.0844857096672 -93.5737043619156 2825.00004768372 11 14 7
96.4455381035805 -92.2803282737732 2786.00001335144 12 15 8
103.153474628925 -91.4837270975113 2762.00008392334 13 16 9
111.493371427059 -92.1443775296211 2782.00006484985 14 17 10
119.17145550251 -92.2086909413338 2783.99991989136 22 25 18
126.723378896713 -92.1735242009163 2782.99999237061 29 30 24
133.304059505463 -91.4758443832397 2762.00008392334 19 20 14
-219.097062945366 -101.597353816032 2835.00003814697 55 57 52
-211.36848628521 -101.601123809814 2835.00003814697 13 15 10
-202.489763498306 -101.031348109245 2819.00000572205 15 18 11
-195.010483264923 -101.142376661301 2822.00002670288 12 15 6
-186.78392469883 -100.859023630619 2813.99989128113 22 25 14
-177.136346697807 -99.7511371970177 2782.99999237061 7 10 0
-174.419462680817 -102.621734142303 2862.99991607666 13 16 5
-165.03868997097 -101.656965911388 2835.99996566772 13 16 5
-156.858429312706 -101.373076438904 2828.00006866455 11 14 5
-149.14308488369 -101.375818252563 2828.00006866455 11 14 7
-141.227081418037 -101.235017180443 2823.99988174438 10 13 6
-132.62315094471 -100.556366145611 2805.0000667572 10 12 7
-124.746076762676 -100.379422307014 2799.99995231628 12 15 8
-116.853967308998 -100.166499614716 2793.99991035461 14 17 10
-110.596992075443 -101.423338055611 2828.9999961853 14 17 10
-102.984845638275 -101.532809436321 2832.00001716614 12 15 8
-97.5085347890854 -103.936724364758 2898.9999294281 10 13 6
-89.4099771976471 -103.723302483559 2892.99988746643 9 12 5
-80.8366313576698 -102.864354848862 2868.99995803833 11 14 7
-73.4118297696114 -103.439427912235 2884.99999046326 15 18 11
-65.3768926858902 -103.189699351788 2878.00002098084 5 8 0
-2.49001756310463 -102.154806256294 2848.99997711182 10 13 6
5.20720100030303 -100.577108561993 2805.0000667572 11 12 6
12.7833792939782 -99.9315232038498 2786.99994087219 8 9 3
20.4295068979263 -100.11050850153 2792.00005531311 8 9 3
28.3741317689419 -101.257458329201 2823.99988174438 8 9 3
36.173939704895 -101.507864892483 2831.00008964539 9 10 4
44.1203750669956 -102.009117603302 2845.00002861023 8 11 4
50.1003861427307 -98.4944179654121 2746.99997901917 8 11 4
67.0663043856621 -101.468250155449 2829.99992370605 8 11 4
73.2327029109001 -99.3515700101852 2770.99990844727 8 11 4
81.117756664753 -99.7445657849312 2782.00006484985 8 11 4
89.9872556328774 -101.177148520947 2822.00002670288 9 12 5
97.1015840768814 -100.56596249342 2805.0000667572 10 13 6
103.450454771519 -99.3093252182007 2769.99998092651 10 13 6
110.81013828516 -99.1281345486641 2765.00010490417 13 16 9
117.756821215153 -98.6241698265076 2750.99992752075 20 23 16
125.127494335175 -98.5144376754761 2747.99990653992 24 25 19
132.336497306824 -98.2970222830772 2742.00010299683 26 27 21
-203.060671687126 -109.031252563 2826.99990272522 54 57 50
-195.421531796455 -109.073609113693 2828.00006866455 18 21 14
-186.581373214722 -108.421564102173 2811.00010871887 24 27 18
-178.151443600655 -107.962168753147 2799.00002479553 25 28 19
-170.21270096302 -107.772640883923 2793.99991035461 17 20 9
-164.977431297302 -109.357364475727 2835.00003814697 16 19 8
-156.744599342346 -109.013289213181 2825.99997520447 14 17 8
-149.140313267708 -109.093368053436 2828.00006866455 14 17 10
-141.174450516701 -108.903281390667 2822.99995422363 14 17 10
-133.140742778778 -108.635880053043 2815.99998474121 15 18 11
-124.877400696278 -108.136855065823 2802.99997329712 14 17 10
-118.022814393044 -108.872212469578 2822.00002670288 13 16 9
-110.946744680405 -109.491713345051 2838.00005912781 13 16 9
-104.110196232796 -110.458336770535 2862.99991607666 14 17 10
-97.2040072083473 -111.50199919939 2890.00010490417 15 18 11
-88.8829082250595 -110.963642597198 2875.99992752075 16 19 12
-80.9196382761002 -110.810957849026 2871.99997901917 19 22 15
-73.1559917330742 -110.928222537041 2875 9 12 5
-65.8072605729103 -111.778423190117 2897.0000743866 19 22 15
-2.47423886321485 -109.237089753151 2831.00008964539 3 5 0
5.24237286299467 -108.966961503029 2823.99988174438 14 15 9
