ply
format ascii 1.0
comment KinectMotionCapture
element vertex 758
property float x
property float y
property float z
property uchar red
property uchar green
property uchar blue
end_header
-184.553757312347 733.621563896092 2907.42212046669 218 219 221
-198.992265585097 735.683157807713 2907.28496323894 208 210 209
121.858695268938 687.103883258484 2707.79915593262 180 182 179
122.212012961012 686.860472690405 2717.40332312507 177 179 176
123.406184347966 686.486275355215 2727.60874971319 178 178 178
122.186815095759 686.489986936026 2735.90427510878 177 177 177
121.804429938892 686.363458543059 2744.80482165376 174 174 174
121.445730364887 686.233839306281 2753.68196704819 172 172 172
120.290182592192 686.22915136256 2761.91535821723 171 171 171
119.154430621257 686.221803974914 2770.12914708514 170 168 171
118.86360992553 686.083319644936 2778.94053584891 168 166 169
118.596620633244 685.941772019062 2787.72871243056 164 162 165
119.182090603415 685.668151466358 2797.10681400156 163 161 164
116.47288745644 685.907904633506 2804.01272315764 159 157 160
113.775845292583 686.146006777849 2810.90680029815 158 156 159
109.42204150146 686.641784089847 2816.57382547131 158 156 159
105.072870167702 687.136905400252 2822.23668534456 158 156 159
104.919576889258 686.980742779055 2830.91378235166 160 158 161
100.588987167412 687.473344675549 2836.55856277788 160 158 161
97.1047781289065 687.834770922257 2842.7988338532 160 158 161
90.2525764594255 688.71838815884 2846.63875452804 161 159 162
88.4694956986016 688.816546116651 2854.06284749188 160 158 161
85.0065008076011 689.175225976251 2860.28279636194 159 157 160
81.5516716611615 689.532889451911 2866.49444890605 160 158 161
75.5495908106547 690.284728559621 2870.92657310817 158 156 159
68.6902078085883 691.169087248713 2874.77317752407 160 158 161
60.1122222200479 692.318609258939 2877.45337005546 160 158 161
51.5193556275344 693.470007256165 2880.14806237371 164 162 165
43.7709954356094 694.490570786471 2883.44039394688 169 167 170
35.1501111154882 695.645382925792 2886.16240367411 174 174 176
27.377644774143 696.668867481611 2889.47824128371 178 178 180
16.9977684834954 698.094006672423 2891.07284534277 188 188 190
4.86064097469097 699.78924042732 2891.53868734436 190 190 192
-6.4379290071459 701.354284765598 2892.60764274016 191 191 193
-13.4067514610647 702.252191123301 2896.56125765205 192 193 197
-23.0025387657604 703.554171391128 2898.81236190985 193 194 198
-33.4922788443728 704.99310168925 2900.51402401481 194 195 199
-45.7586568864454 706.704452621093 2901.1058315949 193 194 198
-54.5398319549442 707.879589893816 2903.98400835896 192 193 197
-63.3361011516946 709.056688990067 2906.87688385886 189 190 194
-73.9132161362348 710.506870158717 2908.66364766329 192 193 197
-86.2826985188465 712.231526912988 2909.35553494096 190 191 195
-96.0224981838582 713.552120939797 2911.74723233799 189 190 194
-108.447338978264 715.283874439136 2912.49304244109 188 189 193
-120.012118314148 716.883232253218 2913.82161398601 192 193 197
-136.958461211315 719.305976524192 2911.87032995237 197 198 202
-152.16592652145 721.461342263106 2911.06598967717 213 214 216
-165.623073602102 723.347782295449 2911.39712326306 206 207 209
-183.605845872459 725.925614942397 2909.03519760628 208 209 211
-201.642657984321 728.510319138852 2906.72591869896 191 193 192
117.860246455924 680.351299040079 2705.68248143779 181 183 180
119.826082243472 679.879555341599 2716.55329833843 179 181 178
121.014105212029 679.527597765081 2726.76154337028 180 180 180
121.418721366356 679.296177453425 2736.31299827672 179 179 179
119.400176207413 679.435859136207 2743.96511152228 175 175 175
116.578584836964 679.698449042192 2750.97924858565 173 173 173
116.231857254825 679.583242128762 2759.84237548008 172 172 172
115.08639351192 679.590432981162 2768.06399737759 172 170 173
115.610359087662 679.343553996766 2777.49922132934 171 169 172
114.50873160776 679.345100654032 2785.67814737924 168 166 169
114.255459423109 679.217817358671 2794.45025656642 165 163 166
113.195754934271 679.213961019132 2802.58835102703 160 158 161
112.155759597361 679.207633065736 2810.70690146987 158 156 159
110.30155293257 679.325535831222 2818.19904307583 159 157 160
105.954017447423 679.823176520845 2823.85956832209 158 156 159
104.125983080506 679.937733921407 2831.32587705085 160 158 161
99.7931170905764 680.433407350415 2836.97212603176 160 158 161
95.4649702078418 680.928236947762 2842.61415142941 160 158 161
88.6086102567409 681.807084245342 2846.45856849227 159 157 160
85.9755932353572 682.044721981775 2853.28913635913 158 156 159
85.0507983693589 682.023563296518 2861.29582084907 157 155 158
81.5958777015631 682.386604473109 2867.50676945339 162 157 161
73.8899787339089 683.393972237492 2870.7588867316 157 155 158
67.8806522213877 684.14401221001 2875.1984718946 158 156 159
58.444977593703 685.412598713681 2877.29551748099 159 157 160
50.7058743441355 686.423975498915 2880.58001457046 163 161 164
41.23660979069 687.696665570888 2882.71014678607 168 166 169
32.6100416845083 688.841402946508 2885.43928964256 176 174 177
23.9684644843843 689.988091425731 2888.18304837895 178 178 180
13.5810406784462 691.397965673489 2889.78740338419 185 185 187
2.30359990962592 692.941640182832 2890.83887345249 188 188 190
-9.00058062122255 694.488580764313 2891.91607593374 191 191 193
-16.8461901775094 695.513194417435 2895.30471679893 193 194 198
-27.3226018486961 696.934228030739 2896.99578872049 192 193 197
-36.0715757648258 698.094278665999 2899.84421906267 190 191 195
-47.4667865998484 699.652813001386 2901.01010242987 188 189 193
-56.2516460711446 700.817505518725 2903.89348159067 187 188 192
-64.1708110843044 701.851758856802 2907.35340152867 186 187 191
-73.8666081123842 703.153124884309 2909.70424554665 188 189 193
-87.1204670913013 704.989170314192 2909.8409593426 187 188 192
-95.9753146449929 706.16321666082 2912.79245521195 187 188 192
-108.399788276958 707.873341283008 2913.54109745591 185 186 190
-117.292819466174 709.052555096566 2916.52974649044 187 188 192
-136.017641802529 711.707499533571 2913.4763811121 192 193 197
-152.117187583172 713.967100483704 2912.12523685308 210 211 213
-172.744276058654 716.904831919169 2908.08489759925 204 205 207
-193.436670344492 719.85073722087 2904.10819988664 205 206 208
-209.693999976937 722.130524176737 2902.9107538421 183 185 184
121.14546906074 672.479571287394 2709.25161986367 183 185 182
122.30756852921 672.152569270204 2719.48225673556 181 183 180
122.688010889011 671.943125442754 2729.05446846255 182 182 182
121.465953791872 671.974078691912 2737.34829877921 181 181 181
117.813029594815 672.368908705475 2743.75150728089 180 180 180
114.987346577736 672.640093157759 2750.76843713965 177 177 177
114.636663708231 672.541529291694 2759.63336969977 174 174 174
114.30983403925 672.439840413038 2768.47507755466 172 170 173
114.831652398884 672.211866268519 2777.90963959666 173 171 174
112.901006856706 672.350563515178 2785.47427488061 173 171 174
115.129788782661 671.869081902024 2796.08542163829 174 172 175
113.241066770055 672.002317115164 2803.6092335238 166 164 167
113.86598976715 671.761286024001 2812.94334094766 165 163 166
107.843161108853 672.511023216433 2817.39637869178 166 164 167
102.65339632663 673.136616679531 2822.45742939871 164 162 165
99.1406867436955 673.512486136792 2828.72386723576 163 161 164
96.4767704714462 673.76215691282 2835.58334003751 162 160 163
92.9829376695501 674.135456707502 2841.83175058893 161 159 162
88.6531097588916 674.633282797884 2847.47466454981 159 157 160
84.3277902821025 675.130363622061 2853.11321171922 158 156 159
81.7029478130777 675.375049555508 2859.93462041431 157 155 158
75.6906698711171 676.122749036584 2864.37748231399 158 153 157
70.5268023438688 676.744605988591 2869.4133689186 156 151 155
64.5098055362987 677.49284138883 2873.86083751297 158 153 157
56.7779614613491 678.495224310532 2877.13945542384 157 155 158
49.0351054434601 679.498995462613 2880.42880317699 164 162 165
40.421603077716 680.631353367626 2883.14680124043 170 168 171
31.7929240003645 681.765696545021 2885.87923873846 176 174 177
23.1495326137199 682.901763467208 2888.62636885038 177 177 179
11.0296769872598 684.551831552393 2889.08173508373 181 181 183
0.613914777623847 685.949061878933 2890.71609930879 182 182 184
-10.6936678611702 687.477607256621 2891.79973677861 183 183 185
-18.5432828377516 688.494660165296 2895.1931347181 181 182 186
-30.7694717128544 690.157897370732 2895.75214504903 181 182 186
-39.5261672489866 691.308084212722 2898.60936309635 182 183 187
-50.0517943236027 692.71922372 2900.3507689856 183 184 188
-57.9631907917233 693.744229035921 2903.80467933917 183 184 188
-66.7669980272558 694.900649900327 2906.70775861465 186 187 191
-73.8201233319344 695.798923396078 2910.74503324073 185 186 190
-85.3041117975666 697.349943406518 2912.00052256344 184 185 189
-95.0416635303375 698.643200392305 2914.39369029126 184 185 189
-106.575229690314 700.200765303007 2915.69744366395 179 180 184
-118.13558219595 701.761766027023 2917.02728846215 182 183 187
-135.077119741856 704.113967478911 2915.08165884153 186 187 191
-152.068657999618 706.472531283834 2913.18474031392 206 207 209
-176.280248708238 709.891534290394 2906.96475792538 201 202 204
-201.470984937266 713.452579257169 2900.27884061364 200 201 203
-217.745109747954 715.701991688728 2899.1025617708 174 176 175
125.2400316249 664.509616417628 2713.4488368304 183 185 182
123.977691064807 664.559446742766 2721.77987919769 181 183 180
123.548624233876 664.487452598403 2730.71872119697 183 183 183
122.328397156612 664.531665967832 2739.00911227885 182 182 182
118.67702026108 664.931739089397 2745.40967151617 183 183 183
115.034189016623 665.330485982645 2751.80227865361 179 179 179
112.22055122846 665.608053765181 2758.80630396857 175 175 175
112.710436412924 665.40303429809 2768.26918343429 172 170 173
113.228107096172 665.194453058557 2777.70499791737 172 170 173
112.120175362278 665.223684252084 2785.88609242231 173 171 174
112.689441689172 665.008480624196 2795.27165045464 177 175 178
113.286429739116 664.78972326381 2804.63020564629 169 167 170
113.078694570536 664.688883245368 2813.35352544056 168 166 169
107.888184661099 665.314688581244 2818.41528475513 169 167 170
102.698313585991 665.940295444249 2823.47643903196 167 165 168
98.347286284167 666.443624558403 2829.13959095714 165 163 166
94.8411159434874 666.823963796747 2835.39921244026 165 163 166
91.3431124243833 667.203168577723 2841.65055397914 163 161 164
87.8536098851681 667.581288637199 2847.89395208268 161 159 162
85.2184470064232 667.835354351504 2854.72422276967 160 158 161
80.8993952971018 668.334357590019 2860.35626182133 159 157 160
74.0350997662906 669.203237091787 2864.21003226803 158 153 157
66.3118318207241 670.196578064536 2867.48147035174 156 151 155
61.1389097551527 670.819399578489 2872.52620568493 156 154 157
54.2551830494391 671.690538744213 2876.39927544019 159 157 160
48.22192748167 672.438052284672 2880.86299591435 167 165 168
38.746872964289 673.68465449546 2883.00239558223 172 170 173
30.1146335076345 674.808642182082 2885.74023696856 175 173 176
20.6039087133965 676.059564291565 2887.91441926952 177 177 179
11.074601471817 677.312815975888 2890.10704774724 180 180 182
1.52616450030418 678.568433335712 2892.31798484178 179 179 181
-8.91015601231704 679.952097904546 2893.97476877868 178 178 180
-18.4979657810707 681.212606824334 2896.22441851448 177 178 182
-31.5971718498282 682.980624453364 2896.21761416372 178 179 183
-42.1055589388315 684.373374159241 2897.94461849701 181 182 186
-55.2673946881814 686.149215247919 2897.99918788299 182 183 187
-62.3115776059064 687.040477568968 2902.02828099319 181 182 186
-72.005426772777 688.314531346264 2904.38122749485 179 180 184
-79.0701481685234 689.208677712943 2908.43028935667 182 183 187
-88.7961809086848 690.486860747765 2910.81424647791 180 181 185
-99.4275332896546 691.895452957583 2912.66135349072 178 179 183
-109.193535385817 693.179028577774 2915.08420375157 169 170 174
-120.75932783334 694.721845068428 2916.42213811423 169 170 174
-135.029117771087 696.653961556507 2916.13657779236 171 172 176
-152.914427739398 699.106346353654 2913.6964117663 193 194 196
-180.712488972735 702.985240544328 2905.30156295555 186 187 189
-205.912208921069 706.488272318707 2898.63314093438 181 182 184
-221.295309428549 708.576972612295 2898.01306213022 158 160 159
122.860525223617 657.492507885792 2712.59778164379 183 185 184
122.403353658649 657.440450123481 2721.56158547087 181 183 182
122.783111774788 657.268773635938 2731.12889466559 185 185 185
122.375709769867 657.210087816819 2740.04425620772 185 185 185
120.358147474275 657.38197354888 2747.69029586903 184 184 186
116.718986399593 657.785741859773 2754.07851631029 179 179 181
113.908826930694 658.071021880862 2761.07760989532 175 175 177
115.225196437565 657.766852322668 2771.15167971108 176 174 177
114.098882180117 657.811976793376 2779.34834147223 174 172 175
111.33929818475 658.09045515272 2786.29855598903 175 173 176
110.249228965835 658.130820416022 2794.46026714189 175 173 176
110.840199123115 657.931632762274 2803.82190579582 174 172 175
111.4588261507 657.729017489401 2813.15658736931 175 173 176
106.264340887345 658.355323981804 2818.22222019836 174 172 175
101.906782612557 658.862306932544 2823.89131744078 172 170 173
96.715488289798 659.487975280877 2828.95387593607 173 171 174
91.5248322628601 660.113504193053 2834.01582120278 171 169 172
88.8612372052093 660.379173995679 2840.87261038454 168 166 169
87.0539558814287 660.523194187007 2848.31395644707 164 162 165
84.416720920879 660.785599849375 2855.14505210124 163 161 164
78.3998985149425 661.528682975614 2859.59310901606 159 157 160
71.5298276767147 662.392865414612 2863.45330865222 155 153 156
62.9490442582084 663.499928767736 2866.1425548411 156 154 157
57.7682990362627 664.123736514855 2871.19491291938 157 155 158
52.5881915716302 664.747463862531 2876.24664957823 160 158 161
47.4086373685099 665.371062493976 2881.29785586442 165 165 167
39.6509203462991 666.360549653328 2884.60407198243 166 166 168
29.2978622007607 667.717959963227 2886.18239336797 172 172 174
19.7853038586802 668.955727296938 2888.36034067916 173 173 175
11.1194473841585 670.073102678742 2891.13254155694 174 175 177
1.57121822671291 671.315248947863 2893.34526331036 175 176 178
-9.73415062788252 672.805952100409 2894.43229552409 177 178 180
-21.9371582747145 674.423337638009 2894.97506340914 177 176 181
-32.4246074627044 675.797349299145 2896.68404557204 176 175 180
-40.3097037248901 676.802658760363 2900.11441262906 178 177 182
-53.4676177812168 678.553900245201 2900.16838568459 180 179 184
-62.2654469638913 679.687853915002 2903.06918714876 181 180 185
-75.4823742917501 681.446475991572 2903.18067040707 179 178 183
-83.4373289308381 682.460887055335 2906.67906265216 180 179 184
-92.2880521458853 683.6018037025 2909.63135954737 176 175 180
-102.927035702517 684.995272491545 2911.48794182342 173 172 177
-112.700271860536 686.266184212178 2913.92018517545 164 163 168
-125.164079434356 687.916696637731 2914.71669726177 163 162 167
-138.550571393702 689.697094774246 2914.99368005561 165 164 169
-157.337594303891 692.238889587881 2912.01846638951 179 180 184
-184.248291842657 695.925395108036 2904.1881344336 189 190 192
-207.658789385675 699.116961537115 2898.62317903383 175 176 178
-226.645854967902 701.683915939281 2895.84289212203 159 161 160
120.481132472417 650.458284066877 2711.74914323292 183 185 184
120.828935077793 650.309683010171 2721.34477418362 181 183 182
122.830793141051 649.930048038069 2732.16620680243 185 185 185
121.607899477432 650.001500395864 2740.45488209141 185 185 185
119.588344170614 650.184415635993 2748.10160852784 185 185 187
116.765861380763 650.479550774122 2755.11182061275 180 180 182
113.955500584845 650.772934904909 2762.10991633462 174 174 176
114.448886475877 650.605201129169 2771.56414658005 174 172 175
112.495687562737 650.779115472334 2779.14597262329 173 171 174
110.558646245211 650.950874956186 2786.71207242249 175 173 176
107.809171871228 651.236098597521 2793.65125098608 174 172 175
110.0552129517 650.824913881447 2804.23486929749 175 173 176
109.006712550695 650.873378727444 2812.35376704289 177 175 178
106.309536968925 651.151714430894 2819.2420301669 176 174 177
101.115561911421 651.777956603743 2824.30716586041 174 172 175
98.4370524373634 652.053821210071 2831.1772584906 174 172 175
94.0903553982211 652.561970589019 2836.83539796789 172 170 173
91.4323827866617 652.835128259859 2843.68549727391 170 168 171
87.9427391833811 653.224057397947 2849.92743787906 166 164 167
84.4612193460139 653.611916475345 2856.16113177707 164 162 165
75.9005562844974 654.70606482431 2858.832306986 160 158 161
69.874660517423 655.447520257046 2863.28961445494 158 156 159
60.4381137673 656.66273197999 2865.39541484108 155 153 156
55.2515862123819 657.287268682058 2870.45340712226 155 153 156
48.3544375985421 658.149308597321 2874.34114989595 155 155 157
44.0227534228965 658.655093615668 2879.98473082932 161 161 163
37.97649355448 659.398939360471 2884.46190686485 164 164 166
26.758070764537 660.860224337363 2885.4669483446 167 167 169
16.3765496532986 662.204960498146 2887.07506926755 168 168 170
7.70305306511476 663.312566711255 2889.85630077 167 168 170
-0.118151711556269 664.301801875129 2893.22559841154 168 169 171
-11.4272183817312 665.774219109264 2894.31900526156 169 170 172
-22.7630248139352 667.249902415537 2895.43814452453 174 174 176
-33.2519881477933 668.608052400105 2897.15131244752 173 173 175
-42.0140444402235 669.726718071347 2900.01851262037 175 175 177
-56.052386846233 671.57552353779 2899.51543481067 176 176 178
-65.7346798135516 672.821112749985 2901.86111288564 177 177 179
-77.1974443806642 674.312729139709 2903.10430639257 175 175 177
-85.1559811809493 675.319454093754 2906.60739178035 178 178 180
-94.8951192865217 676.572458452074 2909.00808412057 173 173 175
-105.539694030843 677.950356703058 2910.87251984737 168 168 170
-115.318461652105 679.20846189126 2913.31214882407 153 153 155
-127.787727990627 680.838197828 2914.1171523004 152 152 154
-140.287397083867 682.47181244597 2914.95211073621 154 154 156
-161.760557045926 685.344150491306 2910.34468877257 163 164 168
-193.161489966722 689.585804889212 2899.80595389463 167 168 170
-215.692505421872 692.601969839416 2894.81049336016 153 154 156
-226.595632366007 694.013052391677 2896.92677061824 151 153 152
118.101938944116 643.406875204245 2710.90284693272 183 185 184
120.877038791059 642.945606542192 2722.38541377117 182 184 183
122.878526717607 642.590254419388 2733.20362494669 185 185 185
123.285428067511 642.452837176061 2742.73891700769 185 185 185
118.001557206304 643.092004301667 2747.89141026081 185 185 187
115.174982769823 643.395733986095 2754.90441514112 182 182 184
112.36071866501 643.697734851133 2761.90545119885 174 174 176
113.672467593865 643.437149102631 2771.97732980685 173 171 174
110.067841963928 643.846942185428 2778.33036558229 172 170 173
108.124770417971 644.030312139462 2785.90073746505 174 172 175
104.540789558941 644.437207776723 2792.23370091898 174 172 175
106.778576560057 644.051253875271 2802.82144870784 176 174 177
105.722340357738 644.114125796468 2810.94623670087 177 175 178
103.851572463557 644.288026913379 2818.44620947855 177 175 178
98.6517518358569 644.914947044407 2823.51704970776 175 173 176
95.9672581633004 645.199703752095 2830.39177048682 173 171 174
94.1352042920571 645.368488475969 2837.85405586809 171 169 172
90.635093904778 645.764221219354 2844.10538457458 169 167 170
86.299215045619 646.273601423185 2849.75259952384 166 164 167
79.4300018425718 647.127284192271 2853.61383720421 163 161 164
71.7056339608488 648.096881454725 2856.8898768508 158 156 159
65.6699014363058 648.836877438931 2861.35683022919 157 155 158
59.6309771357371 649.577321728136 2865.82722467106 153 151 154
54.4424937917256 650.202104988495 2870.88712263852 152 150 153
47.5432277196677 651.059117686538 2874.77737325804 152 152 154
40.6370294390292 651.916932292884 2878.67472698345 159 159 161
35.4425517147821 652.542412271292 2883.74047448447 161 161 163
24.2184753201657 653.985657888065 2884.75379628678 165 165 167
14.6945548159962 655.198026786796 2886.94678027048 167 167 169
3.42137326230052 656.647227013813 2888.00798413287 167 168 170
-5.2765996941031 657.747127566804 2890.814659924 167 168 170
-16.5971017634163 659.202175359054 2891.92198949033 169 170 172
-26.2019722366587 660.424454443496 2894.19389326887 173 173 175
-34.9525808914639 661.53093159379 2897.05186506839 172 172 174
-43.7181136059035 662.639349127761 2899.92436989189 173 173 175
-55.1293892609426 664.105781403998 2901.12015634897 175 175 177
-65.6883973373161 665.456499283128 2902.90364035668 175 175 177
-76.2702382025147 666.81021353574 2904.70935479854 174 174 176
-85.9922030724758 668.047490104748 2907.09531842232 174 174 176
-95.7328354240863 669.287106968522 2909.49981107879 168 168 170
-108.152033420837 670.888817429175 2910.25957594672 163 163 165
-120.602011924788 672.494480268579 2911.04898431147 148 148 150
-133.082393183459 674.104021789212 2911.8683476357 147 147 149
-148.270502788579 676.079169460029 2911.07108516906 150 150 152
-169.760567634722 678.905225228071 2906.48729050559 155 156 160
-204.762875776007 683.555093051466 2893.79646558081 155 156 158
-222.827680184781 685.916944796866 2891.54792093307 141 142 144
-231.945983892853 687.070791259019 2894.76368035042 149 151 150
120.577991857104 635.69124745341 2713.8355219945 183 185 184
121.736219294956 635.472423682267 2724.05367731051 183 185 184
124.552316298979 635.032758524368 2735.49234037744 185 185 185
122.517999080483 635.239412172646 2743.15021708404 185 185 185
116.414921537705 635.987662191162 2747.68282511841 186 186 188
113.584254916089 636.300045458603 2754.69861460326 186 186 188
111.586805455367 636.501461651944 2762.32065517493 177 177 179
112.073663444985 636.372244939932 2771.77533707578 174 172 175
108.464760266447 636.788015445645 2778.13139921773 173 171 174
106.517594099591 636.982633918123 2785.70417459346 172 170 173
103.758108194718 637.285277130459 2792.65072015023 174 172 175
105.99386390065 636.923861424641 2803.23719615263 173 171 174
103.270539912446 637.221827915139 2810.14852360902 174 172 175
102.228318422649 637.296318982749 2818.25767748057 174 172 175
97.0244788468611 637.923863703695 2823.33241627052 173 171 174
95.1741705268434 638.105858923786 2830.8108760837 171 169 172
93.3400628581027 638.285634887887 2838.27357641574 169 167 170
89.8379040833586 638.687109963922 2844.526090487 166 164 167
83.8118439546212 639.423586804716 2848.98395916123 162 160 163
74.3988768456463 640.609512804709 2851.0710108742 160 158 161
66.6628899835651 641.572555063853 2854.35955716667 155 153 156
58.9158922555604 642.536867479951 2857.65884968313 153 151 154
53.7132926778439 643.163489284692 2862.73249354328 151 149 152
48.5112458231325 643.790041409917 2867.80559883991 150 148 151
45.0211662282452 644.189521962789 2874.04641289667 153 153 155
36.3937844803353 645.270098927923 2876.78550875008 157 157 159
30.3301846385575 646.010705519852 2881.28038238087 159 159 161
19.956013784606 647.322494991135 2882.886073896 164 164 166
13.0128756610239 648.179482350772 2886.82023169823 165 165 167
1.73574363977602 649.610441548083 2887.88771660753 166 167 169
-6.96600036925688 650.700085175758 2890.69965307874 167 168 170
-17.4210361579727 652.021774112827 2892.38418153277 169 170 172
-25.2852507460037 653.000260850454 2895.79811500749 171 171 173
-35.7798694667792 654.32688087623 2897.52122108544 170 170 172
-45.4222878973982 655.540507553701 2899.83168936269 171 171 173
-59.467878921962 657.336624160418 2899.34359692882 172 172 174
-70.9151643527628 658.788726016588 2900.57725965538 172 172 174
-80.6276941091784 660.011250309526 2902.9560344519 170 170 172
-88.593398759826 661.002708388637 2906.46883190049 166 166 168
-96.5705402280341 661.995857173541 2909.99239855041 160 160 162
-108.991580041918 663.576289240753 2910.75679946524 154 154 156
-122.331571001049 665.278011724527 2910.99889646359 142 142 144
-139.267348179932 667.454690351026 2909.07382675228 147 147 149
-160.714962050439 670.227053099266 2904.45547560535 154 154 156
-188.491395144593 673.834617714721 2896.07925212539 141 142 144
-212.779233205164 676.980772232673 2889.97531137194 134 135 137
-227.268533251038 678.832825411773 2889.91956115449 126 127 129
-234.595863083719 679.739261748856 2894.22758062399 158 160 159
118.199093356165 628.621462092856 2712.99164876614 183 185 184
120.162360522335 628.319577586046 2723.83991123142 183 185 184
122.161237959185 628.012967963488 2734.65351054155 186 186 186
120.12065965737 628.231215253959 2742.3155532192 185 185 185
115.645492140309 628.765408171982 2748.0974165565 185 185 187
111.993865618784 629.192566416315 2754.4945583488 187 187 189
110.812847101133 629.298779579772 2762.7365133669 179 179 181
109.652107892102 629.40230523859 2770.95906578576 175 173 176
105.212639988091 629.931290027227 2776.70624863882 174 172 175
104.910798316288 629.923218858738 2785.50930638644 171 169 172
103.804189665069 630.019520756769 2793.67883618789 174 172 175
105.209294972892 629.790023252267 2803.65375354462 171 169 172
100.818938690052 630.312344990092 2809.35315262785 171 169 172
98.9362182474181 630.509276537319 2816.8615905753 171 169 172
95.3971448647279 630.921125262403 2823.14922817715 170 168 171
93.5428694752738 631.114352921051 2830.62996719941 169 167 170
90.8645638460888 631.414428017177 2837.49627910882 167 165 168
85.672248573121 632.040284041333 2842.55982368435 163 161 164
77.9485771959627 632.994048821649 2845.83751172556 158 156 159
69.3679683787316 634.058691577269 2848.53285427858 156 154 157
64.1640491537121 634.685656651001 2853.607757833 153 151 154
57.2610518536409 635.532702247334 2857.50318675037 152 150 153
52.0545406977373 636.159817168659 2862.58064198306 151 149 152
46.8486242434856 636.786916087217 2867.65750903342 152 150 153
44.2101609573466 637.081555641149 2874.48506027797 156 156 158
36.4385786709809 638.040711695752 2877.80952773229 159 159 161
29.5156416056801 638.889904165454 2881.72477766634 160 160 162
20.8625480411255 639.962918180465 2884.49086137649 166 166 168
12.1944489105958 641.037777954578 2887.2712351911 167 167 169
0.0504286225666561 642.562163431108 2887.76917312528 166 167 169
-11.2566787280066 643.978077401412 2888.86898549969 166 167 169
-20.852121013438 645.172396065751 2891.13565948623 167 168 170
-28.7242106213044 646.143868852267 2894.55811178898 169 169 171
-39.2263779343858 647.455342008415 2896.2909524314 168 168 170
-50.6260854927922 648.882693830968 2897.4810276715 169 169 171
-62.052366272578 650.313395630306 2898.69699538815 170 170 172
-73.5052622523909 651.74739372968 2899.93890520016 170 170 172
-83.2231144142463 652.957190034872 2902.32518425699 168 168 170
-93.8427135687414 654.283408371719 2904.17245712262 165 165 167
-101.831217298859 655.269792883395 2907.70830642321 157 157 159
-112.490444056598 656.601183815767 2909.59416557731 151 151 153
-126.726266911002 658.394451351247 2909.29539725411 141 141 143
-146.342690350122 660.882254996914 2905.73486112736 148 148 150
-178.512798671869 664.990207017748 2894.56278062828 157 157 159
-202.750122284226 668.073678157572 2888.41794285692 134 135 137
-222.587418031392 670.588854516574 2885.07269052207 126 128 127
-232.607185285369 671.83707886723 2887.75275823817 122 124 123
-240.84586587443 672.855650804213 2891.53227957058 164 166 165
118.247769866952 621.227180344316 2714.03618388456 186 188 187
118.588484350747 621.154952955856 2723.62756544995 185 187 186
121.396053416575 620.770260387473 2735.06657196086 187 187 187
116.908546191509 621.309121231654 2740.86033673517 186 186 186
114.059173577889 621.640269058284 2747.89159031096 186 186 188
110.40343658692 622.073429593466 2754.29192672422 188 188 190
110.03924153635 622.08973033054 2763.1533001417 184 184 186
108.876106792255 622.20707488379 2771.37585109374 177 175 178
105.259277843956 622.634799722532 2777.73835463902 170 168 171
104.130689067749 622.747422356748 2785.92763667383 172 170 173
103.850364785853 622.75280907573 2794.7070004233 173 171 174
103.59418887361 622.755020533452 2803.46319162895 171 169 172
98.3675132779505 623.385915848164 2808.56011170791 170 168 171
96.4787838654617 623.594455185593 2816.07280102493 168 166 169
92.9337941112887 624.012415926519 2822.36541031786 165 163 166
92.7500063466229 624.005206863907 2831.05111137166 163 161 164
85.8689059444315 624.844774502217 2834.92590158467 161 159 162
81.5070982749742 625.365725011203 2840.5974919818 159 157 160
72.9295650408788 626.419378689842 2843.29106677409 156 154 157
68.5671642852932 626.940168091453 2848.96326992611 154 152 155
63.3612456770103 627.567503156867 2854.04010421305 151 149 152
57.3060699387198 628.302048444357 2858.52717060071 155 153 156
50.3961038614538 629.144593364666 2862.4305226568 155 153 156
43.478913934448 629.987885097447 2866.34059988192 156 154 157
39.1213652779334 630.50778100865 2872.00777904333 159 159 161
33.0533915793043 631.243690769176 2876.50769016827 161 161 163
26.9821015426475 631.980018606805 2881.01083267428 163 163 165
19.1846575677719 632.934356208943 2884.36169333276 165 165 167
11.376202188464 633.890023004747 2887.72329202438 166 166 168
-0.769492837542352 635.39315495577 2888.22603425992 164 165 167
-12.9457972251181 636.900099772265 2888.75827066214 163 164 166
-21.675703620692 637.971770094579 2891.60082924619 163 164 166
-29.5495487676476 638.935503403116 2895.02616871667 166 166 166
-40.0535248572167 640.231106094652 2896.76315114861 166 166 166
-54.9546461867476 642.081608055645 2895.69966550532 166 166 166
-66.3903635209162 643.49462945813 2896.9276170149 167 167 167
-78.7315456629556 645.021946953589 2897.62056839159 167 167 167
-86.6995232508194 645.99748818318 2901.13763756185 166 166 166
-98.2091784546628 647.419889597788 2902.43762410733 166 166 166
-104.437954723044 648.176365921412 2907.09417483208 156 156 156
-113.329641582916 649.268726085969 2910.09432585908 148 148 148
-126.678714808264 650.923239095998 2910.35241922164 145 145 145
-152.527179387691 654.153905558548 2902.95155636578 149 149 151
-189.171624532512 658.74547794474 2889.06585732349 158 158 160
-217.008440174986 662.22625174639 2880.76867207553 128 129 131
-229.707062416925 663.798453339452 2881.80993290534 120 122 121
-239.741717897532 665.035096657291 2884.50683436415 120 122 121
-244.395580448889 665.593644957356 2890.46254479727 168 170 169
110.719352414701 614.777125117914 2699.79309075723 188 190 189
115.060159041921 614.230763032416 2712.56762086572 185 187 186
116.203765075921 614.078471324201 2722.79046204205 185 187 186
117.379258140148 613.921969804774 2732.98259897625 186 186 186
114.511629985549 614.26383853669 2740.03073387097 186 186 186
111.656333421192 614.603975769236 2747.06687922914 186 186 188
110.450895649318 614.740451996701 2755.32861006003 189 189 191
109.26569466891 614.87424607949 2763.57097971964 187 187 189
106.455087941686 615.20827769736 2770.56364981608 179 177 180
102.832111228509 615.642156760669 2776.93101074907 171 169 172
102.523957200143 615.667314219589 2785.73542558345 173 171 174
103.068188020347 615.587179979953 2795.12588104741 172 170 173
101.97948510649 615.708219259897 2803.27431185472 170 168 171
96.7487911012501 616.339680127813 2808.37513868529 169 167 170
94.8559872494239 616.559583377132 2815.89019439959 166 164 167
91.3068262395353 616.983508141066 2822.18572648911 163 161 164
90.2808382821654 617.096405328939 2830.27308381519 163 161 164
83.3938769997413 617.931345661118 2834.15437788274 160 158 161
79.0261766531408 618.455810570534 2839.83130036853 154 152 155
70.4427879488447 619.499588035465 2842.53214942936 154 152 155
66.9203720860621 619.919656360122 2848.80203101447 154 152 155
62.5583316644622 620.443125939836 2854.47314237837 153 151 154
58.2010512516886 620.965923438067 2860.13996415849 156 154 157
50.4411774128268 621.907858780153 2863.45535016514 157 155 158
42.6703782808575 622.850994522552 2866.78140773072 158 156 159
37.4553620785893 623.47935854659 2871.86712398334 161 161 163
31.383499957605 624.213222844999 2876.37119868756 164 164 166
27.0271595272074 624.73567900612 2882.03679965876 165 165 167
20.0910559536274 625.575988941368 2885.9660991229 168 168 170
10.5581406381208 626.735935046636 2888.17610099521 168 168 170
-4.18535838395551 628.537684524193 2886.96296182429 165 166 168
-18.1033894440423 630.237640504184 2886.36241295865 164 165 167
-25.975757210845 631.193049867424 2889.78751564428 163 164 166
-32.9880093045327 632.042710620365 2893.79138750978 167 167 167
-43.4994920077609 633.323220119025 2895.53805488738 166 166 166
-57.5332515305544 635.03741169763 2895.05032208074 165 165 165
-65.4672271923116 636.000646683765 2898.53544569313 165 165 165
-75.1699503397245 637.181658989331 2900.91061783555 163 163 163
-83.1298649935159 638.148268897309 2904.42133828051 163 163 163
-98.1622185606788 639.98566648524 2903.48976716777 167 167 167
-105.275365476824 640.848223540184 2907.59192301567 154 154 154
-117.714907442524 642.366594139103 2908.38386949868 150 150 150
-133.738376398313 644.326169888327 2907.00186126362 140 140 140
-164.94387955932 648.154464755601 2896.33015610333 145 145 145
-201.614549750076 652.655346916122 2882.48390289508 152 152 152
-225.006794941876 655.521993896638 2876.94884559333 116 118 117
-234.137754294518 656.63366789672 2880.18374316629 114 116 115
-243.283724356626 657.747470110546 2883.4332320466 126 128 127
-249.745175711263 658.53122795483 2888.31646253274 176 178 177
111.576115673619 607.240429681966 2701.47347962956 188 190 189
115.918202245762 606.726293162719 2714.24163796721 184 186 185
116.252427278821 606.692741859238 2723.83374734464 183 185 184
115.801470953836 606.753120714014 2732.77476126364 185 185 185
113.744631281373 607.005850863202 2740.44785517127 185 185 185
110.887155265311 607.354459517146 2747.48491268482 183 183 185
110.49847069774 607.406398339177 2756.36533726131 187 187 189
106.850755936313 607.849338840104 2762.75626200738 194 194 196
104.856805597016 608.093433163658 2770.36818224875 186 184 187
100.405186353115 608.632323395125 2776.12596754182 174 172 175
99.2644657802502 608.773660064083 2784.32305270826 174 172 175
98.9722574821457 608.812905799966 2793.10955095558 172 170 173
98.7037767455492 608.849114368788 2801.87259843354 168 166 169
95.9623195548969 609.181917629796 2808.79678356856 166 164 167
94.0676284462221 609.412896023991 2816.31241429723 162 160 163
89.6802171057747 609.942925234262 2822.00774984806 160 158 161
88.6499846556403 610.069815438238 2830.09691601454 162 160 163
82.5993127711904 610.799180337013 2834.58061350993 160 158 161
79.0715730845455 611.225580821602 2840.85484584037 157 155 158
70.4881957388217 612.258801434665 2843.55724392006 157 155 158
65.2737710071589 612.88750367622 2848.64232284523 159 157 160
59.2122190392934 613.617768431775 2853.13669142585 160 158 161
55.6968545370617 614.042313983603 2859.39890917348 161 159 162
50.4863440761243 614.670227925006 2864.48021768038 162 160 163
42.7154890142178 615.605527864339 2867.80748891348 163 161 164
34.9337506378498 616.542081880737 2871.14538208668 166 166 168
28.856088438094 617.273964805218 2875.65550920106 168 168 170
22.77494120563 618.006418049009 2880.16867486951 168 168 170
15.8294884327272 618.842468429437 2884.10822562911 169 169 171
5.42350648067735 620.09399217423 2885.75441328296 169 169 171
-8.46596582623604 621.763811897686 2885.12995927881 164 165 167
-21.5263779949471 623.334051907788 2885.11386345752 162 163 165
-31.1444158093579 624.491107257667 2887.40882048196 162 163 165
-38.1683506439447 625.336828711603 2891.42453786656 165 165 165
-45.1994708775927 626.183455999263 2895.44725657682 165 165 165
-56.6121862316935 627.556309338338 2896.6583036024 164 164 164
-65.4208940214853 628.616508144484 2899.58080862088 163 163 163
-77.7595198215195 630.100737935307 2900.27792769809 161 161 161
-86.6060659661114 631.165778874038 2903.23695325517 161 161 161
-100.763091723853 632.868561366477 2902.87331189999 165 165 165
-107.881844955814 633.726517992227 2906.9817148438 152 152 152
-122.099755816889 635.437034988192 2906.67739014004 151 151 151
-141.686261558917 637.792279115735 2903.1067375367 140 140 140
-179.140746136095 642.29309970309 2888.62192338384 148 148 148
-214.056953053844 646.48937514995 2875.91263942644 140 140 140
-231.216406011852 648.554095799835 2874.2258925684 110 112 111
-236.776155069989 649.22633165972 2879.64744940482 119 121 120
-245.02966271243 650.222241750558 2883.44504363138 135 137 136
-251.494577614801 651.003651657313 2888.33239833776 174 176 173
110.818331537154 599.896424224498 2701.89416411881 188 190 189
112.730944913612 599.698106058778 2712.7774194861 184 186 185
113.868076806915 599.589795699852 2723.00018915563 183 185 184
111.785197979982 599.856881599674 2730.6973563969 185 185 185
111.348043258432 599.931573101752 2739.62221187465 185 185 185
109.301562885055 600.19365761637 2747.28397411601 182 182 184
111.364843633477 599.975768784053 2758.02016924965 185 185 187
106.077377918708 600.615624973376 2763.17613040217 195 195 197
101.613398785241 601.159067737554 2768.94585422794 189 187 190
97.9783953093656 601.60549013595 2775.32330401463 176 174 177
97.6581264099021 601.66448978378 2784.13474723435 173 171 174
96.5333970587232 601.817255397592 2792.3142636882 172 170 173
95.4285692636816 601.967407204288 2800.47406608017 168 166 169
93.5114807346507 602.212131420008 2808.00956830993 166 164 167
92.4450025772745 602.357258701136 2816.13236940946 163 161 164
88.8899348239418 602.792942236577 2822.43236688324 160 158 161
86.1811891886104 603.129477578104 2829.3231795184 160 158 161
80.9646342911749 603.758920111514 2834.41026431485 159 157 160
76.5909734404144 604.289679506876 2840.09217534712 160 158 161
68.0019932764631 605.312979017525 2842.80194128473 161 159 162
61.9356624769565 606.041323599112 2847.3010012747 162 160 163
55.8663535642108 606.769971612457 2851.80331157005 161 159 162
52.3431583415417 607.200988451883 2858.07234888535 162 160 163
47.9764765245774 607.730468285268 2863.7471809106 163 161 164
41.9071692273549 608.458939188471 2868.24951577851 165 163 166
34.9789846645216 609.287754355472 2872.17265046964 167 167 169
28.9013881377516 610.017093341291 2876.6830883628 168 168 170
22.8202651381348 610.746889932954 2881.19662261969 169 169 171
15.8748177752646 611.577691405806 2885.1369437933 166 166 168
2.87907701541767 613.116191026642 2885.06131952267 165 165 167
-11.8811473759979 614.861008169543 2883.87354130694 160 161 163
-24.0820349454567 616.306776065861 2884.43923109426 159 160 162
-33.7057328515886 617.451159036625 2886.74168164556 160 161 163
-40.7354020919612 618.29235517797 2890.7637622191 162 162 162
-49.5180355076514 619.338711475015 2893.66242091545 163 163 163
-58.3155493888059 620.386884722347 2896.57558758952 163 163 163
-68.8816271743971 621.642020850534 2898.38021886404 162 162 162
-79.4704532530117 622.900201668992 2900.20698952592 162 162 162
-89.2012913982869 624.058045438372 2902.61350457636 163 163 163
-99.8333598736831 625.321664610127 2904.48274963324 155 155 155
-111.372899193982 626.691649138728 2905.81982089899 155 155 155
-127.370950619797 628.58368561474 2904.42255495601 147 147 147
-154.075626107019 631.729185051261 2896.46760052024 154 154 154
-197.788695095577 636.866132895443 2878.184255126 142 142 142
-226.498878037986 640.247686079615 2869.35209196384 105 105 105
-236.531627802751 641.443295761677 2872.0528279301 113 115 112
-242.102813975371 642.116973451571 2877.48552888842 130 132 129
-248.571528496235 642.895913919287 2882.37702165414 143 145 142
-256.843842133618 643.88635195068 2886.19409927968 168 170 167
112.482329864787 592.271391983004 2704.20292209378 190 192 191
110.35298567717 592.555611663611 2711.94335991777 184 186 185
111.483946816484 592.469661816767 2722.16895236332 183 185 184
111.83385372079 592.471860575278 2731.74054340923 185 185 185
112.211486414623 592.470341220078 2741.28481402987 186 186 186
110.166460205893 592.743223653773 2748.94319849452 184 184 186
109.775224434383 592.828093856642 2757.82128921054 182 182 184
103.662873662016 593.561709267597 2762.36526868758 196 196 198
98.3700943799866 594.202117378849 2767.52642471713 196 194 197
96.376602973296 594.467782368065 2775.13503893866 184 182 185
95.2255616493036 594.63744089213 2783.33784896373 174 172 175
94.0947778368466 594.804473628252 2791.52126891268 173 171 174
92.1535879425766 595.063233890154 2799.07862963292 168 166 169
91.0607970046256 595.225342636607 2807.22471201738 166 164 167
89.1541086763117 595.479592967937 2814.74881658036 164 162 165
85.5909586275843 595.921674606254 2821.05555641414 162 160 163
82.8745251181249 596.267362755441 2827.95298828297 158 156 159
76.8101670430372 596.993322728107 2832.45077961457 158 156 159
72.4265337807743 597.528182845975 2838.14164947189 160 158 161
65.515821611577 598.350094280518 2842.04879202848 162 160 163
59.4436466006214 599.076639958281 2846.55392128401 162 160 163
54.2162105427555 599.707100421898 2851.65166078399 160 158 161
50.6890541991898 600.14404175559 2857.92375591324 163 161 164
48.0219018410106 600.483104450827 2864.77323010953 165 163 166
41.9525754517194 601.209012616936 2869.27596270758 166 164 167
35.0243532432568 602.032643273037 2873.19990104982 167 167 169
27.2317488595393 602.954586570339 2876.55074378685 168 168 170
19.4280908234892 603.877834902912 2879.91237008041 168 168 170
11.6134639001615 604.802407069189 2883.28469297914 166 166 168
0.334845157533792 606.121381945478 2884.37054330048 165 165 167
-12.7007248963982 607.640607525185 2884.33731880251 159 160 162
-24.0360582916921 608.966378371642 2885.47848317092 159 160 162
-32.7907035228336 609.998591924545 2888.35143947768 160 161 163
-40.6892988639287 610.933425315539 2891.80562765201 164 164 164
-50.3445928643567 612.068464521246 2894.14083459641 165 165 165
-60.0189320989166 613.205917719241 2896.49425911084 164 164 164
-73.2190806717097 614.745301348031 2896.62148416417 161 161 161
-84.6959940364838 616.088684723948 2897.90063641105 159 159 159
-96.1994375669764 617.435353679975 2899.20564789737 160 160 160
-103.31664421783 618.282337077267 2903.31379905966 155 155 155
-115.747991090472 619.735385495717 2904.10760012586 160 160 160
-130.868994362454 621.495374572243 2903.27583826666 144 144 144
-168.2413180808 625.793009415268 2888.7394679307 148 148 148
-214.655023337681 631.122749135488 2868.85867176541 124 124 124
-235.371362606781 633.523145058877 2864.98637782303 96 96 96
-241.846636294686 634.299800103925 2869.88438388106 118 120 117
-245.636892558043 634.770322144777 2876.41277790614 130 132 129
-253.011288167237 635.650023140964 2880.77148585918 141 143 140
-263.992826276633 636.941672030037 2882.98327880676 167 169 166
112.532082991719 584.833573453603 2705.25282283365 190 192 191
109.59346581139 585.217708867143 2712.36520388325 185 187 186
109.100247980855 585.332241644527 2721.34018017589 183 185 184
107.817864092049 585.533200192455 2729.66878917956 186 186 186
109.815305121961 585.372424653222 2740.46226064918 187 187 187
108.58096911771 585.566942704481 2748.74410929581 186 186 188
109.004285855411 585.578357267656 2758.24110335806 182 182 184
103.710631740674 586.219229478431 2763.40305951571 196 196 198
100.063065701943 586.67845611102 2769.79142949479 198 196 199
97.2485267710317 587.04550475345 2776.78312442582 178 176 179
93.6197985241542 587.502061738923 2783.15318277179 177 175 178
92.4847478833399 587.683208244557 2791.33841589341 172 170 173
88.8788545793182 588.136532709692 2797.68627656867 168 166 169
88.6105866773033 588.221291722444 2806.44227480632 166 164 167
85.86336077604 588.579218868745 2813.36813721499 165 163 166
83.9649069937849 588.843251884362 2820.88261887553 163 161 164
79.5681515226403 589.382714706487 2826.58583900257 162 160 163
73.4959509298561 590.107127693582 2831.09164671398 161 159 162
68.262515914439 590.738786687317 2836.19516612526 160 158 161
62.1857713988994 591.463461217439 2840.70510952119 162 160 163
59.4893343646996 591.814471347111 2847.58189800809 164 162 165
54.2618972298183 592.445049884156 2852.67962112636 166 164 167
49.8849993960517 592.98149506263 2858.36390617434 166 164 167
42.957419277919 593.799914485139 2862.28797712944 167 165 168
36.0227821199497 594.61913510641 2866.21893741259 168 166 169
30.7922014081954 595.249815097138 2871.31976715436 167 167 169
23.8474865799954 596.070145708894 2875.26090849891 167 167 169
16.8954623292397 596.891292889762 2879.20884967756 167 167 169
9.93659036570405 597.713290295722 2883.16380291532 166 166 168
-0.482558730412919 598.918473343486 2884.82991487266 163 163 165
-10.9243689312155 600.126454214739 2886.51811612486 154 155 157
-22.2557058834467 601.433116581293 2887.65813619121 153 154 156
-31.0064279085749 602.454250647387 2890.52883423972 154 155 157
-40.6430613530873 603.573741414295 2892.84747118671 160 160 160
-51.1713479452478 604.79224071136 2894.61999015514 163 163 163
-60.8472260970312 605.91654792163 2896.97722365036 163 163 163
-74.0490682306163 607.432085769463 2897.10965483061 159 159 159
-84.6490804541631 608.659538768798 2898.95207505802 159 159 159
-97.0329102558711 610.08519122143 2899.70274008213 162 162 162
-106.799516486766 611.220831247937 2902.14805507383 158 158 158
-121.007382105055 612.849707370944 2901.84582178086 164 164 164
-142.344556962941 615.270243113196 2897.17014078163 150 150 150
-186.848152966613 620.263089211055 2878.27618925699 158 158 158
-226.179128585226 624.683606619162 2862.8328085873 100 100 100
-241.567030948839 626.447004596965 2862.26523979547 121 121 121
-244.478861501777 626.825345408615 2869.35187776772 119 121 118
-250.067011480418 627.501102686975 2874.80111667392 123 125 122
-259.246730783739 628.576230223232 2878.08983515011 133 135 132
-271.141330417598 629.953399565656 2879.77876248563 169 171 168
111.774908375632 577.480662278938 2705.67455616326 191 191 191
110.452091406071 577.700605217787 2714.04050992914 182 182 182
107.527516414637 578.09101963511 2721.13801884357 182 182 182
107.866897458765 578.132386885643 2730.71393529623 184 184 184
109.049142098926 578.083065112903 2740.88352669596 185 185 185
107.812619886668 578.291451084922 2749.16549660682 184 184 186
106.596334196622 578.497184430622 2757.42810125098 183 183 185
102.117333304516 579.051231865978 2763.21083669737 191 191 193
100.933324085766 579.252525990156 2771.44170860141 203 203 205
97.2960404420524 579.715852011096 2777.81926212243 175 175 177
93.6671342932409 580.177945009211 2784.1886789074 177 177 179
91.7034871516349 580.461384314181 2791.76469245443 173 171 174
89.7560823706982 580.742687558269 2799.32489280608 168 166 169
88.6572793860898 580.932755294241 2807.4731507573 166 164 167
85.9098510807916 581.298904623668 2814.39799892108 166 164 167
81.5027760049749 581.842721737001 2820.11116084777 164 162 165
77.1000420146173 582.385798234552 2825.81978363311 162 160 163
71.8619702061067 583.018307129451 2830.92778183345 163 161 164
66.6245805568404 583.650523636446 2836.03514585439 161 159 162
62.2317557559517 584.192056079081 2841.73415687875 160 158 161
57.8437340195514 584.732852043558 2847.42884508221 161 159 162
53.4600089666784 585.273119380714 2853.11900690431 167 165 168
46.5317531763492 586.086464210121 2857.04449883454 164 164 166
40.4481870656537 586.80912568471 2861.56185154603 167 167 169
34.3614757625619 587.532065723122 2866.08228630845 168 168 170
28.2713238286938 588.255364092383 2870.60574686496 168 168 170
20.4634703735218 589.163383609619 2873.97412792597 169 169 171
12.6444387040148 590.07267793423 2877.3530828611 170 170 172
5.67571142944923 590.890594117853 2881.31808792929 171 171 173
-3.02648904893221 591.895262242957 2884.14303702349 170 170 172
-11.7435266678632 592.901653403314 2886.98246495372 153 153 155
