ply
format ascii 1.0
comment KinectMotionCapture
element vertex 789
property float x
property float y
property float z
property uchar red
property uchar green
property uchar blue
end_header
-74.2568725314294 -68.7260801883155 2872.55474751715 8 10 5
-70.3965284729402 -66.446541808264 2883.97180788652 9 11 6
-86.9796566773418 -67.5976619244721 2882.18806188931 11 13 8
-101.045426104803 -68.3150244288917 2882.09149802276 13 15 10
-118.578970787171 -69.5963863106149 2879.85353215426 13 16 9
-119.836511740372 -68.1734510506149 2887.97720197324 13 16 9
-127.964765378645 -67.8868783276501 2891.75525687526 12 15 8
-203.952981127426 -77.0539845006499 2862.2916035202 13 16 9
-165.79877463953 -67.5710104053108 2903.77190744887 11 14 7
-155.134656180402 -62.632392063534 2927.87779021911 20 22 17
78.9039379225298 -94.7711874663991 2731.39847635742 16 18 13
114.144124630666 -86.2933595695152 2767.41887358339 16 19 12
131.154643823604 -81.339699276648 2789.47152920926 17 20 11
117.753142798009 -82.1712460245841 2788.73221338129 20 23 14
108.339325233065 -82.2396583611197 2791.00516242596 22 25 16
111.820556724088 -79.8834763197327 2802.78735927947 20 23 14
122.626578096224 -76.1726031717363 2819.84856829026 14 17 8
114.858837959287 -75.9419458706392 2823.27689223102 14 17 8
102.202915727791 -76.613581796641 2823.1904802069 17 20 11
96.0319543785593 -76.0776399809776 2827.82221476624 16 19 10
97.2089979497719 -74.1900073943175 2837.71035205392 13 16 9
89.4120220188674 -73.9550895107949 2841.16707785805 12 15 8
92.2730493497217 -71.7734165994239 2852.1736918244 12 15 8
77.8991823438728 -72.7338810613001 2851.00209445314 11 14 7
25.5543269306835 -80.5493889042315 2823.36686389973 11 14 7
62.6934359270712 -70.5287471256012 2867.1926169123 12 15 8
89.7368031298469 -64.0561343890133 2894.64502166472 18 21 14
53.677420943774 -68.862066990702 2878.73347495327 18 21 14
50.8451298604524 -67.73374841514 2885.63028267041 17 20 13
32.1380313353417 -69.4122834643175 2881.78255650133 12 15 8
6.66513519197709 -72.2620766011692 2873.49052859215 12 15 8
-21.4201136087766 -75.5415259044203 2863.60470484604 12 15 8
-56.3444642066209 -79.9827693014515 2849.34631056088 11 14 7
-64.3980685769772 -79.7137302606835 2853.05282910691 10 13 6
-74.1541546308477 -79.7360752588567 2855.65884708825 7 9 4
-99.1886195370371 -82.3868387042714 2848.31894329559 7 9 4
-88.6227471656071 -78.8980459029203 2864.23453787467 7 9 4
-87.3507536468958 -77.0210564672393 2874.02996151393 8 10 5
-83.4858391565381 -74.7118137703481 2885.43809309184 11 13 8
-99.254656438108 -75.7469511997927 2884.2454914378 12 14 9
-124.500990920434 -78.3702827505421 2877.11192284421 14 17 10
-151.553851975365 -81.2715705381217 2868.97952501756 12 15 8
-138.220474929534 -77.3728760046595 2886.33709119988 12 15 8
-190.408319803356 -84.4421772073801 2862.68672363945 13 16 9
-183.971397879317 -81.6980186896964 2875.72726139924 12 15 8
-219.968184209189 -86.0009851055164 2862.51303653007 11 14 7
-169.194218080201 -75.9439923002108 2902.71318093389 15 18 11
-166.943264019789 -73.9373521216444 2912.93456712008 16 19 12
-169.021220198531 -72.6499612112842 2920.47570762195 19 21 16
167.486736219932 -85.2206641879982 2799.31096803664 23 25 20
61.4675134630249 -104.080909822777 2728.83374752621 18 20 15
138.441316982623 -87.4224963774017 2795.88764934401 16 19 12
117.025970921944 -89.8287117251125 2789.16882873046 21 24 15
106.0002949058 -90.2186092704576 2790.25607378284 20 23 14
102.211936965546 -89.2182557621625 2796.70427388551 19 22 13
109.758239901403 -86.0652057848965 2811.41690239918 17 20 11
101.959616205191 -85.8382031302226 2814.87643432598 16 19 10
111.220745463853 -82.3896660489009 2830.67636072181 15 18 9
116.478665440217 -79.7155003773907 2843.48110043887 15 18 9
109.536631037444 -79.3403390184055 2847.4853759025 15 18 9
94.4005752212793 -80.4901556300068 2845.68138229242 14 17 8
58.7029353086992 -85.4424840597792 2829.43225739531 13 16 7
54.9432919448227 -84.4448381675787 2835.85200584165 11 14 5
71.8056211043505 -79.6520688362686 2856.65868665748 10 13 6
49.9296668150215 -81.9977569537861 2850.38797308385 10 13 6
56.9713694485561 -79.036367991549 2864.21309525368 11 14 7
52.447305472398 -78.1978497690317 2869.99853435059 15 18 11
60.4122491244716 -75.0970896131535 2884.30317485716 17 20 13
50.0875158661533 -75.317557312407 2886.08624104965 17 20 13
44.7573223533175 -74.6329529135449 2891.27801777146 15 18 11
-30.9707379025301 -86.5569637964592 2849.21063593478 9 12 5
-57.4622087826544 -89.5978862871153 2840.54106947182 9 12 5
-73.1038182267443 -90.6815504048177 2839.22965862001 14 17 10
-100.605525607994 -93.8502872379688 2830.16525352299 13 16 9
-74.919889741869 -87.6124202164513 2856.16644440039 8 10 5
-104.194482880984 -91.068795824201 2846.07089747684 8 10 5
-88.5425336249739 -86.6350055922721 2865.29840390625 7 9 4
-75.3477611037949 -82.6587468176617 2882.78248031153 8 11 4
-92.7954193891107 -84.0256200631495 2880.47186652334 11 14 7
-102.596504430913 -84.0548066530131 2883.12391819116 14 17 10
-122.70521677226 -85.8529622140629 2879.26878580296 11 14 7
-137.722741790733 -86.7586146414635 2878.72791131649 12 15 6
-152.781598222705 -87.6588190078604 2878.22761215557 13 16 7
-156.66005406401 -86.6443356926965 2884.76319242659 12 15 6
-202.922878282283 -92.8154661685963 2865.01514559215 11 14 5
-205.144397087935 -91.4982404072311 2872.69477416883 11 14 5
-201.700284370627 -87.5572319851141 2892.78138761472 18 23 16
-193.381004101656 -84.5009941679068 2906.74074700487 14 19 13
112.546775140741 -103.514815076697 2758.79719145762 28 30 25
119.288267786065 -98.6546385409334 2782.55882751755 20 23 16
124.330750866239 -95.9181239783046 2795.56828411839 19 22 13
108.492317923099 -97.2710082329617 2793.07486536968 20 23 14
96.6394905769859 -97.8334424750478 2793.59207545097 20 23 14
93.6552242618904 -96.6699254859311 2800.63459450971 19 22 13
113.388975295397 -91.131806994502 2824.14738594779 18 21 12
104.794203424487 -91.070502408285 2827.00508556574 15 18 9
108.406645518437 -88.6703464943689 2838.65015118975 15 18 9
110.429394684448 -86.5867009627759 2849.08676685202 15 18 9
82.196853017269 -90.2534324591501 2837.98753792095 14 17 8
62.0629500902279 -92.3557262368859 2832.78546233461 13 16 7
63.2464326191977 -90.4244134035825 2842.66074972067 12 15 6
59.515048570538 -89.4243577491091 2849.05241792942 11 14 7
28.5202029939557 -93.5171111914038 2836.50843551914 11 14 7
18.9436169757728 -93.5892106813947 2838.94356100371 11 14 7
29.2760618132268 -89.967647761968 2855.07132920925 14 17 10
49.669914943788 -84.5129667615626 2877.94096153158 16 19 12
52.6671080080994 -82.293087976413 2888.80671410025 19 22 15
24.7676640906112 -85.7411109996026 2878.76163632254 18 21 14
26.0966120344341 -83.8276481960765 2888.49545046988 17 20 13
-22.942106530444 -91.0714912075566 2864.57756977057 14 17 10
-25.0333168774119 -89.7603750575877 2872.12836527737 14 17 10
-87.8661538390113 -99.3993814067496 2839.59001386237 13 16 9
-87.526412507589 -97.618995172212 2848.90854629805 8 10 5
-71.8993187942445 -93.1140951894663 2868.15022465865 8 10 5
-68.9195638213698 -90.8913546565134 2879.03287054482 7 9 4
-96.5578441398494 -94.1118530856477 2870.11173473467 8 11 4
-100.396598138711 -93.096713811218 2876.60779353875 10 13 6
-99.9494584757601 -91.3298668428588 2885.82167894121 13 16 9
-106.333454975464 -90.7690735015895 2890.66128750958 15 18 11
-129.907192533656 -93.2092370704117 2884.6735519325 12 15 6
-141.503360284419 -93.5415592349088 2886.31879409463 12 15 6
-166.936758960896 -96.2635949755716 2879.3855714473 12 15 6
-188.132397595226 -98.227676403958 2875.21738738877 16 19 10
-147.306488391654 -87.8422729993333 2918.16233816309 21 27 17
-132.814843983688 -83.7121374573092 2935.7527680122 19 24 17
89.5980455132803 -113.923884409261 2751.95004308198 26 28 23
94.5286594461034 -111.137635049681 2765.0632366186 17 20 13
113.966678867906 -105.478042147607 2788.85174005397 17 20 11
98.9086587634249 -106.70266360088 2786.98164979353 20 23 14
91.8747365335952 -106.326372250048 2791.07666637348 21 24 15
125.281366993563 -97.9869171584267 2824.68753554585 21 24 15
120.76350632353 -97.1440654155157 2830.46617417566 20 23 14
107.309408906 -98.0478376157369 2829.7897622327 16 19 10
85.6698154276936 -100.531558345811 2823.30507788151 16 19 10
94.9882746405644 -96.9919918090292 2839.03462067156 16 19 10
100.284361588268 -94.251329637283 2851.79163186817 15 18 9
83.4760163765882 -95.7763260142876 2848.86987911886 15 18 9
80.5972782614606 -94.6168691680001 2855.80820720237 14 17 8
66.1884134081694 -95.6604182957005 2854.68330524631 12 15 8
48.4324870745105 -97.3264791422976 2851.30645450823 11 14 7
26.4775928302154 -99.7688295581671 2845.12875396429 11 14 7
27.6937574757792 -97.819199186482 2854.96888020127 13 16 9
34.7677036836145 -94.7797756904474 2868.75045055516 15 18 11
62.7543684520422 -87.8478049524389 2896.61516328611 19 22 15
38.2233068421169 -90.7482834205355 2888.81228034989 20 23 16
27.0126127700334 -91.1492648103647 2890.08488925426 20 23 16
26.6951912826672 -89.5284661995708 2898.66267174703 16 19 12
-4.7483578087002 -93.6459878924414 2886.56758145461 15 18 11
-37.9985414283657 -98.0575654444478 2873.47614864789 15 18 11
-60.3804953363958 -100.444176459351 2867.71428640402 8 10 5
-79.448046351235 -102.203847330884 2864.23648672482 8 10 5
-113.869987096501 -106.727756654604 2850.90831933465 7 9 4
-121.172306279225 -106.314489513197 2855.26439305076 8 11 4
-137.01623488024 -107.435361433412 2854.15938740956 10 13 6
-116.977288987682 -102.113314817537 2875.98414185212 12 15 8
-93.3919609542446 -96.1941919011403 2899.86701390003 16 19 12
-114.358030106432 -98.2358929767193 2895.48233610202 15 18 9
-110.416898556411 -95.8457432068873 2906.80248714095 15 18 9
-110.748229615297 -94.2224834476716 2915.39371828719 17 20 11
-159.501071508739 -101.115385425762 2893.97424537307 19 22 13
-159.025368630224 -99.3326058808033 2903.15741225237 20 23 14
-108.990839648251 -88.9166665549842 2942.62152937538 20 26 16
-141.443184694003 -92.9035768502574 2931.50922191288 17 22 15
74.4328373617051 -126.511281773774 2732.02738579614 28 30 27
77.6880349358478 -124.006206668463 2744.01169349869 26 28 23
108.226018242629 -115.966487895366 2776.2644068024 16 19 12
102.800654522788 -115.270372272537 2781.54898759277 17 20 11
97.3761397997621 -114.57421625718 2786.83271934675 19 22 13
103.250108897544 -111.607288089227 2800.39935232797 20 23 14
122.122082117669 -106.056174098958 2823.34907182738 20 23 14
133.002879233486 -102.136926260985 2840.30522973113 20 23 14
84.6279551331719 -110.013271831109 2814.40476560004 19 22 13
79.2294541771743 -109.319658154097 2819.66304105531 18 21 12
97.5155488732726 -103.958538731806 2841.80571838641 17 20 11
101.998625356186 -101.343738304386 2853.97175398619 16 19 10
91.7590254220899 -101.623027489865 2855.67897531919 16 19 10
86.4321627745124 -100.938105889163 2860.86739756027 16 19 10
73.6861794903398 -101.692767795246 2860.8826886964 14 17 10
58.4273476630708 -102.921985677327 2859.2126867954 12 15 8
40.6378164707402 -104.623645244114 2855.87412981206 10 13 6
31.0935682512588 -104.725811937729 2858.28158730403 10 13 6
61.4762437812377 -97.1956371337785 2887.93001526665 11 14 7
52.8222114717201 -97.1461315960148 2890.84796742839 16 19 12
59.2030608996672 -94.2423796752546 2903.92093601242 17 20 13
48.8788835756981 -94.5098271603314 2905.7103937457 18 21 14
21.7337711130554 -97.9334179868905 2896.32955193198 19 22 15
0.382026382652612 -100.240153271121 2890.94978046505 19 22 15
-32.855529033438 -104.741849759596 2877.85912720495 17 20 13
-77.2144884269408 -111.270871776591 2857.6906578284 7 9 4
-110.730751731851 -115.736562917003 2844.87144404723 7 9 4
-112.088423919331 -114.230802135977 2853.08230408623 8 10 5
-103.207466971201 -110.850106693883 2867.85286485332 8 11 4
-109.622373524018 -110.289782046735 2872.72289899216 9 12 5
-144.268574685961 -114.875804250369 2859.62660576745 10 13 6
-139.607533646585 -112.282097542229 2871.61903757436 10 13 6
-110.839489730607 -105.341426734831 2898.70654339443 12 15 6
-112.058253904934 -103.853385611211 2906.78174683855 14 17 8
-150.371663236369 -109.031409454975 2891.74656800845 15 18 9
-169.799596022394 -110.786852945523 2888.6260079504 15 18 9
-153.741039490359 -106.201189156442 2907.42730049854 15 18 9
-144.536691682248 -102.861851958983 2921.88284209158 14 20 10
-147.457914312105 -101.686646008895 2928.86103021559 11 16 9
-166.077052346236 -103.280064384121 2926.33028708915 15 20 16
100.820647417132 -128.732921548563 2752.91364362072 25 27 24
81.7629065819197 -130.851030666593 2748.06216998671 19 21 16
73.0545213759175 -130.807172769512 2751.03526793895 17 20 13
85.2110553586729 -126.460969611947 2769.49531510064 18 21 12
96.649143123154 -122.290744877601 2787.27822803603 18 21 12
107.362605210105 -118.29589986252 2804.38937886735 18 21 12
129.479076783932 -112.005911415634 2829.6760333299 19 22 13
133.890300582444 -109.349605218882 2841.90728517288 19 22 13
105.025374309431 -113.429444405895 2830.08017132231 21 24 15
104.563759219184 -111.758241436644 2838.79369045215 20 23 14
103.309531771679 -110.253655736729 2846.90166416963 18 21 12
103.712872812002 -108.424765635875 2856.14987230394 17 20 11
87.7337297613998 -109.862384223911 2853.80870446948 17 20 11
81.5748769781277 -109.338642242977 2858.43021817407 17 20 11
63.871299244048 -111.091544292969 2855.01421959469 16 19 12
57.6791558259528 -110.563356585334 2859.66779647332 13 16 9
53.1409846681883 -109.710306215398 2865.46543420706 12 15 8
68.5326532440831 -104.972080015372 2884.90606985436 11 14 7
31.5963301709639 -110.430588460993 2868.54487951434 11 14 7
41.2229693362267 -106.831483417006 2883.95959529056 16 19 12
45.0680617149564 -104.369476220202 2895.36449414998 15 18 11
63.2023047018433 -99.1775282755774 2916.26605662591 18 21 14
15.0931960199099 -106.691560152928 2892.88190268477 20 23 16
0.461398529282953 -107.763819839456 2891.98295738318 19 22 15
-59.7761260785168 -117.479216872097 2861.1297787399 16 19 12
-102.504216153333 -123.804123067334 2842.14582026933 7 9 4
-122.515095145716 -125.796339257535 2838.2222199956 7 9 4
-114.554602472677 -122.519556241834 2852.50526428835 8 10 5
-136.334428484905 -124.821505079843 2847.54987642782 8 11 4
-112.953935635955 -118.691692162728 2871.60501295185 9 12 5
-153.594547519004 -124.478568192005 2854.71970294985 10 13 6
-169.530752776571 -125.651126655176 2853.71363079919 9 12 5
-141.690669807307 -118.751402736345 2880.31175817166 10 13 4
-129.200217461146 -114.713699561135 2897.06890630721 10 13 4
-158.057026665724 -118.254483887632 2887.98821649215 12 15 6
-178.36681296473 -120.207735490415 2884.35567664356 13 16 7
-172.732077270568 -117.437558046042 2896.77204228438 13 16 7
-158.357199967464 -113.10482747393 2914.44848013778 12 18 8
-151.730269365926 -110.193681509015 2927.2756558002 11 16 9
-144.175477589445 -107.133160185934 2940.57662114659 17 22 18
88.1437550744453 -139.0490842995 2744.35447117177 30 32 29
75.4486095223998 -139.859969025665 2744.32758939663 19 21 16
51.5041591767775 -143.023187862474 2735.98102571501 19 22 15
87.6989199248337 -133.567287304658 2772.32620525571 16 19 10
134.561303523208 -121.95517828838 2816.18076343941 18 21 12
125.192525902904 -122.107652938192 2818.42141152643 19 22 13
123.085293728539 -120.751350097022 2825.98177621345 19 22 13
129.912995966163 -117.558908322609 2839.9849165932 21 24 15
101.039277804741 -121.715463261139 2828.17787177236 21 24 15
111.158760106863 -117.86051471555 2844.48262063003 19 22 13
149.117979042061 -108.358996754265 2880.48583419282 18 21 12
102.971864600725 -115.992636532953 2856.58732310768 19 22 13
101.760384010435 -114.479300273164 2864.6518930771 18 21 12
88.2325368397345 -115.452513270721 2864.05897904878 16 19 10
68.0716922811953 -117.743576995312 2858.9112191745 20 23 16
66.0210430622672 -116.393318115749 2866.41595160322 17 20 13
70.6129983578792 -113.726227991437 2878.4661405381 16 19 12
53.667379035149 -115.344839148158 2875.6945392339 13 16 9
45.8217685634743 -115.148576931712 2879.20527314668 13 16 9
28.7906678567427 -116.756059693074 2876.51657350647 13 16 9
31.7706964229743 -114.423920546873 2887.38311648513 15 18 11
64.9560627746153 -106.206954254827 2918.39765150161 18 21 14
59.6861782170222 -105.527446582917 2923.53029383335 19 22 15
55.2590108825877 -104.684853583398 2929.21891088237 19 22 15
-94.8100406272729 -130.157035473932 2848.19754529584 7 9 4
-116.498286164981 -132.521581747434 2843.16046854393 7 9 4
-148.453862502143 -136.822061177139 2831.60086994934 8 10 5
-103.894371525195 -126.53964755498 2869.43663135738 9 12 5
-134.206654567914 -130.50847819481 2859.0306950022 9 12 5
-170.617750101542 -135.592456463842 2844.92640919007 9 12 5
-186.592229104706 -136.791870915262 2843.96231273792 9 12 5
-162.228745639871 -130.424840193416 2868.42351152087 9 12 3
-161.841331559532 -128.572521819968 2877.68407267343 9 12 3
-176.961571056121 -129.610318252891 2877.26472600844 9 12 3
-181.742967273816 -128.721327789494 2883.29857789209 13 16 7
-175.249467952873 -125.754750852385 2896.25006011513 14 17 8
-166.963134535484 -122.475968512162 2910.20924423264 12 18 8
-149.906122649023 -117.611592915755 2929.39477168827 11 16 9
-172.893864699043 -120.079723742684 2924.24651461721 18 23 19
84.2370781241129 -147.563946862268 2742.40746767232 21 23 20
54.7509471974466 -151.994942850778 2729.83187288812 28 30 27
82.0250047781048 -144.26596818916 2759.70366541866 13 16 9
111.065168368291 -136.21581829016 2790.60803764951 15 18 11
128.19884845825 -130.745403977378 2812.46167882353 18 21 12
122.849407182384 -130.057414848722 2817.67206859698 19 22 13
109.412524805081 -131.06995817437 2816.99463818942 19 22 13
109.721039440027 -129.190708545846 2826.32990507186 20 23 14
114.120844503018 -126.467184814402 2838.56222332375 20 23 14
128.344320781701 -121.717918291652 2857.74468796064 19 22 13
116.530572943794 -122.390436990814 2858.23902410527 20 23 14
101.412551078506 -123.734146270119 2856.44577976698 21 24 15
91.9923900311659 -123.89190579909 2858.73857130146 19 22 13
99.8243952678921 -120.512727218352 2873.13407149807 18 21 12
120.909011187319 -114.452613131904 2896.64553057371 18 21 14
95.0199774476701 -117.973477826667 2887.44867037276 17 20 13
84.7712798998872 -118.298293939545 2889.17165463063 16 19 12
62.8780548392895 -120.962372380581 2882.96548698093 14 17 10
47.5649509424314 -122.280028991626 2881.36211141085 13 16 9
36.3766573478053 -122.757663288321 2882.62380557612 12 15 8
29.342128641308 -122.398969682908 2886.72236317745 13 16 9
58.330795990658 -114.888111244439 2914.92342250162 16 19 12
62.2837572962416 -112.379495467995 2926.21431719436 19 22 15
64.5967827859155 -110.208019655427 2936.34970289899 20 23 16
-11.5203925883605 -123.438021058574 2894.86174295563 11 14 7
-89.6532746401588 -136.956761991868 2852.58359079771 8 10 5
-111.329112730362 -139.373539681131 2847.54225088944 8 10 5
-96.5482376093645 -134.694145803876 2866.18119954054 9 11 6
-140.42418504927 -141.38143357602 2846.97339308105 9 12 5
-128.149197771876 -137.201753595839 2863.92385494727 9 12 5
-146.583901800431 -138.938881378296 2861.23120631449 9 12 5
-157.360306135963 -139.194282193166 2863.4679516628 12 15 8
-156.130165695651 -137.156882567374 2873.28156531356 11 14 5
-173.424785463075 -136.844726992282 2880.49020103838 11 14 5
-153.979159054171 -131.394810639569 2901.4679842481 12 15 6
-150.02480467256 -128.885557956832 2912.75773930327 13 19 9
-149.502700251692 -127.031157767789 2921.88424326516 16 22 12
-153.306479476111 -125.990648362032 2928.34182190687 12 17 10
-165.828943493802 -126.569414205916 2929.52606706371 14 19 15
79.0245070989686 -150.678842682669 2767.88208981421 11 14 7
87.225802400245 -147.028158023445 2783.28766035549 13 16 7
91.4598288378183 -144.250961632541 2795.67700427945 14 17 8
76.3300094446859 -145.62588186029 2793.90008802527 14 17 8
68.4511759431494 -145.442178499758 2797.44566909125 15 18 9
85.7550329266803 -139.916895580442 2819.12255038018 19 22 13
105.612172226899 -133.889558985918 2842.44050922341 22 25 16
109.259165805246 -131.312871960381 2854.02517349144 24 27 18
117.042389640298 -127.884083683742 2868.46178204965 21 24 15
135.554396608416 -122.236889630284 2890.33784344948 17 20 11
123.751655816883 -122.931492296334 2890.824851277 17 20 11
112.742838566319 -123.451346534855 2891.91422502644 19 22 15
91.7930281310389 -126.013711217801 2886.17344661826 18 21 14
92.3034893485526 -124.139931436929 2895.30864815799 17 20 13
69.5980198307709 -127.029863086075 2888.52518510727 16 19 12
40.9878531303414 -131.09757784774 2877.86054641003 16 19 12
58.14061115644 -125.828365119289 2898.30807110001 21 24 17
67.8755149984487 -122.095956538175 2913.5959140892 18 21 14
67.6261306333088 -120.400708684315 2922.09479330621 15 18 11
20.371180855733 -128.15893414152 2899.31578581043 19 22 15
-58.6863803223778 -140.403522661923 2864.8530946386 15 18 11
-81.1135586743621 -143.05132532573 2859.17474494777 9 11 6
-95.1417755381536 -144.011672432971 2859.07646600655 9 11 6
-99.8630213162626 -143.124368005586 2865.05083680989 10 12 7
-118.202501234505 -144.91383497751 2862.27136493725 10 13 6
-129.772024535737 -145.359743577132 2863.90693679262 10 13 6
-130.248764172697 -143.634358053774 2872.62746666308 11 14 7
-141.845500068145 -144.076659167025 2874.28952784188 15 18 11
-152.60917648686 -144.349306019271 2876.51618313743 13 16 7
-152.200899876885 -142.460904664591 2885.75069444079 13 16 7
-141.408235552187 -138.586933079318 2901.38415200162 14 17 8
-143.515802857548 -137.205247840679 2908.94076012942 15 18 9
-137.804912648196 -134.338276377813 2921.26719709723 15 21 11
-144.206394797449 -133.788030701309 2926.12572811433 20 26 16
-152.352524921694 -133.566930060454 2929.93121137633 17 22 15
-157.018667632521 -132.686382305863 2935.85152481059 14 19 15
-198.413733496087 -138.705468636702 2919.74971934528 16 21 17
55.8188009918767 -163.419094620171 2751.71529190258 8 11 4
48.6704600118331 -163.058084514174 2755.92618655422 10 13 4
70.5614683751463 -156.370393609215 2781.37828691014 11 14 5
63.4693331881881 -156.016262745617 2785.5343851274 10 13 4
77.707748461656 -149.181099852895 2814.31276145711 15 18 9
94.2863844473791 -143.76593156559 2835.30882565242 18 21 12
106.887886076634 -139.236528152253 2853.2999364455 22 25 16
140.856258421886 -130.188616509043 2886.24827805279 20 23 14
136.452018823067 -129.340805701264 2891.91335633163 18 21 12
116.427996289726 -131.793929007476 2886.65402034111 18 21 12
89.7405717022091 -135.625714625449 2876.87901871342 20 23 16
110.048521689448 -129.571547858542 2899.74535039248 19 22 15
74.1620860505554 -135.294076093525 2883.79753763737 18 21 14
72.9976889451454 -133.744306353305 2891.80996815778 17 20 13
61.0368214773769 -134.439055228999 2892.45368188007 17 20 13
46.5441505669624 -135.646393644975 2891.43654640488 20 23 16
71.297886166509 -128.766191598551 2916.85128186914 18 21 14
62.6778238291461 -128.772328659106 2919.74406314008 14 17 10
44.8053945359637 -130.662542650249 2916.51569345791 17 20 13
10.8831097155333 -135.798205441728 2902.78177724348 19 22 15
-94.2104693114274 -151.61477330745 2860.69264730471 8 10 5
-106.575226613292 -152.256482574258 2861.72959037182 9 11 6
-115.564141553265 -152.214336096426 2864.9815114439 11 14 7
-120.301018832447 -151.321745777764 2870.97028546448 13 16 9
-101.08557928779 -145.68490523389 2892.14935816136 15 18 11
-135.760615270207 -150.722664370527 2879.14846486106 16 19 12
-166.270606112627 -154.898747517114 2868.96914926162 15 18 9
-137.478298297296 -147.419595341784 2895.95297335993 14 17 8
-112.845381244333 -140.802787754027 2920.10970369521 16 19 10
-115.754155727235 -139.586221784978 2927.06941763255 17 20 11
-140.322061870209 -142.570201216559 2920.73237258597 17 23 13
-146.729348944803 -142.021405583559 2925.59688229554 12 18 8
-148.786083015889 -140.634924604775 2933.10230346195 13 18 11
-184.860072749869 -145.7717073676 2920.08798040628 15 20 16
80.1413652136165 -163.802982867488 2780.04872560965 11 14 5
74.6757529366286 -163.098800606564 2785.37208156666 11 14 5
67.5936941778779 -162.750862229564 2789.51942683056 10 13 4
87.2572887047993 -156.53078498367 2813.00109151069 11 14 5
100.541144149611 -151.747433528705 2831.69432862795 11 14 5
103.325793729534 -149.281912202896 2842.73483415836 11 14 5
122.480319751386 -143.278112372985 2865.33706777935 15 18 9
122.109399225455 -141.53513788048 2873.94991806631 18 21 12
120.942330061184 -139.971778041031 2881.96299336995 20 23 14
92.6586387647683 -144.232496647337 2871.00234781228 20 23 14
100.535006318238 -140.72807355776 2885.33528448885 21 24 17
94.4289547870563 -140.222074153007 2889.90698811458 20 23 16
84.1791150453655 -140.593936077586 2891.63805993831 18 21 14
68.9264756306871 -142.015216446861 2889.98995778981 16 19 12
62.7804960490161 -141.503696984095 2894.60049469775 16 19 12
69.1408444167796 -138.368091485891 2907.65921543812 14 17 10
67.1973714172767 -136.986070555216 2915.05282587931 13 16 9
50.1895667085139 -138.745384729846 2912.36377142731 13 16 9
45.7247834649093 -137.885371349591 2918.08716690553 16 19 12
14.3306347247258 -142.590875995014 2906.03026279972 18 21 14
-113.356845424465 -167.077807547987 2830.97825982834 13 16 9
-142.673193521858 -171.20367007679 2821.02312607016 7 9 4
-114.466712267897 -163.540820973472 2848.56153427828 7 9 4
-102.243672452401 -159.183258264968 2865.53728975252 8 10 5
-107.817330523847 -158.462064407352 2870.96542247408 10 13 6
-99.7372288450302 -154.982440709079 2885.09971349165 14 17 10
-112.975284337904 -155.814751502275 2885.61511607679 15 18 11
-110.818006718603 -153.548323262292 2895.89112779177 14 17 10
-131.821057373791 -155.921220887323 2891.59178603631 14 17 8
-171.835338053668 -162.056029625466 2875.55285351082 14 17 8
-104.132432290467 -146.776560713841 2926.51064432074 16 19 10
-126.914646615378 -149.484746869585 2921.19377525315 17 20 11
-141.971664526853 -150.64703408469 2920.73038614478 17 23 13
-148.383010064751 -150.099984079814 2925.59884612949 9 15 5
-160.891932732734 -150.743551966029 2926.77956008144 12 17 10
-176.921630613779 -152.062906115087 2925.88802382624 16 21 17
107.8342272266 -163.279266802774 2810.56957322177 13 16 7
88.7010551498464 -165.659594966676 2805.83175978614 12 15 6
92.2011779828069 -162.974126018869 2817.54619095488 13 16 7
133.124491826341 -151.997377624257 2856.05595115541 14 17 8
141.688339442149 -148.253659538497 2871.08775158905 13 16 7
117.659869038492 -151.712894725252 2862.86837215434 14 17 8
114.821964922458 -150.490668307477 2869.75687415787 17 20 11
93.9488717265085 -153.215802233178 2863.96397161994 18 21 12
105.894676954557 -148.766976174858 2881.20119861256 17 20 11
101.438101259387 -147.905859866535 2886.91628086157 20 23 16
96.160209610229 -147.223824326225 2892.05650073576 19 22 15
75.1490784426005 -149.930614575336 2886.3976229149 17 20 13
59.0455252510802 -151.559190798508 2884.20821964458 15 18 11
67.0201751428614 -148.023358663448 2898.43891826312 14 17 10
55.8775382359107 -148.5805039708 2899.66702635526 14 17 10
59.7542678961549 -145.94168502974 2911.01471406986 17 20 13
42.7292893115667 -147.736133651487 2908.34756854437 18 21 14
27.3307759640007 -149.169833801219 2906.84649484776 18 21 14
-114.958844785813 -175.298291255385 2830.94989630054 13 16 9
-138.359301809824 -178.265940829422 2824.86839063466 8 10 5
-122.8564562903 -173.133754423664 2844.14039878708 8 10 5
-103.008582509843 -167.136086606174 2866.05537198497 7 9 4
-101.773503390896 -165.011300310072 2875.85082790114 7 10 3
-125.251347020642 -167.968604384568 2869.84463921842 8 11 4
-137.691915145655 -168.642358999616 2870.96159984208 11 14 7
-126.162538377749 -164.423287656139 2887.22939478037 11 14 7
-120.568398155281 -161.434746488763 2899.6537982618 14 17 8
-106.313018803866 -156.711776884821 2917.39122218925 16 19 10
-119.58202477545 -157.563684955745 2917.94025552638 16 19 10
-120.776558762413 -155.980705280543 2925.97770400179 16 19 10
-128.018744084365 -155.613864682218 2930.280925728 13 16 7
-136.136434550358 -155.419155505815 2934.06206863586 11 17 7
-151.230134653789 -156.60586049481 2933.63871442268 16 21 14
-185.562631317359 -161.584419679265 2921.70583410574 12 17 13
-163.177500646936 -155.343730772796 2943.89917392897 15 20 16
68.1056848321897 -183.775180007145 2763.77818412167 17 20 13
54.5487146756916 -184.905485352789 2763.23740782921 15 18 9
93.3922363455664 -174.082642296443 2801.00102306751 12 15 6
91.207201214373 -172.649116749751 2808.62689591665 11 14 5
98.7661704801579 -169.0177015437 2823.25624440555 14 17 8
147.016686520957 -156.240995996077 2866.97714901255 16 19 10
135.250503269979 -157.025549955113 2867.4411494237 15 18 9
125.086910154165 -157.440938624949 2869.09301030691 14 17 8
105.080365771979 -160.040989572221 2863.8380340951 15 18 9
98.130049454912 -159.719022428797 2867.85805786188 18 21 12
104.329200755964 -156.487010950651 2881.06260091069 18 21 12
112.23200517081 -152.898823690803 2895.35690508533 19 22 15
93.7610376959195 -155.120583125201 2891.35498561962 19 22 15
79.3695564711445 -156.429013410957 2890.25230862493 19 22 15
68.2562789706367 -157.008626767021 2891.45458316025 18 21 14
53.7888607898451 -158.307058173188 2890.42549701341 17 20 13
76.8053353656524 -151.485968943018 2914.74027656867 19 22 15
65.6851455965395 -152.064357084834 2915.94923400276 19 22 15
50.3497698868181 -153.53828913162 2914.39107211324 18 21 14
17.3352269305727 -158.776875694063 2901.1878762149 17 20 13
-60.0408599055311 -171.532181145611 2867.96475853952 10 13 6
-106.143708801027 -179.400004867382 2846.89171504773 8 10 5
-110.906355726672 -178.494670189961 2852.90453293952 8 10 5
-122.459390050405 -179.01630955147 2854.53492397002 8 10 5
-116.161101669925 -175.795380625574 2867.64266042982 8 11 4
-136.258247482886 -178.093369368312 2863.84991743391 8 11 4
-156.420400919947 -180.383002407127 2860.12015515834 9 12 5
-156.076314625323 -178.408800967863 2869.40606502071 9 12 5
-118.765567331748 -168.825071101467 2901.79000383098 11 14 5
-116.560653541994 -166.515291249913 2912.01230477526 13 16 7
-127.263807666442 -166.858325472593 2914.18926376053 16 19 10
-118.962685600463 -163.319880731065 2928.09538454186 16 19 10
-115.799594765328 -160.845767451577 2938.75882242445 18 21 12
-131.708554349203 -162.244382727003 2937.75910601518 11 14 5
-149.404189087986 -163.988189855156 2935.75078501629 25 28 21
-152.319491841463 -162.744987290079 2942.71304474555 10 15 11
-160.469426415665 -162.553761241288 2946.52672133425 10 15 11
20.0168261004308 -202.661146621342 2729.30149128297 21 24 17
89.2360155198326 -184.565888293774 2789.67370562925 18 21 12
64.4307645882294 -188.33975816008 2780.85493645024 15 18 9
58.9412651972068 -187.631060843805 2786.2013453414 12 15 6
89.9297798250402 -178.551510178523 2817.85298768368 13 16 7
92.6547928705133 -175.996312402467 2828.9394590342 16 19 10
115.781669683498 -168.808130947344 2854.50726078308 16 19 10
112.10310952404 -167.751197377206 2860.83772971589 16 19 10
112.525086377736 -165.770143549152 2870.0449424796 16 19 10
99.0300603518719 -166.933496594448 2869.4475391853 16 19 10
100.297595680715 -164.770563793047 2879.20546541042 17 20 11
95.8276118441717 -163.901432768818 2884.93267757051 18 21 14
97.1453375965417 -161.744709330143 2894.64168170422 18 21 14
78.6216321245146 -164.002218888269 2890.69741570195 19 22 15
61.6966624981483 -165.884711099552 2887.94397260664 22 25 18
66.3486787701437 -162.995332130022 2899.90166590986 24 27 20
83.5560447561679 -157.36693987002 2920.24187751048 24 27 20
86.6602198592794 -154.858892838875 2930.95880419223 21 24 17
57.9700976204465 -159.291097920287 2920.42743403666 14 17 10
-1.05602051660414 -170.270525897597 2889.97504339936 13 16 9
-51.0710867897672 -179.215748624887 2865.8612442687 11 14 7
-75.9841723716921 -182.681829189418 2858.52131252687 10 13 6
-88.3029649772866 -183.413818918382 2859.52629322597 7 9 4
-94.7201129922863 -182.873143162661 2864.40145726746 7 9 4
-105.386642836771 -183.236905985305 2866.54544932134 8 10 5
-110.116663216449 -182.332487047878 2872.52566607465 9 12 5
-148.117389316776 -188.468164367094 2857.32119109721 10 13 6
-157.188925902185 -188.456320092736 2860.65963533703 12 15 8
-143.990802946237 -183.762567715677 2878.03433946995 14 17 10
-140.582521477556 -179.254862888084 2898.07277639417 13 16 7
-164.282692900568 -182.295265765098 2892.29964446349 14 17 8
-137.03945739899 -174.764503363033 2917.97993582245 15 18 9
-125.249756208948 -170.470278128066 2933.97811704891 17 18 10
-136.836131690119 -171.005493408094 2935.64362285645 19 20 12
-158.025336240195 -173.498024272175 2931.54715425294 19 22 15
-170.558084561979 -174.201731131405 2932.76007810328 20 25 21
-212.852667359899 -180.944820177945 2916.24126637657 17 22 18
66.7838205994999 -197.445523222228 2774.19617003314 20 23 14
62.0924087576347 -196.546295833002 2780.13881524623 18 21 12
46.0850202497625 -198.29308006138 2777.87139011501 14 17 8
82.9851189993001 -185.747130248767 2822.97849157107 14 17 8
75.1385487282508 -185.613253990428 2826.49939919618 16 19 10
102.386253689907 -177.395243532017 2854.90817167204 18 21 12
109.331480737052 -173.890193218203 2868.748404773 16 19 10
122.897985387634 -168.892859144244 2887.12934051297 14 17 8
102.844143606258 -171.582712877027 2881.93460413022 15 18 9
101.676609174034 -169.963408382161 2889.93953501418 20 23 16
84.0078035207457 -172.080757659932 2886.54287238565 21 24 17
62.9695554320189 -174.936431126861 2880.93292694287 21 24 17
85.8465512561324 -167.91343827874 2905.35603185188 22 25 18
88.8905703598941 -165.370505061377 2916.12753816717 21 24 17
83.6360046077917 -164.689655798436 2921.24477041204 21 24 17
67.5171963845407 -166.419681235286 2919.08550976321 18 21 14
14.4898683030341 -176.292212388493 2892.43201180516 15 18 11
-82.1252744233707 -193.735058925917 2846.41509835821 10 13 6
-91.0823375474958 -193.748849927294 2849.64365764131 9 12 5
-135.562846602503 -201.497090544894 2829.77608885218 8 10 5
-81.0765350163103 -187.700182056076 2874.23885518203 8 10 5
-86.6161104853131 -186.981515787254 2879.63351695204 9 11 6
-134.717393018371 -195.435347921638 2857.79774075665 10 13 6
-167.363233207226 -198.546821718616 2855.25031928981 13 16 9
-130.191651122596 -188.674792499604 2887.7298406914 16 19 12
-136.634166531188 -188.132599392403 2892.62997066584 14 17 8
-154.271422933184 -189.958509025065 2890.57581382984 13 16 7
-166.784763166457 -190.685786460024 2891.77328672417 14 17 8
-163.762143653955 -188.138681263495 2902.56542653322 15 18 9
-152.899604315091 -183.963696319697 2918.08500752911 15 16 8
-147.174714993519 -180.885523750529 2930.36632774027 22 23 15
-147.493049269104 -179.080570065128 2938.91746076363 18 21 14
-189.667257893098 -185.951743045164 2922.29838429419 19 24 20
102.870261021589 -198.492930905725 2792.36321581383 21 24 15
88.593213077627 -199.906114529056 2791.16204953521 20 23 14
75.8879237272581 -200.929790346298 2791.17702897409 19 22 13
82.2538758327664 -193.459039940424 2823.42753441197 13 16 7
112.683435618205 -184.359559975493 2854.21403447412 15 18 9
93.4864809750304 -186.912675239838 2849.56509592781 16 19 10
97.1370522356834 -184.125565010212 2861.11544488875 14 17 8
108.213213814613 -179.632471347077 2877.79278883027 13 16 7
125.123109091404 -173.81998167493 2898.40118372547 13 16 7
96.8119339445814 -178.452409921468 2887.52276856003 15 18 11
84.0884294814566 -179.471843463047 2887.55520886866 17 20 13
82.0947447696416 -178.027737522766 2894.98950414513 19 22 15
105.845410192137 -170.729435319901 2919.92159878505 18 21 14
78.156437718683 -175.14544537413 2909.81024997053 17 20 13
75.3782050297724 -173.895669778334 2916.63542560834 14 17 10
45.8686026945498 -178.668365316054 2905.55088848365 14 17 10
31.3259120957912 -180.044181557223 2904.6083242474 15 18 11
-14.3243643682842 -188.357663791561 2883.15173777449 16 19 12
-74.4655750602337 -199.832786418734 2852.46334250535 14 17 10
-112.083682268234 -206.222323226829 2836.91644163327 10 13 6
-105.885973943257 -202.874020219281 2850.10522974139 10 12 7
-108.953977731832 -201.585886338479 2857.212483027 10 12 7
-123.050279744202 -202.722501055426 2857.20820376253 10 12 7
-141.440316608858 -204.784780725612 2854.51959512469 11 14 7
-147.943484071719 -204.23712330983 2859.4791458632 12 15 8
-153.594336895676 -203.503337839002 2864.98207308021 13 16 9
-154.102159754153 -201.657290247455 2873.71563524816 15 18 11
-139.124598657751 -196.481700476358 2892.0862721237 13 16 7
-152.462892013374 -197.419695644574 2892.71683249281 12 15 6
-152.029916353043 -195.399015572043 2901.90726653732 12 15 6
-159.351857832883 -195.041403249003 2906.29105124238 13 16 7
-152.813498865016 -191.736676878295 2919.14834667626 10 11 3
-145.351982469371 -188.255198986517 2932.47938081569 18 19 11
-142.184242366149 -185.699498761444 2943.12614339141 15 18 11
-183.47325704026 -192.501630395229 2927.03476128105 17 22 18
99.9404834400583 -204.75330837095 2800.44887511284 19 22 13
38.0579565462931 -217.676336812732 2764.61807230598 19 22 13
26.0363575949363 -218.51316440828 2765.34343030399 19 22 13
125.79410088096 -188.665179883393 2864.50355709246 15 18 9
99.281763747002 -193.008096019329 2854.63023590246 14 17 8
89.8533236525054 -193.282498878306 2856.94848848638 15 18 9
108.293533671121 -186.996982588976 2878.80150157073 14 17 8
117.803308593929 -182.844759564564 2894.25051467133 13 16 7
113.37424881467 -181.971618015494 2899.93649588376 12 15 8
79.213162394991 -188.014822489718 2885.15693813416 13 16 9
93.7671083503102 -182.720862098843 2903.93039813909 14 17 10
103.435680777608 -178.588494154491 2919.22499538442 15 18 11
79.9011112260737 -182.11940106817 2911.94266747002 15 18 11
52.1134293454253 -186.594774817343 2901.93845032622 15 18 11
35.0861153349671 -188.575491646329 2899.30115427283 15 18 11
12.9797774940634 -191.692739567148 2893.37358901557 15 18 11
41.1721640335356 -183.378879859472 2920.83011224251 16 19 12
-81.1121328532578 -209.112962501553 2849.09879055247 14 17 10
-108.622973274791 -213.324340425184 2840.19755659729 10 13 6
-118.480146414879 -213.541127057474 2842.93303178018 8 10 5
-102.936221183726 -208.075137103073 2862.11491115298 8 10 5
-154.385889217451 -217.560087652017 2838.08855499648 8 10 5
-148.162552941268 -214.176685717717 2851.24670656416 10 13 6
-145.296602171629 -211.554723568441 2862.18335692594 11 14 7
-142.391067123661 -208.937840099655 2873.08145014093 13 16 9
-148.872874039784 -208.395011435857 2878.02084107019 12 15 8
-151.921911188684 -207.100393792968 2885.10830190501 14 17 8
-137.741366123956 -202.05560277984 2902.87247232167 15 18 9
-138.138538175951 -200.207199600097 2911.49580844815 15 18 9
-144.564814160711 -199.671476392291 2916.38076868296 14 17 8
-154.460514843112 -199.882639420951 2919.15367111875 23 24 16
-141.791732900549 -195.240269313082 2935.6443658203 19 20 12
-183.883141925951 -202.347406775026 2918.97794357283 23 26 19
-185.131372463545 -200.687825667951 2927.05705401663 13 18 14
-225.706253186797 -207.39321836662 2911.65913768159 14 19 15
103.0325064858 -213.584224414567 2794.43259025938 20 23 14
58.9839691677034 -222.366288352188 2771.45470930756 19 22 13
47.8207872589058 -223.03390161818 2772.71954600628 19 22 13
39.8654587706773 -222.909666313756 2776.34987707757 18 21 12
87.822809138475 -209.203332479578 2820.22450087688 16 19 10
106.789864020501 -202.60646646079 2842.92524118734 17 20 11
116.916273978109 -198.184093933251 2859.13924576398 15 18 9
95.2813757971533 -201.417679231629 2852.76072856882 12 15 6
106.299508143997 -196.80859051454 2869.47855237731 13 16 7
114.935500769839 -192.796224280908 2884.39900567055 18 21 12
127.749027611103 -187.815753393631 2902.11324256014 20 23 14
101.917729971456 -192.014092096346 2892.95917992091 17 20 13
84.2505947014547 -194.251712483187 2889.57863459447 18 21 14
90.5362251402564 -190.839632529895 2902.67068853911 18 21 14
86.9185598816036 -189.766182064223 2908.93858458728 14 17 10
60.8505560510437 -193.933235454218 2900.01495073922 11 14 7
40.5228047545787 -196.731073156074 2895.10783269556 13 16 9
35.1686051549365 -196.03589439874 2900.32188493088 11 14 7
34.8411057196367 -194.180883695672 2908.87505852997 7 10 3
-47.7387895490438 -211.247635006395 2863.03545687134 11 14 7
-67.5619966531484 -213.80836743457 2859.00952208994 14 17 10
-135.525327714427 -227.3356241201 2823.63871511189 9 12 5
-88.8053320319369 -214.673784249452 2863.22811320197 5 7 2
-134.199399974513 -222.975693276641 2842.9326445245 5 7 2
-143.257547470558 -223.00702147917 2846.26417407388 7 9 4
-148.07459111588 -222.078688218953 2852.32727168996 9 12 5
-140.943340911872 -218.47282531595 2865.96821883156 10 13 6
-129.478083105642 -213.919425726042 2882.25027127783 13 16 9
-116.220701933328 -208.994526432378 2899.53196771258 13 16 9
-132.079905097404 -210.55895445516 2898.50734949456 17 20 11
-118.71635562924 -205.647763690677 2915.6856453567 19 22 13
-119.934056770948 -203.978291562476 2923.73297777048 19 22 13
-140.154650738586 -206.486568309226 2920.09390109222 18 21 12
-148.30738451398 -206.332994785314 2923.91592235582 20 21 13
-153.865259591539 -205.610134557618 2929.32813604236 11 12 4
-162.033810556058 -205.454478572452 2933.16555622172 21 24 17
-213.833848363867 -214.736237410343 2910.87400010187 15 20 16
55.6899193322113 -235.081240392559 2751.098956919 12 14 11
58.1633234697749 -232.357810482457 2762.4104149986 21 24 17
75.9642759578862 -225.834127881758 2784.8626815419 19 22 13
128.561508411736 -210.723981236728 2832.42448250963 19 22 13
121.609197961769 -210.432763857392 2836.45136912355 19 22 13
67.6432331891275 -221.712588639663 2806.68654502204 17 20 11
107.683382585053 -209.84712988731 2844.52504025413 17 20 11
95.010033415706 -210.945742285722 2844.51937821506 16 19 10
101.892990255291 -207.269468689047 2858.39613982622 13 16 7
82.6522727339216 -209.953019576683 2853.80993679306 13 16 7
110.915447967633 -201.128762345022 2882.53763858675 16 19 10
115.497651842179 -198.067432117152 2894.53890446978 17 20 11
103.646818418725 -198.967183537035 2895.10398988796 19 22 15
81.028075606441 -202.430493132411 2888.31915094667 20 23 16
103.035860184744 -195.231388668151 2912.1624569344 19 22 15
76.211845298285 -199.672010492852 2902.6134150602 17 20 13
57.6055177578931 -202.132040658872 2898.7811264506 15 18 11
43.1067045563309 -203.601533700818 2897.80849885856 16 19 12
64.4993230877193 -196.626722313378 2920.87891492578 14 17 10
-8.63092220147044 -211.815738103919 2880.96515867707 11 14 7
-56.0484861754529 -220.89585930825 2858.54300509633 12 15 8
-54.8538454908996 -218.612108990161 2868.3554600046 14 17 10
-62.9049258164951 -218.480107369535 2872.07972620773 6 9 2
-116.614654695792 -228.876188265111 2846.1809049109 9 11 6
-120.555035962467 -227.753887136414 2852.76204261899 9 11 6
-170.343741539111 -237.135019770686 2829.90480058206 8 10 5
-153.944264946106 -231.33957328705 2849.60565843373 8 11 4
-140.855504170004 -226.333180056925 2867.04275264637 8 11 4
-120.840795016286 -219.788042479545 2888.71080221891 10 13 6
-121.275643095925 -217.901660704148 2897.36593797795 11 14 7
-103.650312299668 -211.960470763138 2917.2448729827 11 14 5
-119.490899506861 -213.559118273793 2916.20682646967 13 16 7
-156.082501610154 -219.777309197135 2902.44942248458 16 19 10
-153.902454961339 -217.315999395505 2912.67402080696 16 19 10
-151.686862356083 -214.859347632966 2922.86400992528 17 18 10
-159.858022164569 -214.710999224595 2926.70510078192 22 23 15
-173.262759764752 -215.711557538284 2927.41088807369 18 21 14
-190.190933504939 -217.473585734026 2926.06006934158 16 21 17
60.5776007708889 -241.582377692136 2755.7080759992 13 15 12
62.2599530656895 -239.036300752454 2766.41436362641 21 24 17
68.8056934605355 -235.276810727997 2780.61402464248 18 21 12
102.833034570932 -224.632191454581 2814.68472602155 18 21 12
133.817329391334 -214.822032221371 2846.23223722572 19 22 13
100.143350617971 -221.211729145855 2831.02018581539 19 22 13
37.0890019060894 -234.854563312027 2795.04249705062 18 21 12
94.2774038992371 -218.607812416136 2844.96209361456 18 21 12
70.1408463607986 -222.546002851916 2836.92083567915 17 20 11
75.3706908263725 -219.228898830641 2849.65842878614 15 18 9
83.1121426219599 -215.315413223203 2864.06487954322 12 15 6
91.7385942248941 -211.209174681219 2878.98093292708 11 14 5
83.1278836650369 -211.321027669065 2881.88005251259 14 17 10
91.0212920390165 -207.426728087238 2896.1384438272 15 18 11
81.5922668663953 -207.739416409446 2898.4629359771 16 19 12
69.332446615836 -206.761605791925 2907.65844225968 15 18 11
61.5307714282256 -206.670303757584 2911.14106085497 17 20 13
26.1427452060023 -213.142682880778 2896.22605713279 16 19 12
35.844455468617 -208.867365265037 2911.46662011879 13 16 9
-17.3455695253013 -219.484434404136 2885.08438714702 15 18 11
-37.9393404910693 -222.343246682143 2880.45078042519 16 19 12
-80.5296191396536 -230.339515031225 2861.57666192558 13 16 9
-110.609458312211 -235.348241920287 2851.09360158266 10 12 7
-145.036999982894 -241.32967223049 2837.98607911751 10 12 7
-132.041601278264 -236.25159690009 2855.50528866415 9 11 6
-130.875734841825 -233.941738970022 2865.34212029052 9 12 5
-140.767334560757 -234.192780681965 2868.11684446094 9 12 5
-151.532453889224 -234.637803160999 2870.37040962956 11 14 7
-126.32991431027 -226.840339302468 2895.20390521248 12 15 8
-122.458364262091 -223.959303295627 2906.5205989399 10 13 4
-151.252450536997 -228.519413413622 2897.52828023528 10 13 4
-184.077026734593 -231.939304197412 2895.20359232129 13 16 7
-187.128637116339 -230.61865174929 2902.28976048153 12 15 6
-173.666556395179 -225.600912807421 2919.3544655788 20 21 13
-174.915809212262 -223.899377481294 2927.42872818798 19 22 15
-212.784147769022 -230.355568639092 2913.55707154582 17 22 18
-230.685744706197 -232.333139155765 2911.78782418135 19 24 20
96.6923649710432 -240.009269635635 2783.37872567564 14 16 13
71.9750959899179 -244.245326100846 2774.54123793865 21 24 17
109.117587711571 -232.632530631379 2811.04342780427 18 21 12
102.914969763417 -232.138873784999 2815.7128475343 17 20 11
88.6246074664223 -233.696326768114 2814.54622555345 19 22 13
96.9835893262694 -229.510432699266 2829.71610729403 19 22 13
58.2940299240287 -237.203507719842 2811.17510871517 19 22 13
82.4670998711778 -227.007345696247 2846.59539722762 18 21 12
74.63523405369 -226.921171430512 2850.10875344664 17 20 11
89.7553387390171 -221.130950864377 2869.66390958584 12 15 6
94.2866664503734 -217.997545099462 2881.7050435181 11 14 5
74.1464259737916 -220.964746527732 2876.63709418516 15 18 11
71.2813706081081 -219.661833358627 2883.54063231435 15 18 11
76.7072773580697 -216.333917385646 2896.08193467288 15 18 11
73.0566324475452 -215.238900469109 2902.37905464886 16 19 12
54.1103150395661 -215.878316298759 2907.11742659023 14 17 10
36.2535942612787 -218.21059324553 2903.93913267434 16 19 12
11.6393113283104 -222.14646619219 2896.37192059389 16 19 12
1.20777415246964 -222.651350587561 2898.3030813188 18 21 14
-48.791857092116 -232.595003859736 2874.32152257509 19 22 15
-88.0324034888065 -239.903623634915 2857.68774922716 17 20 13
-113.902640563554 -243.9860614784 2849.97213324395 11 13 8
-126.309332291322 -244.854185801663 2851.08451970434 10 12 7
-127.707477537101 -243.119921053724 2859.30145946001 10 12 7
-100.14878171377 -234.600806392617 2885.93966318357 10 13 6
-136.413861525531 -241.054669313178 2871.89284995436 12 15 8
-137.764688168136 -239.326323896114 2880.06401435409 13 16 9
-156.232835214185 -241.577999163585 2877.48062502563 15 18 11
-161.876013435031 -240.84288141419 2882.97573433812 13 16 7
-166.657475415683 -239.909434907368 2889.00308094156 13 16 7
-167.12115485021 -237.986029087878 2897.68103668266 14 17 8
-191.76930371193 -241.605923923967 2891.51799970306 13 16 7
-204.3704352436 -242.448284637162 2892.81932207077 13 16 7
-189.210549143378 -236.971026955633 2910.96432113684 15 16 8
-194.846840393004 -236.236688965151 2916.45270683312 10 13 6
-204.843979971824 -236.486766632034 2919.33175331714 8 13 9
-251.578275153219 -244.99201840642 2900.39720406925 8 13 9
