ply
format ascii 1.0
comment KinectMotionCapture
element vertex 787
property float x
property float y
property float z
property uchar red
property uchar green
property uchar blue
end_header
155.162713656338 -154.931920899814 2845.58135298119 14 16 13
162.408444053729 -159.448228538064 2819.93308452011 14 16 11
170.199656830985 -162.479548599604 2803.33332051362 17 20 13
163.264636558597 -162.867817033784 2799.53934076756 18 21 12
146.340873894634 -161.440348509733 2804.56986516784 17 20 13
125.645339232987 -159.308369397859 2813.04549213845 16 19 12
127.960463996627 -161.370137395177 2801.12675139617 14 17 10
132.512420088221 -163.856586978432 2787.12227643632 13 15 10
123.324418279765 -163.821093838846 2785.40231861726 10 13 6
118.699085798476 -164.627584465062 2779.57515809968 9 12 5
116.330604176616 -165.857155588655 2771.6761951059 9 12 5
104.899823934785 -165.396914592282 2772.03795513349 10 13 6
91.2457790524406 -164.510613751444 2774.49558561807 11 14 7
70.8946400846173 -162.348315123044 2783.22102595124 9 12 5
25.2390790519041 -155.366851098028 2815.62135089225 12 15 8
-32.8407356673683 -145.956161924662 2860.02476325197 27 30 23
-54.9836221536839 -143.33055597399 2871.15878420172 15 18 11
-62.2290200407796 -143.538470324207 2868.37575525716 15 18 11
-50.2814555034718 -147.444809893499 2847.37407294394 15 18 11
-58.3036305963058 -147.513479868183 2845.26338907809 16 19 12
-55.3114714270906 -149.720660718125 2832.59996632809 16 19 12
-49.4478022510243 -152.503608889144 2817.0745106173 16 19 12
-50.9462382757517 -153.862100879378 2808.57057260577 17 20 13
-66.2827085787225 -152.50150514333 2813.51638375998 15 18 11
-84.4615436117118 -150.562313401598 2821.34507575898 13 16 9
-95.341596364654 -150.052498600076 2822.10632099746 13 16 9
-83.1430016704433 -154.140803765162 2800.05065748141 13 16 9
-96.1878377892391 -153.199474557944 2802.95019512938 14 17 10
-92.0087000059713 -155.713886188891 2788.67531458819 16 19 12
-65.7683196159593 -162.708041040627 2752.08132856491 17 20 13
-36.1700311670115 -170.44135884888 2711.74234012574 18 21 14
-64.2426845339175 -166.471200461347 2729.70077003328 18 21 12
-73.7962888181298 -166.256650286846 2728.95201724261 18 21 10
-79.8044268154232 -166.765421937097 2724.59401275964 21 24 13
-94.2449824758251 -165.530705843844 2728.95332284658 21 24 13
-117.739306420062 -162.400187191057 2742.815914266 19 22 13
205.413820991773 -169.840623940148 2812.76688023578 20 22 21
189.867195692355 -168.673665100065 2816.32432810988 20 22 19
172.817345348125 -167.219041327883 2821.26358640657 19 21 16
167.458818997335 -167.886360984718 2816.14065956345 20 22 17
190.703317252828 -173.807869933359 2786.02617316696 18 21 14
151.352321061774 -169.890745472233 2800.74915851307 14 17 10
136.007223312662 -168.70641513631 2804.45278599925 14 17 10
103.897069147223 -164.3771434256 2823.19156875779 12 15 8
110.045876492991 -167.181800086316 2807.87270583358 12 14 9
118.403620046053 -170.421862257065 2790.4475381277 9 12 5
120.614366602124 -172.522515168719 2778.45322891247 8 11 4
108.419127037918 -171.900802139741 2779.4969650568 8 11 4
109.066423447345 -173.718758639916 2768.84078263605 9 12 5
84.13177020077 -170.648236201388 2781.65865023637 9 12 5
75.0353743698686 -170.593631681754 2780.00549082535 8 11 4
15.171614594891 -160.728362286519 2825.58805913976 27 30 23
-19.8035894738644 -155.602435930509 2848.42941891605 28 31 24
-36.7900096611069 -153.932833691055 2854.65107910175 15 18 11
-49.2699271564936 -153.126324736437 2856.72441879542 14 17 10
-48.4265258902081 -154.926363266467 2846.21048772855 12 15 8
-54.2460489926282 -155.422991557037 2841.98927571663 12 15 8
-66.6691769088672 -154.61104559976 2844.10381092767 12 15 8
-59.3048133097411 -157.725905261637 2827.19419169799 15 18 11
-51.2914221005685 -160.993146886786 2809.51925795989 17 20 13
-61.5382795836679 -160.61883452484 2809.50379698677 16 19 12
-68.860265822577 -160.826620541281 2806.66524816154 19 22 15
-71.8385893735924 -161.91134888089 2799.56026250213 18 21 14
-56.1045494892487 -166.806443259643 2773.88766000809 19 22 15
-112.324975576171 -157.043647212203 2819.64047188243 20 23 16
-92.3405209852382 -162.823417271986 2789.63379593157 19 22 15
-74.6570327751226 -168.175237292143 2761.66667236213 18 21 14
-111.913429947393 -162.200836362269 2789.03441636564 17 20 11
-86.5495097116293 -169.184364571303 2753.04045060421 17 20 11
-95.325747901426 -169.09806879245 2751.61924634518 18 21 12
-82.935404481733 -173.444426740302 2728.46594737792 19 22 13
-91.0414366665659 -173.508259544208 2726.29479269472 19 22 13
-100.536317763875 -173.274314901946 2725.58870783226 19 22 13
-103.026028358009 -174.522011314589 2717.60177156117 26 28 23
188.609636406747 -174.34345151375 2827.7352276832 11 13 12
193.387322200045 -176.887847581944 2813.89409549105 18 20 17
187.214792361418 -177.41692683107 2809.41681699201 12 14 9
177.164005060776 -177.223426875528 2808.30724452179 14 16 11
191.880732773961 -181.658870924337 2785.60490330852 13 16 9
173.319388273718 -179.87380799826 2791.92048870951 11 14 5
150.21372314586 -177.212166425093 2802.35704787985 11 14 7
132.571174744704 -175.559194903703 2808.10268800592 11 14 7
95.1152331380514 -170.118488065081 2831.61796483708 10 13 6
108.916366192399 -174.421233252325 2809.48759829095 10 12 7
124.122678679094 -179.025391668164 2785.90398185049 11 14 7
117.224136242008 -179.405178687966 2782.13648862576 10 13 6
101.260104393584 -178.029913342507 2786.6274413273 9 12 5
84.5988629729266 -176.503331478832 2791.84877500793 10 13 6
115.334290270822 -184.206921493727 2753.56930999445 10 13 6
73.9332953211358 -177.837693635656 2781.63995085986 8 11 4
-25.5256251661666 -159.986950188976 2864.0212431516 23 26 19
-32.8290294115559 -160.189705971613 2861.19619028916 25 28 21
-35.6689909114209 -161.275711899396 2854.19149976218 20 23 16
-56.2962775724143 -158.822209619962 2863.95326637238 22 25 18
-67.240186207103 -158.281572208349 2864.66837724203 21 24 17
-65.6426237598253 -160.252629273925 2853.46525083805 21 24 17
-84.6354416252459 -158.080591119808 2861.94008535275 17 20 13
-83.797724877231 -159.905335789805 2851.42220279282 15 18 11
-60.3896944118858 -166.336055515672 2818.95331739681 14 17 10
-99.6510227543035 -161.677795478927 2837.45046324242 19 22 15
-58.4451237820165 -171.856879354573 2786.9866692799 21 24 17
-78.774256596321 -169.375967250523 2796.96471281265 21 24 17
-71.0000226880201 -172.71453053151 2779.11604758503 21 24 17
-112.009151753173 -165.887226255237 2809.94344837576 18 21 14
-104.968325733188 -169.077006792132 2792.79920483835 17 20 13
-110.819127731934 -169.573839013344 2788.55531705401 16 19 10
-114.54209485001 -170.520921374916 2782.14625721457 17 20 11
-99.8882199159659 -175.377960253531 2756.925849484 19 22 13
-62.7987708363746 -185.062654339065 2708.42119279746 19 22 13
-84.3222921470193 -182.260036782151 2720.00510137964 19 22 13
-106.450441966267 -179.298024683754 2732.38684032353 19 22 13
-83.0741957714776 -186.148339321329 2697.42300971916 26 28 23
151.460313230609 -174.912153925042 2860.08818527405 11 13 12
184.427661593149 -182.773103074805 2822.19055931061 18 20 17
190.727138973731 -185.653008369448 2806.98083363795 12 14 9
169.807460753163 -183.385447035544 2815.29436643291 11 13 8
155.931603583392 -182.437715933317 2817.59151161301 12 15 8
159.838275883847 -184.881498497895 2804.35450940798 13 16 7
170.608601793238 -188.660453663915 2784.9704346524 13 16 9
181.281743789666 -192.44777011961 2765.51557237571 13 16 9
137.564231222173 -185.722149923943 2794.37909311591 12 15 8
123.036007242323 -184.616332989368 2797.4391610383 12 14 9
120.71990560193 -185.883351574932 2789.57827420918 12 15 8
114.590486095974 -186.408430583902 2785.13226757232 11 14 7
94.8540847780248 -184.252629662229 2793.06798032865 10 13 6
102.329178458034 -187.458549612821 2776.23846493641 10 13 6
81.918465425316 -185.146519898162 2784.92147717603 10 13 6
24.1249250374396 -175.352164768661 2828.29902814546 8 11 4
9.21938689892254 -174.064187355044 2832.32153228989 21 24 17
-47.3495627732001 -164.378335373888 2875.35122898419 23 26 19
-55.3438096401151 -164.421193429246 2873.26121610481 19 22 15
-67.7688278713255 -163.561247093518 2875.37462411756 23 26 19
-69.8185182540874 -164.804124770434 2867.70669229604 24 27 20
-83.6689263757642 -163.638587815007 2871.258425893 24 27 20
-72.5187290394309 -167.596638948068 2850.91348977907 23 26 19
-77.5683327973873 -168.24105333512 2846.01462353594 17 20 13
-56.3607481922936 -174.328690500036 2815.65802459844 15 18 11
-96.4110037599282 -167.713971149042 2844.70908873092 18 21 14
-96.3742149736457 -169.417787371064 2834.8462455545 20 23 16
-72.5173542593072 -176.132412842435 2801.46625211673 22 25 18
-56.769774783586 -181.190855214608 2775.80263737164 21 24 17
-67.0213613316271 -180.783618782692 2775.78391496532 20 23 16
-85.8428407869773 -178.546081650212 2784.38328811526 17 20 13
-73.8798846106277 -182.8592936065 2762.15566601161 15 18 11
-104.02951281692 -178.172818090341 2782.31748518533 16 19 10
-114.158905458505 -177.753950018617 2782.3874026661 18 21 12
-118.602652031499 -178.557241203959 2776.69159937745 19 22 13
-92.0237480789479 -186.104242956696 2739.10517940135 19 22 13
-95.8807433117632 -187.070188761523 2732.59886417418 19 22 13
-85.0335622036607 -191.263154841526 2710.79803861 20 23 16
-88.964965381934 -192.234710313049 2704.23775506115 22 24 19
144.028215123824 -180.896194218873 2867.02143812685 19 21 20
146.596768958524 -183.057516703652 2855.28590926352 19 21 18
150.67224806632 -185.522633909951 2842.17117065148 15 17 12
173.309255151838 -191.591734843713 2812.8508844651 14 16 11
157.875884955527 -190.31744198886 2816.49097704837 14 17 10
150.208824700866 -190.542110729611 2813.40189671353 15 18 9
171.010883431973 -196.335503578567 2785.22318155652 15 18 11
180.920249242527 -200.03212931127 2766.45013761849 14 17 10
149.43531057487 -195.587843491594 2784.40769837407 13 16 9
117.331750552725 -190.979949635544 2803.15296712093 13 15 10
113.513198338049 -191.956701436112 2796.67446532352 12 15 8
114.988430222946 -193.994873344558 2785.3823189343 11 14 7
133.05180535477 -199.373173454471 2758.92548600392 10 13 6
101.973469701962 -194.893588375326 2777.17798076002 10 13 6
49.2413804661593 -185.992446900039 2815.57431602462 8 11 4
49.9922688202199 -187.875765037265 2804.99289854571 7 10 3
-54.6603343377379 -168.272470983409 2892.26390180359 22 25 18
-34.3090317748749 -174.10336588192 2863.75823392533 20 23 16
-46.7979126659934 -173.224765709975 2865.82514654136 12 15 8
-61.4702382438672 -171.883741529326 2870.01727461735 15 18 11
-74.6136122076129 -170.844379586414 2872.84587663374 15 18 11
-65.5361574191058 -176.123936322993 2844.81619390295 13 16 9
-61.8229407909845 -178.617683904429 2831.43869846983 15 18 11
-68.3829255873278 -178.961391484803 2827.9165211765 14 17 10
-80.7591075916458 -178.071649669989 2830.06548253232 13 16 9
-84.3933351879915 -179.029974107637 2823.72069492265 14 17 10
-88.0416859287752 -179.989143958414 2817.36566486198 18 21 14
-85.9373296889849 -182.186627415318 2805.2937405702 17 20 13
-67.3532114024562 -187.949699743608 2776.74208878332 16 19 12
-81.1599416065307 -186.748471858794 2780.3259606935 15 18 11
-89.9192083087159 -186.629435697198 2778.91722526452 16 19 12
-96.5255906620812 -186.974990195045 2775.36140403693 17 20 11
-110.226667116109 -185.763958916451 2779.02162178438 19 22 13
-104.0665526787 -188.910608483772 2762.47418672151 21 24 15
-91.6333251293591 -193.467166093902 2739.35091067229 19 22 13
-95.4895917647616 -194.441446880247 2732.84508140261 19 22 13
-81.8346589571339 -199.325233804945 2708.13571482821 21 24 17
-70.400295092937 -203.749714532227 2685.52404680148 22 24 19
158.504190710285 -191.084382736585 2855.23135039099 16 18 17
136.06359616229 -188.405405652189 2864.91508459655 18 20 17
175.188389773945 -197.765580690045 2821.59264623827 18 20 15
175.25993439426 -199.513539940644 2811.75477471453 16 18 13
172.974597474309 -200.806036704641 2803.91576635879 14 17 10
149.062589276949 -197.814802014446 2815.00449631314 17 20 11
166.79662727909 -203.090178131377 2789.54477230559 14 17 10
149.103962323052 -201.31932948304 2795.25467894238 17 20 13
137.596083226279 -200.771775539156 2795.56099062194 16 19 12
109.336878446485 -196.837748407243 2810.91392915874 13 15 10
107.824846846388 -198.282835190245 2802.39969680479 11 14 7
127.52024087423 -204.04736908478 2774.65391959248 10 13 6
131.941683458375 -206.737125265479 2760.55380281778 10 13 6
109.157221517217 -203.867881684127 2771.22396610104 9 12 5
-50.551754908037 -176.128831479245 2889.02702707583 22 25 18
-45.8554364344381 -178.794377973401 2875.12629632637 14 17 10
-43.45028649436 -180.998600800219 2863.27209519393 16 19 12
-25.5377625893147 -186.476396897462 2836.70569750017 12 15 8
-60.2073259581724 -180.898541957529 2859.77091184988 13 16 9
-46.8401479836587 -185.450444691865 2837.32469997322 14 17 10
-60.7537615028579 -184.230423264492 2840.83118508027 14 17 10
-76.8156631733132 -182.536786339588 2846.48783910319 13 16 9
-77.4910831624198 -184.127064361024 2837.34431230878 14 17 10
-85.4740873934412 -184.151596315365 2835.26254228139 16 19 12
-81.838330940964 -186.687017245391 2821.82868323015 17 20 13
-98.5100467169136 -184.825604015819 2828.27915644318 17 20 13
-89.1609733332166 -188.624186718267 2809.09972261255 14 17 10
-61.2165857875437 -196.527416523399 2771.26632983946 14 17 10
-80.0582322617416 -194.193593031254 2779.85157119645 17 20 13
-98.821500602567 -191.852842111586 2788.4939601008 17 20 13
-96.8529396512772 -194.091029535818 2776.32309425573 16 19 12
-111.9731419161 -192.533383512136 2781.42668082473 17 20 13
-130.575885909441 -190.178015247093 2790.18551129406 18 21 12
-76.4262464702128 -204.161480799979 2724.3831416398 18 21 12
-100.022430124574 -200.699241739328 2738.17357301082 18 21 12
-82.8418161446947 -206.453519109433 2709.83986665419 21 24 17
-80.4855523452568 -208.875445037517 2696.71408757679 22 24 19
252.035489633588 -217.007795994741 2775.92291779095 9 11 10
200.452903577364 -208.558502758346 2810.20982274781 12 14 11
154.572409201201 -201.173976375969 2839.97876256272 16 18 13
178.763452355389 -207.756201950494 2809.3120634744 17 19 14
155.574579446722 -204.86232587476 2819.68947986222 17 20 13
159.491259592047 -207.412358609119 2806.45919437946 18 21 12
152.577016992495 -207.783838993213 2802.68006736962 15 18 11
141.829683095379 -207.374196156979 2802.3019793191 16 19 12
121.161251838488 -204.929771734757 2810.79883672333 13 16 9
106.679060750877 -203.73058002784 2813.89274783332 10 12 7
97.5692428176163 -203.624099956016 2812.23012121375 11 14 7
108.19821006334 -207.595779843943 2792.74230188041 10 13 6
119.485895154908 -211.732797755467 2772.49612707237 10 13 6
114.080589974221 -212.418185791047 2767.33919773724 9 12 5
89.009441224404 -210.794370229261 2770.16990699113 9 12 5
-33.5555774396323 -188.454626936068 2864.23173708594 21 24 17
-38.6153309860295 -189.109701785154 2859.32516457019 20 23 16
-60.7222090835746 -186.121570371391 2870.48741950937 15 18 11
-30.2822361038482 -194.385684557214 2831.9909341899 18 21 14
-42.7782652429258 -193.458364467163 2834.05320614145 18 21 14
-66.9850478336649 -189.983845496951 2847.40106351282 19 22 15
-90.3504543256803 -186.658981395939 2860.12276323637 23 26 19
-79.3036908178859 -190.814620485355 2839.70184491079 23 26 19
-61.0816533298031 -196.574057044076 2812.12306254804 18 21 14
-77.8315162049494 -194.678767013435 2818.51705685379 16 19 12
-95.2396291226991 -192.617762112557 2825.67004214062 14 17 10
-97.4343125137911 -193.912762300849 2817.89703225928 16 19 12
-58.6724621632211 -204.34611171962 2769.36561175181 17 20 13
-77.5230470400703 -201.964082153131 2777.94461764323 17 20 13
-104.155044044245 -197.807780908053 2794.47827968511 17 20 13
-96.4684782059144 -201.361354757281 2776.56497293173 17 20 13
-105.199379666666 -201.217845380977 2775.17721851029 19 22 15
-150.016959679774 -192.849960858887 2810.66210952735 22 25 18
-146.604496606835 -195.437554889462 2797.06611607292 20 23 16
-96.1151086618819 -208.857193450908 2734.78897999173 18 21 14
-83.1483760594054 -213.73151261314 2710.81580698699 17 20 13
-52.1248697743752 -222.827143476937 2667.79768462403 19 21 16
172.751408953243 -210.543195303964 2834.582923155 14 16 13
151.073935161377 -207.909208635619 2843.58430089094 15 17 12
162.861709666672 -212.066742034694 2823.70054765636 16 18 13
165.259396951346 -214.333434140459 2811.84062026654 14 17 10
161.433103332436 -215.336263946377 2805.35637446975 18 21 12
161.441089812616 -217.133702026021 2795.47217767381 15 18 11
126.877761659849 -211.785039792938 2816.14317003419 16 19 12
114.668488869419 -211.035088379986 2817.17738274604 11 14 7
89.5216654243378 -207.574958456078 2829.84341708025 9 11 6
86.5489323849782 -208.729044549948 2822.74213279135 11 14 7
99.4898697342759 -213.236655798054 2801.22248544038 10 13 6
107.781461369171 -216.794895628271 2783.7477511647 10 13 6
146.159708588355 -226.76027276449 2738.64602329728 9 12 5
146.673950494073 -228.738367701314 2727.89257569451 9 12 5
75.9089226083733 -215.483741150004 2782.88144058994 9 12 5
23.4654113798336 -206.050234204279 2821.48966874663 26 29 22
-26.4697795034701 -197.075644494832 2858.20850298089 23 26 19
-44.1850486678319 -194.999225472086 2865.13890222508 23 26 19
-36.6337098566802 -198.395237508031 2848.36340122465 16 19 12
-45.4181426333635 -198.248776019862 2846.9368557629 18 21 14
-48.2919794866754 -199.392859360309 2839.90701961871 19 22 15
-67.343178962803 -196.980949229973 2848.34104153375 20 23 16
-81.1174101165233 -197.484761727329 2842.05865986877 20 23 16
-62.8838353052419 -203.333566410867 2814.48778849064 13 16 9
-66.5668051730357 -204.321200765641 2808.10751810768 11 14 7
-90.5212454576208 -200.755961014231 2821.63846884365 16 19 12
-119.415551617494 -196.041293864905 2840.2403672965 18 21 14
-104.305868601869 -201.258136010385 2815.34856209722 16 19 12
-80.0055194053204 -208.607337728133 2781.05210651874 15 18 11
-98.7711454239961 -206.16886805194 2789.69298677985 16 19 12
-135.982514196323 -199.470428395903 2817.09704023032 19 22 15
-136.067073569585 -201.270823191822 2807.14573999384 20 23 16
-136.895692844567 -202.910105150747 2797.89090755305 21 24 17
-125.982017583926 -209.153544585464 2766.24672250266 17 20 13
-68.0234547248222 -224.622150078457 2695.7871914661 17 19 14
-60.1133711635788 -228.430983605632 2676.79958791036 20 22 19
216.769018555968 -223.461809058919 2817.02179352059 8 9 11
186.420409654639 -220.835671602777 2823.44235049428 17 19 16
177.159826467771 -220.720972813081 2821.67047255431 16 18 13
171.021677206138 -221.248222753091 2817.21812653507 18 20 15
161.786170033693 -221.131443141133 2815.46414279585 16 19 12
171.095150413951 -224.882362813617 2797.49092274325 17 20 11
153.372819198045 -222.991771233015 2803.17993019671 15 18 11
125.73664489561 -218.99485425047 2817.74979874297 15 18 11
107.407559575562 -216.928790007595 2824.23517710741 10 13 6
117.386713552116 -220.849387474246 2805.51158963928 10 12 7
112.813524602654 -221.696999448594 2799.72202079298 11 14 7
112.024767890555 -223.35697949335 2790.49598073485 10 13 6
111.961264907361 -225.182205099168 2780.55952447493 10 13 6
143.547288743674 -233.844549953291 2741.65678213329 9 12 5
144.823821447086 -236.009434385223 2730.21995264305 9 12 5
30.5517829014992 -213.061063906834 2825.35618282955 9 12 5
3.65993203264825 -208.999467613197 2840.4656604539 22 25 18
-17.8904733623064 -206.071533586762 2850.79597279008 21 24 17
-25.223958706152 -206.245191897803 2847.94896640481 24 27 20
-39.9618695349002 -204.779448440135 2852.09418206051 16 19 12
-36.9110212917514 -207.245982714006 2839.47169611945 16 19 12
-53.0715460851618 -205.447020858047 2845.05768410439 16 19 12
-63.2939410724747 -204.958060284052 2845.06024275529 15 18 11
-77.8855687263846 -203.479032406261 2849.31156949448 15 18 11
-93.1553432500112 -201.830534938134 2854.30718812152 15 18 11
-81.4317352105967 -206.281181261793 2833.14039794249 18 21 14
-67.6368962869063 -211.236261005773 2809.76683333737 19 22 15
-90.8669034519471 -207.768144884046 2822.58770699936 15 18 11
-106.777635446917 -205.946239040431 2828.35459685352 16 19 12
-101.77009207808 -208.925130814189 2813.44256141065 16 19 12
-111.255867756792 -210.414242170888 2802.85346765448 21 24 17
-111.377801501914 -212.240168612535 2792.87465013839 20 23 16
-121.481531262943 -211.738208947884 2792.96359206424 20 23 16
-98.2738581787532 -219.067137207687 2759.1098770943 17 20 13
-100.663903069377 -220.404340750583 2751.19503172441 15 18 11
-75.6287310868218 -228.25778518588 2714.95834304122 16 19 12
-99.198004383021 -224.588634389817 2728.76903587687 20 22 17
-126.854350592622 -219.905303583094 2747.03316256309 16 18 15
210.192067799937 -231.503268575836 2813.44832660987 16 18 17
180.570978949857 -227.140192798391 2829.05121616525 18 20 17
204.033729336447 -233.874579409208 2799.09082801071 17 19 14
169.089513055242 -228.356979685932 2819.48685661695 20 22 17
173.797965227496 -231.176319926813 2805.59384837193 17 20 13
203.152342826537 -239.246619286974 2770.01677786817 16 19 10
175.328674342544 -235.189673960801 2784.45103193629 15 18 11
136.878661032537 -228.821849549483 2808.48541763762 16 19 12
123.109900859796 -227.702013189657 2810.86107146349 11 14 7
121.597969001725 -229.2133776554 2802.34657570514 11 13 8
117.014256404518 -230.067528183399 2796.54905044591 11 14 7
120.010324148474 -232.57299198353 2783.88695024322 10 13 6
138.844953362206 -238.553142544404 2756.7511307358 10 13 6
121.314847679325 -236.60479941834 2762.57977910341 9 12 5
34.6882993316102 -221.249647301809 2822.13758297809 9 12 5
-1.1941242837179 -215.121030865397 2845.5616898732 21 24 17
-14.5284207216758 -213.962921291294 2848.25248959371 17 20 13
-20.3837524176231 -214.464840229896 2844.00529236998 21 24 17
-23.2745392816525 -215.632809770193 2836.96334228999 16 19 12
-46.1412597793591 -212.299847354077 2848.81155452367 14 17 10
-66.6966885861835 -209.458880295621 2858.62737501138 13 16 9
-67.3260865973408 -211.12288787999 2849.51683707616 13 16 9
-74.5803766724378 -211.283428825374 2846.72760195039 13 16 9
-86.2086562977993 -210.438088098517 2848.18317769526 14 17 10
-72.3166773778356 -215.458952185219 2824.87999321286 17 20 13
-75.9676051225027 -216.460569679392 2818.52288002141 18 21 14
-89.0415436024399 -215.278082297259 2821.4025422604 15 18 11
-86.9194041436929 -217.625187351819 2809.34275154067 16 19 12
-79.8107911406958 -221.155463179266 2792.2456290811 17 20 13
-73.4995629270798 -224.523558778573 2775.80661795172 21 24 17
-98.7221988899933 -220.469534460079 2790.89107010145 22 25 18
-111.709835953331 -219.2783231301 2793.83333826762 17 20 13
-74.2049972156018 -230.096371834837 2745.62406574454 17 20 13
-105.679639916163 -224.506462486231 2767.30029744004 17 20 13
-103.101255465849 -227.042427996011 2754.33496072979 16 19 12
-79.4584092076744 -234.67539678184 2719.56013542631 17 20 13
-107.228383305337 -229.917540144272 2737.74226831957 20 22 17
-98.4866241695388 -233.994898042017 2718.12087290157 19 21 18
181.612969693123 -233.041188120946 2838.422533146 13 15 14
207.523432097779 -240.367960250384 2806.52843323309 18 20 17
169.387092740079 -234.09184226672 2829.55441225922 12 14 9
192.786271796393 -240.935501975762 2799.54768087793 14 16 11
180.392529844231 -240.136549226382 2800.44812168207 10 13 6
174.983518484638 -240.834455113993 2795.28844225338 11 14 5
175.730040375219 -242.867396905716 2784.7031015586 11 14 7
142.649348194503 -237.55481351664 2803.9786323713 11 14 7
126.566971564666 -235.907722535204 2808.3848767886 7 10 3
137.262827550286 -240.114651290362 2788.94464942542 8 10 5
121.216015161839 -238.464310387481 2793.3769860588 11 14 7
109.780199213401 -237.815746627309 2793.73604948712 10 13 6
98.3743614226156 -237.164455582965 2794.11685853592 9 12 5
130.771171098528 -246.263453019908 2754.56462379182 9 12 5
92.2074574327847 -239.557360296437 2779.75333570368 9 12 5
-6.79857510300863 -221.034786481567 2851.35012599599 22 25 18
-17.1329835314644 -220.523823103237 2851.27188963848 15 18 11
-28.9290339647086 -219.672328351931 2852.60587591566 18 21 14
-39.9492625257194 -218.986960828316 2853.26639392852 15 18 11
-59.811346136655 -216.265152582099 2862.34919495337 15 18 11
-84.0133564106842 -212.518054178992 2875.70189254753 16 19 12
-116.925024259807 -206.723278247553 2897.57246836404 16 19 12
-107.177092889168 -210.776688139062 2878.68058997323 15 18 11
-66.8408694344418 -221.987384883227 2830.05149208109 15 18 11
-64.6551197415506 -224.36001524852 2818.03768448687 15 18 11
-75.5884981639787 -223.665789708737 2818.76120688626 15 18 11
-94.4550835442142 -221.089922702667 2827.32988997317 17 20 13
-90.8700280212409 -223.807577158414 2813.85835368738 17 20 13
-60.0016303915925 -233.034256850898 2773.1971992202 19 22 15
-75.2663412203163 -231.313178638258 2778.19685626352 22 25 18
-96.1953410358562 -228.214590144356 2788.97820868717 20 23 16
-108.477930677714 -227.168653564118 2791.19580830118 14 17 10
-114.3253238425 -227.666344764252 2786.95438730243 15 18 11
-65.6195593600768 -241.415943066013 2727.08799756232 17 20 13
-121.078391894171 -229.867093581254 2773.4019515691 17 20 13
-130.464022217655 -229.502898975441 2772.77572466585 18 20 15
-93.504032109669 -240.532737999322 2724.17011250668 19 21 16
205.510220912912 -245.661240553341 2818.6284883251 12 16 15
162.615640909617 -238.267780548114 2845.62158544821 15 20 16
179.909722273485 -243.853938920325 2821.07638994024 18 23 17
177.651102146526 -245.226886664171 2813.25663613486 7 12 6
183.1162142023 -248.293634588904 2798.67585698943 13 16 9
169.204251674926 -247.131928502244 2800.94791245076 13 16 7
150.714076885057 -244.949180608254 2807.31710464641 12 15 8
131.525435384985 -242.590723074015 2814.41589005098 11 14 7
135.385579774069 -245.3237308673 2801.14369378724 10 13 6
159.805960798009 -252.654706486984 2769.40441741922 11 12 7
145.21670238782 -251.315336711692 2772.4214231717 12 13 8
119.286185943132 -247.414287862774 2785.75690617316 10 13 6
122.236786304433 -249.989332456125 2773.06149325402 9 12 5
119.095227715128 -251.202003137832 2765.83723250154 8 11 4
104.645385377435 -249.850133871174 2768.95566172967 8 11 4
57.2233998407836 -240.959162984374 2802.55521313751 9 12 5
-36.1519068278153 -223.286243848737 2869.58398222671 23 26 19
-53.8425923486616 -221.033750157607 2876.53280005461 22 25 18
-69.9806452855776 -219.119036375086 2882.13566467422 20 23 16
-72.7473808935226 -220.298474512028 2875.18328942943 20 23 16
-82.1680465226009 -219.927798121523 2874.53169751698 21 24 15
-83.4817249157458 -221.453421831831 2866.1608477004 18 21 12
-84.0898308670743 -223.153821075991 2857.06556050283 17 20 11
-77.422881371334 -226.58629963603 2840.88409320994 16 19 10
-69.3745945419131 -230.371172572824 2823.23183414702 19 22 13
-64.3159097159753 -233.469759888729 2808.35656043333 20 23 14
-76.7010979899641 -232.40956213814 2810.49956186796 21 24 15
-88.3258333215597 -231.519504398989 2811.95822792452 21 24 15
-85.5229695198603 -234.103958675596 2799.15537548155 19 22 13
-84.9261024875223 -236.17047220949 2788.46137673875 15 18 9
-127.999713504705 -227.610253626927 2821.50637242145 16 19 10
-117.366787044484 -232.113939447521 2800.78369186305 16 17 11
-100.438342409242 -238.197690822979 2773.50055034535 17 18 12
-91.4467823186782 -242.370137134381 2754.06005380594 16 19 12
-119.282925751329 -237.449681572851 2772.19474825472 16 19 12
-123.039664140542 -238.473960091274 2765.76111036339 17 19 14
-109.961447540383 -243.708415198843 2741.86663585116 19 21 16
196.606209222843 -253.155315188447 2817.07626225831 14 19 15
157.711740485445 -246.482359438704 2840.78999828556 21 26 20
169.502738564739 -250.954153007418 2820.90699009885 12 17 11
169.57080054287 -252.856424304818 2811.06551783551 16 19 12
158.01440156156 -252.180458103661 2811.33760132572 15 18 9
145.717990870793 -251.329708732473 2812.30886199851 13 16 9
146.514701011486 -253.407753876125 2801.75967537995 12 15 8
162.590431626846 -258.941978450094 2777.56686557464 11 14 7
157.916347570749 -259.820835524336 2771.70370297271 12 13 8
159.325216807683 -262.084509634442 2760.36230667063 12 13 8
137.907910439586 -259.155640598272 2769.55377896164 10 13 6
132.478490296812 -259.860517024478 2764.37926946331 9 12 5
133.838925134289 -262.128114861097 2753.00274215697 9 12 5
128.379557271469 -262.835487488805 2747.8062157965 9 12 5
113.907647406383 -261.455474286559 2750.90879035765 9 12 5
44.1023016730679 -247.183979513506 2805.36316885777 13 16 9
-23.8380935340621 -233.228846760658 2858.69810857696 24 27 20
-60.166108484953 -226.57275550326 2883.03690519669 24 27 20
-73.3189376069716 -225.317289484465 2885.85974757681 22 25 18
-60.5426091256558 -230.179821150013 2864.21897400263 21 24 17
-44.1897084882863 -235.927131977183 2838.99038575425 19 22 13
-52.9667840258927 -235.725886830219 2837.56945120216 18 21 12
-74.1877795975117 -232.539979112267 2848.13957195981 16 19 10
-85.8169583607573 -231.629550236762 2849.59512006176 16 19 10
-86.4824080528064 -233.353812958397 2840.45784781252 18 21 12
-84.274113272627 -235.784539966829 2828.46008936226 18 21 12
-68.3552037396069 -241.567655737049 2802.91700481844 17 20 11
-74.229024407469 -242.069310046023 2798.65640588479 17 20 11
-106.016180846043 -236.213227721122 2820.10743792083 15 18 9
-108.22427818025 -237.591651924116 2812.32398694976 14 17 8
-111.170637409968 -238.794831766804 2805.24157292879 14 17 8
-94.1661270861245 -244.959915790527 2778.01316108618 16 17 11
-69.4825469164428 -253.087679603421 2742.75524314196 17 18 12
-92.477632852096 -249.335986628523 2755.74785258927 16 19 12
-106.888544598912 -247.707815905326 2760.13064510707 16 19 12
-107.864369264951 -249.455300300792 2750.76855227012 16 19 12
-113.786979631088 -249.958397879206 2746.47257733252 19 21 16
232.170781170574 -266.693978514703 2797.08960892234 8 12 11
179.031174117227 -256.789085276579 2832.72524228928 9 14 10
190.83478594523 -261.322587996928 2812.85106550919 18 23 17
187.772067136266 -262.551026374241 2805.68417200653 15 20 14
167.643508870909 -259.939694110145 2813.33790917869 18 21 14
161.50183315184 -260.467886914502 2808.8830019794 15 18 9
151.506769658865 -260.12113012279 2807.81489563967 14 17 10
146.142896193126 -260.823683727919 2802.68791409191 12 15 8
139.241751763109 -261.175851278664 2798.918380048 11 14 7
166.720525559072 -269.427341015616 2764.45109429047 12 13 8
162.774627143893 -270.490194308203 2757.87984039358 11 12 7
127.674417315777 -264.341194552686 2779.40072626642 10 13 6
137.422608134472 -268.568666545104 2760.5084487732 10 13 6
132.730326688359 -269.454255266617 2754.63206039778 9 12 5
129.534341062596 -270.693489742323 2747.36850425121 9 12 5
118.812460058473 -270.167345659896 2747.00945764779 10 13 6
-15.2514768726226 -242.372229023249 2851.2898363793 17 20 13
-42.6798389830134 -237.73384606789 2867.24863819932 13 16 9
-61.0780562169619 -235.213674215193 2874.92123813779 12 15 8
-29.0998862541225 -244.765450026016 2835.06322911975 9 12 5
-32.7487955332981 -245.801256695709 2828.70740598209 10 13 4
-43.0297695547297 -245.236168064529 2828.66817952166 10 13 4
-58.4171855077056 -243.421225456503 2833.57936044342 11 14 5
-83.9812841544774 -239.104000659236 2848.41761216876 12 15 6
-93.3948969479408 -238.704952522795 2847.77098223883 14 17 8
-77.3584773342766 -244.560218461341 2822.31271780543 14 17 8
-73.768641057083 -247.38448679569 2808.84410717009 14 17 8
-90.4568070465104 -245.197836164646 2815.28459714088 14 17 8
-123.638062538316 -238.88107248117 2838.19742372199 15 18 9
-120.048457253096 -241.70457250047 2824.72894400433 15 18 9
-120.80980620186 -243.454587019771 2815.52202189937 14 17 8
-111.616337673346 -247.725444364938 2796.22739462428 17 18 12
-106.071667413193 -251.103474076882 2780.46767558624 18 19 13
-66.5700195439531 -263.139640326473 2729.99435824648 17 20 13
-86.0087451909131 -260.222685499721 2739.3847544732 17 20 13
-92.6833997165604 -260.549683689016 2735.7798297593 17 20 13
179.275413694628 -262.42370696597 2842.75493276624 10 14 13
191.150986200034 -267.013812355798 2822.93263511322 15 20 16
193.571970793744 -269.489393299712 2811.08853837676 17 22 16
190.503163848114 -270.729258002171 2803.91717357732 15 20 14
177.340679623875 -269.665524667517 2805.49700897475 17 20 13
164.217233616684 -268.598579416477 2807.10486580081 14 17 8
146.508478545611 -266.46192801607 2812.80525570991 13 16 9
138.854801245241 -266.632240618651 2809.72644676582 12 15 8
148.066818126227 -270.71954665569 2791.68123194004 11 14 7
132.740423935265 -269.10985898446 2795.40027807641 12 13 8
147.940435182861 -274.633825468844 2771.80772920108 12 13 8
131.110791993244 -272.665369307586 2776.90922302595 11 14 7
134.036082790238 -275.341290886613 2764.19465722467 10 13 6
131.620828508206 -276.768449695412 2756.26108138781 9 12 5
130.689128403525 -278.555912750592 2746.93077288725 9 12 5
89.9293121039935 -270.837892554665 2774.23801310949 10 13 6
8.26746082586149 -255.169728903699 2829.98560857769 15 18 11
-16.2559039336585 -251.178412649739 2843.10658645884 12 15 8
-29.5387775120057 -249.87983173616 2845.83537522272 13 16 9
-60.5356367814771 -244.249214229559 2865.38780078325 14 17 10
-48.5980215072068 -249.076384682178 2844.37424184697 12 15 6
-66.1860297058949 -246.683688510824 2851.39820281015 14 17 8
-49.9733733380785 -252.606586077465 2826.06735359338 15 18 9
-66.0613789903242 -250.572362983882 2831.70710389593 16 19 10
-75.528399122905 -250.164318566738 2831.02180341404 17 20 11
-72.6205246117084 -252.839261306539 2818.29461713351 17 20 11
-67.5929575332104 -256.063382022503 2803.39614964919 14 17 8
-92.9679145113886 -251.655497689753 2818.371973415 14 17 8
-105.983386715252 -250.331789141416 2821.2947344183 15 18 9
-126.134395007838 -247.181804109628 2831.40529320449 16 19 10
-124.01217378331 -249.678949132105 2819.3448017765 14 17 8
-129.787293225943 -250.171352920969 2815.15580032312 17 18 12
-126.316641544671 -253.039688974323 2801.60056701898 17 18 12
-102.864210925994 -265.156344526487 2746.90293614506 16 19 12
184.512889286546 -273.011933221756 2829.20607394878 18 23 19
181.498066616887 -274.258118738732 2822.0738114869 11 16 10
181.574376317169 -276.225250485546 2812.23828411942 11 16 10
180.064691843754 -277.835488133658 2803.724916726 16 19 12
154.565587287578 -273.861034731748 2816.13818011454 14 17 8
142.278768232092 -272.944257726565 2817.11702288844 13 16 9
150.010039484227 -276.720211511754 2800.47003427456 12 15 8
164.558911504254 -282.129994035805 2777.64107567064 12 15 8
155.29838479628 -281.939725102847 2775.86932697407 13 14 9
142.244520058059 -280.841980488455 2777.52807522881 11 14 7
136.06779769689 -281.373072205489 2773.04774728717 11 14 7
132.920694228284 -282.630392149123 2765.81953525305 10 13 6
135.79874361054 -285.343059651766 2753.0705370167 10 13 6
125.818424920975 -284.967446980104 2752.01326566035 10 13 6
100.087970540151 -280.765571337278 2765.49530166847 10 13 6
-43.613705298863 -249.703234253264 2878.86228098945 19 22 15
-53.0981456832798 -249.284462717933 2878.16470100723 19 22 15
-40.2943396904063 -254.349819530726 2856.54252464119 19 22 15
-44.6220572446947 -255.214168543203 2850.93081847147 16 19 12
-76.2588112240468 -249.299022685048 2871.25584852218 16 19 10
-77.5815781031577 -250.891369707958 2862.87807230143 18 21 12
-81.1318564149339 -251.934958536539 2856.59370943876 18 21 12
-69.3403010329914 -256.839560178424 2835.47387636521 17 20 11
-64.2164794661917 -260.097046696044 2820.64501680927 15 18 9
-71.5151927746596 -260.22887537311 2817.82342928987 14 17 8
-84.6030631729846 -258.884684863431 2820.69381104212 14 17 8
-68.7506566160141 -264.919093659707 2795.101244223 13 16 7
-81.1198732221903 -263.75925334772 2797.25662304672 14 17 8
-123.606881917508 -254.828438520751 2829.49340530806 16 19 10
-125.068633264513 -256.430421394172 2821.01512195001 13 16 7
-100.153447004051 -264.891144729187 2785.92311922107 14 15 9
-91.7911372237996 -269.101115695078 2767.26131226227 15 16 10
-92.7374110677672 -270.904396620393 2757.92035882646 14 17 10
-112.097470322019 -267.877223829337 2767.36863475282 14 17 10
-89.7911012231751 -275.820546578655 2734.09376436612 14 17 10
-53.6097668679025 -287.503595170593 2686.15571050546 17 19 14
188.818689582278 -281.510932446661 2826.10891374385 11 16 12
167.859951621958 -278.574377236079 2834.39781436278 18 23 17
174.197183932775 -282.020473389852 2819.21229569943 16 19 12
167.283041083315 -282.365867517745 2815.43337313259 16 19 12
150.32203809476 -280.332775758024 2820.43996882791 14 17 8
142.672918177353 -280.491965275025 2817.36451996861 14 17 10
154.250272672741 -285.233364488217 2797.3252713828 13 16 9
164.959463236687 -289.800016252146 2777.89259399504 12 15 8
159.519995190075 -290.517296970768 2772.71073772661 12 13 8
161.696899854889 -293.073878163176 2760.68958643556 12 13 8
146.346009063898 -291.400994487366 2764.39119456401 10 13 6
143.171014137305 -292.671626555962 2757.14269598823 10 13 6
130.911220711718 -291.730386088669 2758.14095965324 10 13 6
131.492616408498 -293.924978734561 2747.43539114019 9 12 5
-45.4816429277476 -256.264374023411 2881.18034403669 26 29 22
-51.23715079192 -256.758534709356 2877.00555053604 17 20 13
-42.8883373055056 -260.778768000009 2859.56995751374 16 19 12
-29.4426596134638 -266.10632805074 2837.17672290036 19 22 15
-47.1068397380501 -263.633342995916 2844.14616636491 19 22 13
-88.2461298820241 -255.197326003371 2873.65232242969 17 20 11
-93.9635177626754 -255.687323156852 2869.50518400772 16 19 10
-102.607104985885 -255.431004159036 2868.1810024664 14 17 8
-76.2337040485512 -264.135403309009 2832.91011425835 14 17 8
-87.130073966589 -263.324188468252 2833.66105748625 14 17 8
-70.4550928024834 -269.619554524644 2807.42813964826 15 18 9
-63.3109367647886 -273.491692297087 2790.35534597194 15 18 9
-101.629749693509 -265.559981286451 2818.19816738818 14 17 8
-114.615338188642 -264.179126489716 2821.1428811867 14 17 8
-94.6234067202023 -271.435068334883 2791.13414828279 14 17 8
-94.0623067796384 -273.627432173764 2780.41358375526 15 16 10
-77.1756736759843 -280.152044836326 2753.09789911667 15 16 10
-100.154831765647 -276.137503105355 2766.10338638022 15 18 11
-90.4998379811721 -280.789078614638 2745.90606909383 15 18 11
-82.3524899148413 -285.071069723764 2727.08806700488 16 19 12
-41.9677872894864 -298.052866061694 2674.7797373649 17 19 14
213.396651323774 -292.831648852174 2815.46075725879 3 7 6
172.933324194044 -287.234297590524 2830.62093747832 12 17 11
162.928813948779 -286.834188552912 2829.54595874888 14 17 10
177.76037910925 -292.367143408051 2806.92130654329 11 14 7
139.890467901492 -285.285831534503 2830.14479796399 14 17 8
142.29588223657 -287.852946747767 2818.28895037565 13 16 9
146.958773785319 -290.98233383319 2804.36163829096 13 16 9
151.559529265893 -294.117113095988 2790.38925513196 12 15 8
162.97847936865 -298.934852507109 2770.23478914327 12 13 8
163.623723485947 -301.148897529118 2759.57511270571 12 13 8
153.587536785424 -300.751414381463 2758.47715773719 9 12 5
142.81442658016 -300.164897115245 2758.08127979466 8 11 4
127.532815853455 -298.453173061971 2761.83360173141 9 12 5
119.084703424202 -298.423049901022 2759.41494168416 8 11 4
88.8611661270038 -292.95288665592 2777.05707885504 10 13 6
18.3259424930844 -277.333175183756 2832.22451337824 19 22 15
-10.005245715093 -272.204418266195 2848.7663577627 21 24 17
-35.2263649480933 -267.816700763361 2862.61856301488 19 22 15
-29.1484594250462 -271.32753775176 2847.24472490367 20 23 16
-26.8432776411138 -273.901926147702 2835.31647423685 19 22 15
-45.9923085852583 -271.0087694569 2843.68171916459 17 20 11
-76.8375220661666 -265.086803589457 2863.34555173041 16 19 10
-92.1260393725172 -263.121957527022 2868.32918568226 15 18 9
-97.8483654706608 -263.612294987376 2864.17846571733 15 18 9
-93.3610709641979 -266.754413796159 2850.12379510057 15 18 9
-78.7566377724966 -272.556343714562 2826.09809104267 15 18 9
-77.3243155602641 -274.952073864154 2814.77273293599 15 18 9
-88.2231358652841 -274.121451202309 2815.52229260753 15 18 9
-119.265876863913 -267.962881136228 2836.27916833643 14 17 8
-119.986451179491 -269.786532131101 2827.101726127 14 17 8
-114.293618247006 -273.327608392744 2811.44858750916 14 17 8
-75.1185973516335 -285.839559024105 2761.97111799298 17 18 12
-40.492023594908 -297.229359758455 2716.61287471703 17 18 12
-79.9049581131466 -288.76355645315 2746.13532258448 15 18 11
-107.794780057484 -283.340821896869 2764.23364847671 15 18 11
-70.6805599492479 -295.523877534374 2715.73429414368 15 18 11
-51.407921593577 -302.937444108127 2685.20333191152 15 17 12
215.365643213907 -300.869138400382 2814.37704229578 4 8 7
216.98905425822 -303.278473103114 2803.19043412879 10 15 11
159.288467322892 -291.418720318942 2842.94042632139 12 17 11
165.656517745643 -294.949545832137 2827.77681919416 16 19 12
151.012183319994 -293.405464372955 2830.75523054971 12 15 8
162.711604402297 -298.26189914885 2810.80388795999 14 17 8
148.859304413232 -296.90471721693 2813.1201841923 13 16 9
138.126319612804 -296.298758771512 2812.75349248545 12 15 8
145.056080945537 -300.036098487308 2796.76070444301 11 14 7
149.616398353691 -303.212568958119 2782.75879568813 12 13 8
159.451573476662 -307.719406101849 2763.92815993386 12 13 8
163.872150830339 -310.907675026019 2749.8248908698 8 11 4
153.827890070194 -310.49716463356 2748.72114882872 8 11 4
124.908826338679 -305.337708047845 2764.8369852003 9 12 5
99.135400194502 -300.927103565521 2778.28892731281 8 11 4
79.4869658504695 -298.02874948643 2786.29246486099 10 13 6
58.418493966875 -294.742611776436 2795.73862435058 16 19 12
19.5080770663143 -286.873603645831 2821.9169307135 19 22 15
-17.7200223773648 -279.369518464788 2846.84286323828 19 22 15
-39.910919668992 -275.669754651529 2857.94752095199 21 24 17
-55.3418827368648 -273.682334565903 2862.82800727325 17 20 13
-62.5956469129174 -273.795276830705 2860.03939447961 16 19 10
-58.8004545351715 -276.780945599988 2846.71883333906 15 18 9
-65.3370604711756 -277.086673967569 2843.21379625271 15 18 9
-79.1867701439635 -275.472244659979 2846.76860437546 15 18 9
-105.389298026962 -270.587127363618 2862.38195823937 16 19 10
-100.197567797704 -273.96152759957 2847.60173493105 16 19 10
-78.3961693455861 -281.769495788392 2816.43155940187 16 19 10
-68.3284579817247 -286.50813984623 2796.53298887724 15 18 9
-112.407367134201 -276.787507043225 2830.09043132055 14 17 8
-121.767825610057 -276.314909732456 2829.4827066309 15 18 9
-71.8766973506175 -293.935673886838 2759.33979107758 17 18 12
-40.8096484792966 -304.512760306153 2717.58076642942 17 18 12
-44.0352192862479 -305.804934779133 2710.2954952021 15 18 11
-99.6294842116816 -292.74045299074 2756.51894835454 14 17 10
-61.825081573462 -305.285523771661 2707.28275728242 15 18 11
-71.397792105101 -304.828677034571 2706.5213812451 16 18 13
237.732637724337 -313.86023019375 2795.94217007688 4 8 7
209.567530619902 -309.06964012504 2810.13232958061 11 16 12
192.446610064593 -306.93575124755 2815.02350817625 12 17 11
166.829022214003 -302.698991852531 2827.3525036047 16 19 12
173.901891685663 -306.470312385703 2811.46358006372 14 17 10
165.428549444901 -306.426520497461 2809.02669962248 13 16 7
154.653605228013 -305.807830402618 2808.6296551275 13 16 9
140.827814056006 -304.421138293524 2810.96531764189 12 15 8
146.986345608115 -308.013565801811 2795.64951378773 11 14 7
141.602496773218 -308.734476261244 2790.50766421046 12 13 8
141.551365008564 -310.799934827765 2780.57925376059 10 13 6
158.953025532645 -317.28937670699 2754.87243274347 8 11 4
143.616354497162 -315.517181984039 2758.58485210619 8 11 4
107.919951028454 -308.540377618157 2780.91306858533 9 12 5
98.0228405190426 -308.103358565037 2779.91642764996 8 11 4
86.6439781895676 -307.2784772017 2780.31767105553 10 13 6
55.0615682423725 -301.235567172332 2799.44770677642 18 21 14
10.9255255733012 -291.892751609069 2830.49145046004 19 22 15
4.26281192956246 -292.207560974882 2826.89494920804 18 21 14
-29.8795945740551 -285.353957127904 2849.11373610997 20 23 16
-62.3746158476823 -278.87372204907 2870.05478327725 15 18 11
-60.7456524056902 -281.308595505277 2858.87207080302 15 18 9
-54.7444091544393 -284.912858604457 2843.44247983029 15 18 9
-58.3560364855975 -285.99475443667 2837.11344972169 14 17 8
-92.7169546376259 -278.901586322077 2860.41008293586 15 18 9
-90.4273570923582 -281.536323848377 2848.47022924161 16 19 10
-88.914182675679 -283.980159300244 2837.20353343759 16 19 10
-80.1938140125951 -288.37984561086 2818.80033005868 16 19 10
-78.0692078849108 -291.028009025837 2806.74080255996 15 18 9
-112.754161573173 -283.70393438463 2831.03903619196 15 18 9
-112.771222891712 -285.762939106886 2821.13506234854 15 18 9
-87.750586770375 -294.684456880938 2786.11746293651 15 18 9
-98.0866946052668 -296.080479862647 2776.14745339351 16 17 11
-95.45459232653 -298.940804100437 2763.21941494257 14 17 10
-51.8365634630682 -313.216202404051 2708.30799915239 14 17 10
-62.5658882872477 -314.643075060691 2698.05248748549 17 19 14
256.969168679057 -326.231313261994 2780.18124500226 6 10 9
217.792632386466 -318.666590063139 2803.69502121707 13 18 14
206.889805493905 -318.042427780188 2803.20529955905 14 19 13
194.456608083931 -317.029263619424 2804.07822328284 15 20 14
171.195454550474 -313.302738634163 2814.40745943409 14 17 10
161.956760379762 -313.056214662747 2812.65182255257 13 16 7
158.135495529881 -314.166205821546 2806.17067942439 12 15 8
153.531046799238 -315.08320351599 2800.35809824325 12 15 8
152.752714538858 -316.972830702915 2791.13845188459 11 14 7
145.823774570789 -317.308669675702 2787.34885096943 11 12 7
138.135765028542 -317.44944216874 2784.245303477 10 13 6
144.905835614735 -321.293098199075 2768.13621369132 8 11 4
132.642299570914 -320.265163572299 2769.13249785253 8 11 4
106.046971940685 -315.5234781627 2783.22533965692 10 13 6
102.187370047684 -316.636336074278 2776.71639066737 9 12 5
90.796577096512 -315.79342269112 2777.1090766464 12 15 8
14.2264044694689 -297.906641370096 2837.79430747268 21 24 17
0.844890905340456 -296.453727449551 2840.4523717329 19 22 15
7.6252743698193 -300.295760993758 2824.35106066802 14 17 10
-14.6442025764106 -296.482875378481 2835.39932729737 15 18 11
-41.2622580838582 -291.481751838361 2850.71233839003 16 19 12
-67.0192358856445 -286.666773799746 2865.41328911795 15 18 9
-67.6226671270175 -288.539842300972 2856.32051611356 14 17 8
-73.3965722188907 -289.034955673196 2852.13238124438 14 17 8
-87.9545371779378 -287.16125144213 2856.41010990301 14 17 8
-101.730528496473 -285.480519230747 2860.01839939424 15 18 9
-92.1776382961896 -290.123797594028 2840.98243817358 15 18 9
-66.7603871871609 -299.129805058156 2806.25192547337 16 19 10
-100.107280510026 -292.102484333734 2829.04827676736 16 19 10
-95.7989459555943 -295.373629788174 2814.86322071678 15 18 9
-107.365004287299 -294.28263022693 2816.36514631572 15 18 9
-106.71570416093 -296.566176828554 2805.70835260351 15 18 9
-106.820870548822 -298.654125536549 2795.74036290807 17 18 12
-82.7496408607511 -307.513403194366 2761.26987039889 16 17 11
-84.4216271607445 -309.214624933291 2752.63868057236 13 16 9
-54.9806492450837 -319.693886936848 2712.17145114471 14 17 10
-65.2699657610465 -319.011599593387 2712.12677066654 15 18 11
-69.2036619369012 -320.125262256278 2705.56410507387 18 20 15
233.047749949681 -327.975612201573 2801.12034311436 10 14 13
218.976825741771 -326.555188399961 2803.27847431729 16 21 17
200.266776537365 -323.955556786314 2809.49038645571 17 22 16
183.18279506766 -321.742203347487 2814.4087454865 10 13 6
154.519244275047 -316.578844656057 2829.47479177614 15 18 11
148.423598980168 -317.103368226524 2825.05327159908 13 16 7
150.04369464039 -319.594999770602 2813.86384318968 12 15 8
157.774970164395 -323.665549962437 2797.2153654837 12 15 8
156.219454130971 -325.378018029291 2788.66825599711 10 13 6
155.401986594114 -327.290112862367 2779.42012583829 11 12 7
147.68729620928 -327.42766985784 2776.2972531208 11 14 7
131.613543661209 -325.390399939983 2780.71202012928 9 12 5
