ply
format ascii 1.0
comment KinectMotionCapture
element vertex 792
property float x
property float y
property float z
property uchar red
property uchar green
property uchar blue
end_header
-102.488170746816 240.974380091603 2844.84407549445 23 26 19
-114.039284528233 240.469036975839 2846.34874892645 26 29 22
-134.209906583696 239.914055861846 2856.42632289341 26 29 22
-148.541991749347 239.399708688885 2860.85570068363 27 30 23
-149.921045951366 238.961803774915 2852.44296805815 27 30 23
-144.896989182221 238.556167895373 2837.55623205701 24 27 20
-148.48782322033 238.101257725531 2831.24545125628 24 27 20
-158.483768538414 237.613957547811 2831.40722315191 23 26 19
-157.835968874489 237.178150659959 2820.75870088838 24 27 20
-156.52307497192 236.742169637721 2809.35698764401 24 27 20
-165.807657101056 236.258515595782 2808.79942373574 27 30 23
-168.058404081377 235.804158183093 2800.9900301835 27 30 23
-162.642313520728 235.376283237517 2785.15204409277 22 25 18
-154.51043889998 234.952192216115 2766.3423659974 19 22 15
-163.834240511856 234.465450574409 2765.75635540981 18 21 14
-168.982356427867 233.992671650305 2760.78694496841 20 23 16
-168.613835788756 233.534345442099 2749.93555883786 19 22 15
-163.469842661565 233.084481712729 2733.90021213324 16 19 12
-176.228838359521 232.589868254286 2736.99968826971 14 17 10
-173.221568668702 232.129124482335 2723.12073440118 13 16 9
-175.723933763133 231.65455682674 2715.12883513936 10 13 6
-172.815701070436 231.185819825356 2701.17804675006 10 13 6
-175.381625135943 230.706135766764 2693.13975184108 8 7 2
-178.645432916132 230.224012470188 2685.83086488475 21 16 12
-198.741678180926 229.729911831293 2697.19799565237 38 23 16
-210.031279765384 229.246448641802 2698.89235568304 73 55 45
-218.613787660397 228.766067226538 2697.6087203174 138 114 102
-219.854407614159 228.285779415478 2688.06109032589 148 120 108
-219.799305958468 227.802346557389 2676.98237291544 157 129 117
-217.138913297116 227.313729650864 2662.8518193026 152 129 115
-221.788969274073 226.827652979434 2657.00835915523 148 126 112
131.449148435972 246.280204587524 2872.41758663313 22 29 22
138.692272987227 245.898967640572 2856.66925607448 26 33 26
129.558276439678 245.383162317454 2854.98565538619 22 25 18
64.2552580513938 244.004435632989 2892.86283163082 26 29 22
56.8441363804948 243.514749837752 2889.95794427372 28 31 24
12.6012424694197 242.766548662941 2919.63807959332 27 30 23
16.7903113551158 242.365036600503 2906.61613720229 24 27 20
10.2380044116481 241.888221949505 2903.0988515348 26 29 22
1.40630268901987 241.397103779882 2901.63451586169 24 27 20
-2.85678534734179 240.935436209696 2896.07170066967 21 24 17
-26.0421647266307 240.360382049533 2907.66911540516 22 25 18
-31.0240711994552 239.897289991224 2902.81994832507 23 26 19
-47.2932232035963 239.371576185426 2908.31541518619 28 30 25
-53.7529524894511 238.902373376803 2904.8652795939 28 30 25
-58.7140103340693 238.441032924106 2900.03152947857 29 31 26
-62.1894001206553 237.986483581921 2893.80443850714 30 32 27
-64.9356314595611 237.534216741202 2886.87061051053 24 26 21
-69.1830067899939 237.073945297049 2881.31919286602 21 23 18
-77.1346680038696 236.59753355031 2879.25785520043 22 25 18
-80.6539449134627 236.13947366958 2872.99893173535 21 24 17
-82.7183907683031 235.685703024205 2865.3243003399 20 23 16
-92.1291727340263 235.204740410541 2864.6755595865 22 25 18
-114.660739027032 234.683145288373 2876.74720816187 25 28 21
-112.343306266256 234.243653654912 2864.83835768558 23 26 19
-118.058212166602 233.778210642184 2860.69314287566 23 26 19
-114.368753533628 233.336299257233 2847.30881771969 24 27 20
-133.097632533735 232.838961674769 2855.96176071325 24 27 20
-143.119198742732 232.365497467343 2856.10532403722 24 27 20
-146.663377411508 231.905610699818 2849.82833950194 24 27 20
-150.221784527512 231.444597407306 2843.54103475555 25 28 21
-148.807225669084 230.988866136863 2832.21292056842 24 27 20
-162.353239225908 230.513994849345 2835.9770072904 24 27 20
-151.77785626527 230.061998503926 2815.23313482708 23 26 19
-161.774685164257 229.590710057957 2815.39464177566 23 26 19
-159.080377489042 229.125103078963 2802.52382705918 28 31 24
-165.558882187289 228.6548824974 2799.06037009155 28 31 24
-169.236915322318 228.184331256767 2792.68629757944 24 27 20
-172.232222278679 227.712318812335 2785.57210381385 19 22 15
-169.687530540118 227.2346584857 2772.59276825934 18 21 14
-165.119021247713 226.750537328346 2757.37510415002 22 25 18
-169.593021762886 226.272418273251 2751.659310671 19 22 15
-179.58220996527 225.80201018811 2751.82636098281 17 20 13
-179.256138356793 225.315134062694 2740.94405803309 15 18 11
-182.389655092699 224.83207071031 2733.72961707374 11 14 7
-178.044594964683 224.329952230341 2718.34987873652 10 13 6
-173.766958967778 223.822396938148 2702.92153014626 10 13 6
-177.681979444278 223.332919661054 2696.37556458864 9 10 4
-165.412995521625 222.791013409417 2671.91822872369 19 16 11
-183.536279658808 222.343672995738 2681.01043360293 35 22 14
-200.910185671472 221.900279240763 2689.41056756155 53 36 26
-212.86351243189 221.441554985359 2691.85923546136 123 99 87
-217.450968942299 220.95460776982 2686.06085611673 141 113 101
-218.728879787829 220.451732881171 2676.48607875395 150 122 110
-215.407078698485 219.923790255086 2661.599758404 143 120 106
-218.742298088232 219.42476760511 2654.23901804935 138 116 103
120.148261060089 238.771701756784 2882.71402750044 18 25 18
135.212914692907 238.381804420641 2860.28439670308 24 31 24
122.98348926498 237.863670116759 2861.29757723377 24 27 20
77.496824593176 237.210455437344 2891.31129986303 27 30 23
80.8706699213526 236.766139597087 2878.93320433705 28 31 24
51.857661665788 236.197831869362 2894.95222053984 27 30 23
39.8635581951186 235.698911471529 2896.13579382457 27 30 23
13.687749373926 234.702510686497 2900.62280724117 25 28 21
-3.52469314870096 234.197589405572 2906.66931014504 24 27 20
-35.0907521101278 233.660873930569 2925.77816642116 25 28 21
-42.295225310564 233.193014658317 2923.02319350604 26 29 22
-32.8940535374711 232.760860739879 2905.13361516439 28 31 24
-43.8927544699723 232.283281500253 2905.80384845995 32 34 29
-45.1109658520643 231.824193979299 2897.50760693311 29 31 26
-55.3310055026601 231.35021820751 2897.50729003246 26 28 23
-61.7974977440192 230.882710807539 2894.05255489399 27 29 24
-65.2866543841473 230.418282525794 2887.81543399785 23 26 19
-65.0836995408619 229.955294188472 2878.07903870315 20 23 16
-67.8733679476153 229.488014400797 2871.11394068256 20 23 16
-79.5240002682227 229.017337203325 2872.54664659138 20 23 16
-85.9979847094372 228.549323669299 2869.08647763368 20 23 14
-99.0605942683069 228.083414920247 2871.96600299795 20 23 14
-111.35007866185 227.620649949884 2874.17096258853 21 24 15
-114.136075041668 227.153776766596 2867.20823408114 22 25 18
-108.956712038656 226.677275250151 2852.43372393491 22 25 18
-124.106407136923 226.22106605353 2857.50572994583 21 24 17
-124.049534073047 225.746392822464 2847.66337766541 21 24 17
-138.413877724407 225.294366411541 2852.06968625785 22 25 18
-134.08347466116 224.808678471633 2837.91473703173 22 25 18
-144.11235483519 224.350666699839 2838.053076576 26 29 22
-150.552610065119 223.885670234796 2834.6170794484 25 28 21
-156.279150677598 223.418985961556 2830.46342410013 24 27 20
-164.131288298945 222.958791766505 2828.4743153558 22 25 18
-149.379144963766 222.424188018228 2803.34703847245 22 25 18
-152.350969146999 221.94253618201 2796.24981904483 23 26 19
-156.744499643278 221.464839336322 2790.59206766137 25 28 21
-167.442263588557 221.0124496243 2791.48058419121 23 26 19
-188.567772445877 220.608679711243 2803.33707398717 18 21 14
-162.339600364424 219.991354339837 2765.53150116976 16 19 12
-144.628662611212 219.398667078272 2736.37334567638 22 25 18
-165.739209934625 218.996229547536 2748.24039367932 21 24 17
-178.493613357063 218.556114144196 2751.34347489772 20 23 16
-185.715778555373 218.087758010322 2748.57596863609 17 20 13
-167.62513986452 217.466306281115 2718.45758965171 13 16 9
-168.096225998138 216.94930596812 2708.23258856383 10 13 6
-167.924062170519 216.424884129599 2697.23852440277 11 14 7
-177.951823782375 215.967631357748 2697.37767866111 14 17 10
-165.676641472467 215.351606375842 2672.92475519039 4 3 0
-177.744479433652 214.907858534679 2675.29019285845 134 124 115
-195.138733770758 214.509214035379 2683.67609702324 33 19 8
-207.779442630555 214.078764706161 2686.86164681703 123 99 87
-215.046915069516 213.607123624912 2684.06098525383 131 105 92
-217.658421942356 213.095756029566 2675.98978038868 137 111 98
-213.013011936669 212.517060123574 2659.59234757862 128 106 93
-219.652015951433 212.036907489528 2656.0121964464 126 106 95
87.7564260906993 231.317745483832 2911.07010592475 10 17 10
113.81991524786 230.872799980567 2879.32179617906 12 19 12
111.74632610817 230.389454768343 2871.64038682029 22 25 18
80.9978113545258 229.886593031712 2888.87170208033 26 29 22
65.0602735252241 229.400785525734 2893.37243416085 26 29 22
67.6584056803939 228.922404194308 2881.66687168198 24 27 20
64.0646505244078 228.440487574557 2875.35413098459 24 27 20
15.2869305561163 227.971610668397 2909.15880320203 23 26 19
-13.3974898665785 227.511835567856 2925.41627499941 24 27 20
-29.0107830499053 227.052575543415 2930.15219341175 24 27 20
-36.2188977419329 226.589331464544 2927.39460407853 27 30 23
-57.403580383806 225.675045047444 2928.08939857464 32 35 28
-41.2440849228317 225.174537695798 2903.98251398663 33 35 30
-40.2173972768289 224.693494304851 2893.60842657537 30 32 27
-48.2075050083055 224.22925864412 2891.51927988296 25 27 22
-51.7104743780328 223.75490663247 2885.2720955787 26 28 23
-47.0478774945544 223.257013677322 2871.3576044444 22 25 18
-46.1553232848233 222.765103982139 2860.88622580267 19 22 15
-66.0010183253887 222.33696731483 2869.96465768292 19 22 15
-81.3423109482381 221.900134438012 2874.89786870426 19 22 15
-92.2186559995433 221.451401601154 2875.65724097904 19 22 13
-97.2041825042158 220.981646095599 2870.80541590893 19 22 13
-105.116885846219 220.523927496891 2868.77241432054 20 23 14
-99.1815860704666 220.004654072961 2853.31035111899 21 24 17
-104.933819616304 219.53514905587 2849.1380561274 21 24 17
-125.886929142334 219.142315334816 2859.88454064257 21 24 17
-130.873282579886 218.672645932002 2855.03211654729 22 25 18
-122.916407934978 218.130336942001 2837.33030954366 23 26 19
-127.953340517376 217.656611138252 2832.4411990004 23 26 19
-138.715652920574 217.217460588145 2833.28299003453 25 28 21
-145.171603957974 216.753469477018 2829.83591425047 24 27 20
-163.703604611102 216.370248636237 2838.63186210612 24 27 20
-162.323249222308 215.855908440031 2827.27865622815 23 26 19
-155.338861133281 215.297187814448 2810.1068264673 23 26 19
-144.211111794698 214.700300266157 2788.52731117071 21 24 17
-144.418237672747 214.181984761847 2778.49365384357 23 26 19
-163.548953519309 213.812840194024 2788.09098268361 22 25 18
-174.926168705973 213.38655620283 2789.72211936818 18 21 14
-152.208565285848 212.669473783834 2755.54692721985 15 18 11
-149.767183727522 212.116602053216 2742.49231895035 20 23 16
-154.9774834999 211.629271340683 2737.47775639672 22 25 18
-169.143330200808 211.226472855503 2742.02791453681 21 24 17
-157.865111936399 210.579586469204 2719.32248196956 18 21 14
-169.956308035455 210.158045519829 2721.67109930728 14 17 10
-169.053524833577 209.605319103511 2709.97149672534 11 14 7
-175.672073076255 209.128768179526 2706.40648713925 12 15 8
-183.641835807609 208.667424108853 2704.33210361808 18 21 14
-180.795622635809 208.08532489374 2690.33578175256 1 1 0
-179.353751509381 207.514109937407 2677.79155075751 184 174 165
-194.06060032819 207.130305837187 2683.1849522333 21 7 0
-204.699213455923 206.702240494635 2684.11647166085 106 84 73
-211.975873235083 206.235022132795 2681.30946687763 132 108 96
-212.602962355553 205.68337197616 2670.97120038702 136 113 99
-209.956422917083 205.085354607026 2656.83005014237 127 105 92
-213.965454857417 204.571402395065 2650.21580969795 124 106 94
95.9689415673575 224.003976138109 2904.63523825087 11 17 13
90.8602533833056 223.520512064936 2899.6943556914 12 18 14
104.387592347616 222.986856147186 2878.61963777576 25 28 21
109.284362815678 222.468927777036 2864.87509706414 31 34 27
58.5110170898053 222.120996358566 2899.70407792931 25 28 21
61.1306346193916 221.613632325116 2888.01394385378 22 25 18
49.1098625324504 221.155267456223 2889.17868438821 24 27 20
35.5918670462576 220.705646831948 2891.72817327791 21 24 17
-11.4791908448013 220.398157865613 2924.30049098342 20 23 16
26.1955229152249 219.740382307553 2881.20626926967 22 25 18
-0.909007846856991 219.360368648013 2896.13907307055 26 29 22
-40.0029958739725 219.04938461591 2922.14316601031 27 30 23
-25.31660476352 218.479444028685 2899.43811820637 28 31 24
-28.8117635735956 217.996904235166 2893.19684894778 26 28 23
-40.5748353177424 217.559734200602 2894.54821483929 24 26 21
-39.5850807033613 217.050435499944 2884.14691628948 19 22 15
-41.619998857902 216.556189896606 2876.49377961752 22 25 18
-40.7027511998133 216.041013589879 2866.03988945648 27 30 23
-45.0170861641417 215.55716759436 2860.4395174576 24 27 20
-64.8679636567662 215.180236371353 2869.51474631045 22 25 18
-87.5849818060332 214.831310244016 2881.45283147997 21 24 15
-92.5627872682391 214.358900943561 2876.60688459335 19 22 13
-102.675311299201 213.925754904654 2876.68471487051 18 21 12
-83.540169588205 213.260808236855 2848.55833473499 19 22 13
-94.4183517235184 212.830705647206 2849.31617515722 20 23 16
-107.445260085314 212.421690034226 2852.22186925611 21 24 17
-124.772820514419 212.054551830254 2859.42094973751 24 27 20
-129.761350116204 211.581486592237 2854.56722537079 24 27 20
-134.035648634191 211.101257394215 2848.99589496607 22 25 18
-130.429236944499 210.544060034498 2835.55078336241 21 24 17
-139.753568561469 210.1100918795 2834.96495034795 22 25 18
-148.343809683989 209.670579800205 2833.6759160119 22 25 18
-161.181794035146 209.277287345733 2836.71864479883 21 24 17
-163.349116992088 208.772834501175 2828.96947335826 23 26 19
-154.238429678939 208.141291213625 2809.63297557966 25 28 21
-145.925723830478 207.510149575145 2790.9533371482 23 26 19
-146.124966495609 206.970046364369 2780.92528417132 25 28 21
-146.360396059065 206.427019922827 2770.87068925582 23 26 19
-162.674174975793 206.077711968408 2777.56973527524 19 22 15
-188.656290486639 205.855996049619 2794.55233476075 23 26 19
-179.165405580049 205.190317136233 2774.25624079859 23 26 19
-162.86421675374 204.425790267616 2746.54533107947 24 27 20
-161.855386321532 203.853649946255 2734.92250606271 21 24 17
-173.247475834811 203.447989021609 2736.5432589674 20 23 16
-170.920673126761 202.852587693145 2723.40537462331 18 21 14
-184.333940257255 202.478489340131 2727.26620249746 11 14 7
-194.300603075769 202.058388168323 2727.44983675519 12 15 8
-189.334718552045 201.416669593585 2711.28440354027 11 12 6
-200.649505124787 201.017610862179 2712.96122843769 12 9 2
-182.983741416728 200.168565362576 2682.53369570368 202 192 183
-197.008302292461 199.810365844754 2687.18679533321 42 28 17
-205.630620434067 199.369345493807 2685.87450004178 118 98 87
-210.903513532743 198.874404911637 2680.81452370461 138 116 103
-209.53846448591 198.266575578122 2668.21441728557 132 113 99
-205.574608286708 197.609057172197 2652.55784343082 137 119 107
-209.596430619382 197.085495558334 2645.93428228452 124 110 99
81.914378839421 216.24887183092 2907.99379101022 8 14 10
79.9342792312463 215.744601669938 2900.38034269604 30 33 26
74.0580185352764 215.263383711648 2896.11807844809 31 34 25
84.4027145046304 214.6736885135 2877.67664632527 22 25 16
62.302463975179 214.300702074619 2887.59134989924 20 23 14
42.5977171535323 213.91864085388 2895.53715490339 22 25 16
3.82356542111006 213.685498471657 2920.53816717589 19 22 13
-2.34174460601633 212.701775112139 2907.41797425181 21 24 15
-15.3867565995096 211.770534332302 2900.42701748066 25 28 19
-15.1099198283049 211.245953532136 2890.74386879426 25 28 19
-5.08427724701654 210.630284495763 2872.07101649889 18 21 14
-16.1661335565468 210.201881486267 2872.68121777432 18 21 14
-39.1913976284282 209.890181047145 2884.3960374517 16 19 12
-39.7332051958279 209.367094858265 2875.35477469024 20 23 16
-40.3068369561117 208.841430554849 2866.29042883353 25 28 21
-46.8459649018072 208.374630185972 2862.7827476271 22 25 18
-62.2559664747995 208.002471174652 2867.66647765003 24 27 18
-84.2457100409482 207.707289013491 2878.89701528025 24 27 18
-98.0533371437506 207.329561673094 2882.47194481288 18 21 12
-96.4225294794589 206.779321846138 2871.30011529563 17 20 11
-108.720334081603 206.388479049525 2873.49940768943 18 21 12
-107.866313549793 205.843129311932 2862.99953000085 19 22 15
-109.958425235251 205.330247938064 2855.30483812389 20 23 16
-120.762614460594 204.924996240985 2856.11644346032 24 27 20
-130.093186998481 204.503610974896 2855.5258555269 25 28 21
-131.486395605493 203.979686862214 2847.102720844 23 26 19
-122.862014971402 203.318285728564 2828.64857436878 22 25 18
-131.493872509215 202.885852845593 2827.32970173969 21 24 17
-150.804936711713 202.605175644375 2836.79644583531 18 21 14
-155.105221848274 202.117052714753 2831.20653166992 19 22 15
-154.454606947027 201.555493699809 2820.55911879567 26 29 22
-147.486776914341 200.895588569849 2803.37477322694 29 32 25
-147.641643466621 200.336587616279 2793.37849924349 24 27 20
-140.812617398888 199.665445285148 2776.0934747997 24 27 20
-142.461955904126 199.121037751036 2767.4842678579 22 25 18
-161.579403180269 198.856578796891 2777.09174562107 22 25 18
-179.918389748966 198.587481928849 2786.02819156607 25 28 21
-178.769140100642 197.998783162401 2774.50707556398 24 27 20
-174.210102213473 197.347316913284 2759.28199227201 23 26 19
-178.672378574719 196.846516076099 2753.57428851766 19 22 15
-176.278684531497 196.223110761165 2740.48475328425 20 23 16
-185.573269281219 195.805622102638 2739.9205678806 14 17 10
-192.117960915718 195.339730184716 2736.4088580389 12 15 8
-174.18106770508 194.415965035619 2706.17749439774 12 15 8
-182.153818252685 193.970113945835 2704.10102341981 15 16 10
-186.06098846555 193.446807914254 2697.56057733652 7 4 0
-183.92262008664 192.802990110607 2684.28614216388 208 198 189
-192.575637127526 192.370049993766 2682.95163351319 183 169 158
-199.874070315216 191.911298871364 2680.1288876097 100 82 70
-203.164291415964 191.37040510902 2672.80026091259 124 105 91
-204.479757690193 190.786100192295 2663.19784635892 123 104 90
-203.840226169064 190.156788158905 2651.3070190943 123 107 94
-207.205957303467 189.609974299523 2643.92391805289 120 108 96
38.1682073036655 209.89437296232 2955.29730469407 17 23 19
105.691112420458 208.734105011223 2888.13823965913 14 20 16
77.227489864502 208.466286261986 2903.32170820973 31 34 27
76.7837474607806 207.931234818605 2894.35147437186 27 30 21
87.1250606490639 207.283112441352 2875.90729405367 15 18 9
78.8828173402938 206.821060287026 2873.63537996033 15 18 9
70.6528943698923 206.360003327108 2871.37210770703 18 21 12
27.9630211913071 206.279364553478 2899.71107449846 17 20 11
30.54983353401 205.707895576522 2887.99712901571 18 21 12
10.9996235558478 205.38733602403 2896.05527259376 19 22 13
-5.43481657012346 205.037307119738 2901.43151396958 19 22 13
-6.66384752480176 204.509230565843 2893.12737413765 19 22 13
-5.65493115886184 203.950948381083 2882.73971823947 18 21 12
-8.45102369636308 203.436906454214 2875.76972636995 12 15 8
-14.2683361123868 202.960135373026 2871.55021751246 13 16 9
-34.3073281792521 202.67087433685 2880.48922768563 14 17 10
-46.0552395678242 202.277820207904 2881.85210157522 17 20 13
-48.0960016253893 201.754585557047 2874.19428722097 21 24 15
-52.3855951935628 201.260734540099 2868.61209458778 18 21 12
-62.6023249348631 200.850855706433 2868.61450177464 20 23 14
-84.5928766732322 200.615453550778 2879.84446186407 24 27 18
-88.8417233060088 200.125052849558 2874.29182503046 22 25 14
-102.629929836897 199.778636276082 2877.88099154533 19 22 11
-106.869661935112 199.289045743178 2872.33467165898 19 22 11
-114.0339630409 198.844670764436 2869.60923378218 20 23 16
-113.199469936583 198.27254960136 2859.09506464213 21 24 17
-116.751196093874 197.768277856499 2852.8123839527 24 27 20
-126.815595312939 197.371209976517 2852.92528367602 26 29 22
-124.617384081388 196.768596034715 2840.92947519925 26 29 22
-131.080209192084 196.310732729902 2837.47715281428 25 28 21
-133.247254384377 195.777748577705 2829.72803821453 25 28 21
-151.841267513599 195.536346864545 2838.47975024469 22 25 18
-149.737645595819 194.926204557022 2826.41533382307 22 25 18
-148.392233223662 194.325190610126 2815.03635798699 28 31 24
-147.798554823843 193.733829617512 2804.34751967487 29 32 25
-139.497322517872 192.990929982963 2785.65899775132 27 30 23
-148.137872560389 192.568633522226 2784.33358060602 27 30 23
-163.761574200773 192.286172875035 2790.29788585861 23 26 19
-177.928948968824 191.98070685432 2794.84772375536 25 28 21
-186.479674313973 191.565956042992 2793.58746067033 27 30 23
-170.746354793731 190.649239232258 2766.69945060648 24 27 20
-154.459639649955 189.706761618773 2738.97714725041 21 24 17
-174.140107177393 189.519392417595 2749.41190672197 16 19 12
-184.805602227157 189.145218910121 2750.32421184331 17 20 13
-184.488810672065 188.531897477698 2739.43454111444 15 18 11
-176.025113582744 187.731898763942 2719.62846753221 13 16 9
-170.375551594752 186.986186047554 2702.72308332151 12 15 8
-170.903032224535 186.375158256166 2692.45672439213 12 12 4
-180.926011252992 185.982824558881 2692.59937999813 34 29 23
-184.862245046085 185.448590815695 2686.03780975427 80 67 59
-187.47024025115 184.880922843638 2677.96886539954 83 69 58
-190.770152738432 184.327828324625 2670.63344588729 91 73 61
-193.421659357598 183.756759507979 2662.53264747692 69 51 39
-198.754660188341 183.250814586149 2657.42904202287 86 68 56
-203.430372713997 182.727622411116 2651.56650042144 110 98 86
-215.377809986706 182.391734337402 2654.02005992606 108 100 89
102.977931975206 201.398503184649 2891.07497645364 14 20 16
114.154350486244 200.6866971079 2872.00052812923 26 29 22
96.559378605666 200.353180058824 2877.77059553417 22 25 16
74.3922699997626 200.088726652054 2887.63767647992 14 17 8
103.174981463454 199.118911920017 2852.91719497835 14 17 8
86.4241792362317 198.780683657571 2858.06415848806 16 19 10
58.240908834251 198.614856602143 2873.45137690613 17 20 11
27.8920213224501 198.493433571102 2890.97432254449 17 20 11
-0.0319541927420453 198.348918480297 2906.54961730892 18 21 12
-4.28182509004982 197.852046791577 2900.99591071024 18 21 12
-2.48236687522874 197.259325289731 2889.94612439819 17 20 11
-6.01424970362707 196.747378380523 2883.67778968513 16 19 10
-17.8436899102172 196.36896590236 2884.98163575747 13 16 9
-26.6356164468469 195.94368148471 2883.54646742646 14 17 10
-39.1541158631328 195.582807274886 2885.58592523643 14 17 10
-41.9305649216182 195.058935261809 2878.62982907571 16 19 12
-48.4470149578631 194.598395989233 2875.13891376052 19 22 13
-54.2179185277571 194.125011143302 2870.95306481795 17 20 11
-69.607515601704 193.824816126468 2875.85195100951 17 20 11
-80.5153401868255 193.4482398468 2876.58857410859 21 24 15
-82.5683453244137 192.909891425607 2868.92180793013 22 25 14
-90.5101715025292 192.480652562992 2866.8678388318 20 23 12
-95.5158686211377 191.996241751447 2862.0016118982 19 22 11
-104.170947548545 191.582588678626 2860.66570623464 18 21 14
-109.903162334203 191.112703986556 2856.50792134639 19 22 15
-115.636390651698 190.642781994965 2852.34940153836 20 23 16
-117.759604758186 190.098977371582 2844.63171174327 21 24 17
-114.146248630972 189.433742425096 2831.19138155592 23 26 19
-126.382236798095 189.096655511913 2833.43546380981 23 26 19
-135.717431043543 188.701559403898 2832.84195313874 27 30 23
-150.738502857643 188.432174944066 2838.00814721743 26 29 22
-150.768644293867 187.838328362914 2828.10211263239 25 28 21
-152.25310782442 187.273283309646 2819.61232254524 25 28 21
-142.457128747235 186.449499774518 2799.53689150432 25 28 21
-136.986371440529 185.715023409151 2783.73698150781 26 29 22
-141.419999361745 185.204310868944 2778.04999541429 27 30 23
-172.468539290131 185.322786625834 2800.00740421302 23 26 19
-188.004867334797 185.085590870599 2806.03557220241 24 27 20
-182.608724312647 184.345301423345 2790.18154327428 25 28 21
-164.800987209053 183.2910870162 2761.09092749279 22 25 18
-131.935921833335 181.843999456471 2715.74112763057 19 22 15
-138.597460055708 181.373043190615 2712.1449820288 16 19 12
-186.827953877613 181.342148845483 2742.64316426154 15 18 11
-182.446799870692 180.59315054496 2727.28834065246 13 16 9
-164.528112237545 179.474679529188 2697.04308765308 14 15 9
-160.325603856484 178.711238812566 2681.55868686364 36 33 26
-173.085949541444 178.406506923417 2684.65814615332 48 41 35
-179.740423400255 177.936702561591 2681.06683301704 79 66 58
-181.691565775818 177.334799750392 2672.23855078392 83 69 58
-178.985903165044 176.597009811161 2658.13984669002 81 63 53
-179.006307206103 175.931690111286 2647.00547229591 76 58 46
-186.379706593517 175.477295763987 2644.12810938528 78 62 49
141.57728726277 193.406046986149 2858.49477750022 1 7 3
155.758703273162 192.572828538302 2836.65766002151 15 18 11
132.619382657749 192.362297583362 2847.05497901356 13 16 7
88.9391862877424 191.924246628438 2866.02838366738 14 17 8
74.5337202089167 191.585948411911 2869.17012668406 16 19 10
41.7831975759913 191.584943871911 2888.6580900777 18 21 12
31.3456302719755 191.188435684114 2888.5004751274 16 19 10
20.9335245592226 190.794032086626 2888.36103401113 17 20 11
2.94914746399089 190.546056516467 2895.08457765632 17 20 11
-0.572524301644339 190.026147008411 2888.82360482844 16 19 10
-3.35299485577001 189.490302055775 2881.86482723143 15 18 9
-14.4369311265631 189.117673161171 2882.47380320544 13 16 9
-29.2459354400538 188.823295056532 2886.55856631413 14 17 10
-37.2643085588262 188.395181123386 2884.44911240292 13 16 9
-51.9896935836424 188.107748877147 2888.59452810063 14 17 8
-56.2421313605048 187.604844220576 2883.03893015802 19 22 13
-62.7309309589408 187.148797380452 2879.56778751332 18 21 12
-73.656225517245 186.789416036558 2880.29183335175 16 19 10
-81.6007599039055 186.367582583263 2878.23593852511 15 18 9
-74.8219695184387 185.618387166335 2862.14913843811 15 18 9
-82.0529651868638 185.178429573843 2859.37537462445 18 21 10
-83.4268125504605 184.604885533734 2850.96572950835 18 21 12
-100.136074038236 184.385359781539 2857.37844466743 17 20 11
-122.594431100199 184.308353184627 2869.50541610527 16 19 10
-118.144329422971 183.59867796823 2855.43610441921 14 17 8
-116.646276950934 182.953922661272 2844.16755909041 15 18 11
-116.633708663436 182.34088856052 2834.29268298403 19 22 15
-133.169792203458 182.135855167997 2840.83101193989 21 24 15
-137.473487390187 181.629443226001 2835.2385331189 22 25 16
-147.495207193396 181.268101982859 2835.38255302406 25 28 21
-141.842435167839 180.503921441101 2819.71443892413 26 29 20
-145.479758396755 179.975621179711 2813.36958538157 20 23 14
-139.941502568656 179.202200888723 2797.61840924504 19 22 15
-135.179572589287 178.441915362838 2782.53956109254 19 22 15
-145.237227110871 178.077991597736 2782.65751807248 22 25 18
-165.073306100473 177.986593048831 2792.97995758447 21 24 17
-188.312524629945 177.999898487713 2807.0116910638 19 22 15
-175.25719106759 176.999175075248 2783.12236731184 20 23 16
-153.304359958199 175.730584467893 2749.62472404889 21 24 17
-134.295291729685 174.527672983204 2718.93444687614 18 21 14
-166.146742722725 174.142958834642 2731.66111971759 15 18 11
-177.950032053903 173.177254030192 2723.09977190153 14 17 10
-167.523557910858 172.191868066646 2701.0102139057 14 15 9
-157.204086787383 171.197806197205 2678.84304319226 13 10 5
-167.946817348013 170.855462434181 2679.69951986742 19 14 8
-173.943098783864 170.365283191095 2675.35020463308 134 125 116
-173.224730364345 169.658514849042 2663.51613558709 94 84 74
-167.866118137387 168.795239999994 2646.39924021006 48 36 24
126.394276215909 186.218469029921 2872.15438171762 0 2 0
170.167253231968 184.720045023734 2824.83052329597 15 20 14
112.097807623619 185.281161909953 2865.49122325259 13 16 9
114.621496669543 184.612204945322 2853.73073007198 13 16 9
93.9693068784564 184.427014185731 2862.22604174207 14 17 10
54.9510887753599 184.643193206519 2887.05240099533 14 17 10
41.414795155295 184.326330848084 2889.58929762407 14 17 10
30.2142945496167 183.962630165563 2890.11381884728 18 21 12
25.9022712450547 183.448553526768 2884.51526397274 18 21 12
16.2613548836004 183.053832305665 2883.69983623719 18 21 12
-3.20889112791778 182.886335067231 2891.817017169 17 20 11
-1.44697506945524 182.234599745179 2880.73971682998 17 20 11
-1.98975988332317 181.632308282791 2871.69704997435 16 19 12
-12.3290419867337 181.259952866268 2871.61080640202 15 18 11
-45.8592837432585 181.449797193952 2893.00486918549 14 17 10
-58.319606803505 181.142040453627 2895.08647485093 14 17 10
-57.3405975553962 180.505777358924 2884.67703813313 16 19 12
-59.3711512313733 179.940645404983 2877.02641183445 17 20 13
-79.9276707551182 179.84343529167 2886.82655919156 14 17 10
-78.2599870452871 179.184275201822 2875.68091020409 14 17 10
-75.1658332188352 178.483161484988 2863.09875960772 14 17 10
-74.3262812013312 177.835668011127 2852.58817048321 18 21 12
-80.1090553995965 177.360500034454 2848.39370723689 20 23 16
-90.2675412808889 177.003485650071 2848.43860440971 13 19 9
-108.396475315765 176.867254293626 2856.29295828003 13 19 7
-109.783549044796 176.275835822389 2847.87363455185 14 20 8
-119.868049281612 175.925069011535 2847.97219714248 15 21 11
-128.486531978261 175.535627035816 2846.66294350158 18 24 14
-140.678904993044 175.250610708651 2848.93920153501 19 25 13
-133.503778002781 174.407750075574 2831.90390877205 16 22 10
-132.832183128915 173.747020708411 2821.2712024103 19 25 15
-135.047285929582 173.167598289588 2813.48701460566 22 28 16
-136.576093758401 172.565018898611 2804.96488827153 17 23 11
-142.374748272637 172.089296300979 2800.758910236 14 20 10
-150.993812289102 171.700307586324 2799.44923747982 19 22 13
-150.4620166513 171.028502255592 2788.71542604346 20 23 14
-161.878122119067 170.728259984278 2790.31900875946 21 24 15
-161.390029239578 170.053015904012 2779.55320436597 20 23 14
-166.510901357272 169.553808073984 2774.60340966776 20 23 14
-157.06712951404 168.579820654938 2754.27160079716 22 25 16
-123.515604759979 166.80085869923 2708.18271234964 19 22 13
-146.746843785313 166.88344127464 2722.22058124416 16 19 10
-147.191474452349 166.211656660497 2712.01367979857 15 18 9
-175.071306701764 166.469605574607 2731.32841788257 16 19 10
-163.210547449571 165.376396751337 2707.80768989206 17 20 11
-167.118231928822 164.81835283777 2701.26669505188 18 21 14
-163.578381494748 163.996813097197 2686.53695619806 11 12 6
-154.692271302485 162.977940116302 2665.80065914137 16 17 11
154.09436914728 178.135619536485 2848.96430773744 1 6 2
104.486392509652 178.669277739598 2882.1721872147 11 13 8
126.461770659431 177.509363599688 2853.63217472107 11 13 8
106.523929259136 177.352019947406 2861.41043720648 10 13 6
115.192307440247 176.49851187728 2844.22254353877 10 13 6
122.238451700092 175.676400646342 2828.32918464794 11 14 7
40.2788648937955 177.092777649847 2891.19956589797 12 15 8
43.6062185263912 176.376882610191 2878.78639194749 15 18 11
36.970744843674 175.912851817426 2875.20888168862 16 19 10
20.4576095327855 175.707744359921 2880.52910377819 16 19 10
-2.05746742815016 175.668235102163 2891.379816576 17 20 11
-3.31894475202699 175.069496760961 2883.05179776271 18 21 12
0.666523673641617 174.325476259113 2869.88052618038 17 20 13
-5.92380270959203 173.865341876364 2866.33576389848 15 18 11
-31.9862862888018 173.946279243281 2880.79126811924 12 15 8
-57.1843120144644 174.015964064624 2894.63834266091 13 16 9
-54.7166663687491 173.312097587913 2882.83734007693 16 19 12
-61.207804987643 172.860289771348 2879.36452329788 17 20 13
-75.0982940473124 172.624044221928 2882.88010106278 15 18 11
-76.3944326736969 172.022778821391 2874.52664825451 14 17 10
-75.5105413925252 171.353657964384 2864.04809206152 16 19 12
-77.6017733732446 170.769503382693 2856.35338241143 17 20 13
-89.2252492393042 170.472732776161 2857.8069499619 19 22 15
-94.2509958288396 169.976964069573 2852.92583673194 13 19 9
-93.4660746917007 169.29995248276 2842.3754950013 14 20 8
-113.017242651132 169.257783057567 2851.66939084836 16 22 10
-129.595364208395 169.130598595889 2858.17793434559 17 23 11
-143.947124419081 168.939376362396 2862.5946859673 18 24 12
-137.418042989859 168.075792592035 2846.32599265227 18 24 12
-129.533142770263 167.15901112723 2828.57011307481 16 22 10
-127.443417321011 166.424906876341 2816.49470043789 19 25 13
-126.11498380079 165.710684499021 2805.10284284667 22 28 16
-126.959916194245 165.065024621886 2795.8412175699 17 23 11
-145.516908390312 165.022823596674 2804.62107033235 14 20 8
-156.240421650035 164.718502780539 2805.49167063277 19 22 13
-162.717258563933 164.269115649672 2802.02923372613 20 23 14
-167.08893347899 163.745745292564 2796.38709457458 20 23 14
-170.073694985831 163.171738169295 2789.28002880725 19 22 13
-154.97677828337 161.942491524089 2763.16413036325 18 21 12
-154.58635921002 161.234257309809 2752.3273530417 20 23 14
-169.455196425522 161.083975215958 2757.60450850672 20 23 14
-155.306864316286 159.85946463128 2732.03602146558 17 20 11
-165.344181281826 159.529935513731 2732.1688957896 15 18 9
-145.210735064501 158.056318530578 2699.82196530422 15 18 9
-151.879493935501 157.592070634686 2696.22032480235 17 20 11
-163.990437852611 157.339520044533 2698.55577697182 18 21 12
-182.168715504998 157.329616781491 2707.61003710666 10 12 7
191.163658915407 169.610091834794 2817.74259925893 0 4 0
177.999311948448 169.292207669431 2819.31379167238 8 13 9
143.157190406106 169.575506146131 2839.7573181659 10 12 7
142.505013039738 168.924469092791 2830.6353978854 9 12 5
120.228250833925 168.878940266444 2840.42380301559 9 12 5
114.959999980906 168.359175069898 2835.3670661998 9 12 5
94.350831352628 168.280576970926 2843.89381026475 12 15 8
45.5339854111005 169.03249449847 2877.67630279368 15 18 11
32.0321311259053 168.772261646103 2880.23874654788 15 18 9
10.9714067154072 168.74183379698 2889.67372328765 15 18 9
7.43150001623549 168.194085097491 2883.3993905563 15 18 9
-2.16894271747115 167.829086797811 2882.61345356972 16 19 10
-4.21263785533954 167.2341862261 2874.95344443797 17 20 13
1.23493510674866 166.403923672604 2860.37127906854 15 18 11
-13.6132826005335 166.203504821274 2864.42809147335 12 15 8
-17.2046161491477 165.651724397036 2858.11645789986 12 15 8
-47.6233738681606 165.958935640438 2876.82596088021 16 19 12
-51.9065911890013 165.435502333329 2871.24794620763 18 21 14
-69.5271424804229 165.347884473914 2878.23604718585 16 19 12
-71.5760073453609 164.752893687639 2870.57228995167 15 18 11
-62.6078072477692 163.786792176022 2852.36613665255 14 17 10
-75.0089075771576 163.532561686634 2854.49094526047 14 17 10
-88.1031377208297 163.30656532552 2857.34876339155 15 18 11
-93.8603689345925 162.83256299025 2853.17282270402 14 20 10
-101.073135789864 162.409227192068 2850.4123575387 17 23 13
-119.152967981941 162.369457058408 2858.30279497787 22 28 18
-136.43619313982 162.310137214774 2865.53557420422 22 28 18
-139.958700315081 161.764761439787 2859.27386677841 18 24 14
-132.001373412108 160.801187748546 2841.56995936052 16 22 12
-135.587677948655 160.250725823552 2835.26197810365 16 22 12
-125.622871178282 159.196976468059 2815.30776903826 18 24 14
-125.00896389071 158.481202258871 2804.63296490112 20 26 16
-123.726292174044 157.735379771394 2793.20777354111 16 22 12
-143.709319953146 157.795177347197 2803.42445257773 15 21 11
-159.374256538553 157.699301798092 2809.35981082898 19 22 13
-159.513744745091 157.007088628363 2799.37430466742 19 22 13
-165.295345980055 156.532135162429 2795.18069281378 17 20 11
-163.394026676007 155.752500202242 2782.96846991939 15 18 9
-149.008814283064 154.467028656651 2757.57168814892 14 17 8
-150.716970864657 153.816493351945 2748.91930517025 16 19 10
-162.139113656171 153.559240551584 2750.51872905157 20 23 14
-183.18266008363 153.702885386624 2762.43740792572 18 21 12
-152.568861288581 151.708991180296 2719.15825155593 17 20 11
-151.656827310012 150.933822488462 2707.46422834546 16 19 10
-148.057739091196 150.039190670033 2692.77706200022 17 20 11
-163.585122662172 149.955742941159 2698.81219831652 17 20 11
-177.015555297269 149.789409619851 2702.6616349209 18 20 15
182.220528754176 162.228009710699 2826.04346462936 25 30 26
199.419521605949 161.004034791069 2801.45143274886 12 17 13
169.942890381224 161.21420631369 2817.13800744096 9 11 6
155.293650149056 160.974126725595 2820.10382534522 8 10 5
136.063916797158 160.884650463525 2827.16042312218 8 11 4
166.901398405625 159.200379083646 2790.22046512114 9 12 5
105.494498036232 160.475894169344 2834.6408690874 11 14 7
69.6392059320461 160.952708906543 2856.82098007492 12 15 8
55.3055221105758 160.738779986674 2860.01538953687 12 15 8
50.1432157448347 160.224543072572 2855.03548214272 13 16 9
21.4727975986793 160.501475633221 2871.30683605873 15 18 9
10.3201340393713 160.197772131347 2871.86633927529 16 19 10
8.24208368054524 159.585772291882 2864.18133869953 16 19 12
-6.63517187603913 159.415259820724 2868.21695795237 15 18 11
-13.9674042635933 158.986465389057 2865.36986202414 12 15 8
-39.9707631461339 159.219416212371 2879.86899697742 12 15 8
-44.9976642052878 158.716656460615 2874.98730591379 16 19 12
-50.0299600391723 158.213504479803 2870.10170207612 17 20 13
-60.992194557425 157.925855164039 2870.79933268612 16 19 12
-59.3725918160801 157.178852451207 2859.61838383828 15 18 11
-60.0065281957609 156.510234844172 2850.50959778935 14 17 10
-57.0024904710815 155.701391364752 2837.86157443515 14 17 10
-71.6146079565529 155.553309357724 2842.08980602582 15 18 11
-94.9293768945376 155.744284048168 2854.83234022525 16 22 12
-116.68487824562 155.887815760385 2866.23490720841 18 24 14
-137.619216674161 156.011050893495 2876.99731880621 23 29 19
-133.159264400029 155.146548514704 2862.93436379796 22 28 18
-137.410749724328 154.620383589602 2857.37933849069 17 23 13
-133.049809550293 153.747875062442 2843.24456694535 15 21 11
-140.212879734877 153.334039275886 2840.52017607663 15 21 11
-130.943169322732 152.250101268085 2821.29666606777 17 23 13
-123.903070978138 151.246601634307 2804.16296896673 19 25 15
-124.040322307492 150.531856668426 2794.17867576018 16 22 12
-133.411574260843 150.200438901931 2793.55934863049 15 21 11
-143.467087569948 149.900756372736 2793.67918321558 20 23 14
-147.872283123614 149.362676899167 2788.01266973316 20 23 14
-148.782917339418 148.672614518581 2778.70319089579 16 19 10
-149.725451680073 147.980035083914 2769.37057422776 14 17 8
-150.003286980785 147.254319455222 2759.28431313158 13 16 7
-152.40041836604 146.618150788925 2751.36788149036 15 18 9
-163.817012874251 146.38292244665 2752.97143899888 20 23 14
-153.81428515006 145.184620909706 2731.80865635067 18 21 12
-154.22862501933 144.448155966072 2721.62368020922 17 20 11
-162.218841745428 144.055592851827 2719.53481753985 17 20 11
-171.562987724367 143.727585361388 2718.93486290618 17 20 11
-155.008123969245 142.189712692991 2690.16889377852 17 20 11
-156.248526148147 141.473719567291 2680.62022776276 15 17 12
164.151667309679 153.793838119784 2822.78341708244 9 11 6
155.707833501799 153.368701562119 2820.36555271891 10 12 7
154.219598175978 152.699956811201 2811.87250311746 11 13 8
152.703870929377 152.028999844055 2803.35951283063 11 13 8
97.4646915667887 153.283571106399 2842.37004130817 9 12 5
80.7501192572033 153.175259561201 2847.54443323186 8 11 4
39.8973842477024 153.254554541063 2864.86444658444 8 11 4
47.6516101612861 152.258640252044 2848.24847421966 12 15 8
38.6915380888433 151.881987226212 2846.69165992893 14 17 8
19.94725429986 151.878923386975 2854.10060815001 14 17 10
23.0759298231336 151.046484337872 2841.54311235673 14 17 10
-30.8115136289 152.413045229866 2881.53381581583 14 17 10
-37.338230514339 151.964867252787 2878.03522597793 14 17 10
-36.4106957717545 151.223482037354 2867.58794182829 14 17 10
-39.9810874971926 150.655997748168 2861.29140988617 15 18 11
-48.0100724813943 150.265723191867 2859.17445487114 17 20 13
-70.7970254112837 150.474526946598 2871.06466783752 16 19 12
-55.1959113394638 149.127380938186 2846.54871227236 16 19 12
-52.2032169030111 148.284161989407 2833.89229180792 17 20 13
-65.3663059664393 148.106371657483 2836.70043681158 19 22 15
-87.2429404132244 148.299759373458 2848.01544435904 21 24 15
-109.023630316602 148.501091430921 2859.40004439324 21 24 15
-132.158986891457 148.772423272031 2872.27304546836 21 24 15
-127.712240757966 147.867898081063 2858.2003143235 20 23 14
-122.607262095742 146.926934749139 2843.36923431351 17 20 11
-123.318976313585 146.232823569179 2834.20393631985 17 20 11
-129.794334433664 145.789904017468 2830.74260418197 17 20 11
-129.837971223111 145.060259685295 2820.82639316202 18 21 12
-131.341944211125 144.391875495169 2812.32193681971 19 22 13
-131.453784502777 143.65680300239 2802.35625613077 17 20 11
-140.093659925369 143.308180509662 2801.03170120502 18 21 12
-145.895156824257 142.830517480464 2796.82365283553 21 24 15
-150.994300358496 142.320072737814 2791.88925825697 21 24 15
-149.088693620678 141.479401227866 2779.68012872969 16 19 10
-151.425549369687 140.83378451265 2771.8073443273 14 17 8
-167.717639360234 140.853431136862 2778.52368746283 14 17 8
-173.528409909588 140.37555453289 2774.30891534441 16 19 10
-165.49615882175 139.223403374451 2755.42333025584 18 21 12
-143.753469385641 137.386065173064 2721.77076446761 18 21 12
-162.079543700957 137.51082992644 2730.7185657674 18 21 12
-181.012712015914 137.676466863041 2740.46180980272 19 22 13
-168.428219194316 136.264686673152 2716.22908146594 19 22 13
-184.572314956069 136.297378355518 2723.05306932909 19 22 13
-178.924736457686 135.221775947902 2706.1442818111 18 21 14
131.776983770502 148.155804596684 2861.0420089389 8 10 5
147.493349003612 146.831046475547 2837.84504590542 9 11 6
150.704812792504 145.971638201002 2825.3471340112 11 13 8
152.319310390308 145.167614649713 2814.16219551408 13 15 10
133.883649098068 145.142166549293 2820.55972075949 12 14 9
108.61219222391 145.394904953769 2833.11915959079 9 12 5
101.045223902394 144.956287373164 2830.10184881832 11 14 7
69.8378923677137 145.467962156987 2848.24073345884 9 12 5
53.9874458702765 145.37529322388 2852.80659122883 8 11 4
34.4009281344779 145.442270446228 2860.84037748868 8 11 4
40.604703149917 144.45572013596 2845.5708653454 9 12 3
61.0643084280755 142.867453558114 2817.16490368859 13 16 9
35.5057570909811 143.190467754259 2830.75190868377 13 16 9
13.80886848666 143.364283531376 2840.96178758645 14 17 10
-26.4832448088117 144.343317505687 2868.57394140384 14 17 10
-19.6229227864897 143.317586184458 2852.54484463149 14 17 10
-45.5329096830148 143.70547423608 2867.11245171769 14 17 10
-54.2854406302824 143.356784045462 2865.70623005502 18 21 14
-68.9308082638678 143.270591469845 2869.9106713859 17 20 13
-79.1055843218429 142.991858565245 2869.94415597312 18 21 14
-60.6192000470216 141.428451066889 2842.57825795193 19 22 15
-64.2406150768804 140.848357167237 2836.24467425738 21 24 17
-90.501565155451 141.301321637665 2851.79322689708 22 25 16
-109.363891801222 141.42905287067 2860.35259694117 22 25 16
-125.246086317667 141.428440541098 2866.13094280868 19 22 13
-125.879676284967 140.7209054978 2857.02221075699 18 21 12
-117.892652800737 139.601752509525 2839.33904298479 17 20 11
-121.49173559357 139.024035336372 2833.02166044404 17 20 11
-123.671926439703 138.376308695251 2825.26243508595 17 20 11
-131.590451089197 138.003869550459 2823.22564546478 18 21 12
-138.78446802039 137.597695226436 2820.4785649688 19 22 13
-139.580711731286 136.877312006925 2811.25185666862 17 20 11
-133.330805099765 135.802608182016 2794.78000869719 18 21 12
-156.79206295975 136.206887309823 2808.65276148608 22 25 16
-150.601363183903 135.127511134519 2792.13767505803 21 24 15
-143.785730751868 134.00626419049 2774.8406614133 17 20 11
-151.728944698123 133.632526927147 2772.78596741877 15 18 9
-158.963127684832 133.223855860749 2770.0100515225 14 17 8
-175.218555709929 133.287441834298 2776.75319426066 17 20 11
-151.252578717091 131.242342077653 2741.00588035175 17 20 11
-159.223911161051 130.866789916977 2738.93079346535 18 21 12
-163.743171650058 130.308290350139 2733.18148844524 18 21 12
-177.872401615062 130.267077104013 2737.76031681617 19 22 13
-169.393682492577 129.003413780503 2717.96278447371 19 22 13
-182.810138078072 128.927694055294 2721.82281231536 20 23 14
182.054937228589 137.858744607348 2808.50829794965 7 9 6
162.726591254803 137.899145944681 2815.49406718816 1 3 0
153.504701970654 137.52144923286 2813.74774520374 21 23 18
138.912512283746 137.374812602014 2816.75509909577 8 10 5
134.343491274857 136.803170946304 2810.96965504558 9 11 6
115.226090938423 136.861169055224 2818.10843240952 11 13 8
83.2113567910575 137.492451584958 2836.89795060831 11 14 7
71.125739295212 137.263888931255 2838.01655283845 11 14 7
53.7638910824949 137.274311552056 2843.95765316459 10 13 6
57.6461341292753 136.340710715882 2830.7105910404 10 13 6
45.6320460308026 136.118211588253 2831.88107717017 12 15 8
30.6438044444324 136.035712453273 2835.83698056339 11 14 7
-10.5356276971418 137.163417279 2864.04168768929 13 16 9
-10.3913262253796 136.403211875564 2854.26156232783 15 18 11
-40.0993684478634 137.032801290924 2872.25257994181 14 17 10
-42.9123773345745 136.414009746898 2865.26979447227 13 16 9
-55.3771085825014 136.251121063391 2867.34923281067 14 17 10
-76.6688354498404 136.515830448063 2877.85328249712 17 20 13
-91.9764466938882 136.503834862833 2882.81306175337 21 24 17
-81.5239261137111 135.246057570417 2863.21137339532 22 25 18
-93.1351120811201 135.057572116446 2864.67410416422 22 25 18
-93.0322678936335 134.294516033068 2854.8639110934 21 24 15
-104.610318045109 134.108938989035 2856.35067745409 20 23 14
-105.995886122002 133.415891307163 2847.93193043328 17 20 11
-107.40897184296 132.720659197097 2839.49322422048 17 20 11
-109.57082056836 132.060065020712 2831.74723028054 18 21 12
-108.160783289474 131.212652930364 2820.41385436334 19 22 13
-121.848061008191 131.142505618966 2824.07758568636 18 21 12
-141.91898277087 131.412665225133 2834.23161402369 20 23 14
-145.518371269845 130.826514344385 2827.91396715164 20 23 14
-144.160927886695 129.975185088875 2816.54244495579 18 21 12
-136.477134908977 128.779022336487 2798.63936332555 19 22 13
-139.464143335155 128.147379151009 2791.53008230339 19 22 13
-137.545201895727 127.24638619454 2779.33031384587 19 22 13
-137.078347746347 126.418359303559 2768.54833916861 18 21 12
-139.448830703306 125.741655033214 2760.65102022094 15 18 9
-151.598974492446 125.606690580293 2762.95835668656 15 18 9
-149.816398513993 124.694964155724 2750.65967962906 17 20 11
-150.160818417948 123.896839697304 2740.52507764503 21 24 15
-119.478533667084 121.324266316379 2697.29263708207 20 23 14
-175.041058811271 123.676314557736 2745.95491174987 16 19 10
-144.552872749685 121.08801701833 2702.58168525881 16 19 10
-149.850143171612 120.556095459398 2697.50384996385 20 23 14
-176.277573071921 121.266839046638 2715.40339126539 22 25 16
173.203987917294 129.815546720606 2806.99175651612 21 23 20
151.602433925989 130.011624003751 2816.03582164404 2 4 0
130.917888091956 129.389342212125 2814.6245817882 10 12 7
98.115742120191 129.352326326339 2824.1937634526 12 14 9
88.2699069502793 129.032796190899 2823.23046103431 12 14 9
91.3437134711756 128.095308133479 2810.63236295928 11 14 7
58.8059648421497 128.875380273913 2830.27852707654 11 14 7
37.7362981479124 129.115860723831 2839.70839356793 10 13 6
6.22339491565649 129.881629393605 2858.86208642847 11 14 7
