ply
format ascii 1.0
comment KinectMotionCapture
element vertex 804
property float x
property float y
property float z
property uchar red
property uchar green
property uchar blue
end_header
-24.181354790926 151.98627114296 2667.99998283386 8 10 5
-16.9107634574175 152.100786566734 2670.00007629395 10 13 6
-9.66882519423962 152.841746807098 2683.00008773804 11 14 7
-2.36198562197387 153.981238603592 2703.00006866455 12 15 8
19.5113252848387 151.929706335068 2667.00005531311 10 13 4
26.892276480794 152.498707175255 2677.00004577637 11 14 5
34.4043672084808 153.409287333488 2693.00007820129 11 14 5
41.7090766131878 153.23731303215 2690.00005722046 13 14 8
49.4895726442337 154.60316836834 2713.99998664856 16 19 12
56.5623044967651 153.690204024315 2697.99995422363 15 18 11
63.2157549262047 151.979595422745 2667.99998283386 19 22 15
70.127934217453 151.180177927017 2654.00004386902 19 22 15
77.6922404766083 151.80467069149 2664.99996185303 19 22 15
85.443802177906 152.65679359436 2680.0000667572 18 21 14
93.0346101522446 153.109937906265 2687.99996376038 15 20 13
101.751558482647 155.214697122574 2724.99990463257 14 19 12
108.907006680965 154.81299161911 2717.99993515015 14 19 12
115.59584736824 153.841555118561 2700.99997520447 15 20 13
123.784869909286 154.863402247429 2719.00010108948 15 21 11
129.514113068581 152.866378426552 2684.00001525879 17 23 13
138.773575425148 155.026838183403 2721.99988365173 17 23 13
144.157841801643 152.858674526215 2684.00001525879 17 23 13
155.034452676773 156.442403793335 2746.99997901917 20 23 16
162.704199552536 156.608805060387 2750 21 24 17
-229.719340801239 150.527089834213 2776.99995040894 4 7 0
-219.111695885658 148.473128676414 2739.00008201599 23 26 19
-211.18301153183 148.153513669968 2733.00004005432 16 19 12
-203.95715534687 148.321598768234 2736.00006103516 17 20 11
-197.073236107826 148.760586977005 2743.99995803833 18 21 12
-189.592182636261 148.765683174133 2743.99995803833 18 21 12
-181.247621774673 148.065805435181 2730.99994659424 18 21 12
-174.564272165298 148.721128702164 2743.00003051758 17 20 11
-165.560990571976 147.370174527168 2717.99993515015 15 18 9
-155.820608139038 145.20563185215 2677.99997329712 15 18 9
-149.680763483047 146.348387002945 2698.99988174438 15 18 9
-141.896590590477 145.918488502502 2690.99998474121 15 18 9
-135.055512189865 146.464452147484 2700.99997520447 13 16 7
-127.497524023056 146.25109732151 2697.00002670288 13 16 7
-120.272643864155 146.417111158371 2700.00004768372 13 16 7
-112.696386873722 146.149098873138 2694.9999332428 12 15 6
-104.912422597408 145.55549621582 2684.00001525879 12 15 6
-97.478948533535 145.395547151566 2680.99999427795 13 16 7
-89.9269133806229 145.018458366394 2674.00002479553 14 17 10
-83.3088755607605 146.213948726654 2696.00009918213 12 15 8
-75.6689012050629 145.673751831055 2686.00010871887 12 15 8
-67.8796693682671 144.699469208717 2667.99998283386 11 14 7
-61.1196346580982 145.948633551598 2690.99998474121 10 12 7
-54.0339685976505 146.655261516571 2703.9999961853 9 11 6
-47.2566820681095 148.55495095253 2739.00008201599 9 11 6
-39.6345593035221 148.013770580292 2729.00009155273 8 10 5
-31.9843105971813 147.092685103416 2711.99989318848 8 10 5
-24.5173871517181 146.713778376579 2704.99992370605 9 11 6
-16.7782250791788 143.67701113224 2648.9999294281 10 13 6
-9.52854473143816 143.406182527542 2644.00005340576 11 14 7
-2.31224135495722 143.514826893806 2645.99990844727 12 15 8
4.99109271913767 145.847037434578 2688.99989128113 11 14 7
12.2402599081397 144.762024283409 2668.99991035461 10 13 4
19.4240752607584 144.00227367878 2654.99997138977 10 13 4
27.2546820342541 147.147431969643 2713.00005912781 10 13 4
34.7630493342876 147.580489516258 2720.99995613098 12 15 6
42.2529354691505 147.796407341957 2724.99990463257 13 14 8
49.5274253189564 147.307023406029 2716.00008010864 15 18 11
56.2494099140167 145.515784621239 2683.00008773804 15 18 11
62.7199187874794 143.561661243439 2647.0000743866 18 21 14
70.024199783802 143.72256398201 2650.00009536743 18 21 14
77.4320214986801 144.0459638834 2655.99989891052 15 18 11
85.6693536043167 145.7249969244 2687.00003623962 15 18 11
93.002587556839 145.722597837448 2687.00003623962 13 18 11
100.522123277187 145.991116762161 2691.99991226196 13 18 11
108.549408614635 146.910235285759 2709.00011062622 13 18 11
115.213848650455 145.985290408134 2691.99991226196 14 19 12
122.331403195858 145.710960030556 2687.00003623962 15 21 11
131.785690784454 148.093551397324 2730.99994659424 17 23 13
138.114616274834 146.896958351135 2709.00011062622 18 24 14
145.1286226511 146.51358127594 2701.99990272522 18 24 14
155.490219593048 149.383425712585 2755.00011444092 22 25 18
163.891986012459 150.192469358444 2769.99998092651 23 26 19
-219.597280025482 141.312524676323 2744.99988555908 22 25 18
-210.570231080055 140.28824865818 2724.99990463257 15 18 11
-203.440576791763 140.499368309975 2729.00009155273 17 20 11
-197.078302502632 141.276657581329 2743.99995803833 17 20 11
-188.906133174896 140.766650438309 2733.99996757507 17 20 11
-183.442458510399 142.315983772278 2763.99993896484 17 20 11
-175.396144390106 141.908600926399 2756.00004196167 17 20 11
-166.052594780922 140.368178486824 2726.0000705719 16 19 10
-158.384889364243 140.166312456131 2721.99988365173 16 19 10
-150.738403201103 139.964267611504 2717.99993515015 15 18 9
-143.482238054276 140.122503042221 2720.99995613098 15 18 9
-135.70910692215 139.765590429306 2713.99998664856 12 15 6
-128.493636846542 139.974966645241 2717.99993515015 12 15 6
-120.18670886755 138.948142528534 2697.99995422363 12 15 6
-113.326624035835 139.569163322449 2710.00003814697 11 14 5
-97.8814736008644 138.647526502609 2691.99991226196 11 14 5
-90.2992337942123 138.28943669796 2684.99994277954 12 15 8
-83.187460899353 138.652190566063 2691.99991226196 12 15 8
-75.1919746398926 137.469619512558 2668.99991035461 12 15 8
-68.5938745737076 138.862147927284 2696.00009918213 11 14 7
-60.9622672200203 138.245731592178 2684.00001525879 11 13 8
-55.0745464861393 141.9557929039 2756.00004196167 10 12 7
-47.7065294981003 142.420694231987 2765.00010490417 10 12 7
-39.8825220763683 141.443178057671 2746.00005149841 10 12 7
-32.5040966272354 141.959190368652 2756.00004196167 9 11 6
-24.5180390775204 139.332950115204 2704.99992370605 9 11 6
-16.8230105191469 136.809527873993 2655.99989891052 10 13 6
-9.48194786906242 135.522127151489 2631.00004196167 11 14 7
-2.31142900884151 136.243417859077 2644.99998092651 11 14 7
4.94667747989297 137.273564934731 2664.99996185303 11 14 7
12.4377924948931 139.694288372993 2711.99989318848 10 13 4
20.1781634241343 142.063319683075 2757.99989700317 10 13 4
27.4965185672045 140.981018543243 2736.99998855591 11 14 5
34.878958016634 140.61963558197 2730.00001907349 12 15 6
42.1765297651291 140.103563666344 2720.00002861023 13 14 8
49.1822548210621 138.917684555054 2697.00002670288 15 18 11
56.6073171794415 139.070838689804 2700.00004768372 14 17 10
63.4324476122856 137.884616851807 2677.00004577637 17 20 13
70.3959986567497 137.213289737701 2664.00003433228 17 20 13
77.6673033833504 137.211367487907 2664.00003433228 14 17 10
85.4484289884567 138.033360242844 2680.0000667572 14 17 10
93.0742621421814 138.494580984116 2688.99989128113 12 17 10
101.3463139534 139.779701828957 2713.99998664856 13 18 11
107.991263270378 138.798445463181 2694.9999332428 14 19 12
115.259684622288 138.692587614059 2693.00007820129 15 20 13
123.746000230312 139.977023005486 2717.99993515015 14 20 10
131.933897733688 140.79774916172 2733.99996757507 17 23 13
139.239877462387 140.639781951904 2730.99994659424 18 24 14
146.958649158478 140.893623232841 2736.00006103516 18 24 14
156.115099787712 142.434626817703 2766.00003242493 21 24 17
165.671288967133 144.181340932846 2799.99995231628 23 26 19
-220.882594585419 134.606152772903 2760.99991798401 19 22 15
-212.352693080902 133.977487683296 2747.99990653992 17 20 13
-204.563766717911 133.787408471107 2743.99995803833 16 19 10
-197.08314538002 133.792191743851 2743.99995803833 16 19 10
-188.357993960381 132.919132709503 2726.0000705719 16 19 10
-182.252332568169 133.89877974987 2746.00005149841 15 18 9
-175.400465726852 134.39068198204 2756.00004196167 15 18 9
-167.214095592499 133.858367800713 2744.99988555908 14 17 8
-158.44701230526 132.789477705956 2723.00004959106 15 18 9
-150.575757026672 132.403075695038 2714.99991416931 15 18 9
-143.116682767868 132.357850670815 2713.99998664856 15 18 9
-135.462462902069 132.117390632629 2709.00011062622 14 17 8
-127.504050731659 131.535321474075 2697.00002670288 14 17 8
-119.254216551781 130.562901496887 2677.00004577637 15 18 9
-112.660355865955 131.394848227501 2694.00000572205 13 16 7
-106.442324817181 132.811948657036 2723.00004959106 12 15 6
-98.5384359955788 132.180392742157 2710.00003814697 13 16 7
-90.9741446375847 131.938815116882 2704.99992370605 14 17 10
-83.9003100991249 132.428705692291 2714.99991416931 9 12 5
-76.4334797859192 132.333129644394 2713.00005912781 9 12 5
-68.7991455197334 131.895899772644 2703.9999961853 9 12 5
-61.6906434297562 132.482841610909 2716.00008010864 9 11 6
-54.9960024654865 134.240329265594 2752.00009346008 9 11 6
-47.7767512202263 135.070830583572 2769.00005340576 9 11 6
-40.101382881403 134.681656956673 2760.99991798401 12 14 9
-32.174676656723 133.072823286057 2727.9999256134 10 12 7
-24.5911739766598 132.341802120209 2713.00005912781 10 12 7
-17.0958023518324 131.659388542175 2698.99988174438 10 13 6
-9.71644930541515 131.513386964798 2696.00009918213 10 13 6
-2.32110032811761 129.56228852272 2655.99989891052 11 14 7
4.95051499456167 130.098834633827 2667.00005531311 10 13 6
12.5619396567345 133.610874414444 2739.00008201599 10 13 4
20.2225707471371 134.829968214035 2763.99993896484 10 13 4
27.5273509323597 133.658647537231 2740.00000953674 11 14 5
34.8287373781204 132.974952459335 2726.0000705719 13 16 7
41.7434126138687 131.315499544144 2691.99991226196 13 14 6
49.1652563214302 131.509497761726 2696.00009918213 15 18 9
56.7764677107334 132.093533873558 2707.99994468689 14 17 8
64.1686171293259 132.0920586586 2707.99994468689 17 20 11
71.2698101997375 131.553843617439 2697.00002670288 16 19 10
78.3981308341026 131.161779165268 2688.99989128113 15 18 9
85.8013033866882 131.257340312004 2690.99998474121 15 18 9
93.941941857338 132.376983761787 2713.99998664856 13 19 9
101.386189460754 132.423385977745 2714.99991416931 14 20 10
108.354613184929 131.884291768074 2703.9999961853 14 20 10
114.791758358479 130.808562040329 2681.99992179871 16 22 12
123.248256742954 132.024988532066 2707.00001716614 15 21 11
131.068557500839 132.460832595825 2716.00008010864 17 23 13
135.521367192268 129.62894141674 2657.99999237061 17 23 13
145.888015627861 132.454127073288 2716.00008010864 18 24 14
165.024533867836 136.006608605385 2789.00003433228 22 25 18
-231.638744473457 128.865480422974 2799.99995231628 7 10 3
-221.607714891434 127.489805221558 2769.99998092651 17 20 13
-213.903114199638 127.402633428574 2767.99988746643 15 18 11
-205.761313438416 127.03911960125 2759.99999046326 17 20 11
-196.441277861595 125.892907381058 2734.99989509583 17 20 11
-188.085973262787 125.298842787743 2721.99988365173 19 22 13
-180.3317964077 125.072836875916 2717.00000762939 18 21 12
-174.06801879406 125.905469059944 2734.99989509583 16 19 10
-168.740943074226 127.520620822906 2769.99998092651 13 16 7
-159.730896353722 126.373425126076 2744.99988555908 12 15 6
-151.023000478745 125.364124774933 2723.00004959106 12 15 6
-142.276301980019 124.216474592686 2697.99995422363 13 16 7
-135.11560857296 124.403826892376 2701.99990272522 15 18 9
-127.790719270706 124.452888965607 2703.00006866455 16 19 10
-119.524322450161 123.534858226776 2683.00008773804 17 20 11
-112.663015723228 124.044008553028 2694.00000572205 17 20 11
-106.718480587006 125.704154372215 2730.00001907349 16 19 10
-99.1952791810036 125.614449381828 2727.9999256134 15 18 9
-91.2117287516594 124.879889190197 2711.99989318848 15 18 11
-83.3460539579391 124.19119477272 2697.00002670288 11 14 7
-76.4071270823479 124.883778393269 2711.99989318848 11 14 7
-68.3682337403297 123.73423576355 2687.00003623962 11 14 7
-61.2832605838776 124.242275953293 2697.99995422363 11 13 8
-54.7375194728374 126.131683588028 2739.00008201599 11 13 8
-47.2947657108307 126.224964857101 2740.9999370575 11 13 8
-39.2889715731144 124.56813454628 2704.99992370605 10 12 7
-31.6918753087521 123.740047216415 2687.00003623962 10 12 7
-17.2419007867575 125.35297870636 2721.99988365173 7 10 3
-2.37446581013501 125.123172998428 2717.00000762939 10 13 6
4.96548367664218 123.188965022564 2674.99995231628 10 13 6
12.3512642458081 124.017715454102 2693.00007820129 9 12 3
19.871860742569 125.07651746273 2716.00008010864 10 13 4
27.4878200143576 125.996991991997 2736.00006103516 13 16 7
34.3057215213776 123.647660017014 2684.99994277954 17 20 11
41.713397949934 123.87703359127 2690.00005722046 14 15 7
48.9658303558826 123.645730316639 2684.99994277954 15 18 9
56.9665320217609 125.118106603622 2717.00000762939 16 19 10
64.2412304878235 124.840386211872 2710.99996566772 16 19 10
71.6943442821503 124.930933117867 2713.00005912781 15 18 9
78.7790268659592 124.422639608383 2701.99990272522 15 18 9
86.4410549402237 124.835170805454 2710.99996566772 15 18 9
93.9787849783897 125.017255544662 2714.99991416931 14 20 10
101.948745548725 125.705704092979 2730.00001907349 15 21 11
108.918197453022 125.150710344315 2717.99993515015 16 22 12
115.736119449139 124.503515660763 2703.9999961853 17 23 13
122.750334441662 124.132417142391 2696.00009918213 15 21 11
130.009934306145 124.037437140942 2694.00000572205 18 24 14
136.442333459854 123.20564687252 2676.00011825562 17 23 13
142.93709397316 122.511841356754 2661.00001335144 16 22 12
154.768005013466 126.237601041794 2742.00010299683 19 22 15
-230.733752250671 120.752096176147 2789.00003433228 15 18 11
-220.252454280853 119.198143482208 2753.00002098084 20 23 16
-213.675945997238 119.722306728363 2765.00010490417 16 19 12
-203.752905130386 118.341110646725 2733.00004005432 17 20 11
-195.870980620384 118.085540831089 2726.99999809265 17 20 11
-187.951907515526 117.78649687767 2720.00002861023 18 21 12
-179.93751168251 117.400676012039 2710.99996566772 18 21 12
-174.899250268936 119.006782770157 2747.99990653992 16 19 10
-167.038962244987 118.750602006912 2742.00010299683 15 18 9
-160.37455201149 119.36043202877 2756.00004196167 15 18 9
-151.858285069466 118.584200739861 2737.99991607666 15 18 9
-143.334165215492 117.721155285835 2717.99993515015 15 18 9
-134.668558835983 116.641364991665 2693.00007820129 13 16 7
-127.651736140251 116.947375237942 2700.00004768372 13 16 7
-120.195239782333 116.863436996937 2697.99995422363 15 18 9
-113.37648332119 117.429055273533 2710.99996566772 15 18 9
-106.525413691998 118.03787201643 2724.99990463257 14 17 8
-99.7065901756287 118.776507675648 2742.00010299683 14 17 8
-91.3819447159767 117.695644497871 2717.00000762939 13 16 9
-83.4406390786171 116.961136460304 2700.00004768372 13 16 9
-76.4088332653046 117.48269200325 2711.99989318848 12 15 8
-68.4715509414673 116.574570536613 2690.99998474121 11 14 7
-61.5572221577168 117.399081587791 2710.00003814697 10 12 7
-54.3990060687065 117.920190095901 2721.99988365173 9 11 6
-47.7444641292095 119.870766997337 2766.99995994568 9 11 6
-40.0161072611809 119.351893663406 2755.00011444092 4 6 1
-31.5628461539745 115.930214524269 2676.00011825562 7 9 4
-24.8551927506924 118.790112435818 2742.00010299683 7 9 4
-17.0079171657562 116.321176290512 2684.99994277954 7 10 3
-9.90792363882065 119.094125926495 2749.00007247925 9 12 5
-2.40161176770926 119.050934910774 2747.99990653992 11 14 7
5.08254254236817 118.617683649063 2737.99991607666 10 13 6
12.6634258776903 119.613900780678 2760.99991798401 10 13 4
19.8649931699038 117.620714008808 2714.99991416931 11 14 5
26.6444999724627 114.89088088274 2651.99995040894 13 16 7
34.4725996255875 116.883046925068 2697.99995422363 15 18 9
41.8228916823864 116.838894784451 2697.00002670288 14 15 7
49.0581169724464 116.534642875195 2690.00005722046 15 18 9
56.4226657152176 116.576805710793 2690.99998474121 16 19 10
63.6502578854561 116.358883678913 2686.00010871887 16 19 10
71.0617005825043 116.487368941307 2688.99989128113 15 18 9
78.4892365336418 116.615705192089 2691.99991226196 15 18 9
87.3358100652695 118.649892508984 2739.00008201599 16 19 10
94.0155237913132 117.651596665382 2716.00008010864 14 20 10
101.241484284401 117.43288487196 2710.99996566772 16 22 12
108.800418674946 117.603868246078 2714.99991416931 16 22 12
116.551950573921 117.947958409786 2723.00004959106 17 23 13
123.891368508339 117.858715355396 2720.99995613098 16 22 12
130.640223622322 117.249563336372 2707.00001716614 18 24 14
138.943806290627 118.026301264763 2724.99990463257 17 23 13
146.646708250046 118.239775300026 2730.00001907349 16 22 12
152.23141014576 116.80730432272 2697.00002670288 19 22 15
-229.001075029373 112.292520701885 2767.99988746643 14 17 10
-221.217036247253 112.175263464451 2765.00010490417 19 22 15
-212.212011218071 111.408717930317 2746.00005149841 16 19 12
-203.682526946068 110.844820737839 2732.00011253357 17 20 11
-198.173493146896 111.944302916527 2759.0000629425 17 20 11
-189.89060819149 111.501842737198 2747.99990653992 17 20 11
-182.928085327148 111.830189824104 2756.00004196167 18 21 12
-175.539344549179 111.914932727814 2757.99989700317 16 19 10
-167.956218123436 111.877799034119 2756.99996948242 14 17 8
-159.504979848862 111.231811344624 2740.9999370575 15 18 9
-153.52538228035 112.330667674541 2767.99988746643 16 19 10
-144.233658909798 110.994450747967 2734.99989509583 15 18 9
-136.371642351151 110.672622919083 2726.99999809265 13 16 7
-128.079921007156 109.94479060173 2709.00011062622 12 15 6
-120.598718523979 109.866134822369 2707.00001716614 14 17 8
-113.96437138319 110.599063336849 2724.99990463257 14 17 8
-105.980359017849 110.033094882965 2710.99996566772 13 16 7
-98.7996011972427 110.278718173504 2717.00000762939 12 15 6
-90.8121019601822 109.590649604797 2700.00004768372 12 15 8
-83.6278349161148 109.835967421532 2706.00008964539 14 17 10
-76.9457817077637 110.852353274822 2730.99994659424 13 16 9
-70.1778158545494 111.949801445007 2757.99989700317 12 15 8
-61.5130960941315 109.921611845493 2707.99994468689 10 12 7
-55.1196299493313 111.952371895313 2757.99989700317 8 10 5
-47.7282181382179 112.278170883656 2766.00003242493 7 9 4
-40.1041060686111 112.076111137867 2760.99991798401 5 7 2
-32.3419906198978 111.305609345436 2742.00010299683 10 12 7
-24.5656464248896 110.007211565971 2710.00003814697 11 13 8
-17.1476397663355 109.885863959789 2707.00001716614 10 13 6
-9.85767412930727 111.022740602493 2734.99989509583 10 13 6
5.09564485400915 111.428767442703 2744.99988555908 9 12 5
12.475642375648 110.413759946823 2720.00002861023 13 16 7
19.7337102144957 109.479792416096 2697.00002670288 15 18 9
26.7053470015526 107.8961789608 2657.99999237061 16 19 10
34.5755517482758 109.844014048576 2706.00008964539 16 19 10
42.1804487705231 110.411517322063 2720.00002861023 16 17 9
49.5880506932735 110.369987785816 2719.00010108948 16 19 10
56.2980584800243 108.988769352436 2684.99994277954 17 20 11
63.5331198573112 108.825176954269 2680.99999427795 17 20 11
70.9839314222336 109.026752412319 2686.00010871887 16 19 10
78.4908905625343 109.268754720688 2691.99991226196 17 20 11
85.6795459985733 109.064131975174 2687.00003623962 17 20 11
92.9097905755043 108.940549194813 2684.00001525879 16 22 12
100.384667515755 109.100922942162 2687.99996376038 17 23 13
108.562275767326 109.95114594698 2709.00011062622 17 23 13
116.554401814938 110.517054796219 2723.00004959106 17 23 13
125.168889760971 111.569844186306 2749.00007247925 18 24 14
132.959499955177 111.810736358166 2755.00011444092 17 23 13
139.15066421032 110.752791166306 2729.00009155273 17 23 13
144.393622875214 109.086006879807 2687.99996376038 17 23 13
-229.419127106667 104.930952191353 2773.00000190735 11 14 7
-220.021143555641 104.064747691154 2750 20 23 16
-214.766383171082 105.16619682312 2779.00004386902 20 23 16
-209.650903940201 106.41898214817 2812.00003623962 19 22 13
-201.409637928009 106.120020151138 2803.99990081787 17 20 11
-191.207215189934 104.723364114761 2766.99995994568 17 20 11
-183.396279811859 104.575477540493 2763.00001144409 17 20 11
-176.624774932861 105.03301769495 2775.00009536743 16 19 10
-168.142229318619 104.468494653702 2759.99999046326 12 15 6
-159.100741147995 103.487439453602 2733.99996757507 13 16 7
-151.254296302795 103.225395083427 2726.99999809265 15 18 9
-144.552916288376 103.758133947849 2740.9999370575 15 18 9
-136.674359440804 103.457950055599 2733.00004005432 13 16 7
-128.697067499161 103.044055402279 2721.99988365173 12 15 6
-121.625773608685 103.349283337593 2730.00001907349 13 16 7
-113.046534359455 102.32937335968 2703.00006866455 13 16 7
-106.412470340729 103.050753474236 2721.99988365173 12 15 6
-99.0197360515594 103.090569376945 2723.00004959106 12 15 6
-92.0583680272102 103.622421622276 2736.99998855591 11 14 7
-84.4948291778564 103.510528802872 2733.99996757507 12 15 8
-77.7080431580544 104.420736432076 2757.99989700317 12 15 8
-70.8153620362282 105.368696153164 2782.99999237061 11 14 7
-62.6500993967056 104.42341864109 2757.99989700317 10 12 7
-54.8809021711349 103.970214724541 2746.00005149841 9 11 6
-39.8434400558472 103.858426213264 2743.00003051758 3 5 0
-32.2364754974842 103.480488061905 2733.00004005432 8 10 5
-24.5842654258013 102.685913443565 2711.99989318848 9 11 6
-17.1986576169729 102.799907326698 2714.99991416931 8 11 4
-9.7100930288434 102.005019783974 2694.00000572205 8 11 4
-2.38073500804603 103.14104706049 2723.99997711182 11 14 7
5.09203365072608 103.860437870026 2743.00003051758 12 15 8
12.5034116208553 103.216588497162 2726.0000705719 16 19 10
19.7780057787895 102.345407009125 2703.00006866455 17 20 11
27.0474888384342 101.92845761776 2691.99991226196 16 19 10
34.7806811332703 103.063762187958 2721.99988365173 16 19 10
42.5999984145164 104.009598493576 2746.99997901917 17 18 10
49.6255122125149 103.024289011955 2720.99995613098 17 20 11
56.6136948764324 102.228157222271 2700.00004768372 18 21 12
63.8424605131149 101.999834179878 2694.00000572205 17 20 11
71.2231770157814 102.036386728287 2694.9999332428 16 19 10
78.11339199543 101.429179310799 2678.99990081787 17 20 11
84.94783192873 100.859723985195 2664.00003433228 18 21 12
92.2538936138153 100.895881652832 2664.99996185303 16 22 12
100.050523877144 101.42407566309 2678.99990081787 16 22 12
108.243800699711 102.254994213581 2700.99997520447 17 23 13
116.043031215668 102.631434798241 2710.99996566772 17 23 13
124.306201934814 103.348448872566 2730.00001907349 18 24 14
132.286429405212 103.762418031693 2740.9999370575 17 23 13
139.867261052132 103.835560381413 2743.00003051758 17 23 13
142.946034669876 100.728839635849 2661.00001335144 18 24 14
152.124658226967 102.013073861599 2694.9999332428 20 23 16
165.03868997097 105.568200349808 2789.00003433228 20 23 16
-221.465229988098 97.1943959593773 2767.99988746643 19 22 15
-213.688224554062 97.0927849411964 2765.00010490417 19 22 15
-208.31261575222 98.1147736310959 2793.99991035461 19 22 13
-197.893559932709 96.7487245798111 2755.00011444092 17 20 11
-190.519630908966 96.8223139643669 2756.99996948242 16 19 10
-183.001294732094 96.8255624175072 2756.99996948242 17 20 11
-177.009865641594 97.6715758442879 2780.99989891052 16 19 10
-169.120043516159 97.4989831447601 2776.00002288818 15 18 9
-160.500288009644 96.8696549534798 2757.99989700317 15 18 9
-153.087437152863 96.9426408410072 2759.99999046326 14 17 8
-145.399361848831 96.8398898839951 2756.99996948242 13 16 7
-136.27678155899 95.7183465361595 2724.99990463257 13 16 7
-128.557592630386 95.5099165439606 2719.00010108948 13 16 7
-121.227018535137 95.5823659896851 2720.99995613098 13 16 7
-114.303298294544 96.0059762001038 2733.00004005432 12 15 6
-106.961749494076 96.1133241653442 2736.00006103516 12 15 6
-100.476153194904 97.0636606216431 2763.00001144409 11 14 5
-92.0600667595863 96.1519852280617 2736.99998855591 11 14 7
-84.681823849678 96.2589532136917 2740.00000953674 11 14 7
-77.0332589745522 96.0495918989182 2733.99996757507 11 14 7
-69.7479322552681 96.2968170642853 2740.9999370575 10 13 6
-62.6966878771782 96.9655066728592 2759.99999046326 9 11 6
-54.8619255423546 96.4395627379417 2744.99988555908 9 11 6
-47.4021881818771 96.5107381343842 2746.99997901917 8 10 5
-39.6843999624252 95.9845185279846 2732.00011253357 5 7 2
-31.9421850144863 95.1419472694397 2707.99994468689 8 10 5
-24.9291956424713 96.618078649044 2750 9 11 6
-16.9772580265999 94.1590815782547 2680.0000667572 11 14 7
-9.68504138290882 94.4052487611771 2687.00003623962 12 15 8
-2.36679520457983 95.1431766152382 2707.99994468689 16 19 12
5.09027205407619 96.3377133011818 2742.00010299683 16 19 12
12.5174056738615 95.8808213472366 2729.00009155273 17 20 11
19.8003258556128 95.0724557042122 2706.00008964539 17 20 11
27.2087529301643 95.1422899961472 2707.99994468689 16 19 10
34.7940996289253 95.6687480211258 2723.00004959106 16 19 10
42.2906242311001 95.8085879683495 2726.99999809265 18 20 9
49.5717152953148 95.4915732145309 2717.99993515015 18 21 10
56.7195825278759 95.0338840484619 2704.99992370605 19 22 11
63.8673305511475 94.6814939379692 2694.9999332428 18 21 10
71.3302120566368 94.8208197951317 2698.99988174438 16 19 8
78.6688476800919 94.7843641042709 2697.99995422363 17 20 9
85.6190398335457 94.3262055516243 2684.99994277954 17 20 9
93.1210294365883 94.5002660155296 2690.00005722046 15 21 9
101.434223353863 95.4119265079498 2716.00008010864 15 21 9
108.446173369884 95.0587764382362 2706.00008964539 15 21 9
115.873947739601 95.0919166207314 2707.00001716614 16 22 10
123.215653002262 95.0546786189079 2706.00008964539 16 22 12
131.323590874672 95.5793485045433 2720.99995613098 18 24 14
138.442039489746 95.3662097454071 2714.99991416931 20 26 16
145.903244614601 95.3988507390022 2716.00008010864 21 27 17
154.159545898438 95.9230735898018 2730.99994659424 20 23 16
-229.261472821236 89.7361114621162 2770.99990844727 12 15 8
-219.468608498573 88.8328924775124 2743.00003051758 18 21 14
-212.918922305107 89.2249420285225 2755.00011444092 17 20 13
-204.066231846809 88.6452868580818 2736.99998855591 18 21 12
-197.178512811661 88.9075845479965 2744.99988555908 17 20 11
-187.758609652519 88.0037695169449 2717.00000762939 17 20 11
-181.942313909531 88.7840986251831 2740.9999370575 17 20 11
-175.676167011261 89.4024223089218 2759.99999046326 16 19 10
-168.8182502985 89.76149559021 2770.99990844727 18 21 12
-160.677582025528 89.44021910429 2760.99991798401 17 20 11
-153.034567832947 89.3779620528221 2759.0000629425 14 17 8
-145.454555749893 89.3479883670807 2757.99989700317 13 16 7
-137.87941634655 89.3178880214691 2756.99996948242 13 16 7
-129.647254943848 88.8341069221497 2742.00010299683 13 16 7
-121.451854705811 88.3177816867828 2726.0000705719 13 16 7
-113.887004554272 88.2225036621094 2723.00004959106 12 15 6
-106.963574886322 88.6454954743385 2736.00006103516 12 15 6
-92.4316346645355 89.0375524759293 2747.99990653992 11 14 7
-84.6523642539978 88.7473970651627 2739.00008201599 12 15 8
-76.555572450161 88.0358815193176 2717.00000762939 11 14 7
-68.9093843102455 87.7454578876495 2707.99994468689 10 13 6
-60.971312224865 86.968868970871 2684.00001525879 9 11 6
-55.4025061428547 89.8212864995003 2772.0000743866 8 10 5
-47.6100780069828 89.4008874893188 2759.0000629425 7 9 4
-39.5398177206516 88.202677667141 2721.99988365173 6 8 3
-31.9899171590805 87.8792256116867 2711.99989318848 8 10 5
-24.5760772377253 87.8472775220871 2710.99996566772 7 9 4
-17.4653362482786 89.3382132053375 2756.99996948242 7 10 3
-9.76090133190155 87.7506285905838 2707.99994468689 8 11 4
-2.38344212993979 88.3664265275002 2726.99999809265 13 16 9
5.04209194332361 88.0099460482597 2716.00008010864 13 16 9
12.5084463506937 88.3662477135658 2726.99999809265 15 18 9
19.8006667196751 87.6855030655861 2706.00008964539 17 20 11
27.1690301597118 87.620310485363 2703.9999961853 19 22 13
34.6669182181358 87.9114344716072 2713.00005912781 20 23 14
41.9501662254334 87.6515731215477 2704.99992370605 19 21 10
49.3901781737804 87.7480283379555 2707.99994468689 19 22 11
56.3640855252743 87.099090218544 2687.99996376038 19 22 11
64.0817135572433 87.616540491581 2703.9999961853 18 21 10
71.648582816124 87.8422558307648 2710.99996566772 17 20 9
79.3116837739944 88.1326273083687 2720.00002861023 17 20 9
86.5452662110329 87.9368558526039 2713.99998664856 17 20 9
94.784289598465 88.7129977345467 2737.99991607666 15 21 9
101.95879638195 88.4521827101707 2730.00001907349 15 21 9
109.530091285706 88.5476693511009 2733.00004005432 15 21 9
116.64642393589 88.2866159081459 2724.99990463257 15 21 9
122.580237686634 87.2155278921127 2691.99991226196 15 21 11
130.698382854462 87.7318233251572 2707.99994468689 18 24 14
138.801321387291 88.18319439888 2721.99988365173 21 27 17
146.980106830597 88.6344313621521 2736.00006103516 21 27 17
-228.106617927551 81.7608088254929 2756.99996948242 12 15 8
-220.912143588066 81.8826779723167 2760.99991798401 17 20 13
-214.854300022125 82.4493393301964 2779.99997138977 16 19 10
-208.021014928818 82.7490091323853 2789.99996185303 16 17 9
-198.330864310265 81.8918496370316 2760.99991798401 19 20 12
-188.521638512611 80.9158757328987 2727.9999256134 17 18 10
-180.35201728344 80.5923044681549 2717.00000762939 16 17 9
-175.678879022598 81.8704217672348 2759.99999046326 17 18 10
-169.003650546074 82.2882577776909 2773.9999294281 19 20 12
-160.796463489532 81.9643810391426 2763.00001144409 19 20 12
-152.315840125084 81.4623907208443 2746.00005149841 17 18 12
-145.034894347191 81.5832614898682 2750 16 17 11
-138.981834053993 82.4457183480263 2779.00004386902 15 16 10
-131.824284791946 82.71474391222 2788.00010681152 14 15 9
-123.102247714996 81.9749310612679 2763.00001144409 14 17 10
-113.219581544399 80.3152248263359 2707.00001716614 14 17 10
-105.401426553726 79.990491271019 2696.00009918213 14 17 10
-98.9520624279976 80.7337760925293 2720.99995613098 14 17 10
-91.5921777486801 80.794557929039 2723.00004959106 13 16 9
-84.8082304000854 81.418976187706 2743.99995803833 13 15 10
-76.9230723381042 81.0047835111618 2730.00001907349 12 14 9
-68.4269741177559 79.7893106937408 2688.99989128113 10 12 7
-55.6232295930386 82.5804322957993 2782.99999237061 8 10 5
-47.0241047441959 80.8601453900337 2724.99990463257 8 10 5
-39.7728569805622 81.2465623021126 2737.99991607666 7 9 4
-32.1673564612865 80.9206962585449 2726.99999809265 12 14 9
-24.6580559760332 80.7134136557579 2720.00002861023 7 9 4
-17.2438882291317 80.7730704545975 2721.99988365173 8 11 4
-9.76466108113527 80.3875178098679 2709.00011062622 13 16 9
-2.38959770649672 81.1294540762901 2733.99996757507 10 13 6
5.10157831013203 81.5448760986328 2747.99990653992 9 12 5
12.522405013442 81.0106098651886 2730.00001907349 8 11 2
19.7717063128948 80.1794826984406 2701.99990272522 8 11 2
27.0187389105558 79.7933712601662 2688.99989128113 9 12 3
34.2968925833702 79.644538462162 2684.00001525879 10 13 4
42.0593842864037 80.4748237133026 2711.99989318848 16 17 9
49.5915859937668 80.6818529963493 2719.00010108948 17 18 10
56.7843541502953 80.3546383976936 2707.99994468689 17 18 10
63.8220310211182 79.9086391925812 2693.00007820129 16 17 9
72.0725804567337 80.9164866805077 2726.99999809265 15 16 8
79.6628370881081 81.0637027025223 2732.00011253357 15 18 9
87.5670835375786 81.4778581261635 2746.00005149841 15 18 9
95.2358096837997 81.6248282790184 2750.99992752075 16 19 10
102.520622313023 81.4453288912773 2744.99988555908 17 20 11
109.611950814724 81.1470374464989 2734.99989509583 17 20 11
116.348594427109 80.6409642100334 2717.99993515015 16 19 10
123.993769288063 80.7875171303749 2723.00004959106 22 25 16
130.266025662422 80.0735726952553 2698.99988174438 26 29 20
138.497546315193 80.5759429931641 2716.00008010864 17 20 11
148.110553622246 81.7901417613029 2756.99996948242 23 26 17
156.309619545937 82.1438729763031 2769.00005340576 19 22 15
-228.606224060059 74.4001194834709 2763.00001144409 10 13 6
-222.035393118858 74.7262239456177 2775.00009536743 17 20 13
-215.16640484333 74.9714523553848 2783.99991989136 15 18 9
-207.501977682114 74.9473348259926 2782.99999237061 17 18 10
-199.411138892174 74.7615173459053 2776.00002288818 18 19 11
-189.146250486374 73.7137570977211 2736.99998855591 17 18 10
-180.089026689529 73.069840669632 2713.00005912781 15 16 8
-174.599260091782 73.8802254199982 2743.00003051758 16 17 9
-168.518632650375 74.5020136237144 2766.00003242493 18 19 11
-160.507723689079 74.2887333035469 2757.99989700317 18 19 11
-151.929721236229 73.7790614366531 2739.00008201599 18 19 13
-143.876656889915 73.4847486019135 2727.9999256134 17 18 12
-137.733489274979 74.1870179772377 2753.99994850159 14 15 9
-131.778866052628 75.0778019428253 2786.99994087219 13 14 8
-123.371317982674 74.5946392416954 2769.00005340576 14 17 10
-114.266842603683 73.5994949936867 2732.00011253357 14 17 10
-106.65400326252 73.4932273626328 2727.9999256134 14 17 10
-99.3171408772469 73.575459420681 2730.99994659424 14 17 10
-92.0307710766792 73.7114697694778 2736.00006103516 13 16 9
-85.0257873535156 74.1167962551117 2750.99992752075 12 14 9
-77.0650655031204 73.6868381500244 2734.99989509583 12 14 9
-69.445863366127 73.5261887311935 2729.00009155273 11 13 8
-63.1994307041168 74.9550461769104 2782.00006484985 10 12 7
-55.4441474378109 74.7403278946877 2773.9999294281 8 10 5
-47.8703640401363 74.7410282492638 2773.9999294281 6 8 3
-40.4561795294285 75.0380232930183 2785.00008583069 7 9 4
-32.4627235531807 74.1493701934814 2752.00009346008 17 19 14
-24.6493443846703 73.2606202363968 2719.00010108948 7 9 4
-17.0667544007301 72.5873038172722 2694.00000572205 13 16 9
-9.76480264216661 72.9916542768478 2709.00011062622 14 17 10
-2.38089193589985 73.3958855271339 2723.99997711182 14 17 10
5.09979529306293 74.0155875682831 2746.99997901917 14 17 10
12.5959785655141 73.9885270595551 2746.00005149841 14 17 8
20.0939644128084 73.9883035421371 2746.00005149841 13 16 7
27.2401832044125 73.0449333786964 2710.99996566772 12 15 6
34.7701907157898 73.313944041729 2720.99995613098 12 15 6
42.0444831252098 73.0439871549606 2710.99996566772 15 16 8
49.6470145881176 73.3397379517555 2721.99988365173 13 14 6
57.5191006064415 73.9048048853874 2743.00003051758 11 12 4
65.3871297836304 74.335053563118 2759.0000629425 12 13 5
71.4657232165337 72.8522762656212 2703.9999961853 13 14 6
79.4307067990303 73.3900889754295 2723.99997711182 13 16 7
87.6002162694931 74.0086063742638 2746.99997901917 14 17 8
95.2371805906296 74.115127325058 2750.99992752075 14 17 8
102.671481668949 74.059896171093 2749.00007247925 16 19 10
110.05438119173 73.9776343107224 2746.00005149841 17 20 11
117.506042122841 73.9491358399391 2744.99988555908 18 21 12
124.041080474854 73.381781578064 2723.99997711182 22 25 16
131.040140986443 73.137603700161 2714.99991416931 17 20 11
139.111429452896 73.4859704971313 2727.9999256134 18 21 12
146.76958322525 73.5917836427689 2732.00011253357 16 19 10
-229.353696107864 67.0789778232574 2772.0000743866 5 8 1
-221.798151731491 67.0816525816917 2772.0000743866 17 20 13
-214.318960905075 67.1084448695183 2773.00000190735 21 24 15
-207.579165697098 67.3771724104881 2783.99991989136 19 22 13
-199.557334184647 67.2343894839287 2778.00011634827 18 21 12
-190.738126635551 66.8010711669922 2759.99999046326 17 20 11
-181.551679968834 66.1982074379921 2734.99989509583 16 19 10
-176.192820072174 66.999115049839 2767.99988746643 15 18 9
-168.947249650955 67.122220993042 2773.00000190735 13 16 7
-160.567983984947 66.7853280901909 2759.0000629425 14 17 8
-152.153536677361 66.3999170064926 2743.00003051758 17 20 13
-143.878504633904 66.0386011004448 2727.9999256134 17 20 13
-137.535214424133 66.5728896856308 2750 16 19 12
-129.983767867088 66.5502995252609 2749.00007247925 15 18 11
-121.412478387356 65.970815718174 2724.99990463257 13 16 9
-115.774028003216 67.0132786035538 2767.99988746643 13 16 9
-108.101963996887 66.9420287013054 2765.00010490417 13 16 9
-100.191250443459 66.7011961340904 2755.00011444092 13 16 9
-92.8728803992271 66.847637295723 2760.99991798401 12 15 8
-85.5214148759842 66.9940039515495 2766.99995994568 11 13 8
-77.3478448390961 66.4623454213142 2744.99988555908 11 13 8
-69.930262863636 66.5358901023865 2747.99990653992 11 13 8
-62.7686306834221 66.8998956680298 2763.00001144409 10 12 7
-54.9451857805252 66.5616393089294 2749.00007247925 8 10 5
-47.5431084632874 66.7075514793396 2755.00011444092 6 8 3
-40.4712297022343 67.4587041139603 2786.00001335144 7 9 4
-32.7226594090462 67.1685859560966 2773.9999294281 0 1 0
-24.7584544122219 66.1277547478676 2730.99994659424 10 12 7
-17.2063522040844 65.7648146152496 2716.00008010864 10 13 6
-9.79016162455082 65.7649785280228 2716.00008010864 13 16 9
-2.37043434754014 65.6681954860687 2711.99989318848 13 16 9
5.05901873111725 65.982960164547 2724.99990463257 13 16 9
12.6328384503722 66.6850581765175 2753.99994850159 16 19 10
19.9771448969841 66.1037266254425 2730.00001907349 17 20 11
27.6223681867123 66.5634870529175 2749.00007247925 17 20 11
42.1380884945393 65.7877922058105 2717.00000762939 14 15 7
49.3011139333248 65.4482468962669 2703.00006866455 12 13 5
56.8068847060204 65.5928701162338 2709.00011062622 11 12 4
64.9376735091209 66.3427114486694 2740.00000953674 12 13 5
73.8189294934273 67.6251277327538 2792.99998283386 13 14 6
80.8605775237083 67.1399384737015 2773.00000190735 14 15 7
87.6970216631889 66.5820240974426 2750 14 17 8
95.480740070343 66.7745843529701 2757.99989700317 14 17 8
103.008940815926 66.7733699083328 2757.99989700317 15 18 9
111.218087375164 67.183643579483 2775.00009536743 16 19 10
118.748992681503 67.1580284833908 2773.9999294281 17 20 11
124.771267175674 66.3334131240845 2740.00000953674 14 17 8
131.33142888546 65.871886909008 2720.99995613098 15 18 9
138.501286506653 65.7491981983185 2716.00008010864 19 22 13
148.275703191757 66.8126046657562 2759.99999046326 22 25 16
-231.424778699875 60.0519813597202 2796.99993133545 13 16 9
-221.96064889431 59.5605447888374 2773.9999294281 18 21 14
-215.635269880295 59.906393289566 2789.99996185303 23 26 17
-208.252549171448 59.9730536341667 2792.99998283386 20 23 14
-199.775084853172 59.7175434231758 2780.99989891052 18 21 12
-190.118297934532 59.0753965079784 2750.99992752075 18 21 12
-183.744356036186 59.4424642622471 2767.99988746643 18 21 12
-177.913472056389 60.0242242217064 2795.00007629395 16 19 10
-169.680312275887 59.8113313317299 2785.00008583069 14 17 8
-159.522235393524 58.868121355772 2740.9999370575 14 17 8
-151.48963034153 58.6550198495388 2730.99994659424 16 19 12
-144.882246851921 59.0002611279488 2746.99997901917 17 20 13
-136.03638112545 58.4218613803387 2720.00002861023 16 19 12
-128.992289304733 58.5951246321201 2727.9999256134 16 19 12
-121.324770152569 58.4890879690647 2723.00004959106 14 17 10
-115.189805626869 59.1562427580357 2753.99994850159 14 17 10
-108.142301440239 59.4152249395847 2766.00003242493 14 17 10
-101.028852164745 59.6741326153278 2778.00011634827 14 17 10
-92.2684967517853 58.9233450591564 2743.00003051758 13 16 9
-85.2751433849335 59.2680126428604 2759.0000629425 11 13 8
-78.1940817832947 59.612613171339 2775.00009536743 11 13 8
-70.4400315880775 59.4630464911461 2767.99988746643 10 12 7
-62.5876113772392 59.1845028102398 2755.00011444092 9 11 6
-55.0257712602615 59.1421835124493 2753.00002098084 8 10 5
-40.2828529477119 59.5728866755962 2773.00000190735 8 10 5
-32.8999869525433 59.9170178174973 2789.00003433228 22 24 19
-24.921927601099 59.0580031275749 2749.00007247925 10 12 7
-17.2825753688812 58.6070753633976 2727.9999256134 8 11 4
-9.83713660389185 58.6287118494511 2729.00009155273 13 16 9
-2.36346968449652 58.091688901186 2703.9999961853 14 17 10
5.05722127854824 58.5213452577591 2723.99997711182 14 17 10
12.4999582767487 58.5427321493626 2724.99990463257 14 17 8
19.9481043964624 58.5640370845795 2726.0000705719 13 16 7
27.4518728256226 58.692678809166 2732.00011253357 12 15 6
35.0649617612362 58.9501336216927 2743.99995803833 10 13 4
42.6503829658031 59.078611433506 2750 11 12 4
49.2834486067295 58.0469183623791 2701.99990272522 14 15 7
56.4510524272919 57.8315146267414 2691.99991226196 15 16 8
64.1800165176392 58.1745728850365 2707.99994468689 14 15 7
72.8154331445694 59.1834969818592 2755.00011444092 13 14 6
80.8323547244072 59.5478564500809 2772.0000743866 12 13 5
88.5590687394142 59.6543401479721 2776.99995040894 15 18 9
95.7588106393814 59.4170391559601 2766.00003242493 15 18 9
103.831827640533 59.7166828811169 2779.99997138977 15 18 9
111.820548772812 59.9303208291531 2789.99996185303 16 19 10
119.306869804859 59.8646216094494 2786.99994087219 17 20 11
125.592365860939 59.2403821647167 2757.99989700317 17 20 11
131.815582513809 58.659054338932 2730.99994659424 19 22 13
139.726758003235 58.8509030640125 2740.00000953674 15 18 9
-228.034690022469 51.6513884067535 2756.00004196167 38 41 34
-220.602571964264 51.6721941530705 2756.99996948242 21 24 17
-215.482845902443 52.2552169859409 2788.00010681152 17 20 11
-207.434430718422 52.1447136998177 2782.00006484985 20 23 14
-197.478324174881 51.5280403196812 2749.00007247925 17 20 11
-189.774662256241 51.4736026525497 2746.00005149841 17 20 11
-183.41426551342 51.7940074205399 2763.00001144409 19 22 13
-177.851602435112 52.3768179118633 2793.99991035461 17 20 11
-169.07274723053 52.0222596824169 2775.00009536743 18 21 12
-158.534467220306 51.0676950216293 2723.99997711182 18 21 12
-151.602104306221 51.237877458334 2733.00004005432 16 19 12
-144.514515995979 51.3705052435398 2740.00000953674 15 18 11
-138.588458299637 51.9530437886715 2770.99990844727 14 17 10
-129.561021924019 51.3730943202972 2740.00000953674 14 17 10
-122.217126190662 51.4305308461189 2743.00003051758 13 16 9
-114.647224545479 51.3941496610641 2740.9999370575 13 16 9
-107.126869261265 51.3764582574368 2740.00000953674 13 16 9
-100.37524998188 51.7524555325508 2759.99999046326 13 16 9
-92.47125685215 51.5471138060093 2749.00007247925 13 16 9
-85.2760151028633 51.7354719340801 2759.0000629425 10 12 7
-78.2794281840324 52.0925335586071 2778.00011634827 10 12 7
-70.5171003937721 51.9619733095169 2770.99990844727 9 11 6
-63.0426183342934 52.0376265048981 2775.00009536743 8 10 5
-56.1456494033337 52.6757724583149 2809.00001525879 8 10 5
-40.486641228199 52.264142781496 2786.99994087219 8 10 5
-32.7823609113693 52.1144680678844 2779.00004386902 74 76 71
-25.067238137126 51.8522039055824 2765.00010490417 6 8 3
-17.3714458942413 51.421083509922 2742.00010299683 9 12 5
-9.82281751930714 51.1024110019207 2724.99990463257 14 17 10
-2.38534575328231 51.1774867773056 2729.00009155273 15 18 11
5.03499433398247 50.858661532402 2711.99989318848 15 18 11
12.5321978703141 51.2336455285549 2732.00011253357 14 17 8
19.9922192841768 51.2334927916527 2732.00011253357 13 16 7
27.4220071732998 51.1770024895668 2729.00009155273 13 16 7
34.6691757440567 50.8766584098339 2713.00005912781 11 14 5
42.5887852907181 51.4951348304749 2746.00005149841 13 14 6
49.4845919311047 50.8758574724197 2713.00005912781 15 16 8
56.6193982958794 50.6315641105175 2700.00004768372 16 17 9
63.9673694968224 50.6122261285782 2698.99988174438 16 17 9
72.3139941692352 51.3054095208645 2736.00006103516 15 16 8
80.6582197546959 51.867239177227 2766.00003242493 14 15 7
88.4962007403374 52.0352013409138 2775.00009536743 15 18 9
95.8290249109268 51.9030578434467 2767.99988746643 14 17 8
103.5340949893 51.9771203398705 2772.0000743866 15 18 9
110.338740050793 51.6198389232159 2753.00002098084 17 20 11
117.938220500946 51.6562648117542 2755.00011444092 19 22 13
125.229343771935 51.5613555908203 2750 16 19 10
132.830530405045 51.5976399183273 2752.00009346008 20 23 14
139.881148934364 51.4276102185249 2743.00003051758 23 26 17
-220.684453845024 44.1646389663219 2757.99989700317 27 30 23
-211.929351091385 43.9101308584213 2742.00010299683 17 20 11
-205.42299747467 44.1199652850628 2755.00011444092 17 20 9
-197.982862591743 44.1375747323036 2756.00004196167 18 21 12
-189.983621239662 44.027004390955 2749.00007247925 18 21 12
-183.283075690269 44.220682233572 2760.99991798401 18 21 12
-176.389068365097 44.382281601429 2770.99990844727 17 20 11
-168.403998017311 44.2715473473072 2763.99993896484 16 19 10
-159.00145471096 43.7602996826172 2732.00011253357 16 19 10
-150.715872645378 43.521273881197 2717.00000762939 15 18 11
-146.836474537849 44.5956960320473 2783.99991989136 15 18 11
-138.539671897888 44.3725883960724 2769.99998092651 14 17 10
-131.217151880264 44.4537699222565 2775.00009536743 14 17 10
-122.886538505554 44.1824644804001 2757.99989700317 15 18 11
-114.188142120838 43.7348634004593 2730.00001907349 14 17 10
-106.736831367016 43.7357649207115 2730.00001907349 13 16 9
-99.5760336518288 43.8647642731667 2737.99991607666 12 15 8
-92.1693295240402 43.8975803554058 2740.00000953674 11 14 7
-86.6985693573952 44.9396893382072 2805.0000667572 8 10 5
-78.5900801420212 44.6840189397335 2789.00003433228 8 10 5
-62.475211918354 44.0603233873844 2750 9 11 6
-48.1140650808811 44.6700677275658 2788.00010681152 8 10 5
-40.3998419642448 44.5582754909992 2780.99989891052 12 14 9
-33.4432609379292 45.4237870872021 2835.00003814697 131 133 128
-25.0583942979574 44.2864261567593 2763.99993896484 1 3 0
-17.4222849309444 44.0622828900814 2750 13 16 9
-9.90942027419806 44.046375900507 2749.00007247925 15 18 11
-2.35302583314478 43.1331284344196 2691.99991226196 11 14 7
5.01832971349359 43.3093681931496 2703.00006866455 10 13 6
12.5139597803354 43.709859251976 2727.9999256134 10 13 4
20.0509373098612 43.9020022749901 2740.00000953674 11 14 5
27.4021569639444 43.6935126781464 2726.99999809265 12 15 6
34.988958388567 43.8695065677166 2737.99991607666 14 17 8
42.1238727867603 43.5166954994202 2716.00008010864 15 16 8
49.959272146225 43.8848324120045 2739.00008201599 17 18 10
56.9763891398907 43.5319058597088 2717.00000762939 17 18 10
64.4182562828064 43.5474365949631 2717.99993515015 16 17 9
72.5260823965073 43.9634434878826 2743.99995803833 14 15 7
79.9590721726418 43.9307801425457 2742.00010299683 14 17 8
87.7635031938553 44.090311974287 2752.00009346008 15 18 9
95.5182909965515 44.2017093300819 2759.0000629425 16 19 10
102.825358510017 44.104777276516 2753.00002098084 18 21 12
109.898842871189 43.927688151598 2742.00010299683 19 22 13
117.59676784277 44.0068691968918 2746.99997901917 19 22 13
124.957203865051 43.9578257501125 2743.99995803833 17 20 11
132.155954837799 43.8606739044189 2737.99991607666 20 23 14
139.984369277954 43.9717061817646 2744.99988555908 24 27 18
-222.080782055855 35.6537066400051 2684.00001525879 14 17 10
-222.36642241478 36.9171462953091 2779.00004386902 22 25 18
-213.01294863224 36.6130247712135 2756.00004196167 25 28 19
-204.902499914169 36.5081094205379 2747.99990653992 16 22 10
-198.918178677559 36.7884375154972 2769.00005340576 17 23 13
-192.127451300621 36.9358733296394 2779.99997138977 18 21 12
-183.815494179726 36.7909632623196 2769.00005340576 18 21 12
-177.026897668839 36.9515977799892 2780.99989891052 17 20 11
-168.283373117447 36.7002859711647 2762.00008392334 16 19 10
-159.817412495613 36.4887714385986 2746.00005149841 16 19 10
-152.381122112274 36.5030951797962 2746.99997901917 15 18 11
-145.624458789825 36.6901345551014 2760.99991798401 15 18 11
-138.990834355354 36.930289119482 2779.00004386902 14 17 10
-130.792543292046 36.7584303021431 2766.00003242493 14 17 10
-123.912252485752 36.9586274027824 2780.99989891052 14 17 10
-116.740450263023 37.0923317968845 2790.99988937378 13 16 9
-106.73762857914 36.2823903560638 2730.00001907349 13 16 9
-99.1403758525848 36.2299233675003 2726.0000705719 11 14 7
-93.1119024753571 36.7887765169144 2767.99988746643 11 14 7
-86.2664729356766 37.0950698852539 2790.99988937378 10 12 7
-79.5205682516098 37.5076569616795 2822.00002670288 9 11 6
-62.4983981251717 36.5649312734604 2750.99992752075 8 10 5
-55.5669143795967 36.9507856667042 2779.99997138977 8 10 5
