ply
format ascii 1.0
comment KinectMotionCapture
element vertex 790
property float x
property float y
property float z
property uchar red
property uchar green
property uchar blue
end_header
-100.536178445932 -68.6513420837778 2836.29103858502 8 11 4
-81.5441273308082 -63.8519580249788 2857.81571499748 8 11 4
-90.4816854854271 -63.703834038165 2861.00063675098 10 13 6
-100.285207398099 -63.6940003871506 2863.64934109303 11 14 7
-97.3026197360811 -61.5816085632667 2874.54548356802 12 15 8
-101.124829725237 -60.5923635878253 2881.02894109198 13 16 9
-120.373711896379 -62.1155012431211 2877.69624642549 12 15 8
-150.44037763201 -63.7480498729715 2876.61981005873 12 15 8
-137.046725180054 -59.976762221093 2893.93669039518 13 16 9
-226.203122678437 -70.9963527408655 2856.56770358066 13 16 9
-191.952171797182 -63.9122099645998 2886.6915282279 8 13 6
-204.558425117834 -64.2911211981889 2887.92977681909 16 21 14
79.5796056474032 -88.6872001719413 2721.326186063 16 18 13
82.8134554399806 -86.3302908399058 2733.3535912648 21 24 15
120.462882933701 -77.5430459479597 2771.18724871596 12 15 4
131.079224271716 -73.8629247199182 2788.44135792496 17 21 7
128.922525186606 -72.5794499470532 2796.06127010031 20 23 12
136.444329965037 -69.5108655529009 2810.81070962274 20 23 14
150.486054424968 -65.2608422460547 2830.24710658972 19 22 13
110.415315700813 -70.9672407695622 2809.94985309903 16 19 10
75.8554886868601 -75.6150245684656 2793.9427609279 14 17 8
78.5518652567303 -73.4401922232725 2805.11388656659 16 19 10
84.5475833833755 -70.6796272260971 2818.59012134888 16 19 10
103.667810633871 -65.5670760967413 2841.35847816757 13 16 9
90.9736139534352 -66.2096212482015 2841.30577363327 11 14 7
88.9145260421427 -64.93755264017 2848.83044229624 10 13 6
72.8871828977829 -66.1611560161433 2846.50550651253 11 14 7
74.9510839525263 -64.1566747268214 2856.91295818139 11 14 7
62.9998569280139 -64.6419285743469 2857.51613552735 11 14 7
108.76050074747 -53.3624177476251 2906.76496126054 18 21 14
80.23566383793 -56.7655639422051 2895.91736587555 18 21 14
56.6086395426426 -59.2836869570224 2888.57715787048 14 17 10
65.5092794113763 -56.1379869426314 2903.36290542804 13 16 9
23.350370360486 -61.8273900872471 2883.71981471333 12 15 8
-3.85676627013698 -64.8948918927149 2874.3479340135 12 15 8
35.3553322969926 -56.5575633715365 2909.27908627164 12 15 8
-12.9969232134819 -63.2178263632773 2886.01019405718 10 13 6
-73.3878250901419 -71.8646537202501 2855.1517250198 7 10 3
-89.9428899533628 -73.0195327996216 2853.34066728307 7 10 3
-91.2518727313056 -71.5902616065989 2861.51414530433 9 12 5
-98.5021172783642 -71.1642453054801 2865.81696165918 10 13 6
-104.051997330872 -70.4519017009971 2871.22279051997 11 14 7
-110.456627571839 -69.8821549620285 2876.08122754817 12 15 8
-137.443515411625 -72.7251102055189 2867.87469581908 12 15 8
-121.555454049612 -68.4573938029251 2886.89194723431 12 15 8
-129.687534366392 -68.1703239241247 2890.67372860524 12 15 8
-124.880982731282 -65.7597642664511 2902.54873529362 12 15 8
-139.061892516519 -66.4621839752762 2902.56429896576 12 15 8
-218.316421094484 -77.7329511135725 2862.48495600385 12 15 8
-208.383355484784 -74.4666550206302 2877.64491265054 15 20 13
-163.53977057637 -65.5902256756551 2913.98912128739 15 20 13
45.4142570167217 -101.1813218588 2706.08705633901 22 25 16
102.953763006741 -88.4265661719238 2759.00827328808 16 19 8
128.750860519409 -81.7960894859499 2787.67491004325 13 16 5
137.833060770052 -78.3743672100733 2803.65647880563 19 22 11
132.493619115519 -77.6908524936162 2808.85760012345 19 22 11
124.733768333973 -77.4614551308419 2812.27827603601 19 22 13
95.9287019486288 -81.1598952662745 2800.33568766083 15 18 9
85.6639791553242 -81.373687266575 2802.05817590904 13 16 7
96.5125798418755 -77.6680050112388 2819.07787024285 16 19 10
100.10609956871 -75.3257445151533 2830.7502829746 16 19 10
103.743429694987 -72.9889021162929 2842.38032996646 14 17 10
89.8110164672472 -72.2223455861828 2850.43381258527 10 13 6
66.3827082235908 -74.8253273447373 2842.90915653063 11 14 7
75.8516607862871 -71.4518158813914 2858.51380006693 9 12 5
82.912106170316 -68.5338910127211 2872.3267343825 13 16 9
79.2619127564791 -67.5558809396329 2878.64069957597 12 15 8
78.9420824584335 -65.9852707176523 2887.22829187529 16 19 12
77.814165206616 -64.5658213806747 2895.22375866051 18 21 14
62.5244053952421 -65.6631796497684 2893.56464206972 13 16 9
50.5339496492572 -66.1639927987452 2894.20941161595 12 15 8
23.4273667319167 -69.3140785412976 2884.74988546221 12 15 8
-6.29918280675668 -72.8927704315767 2873.70430689998 12 15 8
19.4339277681315 -66.7614596850034 2899.67410366068 12 15 8
-80.920886684106 -80.9073187415975 2851.21547109732 6 9 2
-83.0805589484571 -79.6098326111236 2858.83626481106 7 10 3
-89.472416030822 -79.04394998507 2863.68292686015 8 11 4
-103.532076031786 -79.7885891672774 2863.58432772383 9 12 5
-115.068668967648 -80.0920821444789 2865.1661502728 10 13 6
-127.4869442734 -80.5373713861561 2866.22720671497 11 14 7
-140.792687136844 -81.1236963887533 2866.77346726727 12 15 8
-146.397676960313 -80.4035797584117 2872.23287209547 12 15 8
-131.329805668682 -76.2175056894328 2890.66007960076 12 15 8
-138.613126624314 -75.7919061120065 2894.99546506786 12 15 8
-194.821720758662 -81.8344188803469 2878.01982071398 11 14 7
-209.170464045715 -82.5416120509483 2878.20275105003 18 23 16
-190.459654654448 -77.8031701442704 2898.59880255754 16 21 14
57.4634526850004 -108.458722568523 2706.53357379302 17 19 18
77.3868517565886 -102.772618541118 2731.25341688789 24 26 21
132.031550599372 -88.6611049822406 2791.09975770147 16 19 10
131.483198318479 -87.0462361007194 2799.90773429738 18 24 12
117.272048528173 -88.0579216694746 2798.58212678291 16 22 8
111.896695347953 -87.3692458197094 2803.81814596335 14 20 6
109.758239901403 -86.0652057848965 2811.41690239918 13 19 7
117.367531866591 -82.9200818334256 2826.06815333872 13 19 7
121.788227093854 -80.3962949416312 2838.30924836635 13 19 9
114.849127720991 -80.021651011868 2842.31068577769 13 19 9
103.002417913884 -80.5630839320685 2842.81837922412 13 19 9
73.9329391322192 -84.3049255733597 2831.14443314884 12 17 10
96.4524818684453 -78.434775862849 2856.09322181251 10 15 8
87.0240193602951 -78.5132241901308 2858.38219681733 8 13 6
80.0508153061723 -78.1336321663025 2862.41676935518 10 12 7
66.4590198741712 -78.9658235079195 2861.86651395651 11 13 8
73.5392894984201 -76.0094456540295 2875.65374133207 11 13 8
74.0360209567372 -74.2693127022461 2884.82232966861 13 15 10
62.9090942295512 -74.6445442420027 2886.0079505446 16 19 12
32.5691623850957 -78.4801279637505 2874.19252886224 18 21 14
11.311483085541 -80.6469948996432 2868.69867655114 16 19 12
20.9904211210796 -77.2506115718264 2884.09175879917 11 14 5
-2.02092604801152 -79.7075547447076 2877.5480412702 10 13 4
43.0860084655826 -70.0360937810567 2916.34772884947 13 16 7
-14.5286971256318 -78.6159721509088 2886.97328878303 11 14 7
-85.9934338603581 -86.1891656889011 2866.95228100951 9 11 6
-100.896587088545 -87.109588606422 2866.30035455854 10 13 6
-112.427354642912 -87.4322159436814 2867.87888262563 12 15 8
-121.417444357164 -87.3078367604243 2871.11981630799 14 17 10
-132.137050447212 -87.4767701423792 2873.28738031009 13 16 9
-144.597527982691 -87.9375386716774 2874.39296986419 10 13 4
-127.804007813225 -83.3923729490929 2893.88732756986 10 13 4
-124.720727862813 -81.2101481154362 2904.67315982562 13 16 7
-176.102843916026 -88.2701649936438 2881.63822873407 14 17 8
-194.739485799952 -89.7417732081692 2879.10686370068 14 17 8
-176.065043514524 -84.9226178949644 2899.52709887566 15 20 13
-201.700284370627 -87.5572319851141 2892.78138761472 19 24 18
73.4784014438747 -111.258348076198 2729.30386851474 27 29 24
116.694997771269 -100.924214641398 2771.29931863113 20 22 17
159.348416613609 -90.7779399931984 2812.46486844437 18 21 12
121.921290532285 -96.38998545067 2793.77958897277 15 21 9
118.958477352534 -95.2295267830985 2800.80125676957 15 21 7
111.973105082871 -94.8544745514839 2804.84858350464 15 21 7
121.969119784363 -91.1911054025327 2821.30391502408 14 20 8
123.119994859434 -89.256314092142 2831.21140581849 13 19 7
130.805589544359 -86.0772018637119 2845.78186357688 14 20 10
123.887797511215 -85.7103023438476 2849.76294926332 14 20 10
103.078731789175 -87.9865897023021 2843.83978932868 13 19 9
101.845184960685 -86.5263593478669 2851.93412042845 12 17 10
90.7845265686031 -86.9291541594499 2853.05800970759 11 16 9
54.1984012951922 -92.1271498644239 2836.3102262643 9 14 7
81.7762928629406 -85.2516039484101 2864.58919639034 10 12 7
71.4944585581727 -85.4936814274704 2866.3328572038 10 12 7
70.302531446337 -84.0381966646044 2874.38656070604 10 12 7
59.1671214350655 -84.4308602209164 2875.58318205296 12 14 9
40.5152695669488 -86.2020122095041 2871.69428387999 14 17 10
17.6316486435804 -88.7317246430962 2865.03482540783 17 20 13
8.88137864321559 -88.6491233974334 2868.04345148805 19 22 15
3.46894981891488 -87.953370593945 2873.31524136047 17 20 11
13.1774993094331 -84.5116434546967 2888.67221720044 14 17 8
-10.7206264715978 -87.171184242663 2881.62211846344 15 18 9
-23.7326429480964 -87.8430547254417 2881.88934795604 14 17 8
-76.5310729989706 -95.6454931094247 2856.11950138031 7 9 4
-86.3107361861601 -95.6906040237797 2858.75263443803 7 9 4
-94.0029931660362 -93.6586742265578 2871.75881610772 9 12 5
-104.664376099489 -93.8507954346461 2873.8719908052 11 14 7
-107.648748585321 -92.6849505345817 2880.91427122883 14 17 10
-120.051889741276 -93.1741170342631 2881.96712211809 13 16 9
-126.469897917275 -92.608978716244 2886.83952475615 12 15 6
-129.445682880345 -91.4441132144275 2893.87342239736 13 16 7
-114.281594890472 -87.1398476825605 2912.18761665235 16 19 10
-113.731265286498 -85.3860978991277 2921.30096867616 16 19 10
-187.720209590946 -96.4561431217386 2884.46528766983 16 19 10
-179.459152897556 -93.3487367174131 2898.47490123641 15 20 13
-172.006469820614 -90.3980293181048 2911.89315463887 19 24 18
88.705255869387 -115.912853048379 2741.79427702473 28 30 25
131.957373827037 -105.418039034425 2783.73104295974 22 25 18
124.172119978389 -105.208820351104 2787.17992689347 18 21 12
133.241475358193 -101.638307326473 2803.1522595948 16 22 10
122.255274565341 -102.070213773979 2804.20651406429 18 24 12
124.961748911396 -99.7872377563869 2815.3516288744 19 25 13
118.000825645881 -99.4201031539951 2819.37584760908 18 24 12
112.654650260379 -98.733985221167 2824.58327086704 17 23 13
125.191446068151 -94.5555005375456 2842.69050113239 15 21 11
127.222835368471 -92.4483394893192 2853.11506143048 15 21 11
114.58918443497 -93.1941058619378 2853.01749012586 14 20 10
87.1859802859794 -96.7792686161632 2842.49990811461 13 19 9
81.8347604248642 -96.0918366055262 2847.7121463913 13 19 9
85.5324655005059 -93.6718818888113 2859.26995620166 11 16 9
81.8532852500717 -92.6726743385102 2865.60957277449 10 12 7
75.7037864850236 -92.1454825273239 2870.2212879173 11 13 8
45.9599850007608 -94.3761634939527 2867.49573695656 11 13 8
28.9422316305732 -95.8735370420692 2864.77784696222 13 16 9
15.2076730238813 -96.7399771973647 2864.37441946614 15 18 11
29.8624035691191 -92.3058242400489 2883.17487804659 21 24 17
18.6323211362089 -92.7043024501011 2884.466369911 19 22 13
13.2557720781166 -92.0125568840177 2889.70312291311 17 20 11
-12.3255266794313 -95.0410569073879 2881.54481536009 18 21 12
-5.08899595092149 -92.022011835893 2895.16794880376 14 17 8
-35.0074713878721 -95.8089193044836 2884.34372966724 7 9 4
-82.8388126112944 -102.82088055657 2862.02678987421 7 9 4
-100.275759298554 -104.263580092741 2859.71708424545 8 10 5
-98.1796954955772 -102.162891681656 2870.07837845928 9 12 5
-84.9524667170463 -98.0711079737743 2887.51281294454 12 15 8
-87.8924439393143 -96.9023535488741 2894.51057818867 14 17 10
-98.5362098870981 -97.1122929125325 2896.60889247455 15 18 11
-141.421472523959 -101.33635727195 2887.3895460837 16 19 10
-134.053734934581 -98.333734972406 2900.88481645345 18 21 12
-155.175673696576 -100.355316160688 2896.65160792961 17 20 11
-194.567864017149 -102.131271543831 2899.18877567491 17 22 16
119.876735344477 -117.195141738036 2766.29357631011 27 30 23
122.443527104388 -114.86744559302 2777.57078837785 22 25 16
129.856983012282 -111.56704692858 2792.39355788251 17 20 11
127.696369356983 -110.226881370306 2800.00897841059 14 20 8
131.187555675349 -107.751539949408 2811.76367826914 16 22 10
121.810524474051 -107.876791945235 2814.00849878772 17 23 11
132.638005482372 -103.950866991373 2831.01661349956 17 23 11
111.109769564489 -106.502730009633 2824.43142084514 16 22 12
142.336727885587 -98.550501399337 2856.01290278256 16 22 12
130.557968232279 -99.1642015909131 2856.46380179293 15 21 11
104.865704262459 -102.509995700054 2847.04600878765 14 20 10
85.6262580415725 -104.557728061723 2842.36456963385 14 20 10
72.8861655372883 -105.313368469517 2842.37415576059 14 20 10
71.6270874395146 -103.821734098152 2850.4888604462 14 19 12
82.7551157211692 -99.9332686753052 2867.20440161704 13 15 10
56.774512273873 -103.241402659692 2858.06702998334 12 15 8
52.2341411690159 -102.391319941223 2863.86695307266 11 14 7
37.7356960249187 -103.452159484234 2862.83389902743 10 13 6
39.0070166033762 -101.487428053178 2872.61702267771 12 15 8
27.79849046747 -101.907257926151 2873.89026458699 13 16 9
19.0720029759301 -101.848248001966 2876.87909891339 18 21 14
10.3309312927351 -101.787311055449 2879.88213074463 19 22 13
17.534013344259 -98.7232150387019 2893.53148286698 20 23 14
29.0055620974208 -94.8781165027274 2909.91197489639 22 25 16
-32.0117835652618 -104.584407643884 2878.41491492397 20 23 14
-48.4594014060078 -105.925772953562 2876.52472328896 8 10 5
-100.55858151325 -113.85302721606 2851.49620607443 7 9 4
-124.832687345956 -116.581471012462 2844.82964492131 7 9 4
-103.207466971201 -110.850106693883 2867.85286485332 7 10 3
-94.259672114267 -107.47794042765 2882.5583151974 10 13 6
-85.2452088786397 -104.114340934141 2897.19882902117 10 13 6
-119.031338119818 -108.544964488624 2884.64241313018 12 15 8
-159.818197495842 -114.202925601223 2867.88327548226 10 13 4
-187.844505981839 -117.512361288433 2859.36060226646 11 14 5
-157.276893756985 -110.271171258561 2887.4505121789 12 15 6
-178.884222870699 -110.680792120163 2891.96352584969 11 14 5
-206.231204839664 -113.811497866509 2884.1567644707 12 17 10
-205.806106225227 -112.002746457397 2893.38634350212 14 19 13
-241.137576420948 -116.500183022061 2880.95743963934 14 19 13
108.792995138368 -127.071482408197 2758.92153120438 27 30 23
132.111058768082 -120.399573806098 2785.79269583792 22 25 16
130.735007569826 -118.880632756751 2794.01952062641 16 19 10
122.955140535253 -118.687261193252 2797.46573541352 16 19 10
124.824200452715 -116.510590329881 2808.04087982614 17 20 11
118.659809950973 -115.987329608072 2812.66796369692 17 20 11
106.830307908899 -116.61606637941 2813.17181089136 18 21 12
111.186984245634 -113.952826343847 2825.45586650991 17 20 11
161.919228452848 -101.93893369538 2871.07618756948 18 21 12
145.299243653595 -103.56320021981 2867.98206223059 18 21 12
114.742603175237 -107.962552704698 2855.04791304252 16 19 10
105.350139762578 -108.097946130206 2857.30989471598 16 19 10
100.041769653796 -107.415090448135 2862.48025893454 17 20 11
85.687306591347 -108.524096352998 2861.31134752103 17 20 11
70.4664631013281 -109.790331436568 2859.6087559238 14 17 10
54.3738143147299 -111.212962681545 2857.37808584035 13 16 9
26.6358209047262 -114.899243662598 2847.20789974415 12 15 8
12.0774610679839 -115.981632826762 2846.23718905702 10 13 6
45.7430062269193 -107.682452361032 2878.17999536025 12 15 6
28.7114374972233 -109.25259308012 2875.48624133623 13 16 7
26.6754455571818 -107.914883121164 2882.97861143732 16 19 10
14.5999830048491 -108.510137675617 2883.72141455538 18 21 12
20.1326395890744 -105.727592772491 2896.23731835638 20 23 14
36.6606098230413 -100.866283191387 2915.94864514933 21 24 15
-20.9623772556951 -110.111922295785 2886.68082786823 16 19 10
-95.7385967167723 -122.52487059574 2846.5743374237 9 11 6
-126.753421283591 -126.594660077209 2835.46370970041 8 10 5
-127.298411448701 -124.910735024003 2844.25814119364 7 9 4
-123.561831463633 -122.434104614563 2855.76863315963 7 10 3
-66.867582760449 -110.110442644463 2901.09112480449 8 11 4
-111.680787645445 -116.704103106134 2881.38328144987 9 12 5
-138.66741080401 -119.948258347741 2873.23544623093 10 13 6
-189.80856456009 -127.60858606017 2850.04996169538 8 11 2
-175.703890234068 -123.241084483531 2867.98957596007 8 11 2
-177.045575614883 -121.72312931062 2876.18242069593 10 13 4
-151.550549989221 -115.327843205193 2900.93271457028 12 15 6
-134.585200808724 -110.52221765161 2920.21794767863 9 14 7
-177.473218575983 -116.557049507988 2902.76683622794 14 19 12
-192.659588176114 -117.557111526298 2902.40791844533 14 19 13
99.3045992937662 -136.685200288312 2752.76028866592 25 28 21
128.192488723919 -128.732361470821 2783.83025392406 15 18 9
156.447293779137 -120.969256665487 2814.14001461163 12 15 6
126.244661106748 -125.498416224825 2800.87385370994 17 20 13
117.656863485367 -125.480050369064 2803.73097412062 17 20 13
115.509626600741 -124.118853424881 2811.33000288803 18 21 14
89.9219358039587 -127.612811992193 2801.82992797626 19 22 15
146.939948886933 -114.049729850683 2852.31570615869 20 23 14
168.497027238849 -107.86662656532 2876.75673462242 21 24 15
171.445374103249 -105.531836682301 2887.6540083796 16 19 10
149.117979042061 -108.358996754265 2880.48583419282 16 19 10
132.440125364527 -110.012882472466 2877.45355120942 17 20 11
118.170414487614 -111.162204572279 2876.20643833882 18 21 12
114.550494042798 -110.15317505371 2882.48575736603 16 19 10
89.5055633869903 -113.444345230337 2873.83398873494 16 19 10
64.3685156816645 -116.723504549614 2865.27191849629 14 17 8
30.0284391459171 -121.804168343663 2850.52749964375 13 16 7
22.9500354315286 -121.435301505572 2854.66778433516 10 13 4
-4.10604700473893 -125.009973591493 2845.22120197529 10 13 4
25.4544078206753 -117.41247085996 2874.2585712122 10 13 4
35.1146523332075 -113.768509051621 2889.63362441362 12 15 6
49.8730399985554 -109.151912577143 2908.3041848693 16 19 10
31.1302237245026 -111.081648410361 2904.5290543191 16 19 10
22.4282843474848 -111.0460774112 2907.49697626777 19 22 13
-99.0385920528762 -130.970092412665 2845.43150655883 11 13 8
-127.517345727438 -134.632262421083 2835.99334276455 10 12 7
-128.914174585857 -133.093527346817 2844.2378745285 9 11 6
-97.082394811046 -125.244728571057 2873.81713738814 8 11 4
-107.750689406955 -125.498544379167 2875.94629390354 8 11 4
-126.994801642259 -127.363034724484 2872.65931439876 9 12 5
-104.292728519169 -121.32513127123 2895.98480660036 11 14 7
-132.156197171419 -124.794674719181 2887.32409487955 10 13 4
-191.981693515009 -134.194007351088 2858.84920837604 9 12 3
-161.425940922469 -126.723759820437 2886.9173783221 13 16 7
-150.602356653764 -122.95720596029 2902.53600821432 14 17 8
-132.769039473645 -117.921358015111 2922.3422188169 10 15 8
-144.372277193028 -118.325954469182 2924.00516367082 15 20 13
-164.709840406872 -120.320815502751 2920.40635656497 14 19 13
-177.257666827108 -120.875332141748 2921.61220294057 19 23 22
88.2228794260929 -146.706210310285 2745.40761940128 21 23 18
118.680800164758 -138.290614747676 2777.68428159334 22 25 18
147.712291736383 -130.239533767216 2808.59712765338 26 29 20
148.003468420084 -128.358807744664 2817.94905532532 16 19 12
127.393953487283 -130.915940482453 2811.86924733148 16 19 12
109.939339963697 -132.782254064691 2808.22278578565 17 20 13
117.500836431165 -129.369417525876 2822.88159271549 19 22 15
111.342457958263 -128.851116244717 2827.50343955592 20 23 14
173.448910468922 -114.089622837091 2881.26099125224 21 24 15
159.301072753469 -115.284324118069 2879.89956355385 20 23 14
143.478181157415 -116.811577712891 2877.41648373007 18 21 12
130.061317628397 -117.82590762212 2876.71943836651 18 21 12
120.709036967899 -117.992416201114 2878.94611677916 17 20 11
110.515765242568 -118.324735596824 2880.61517135792 16 19 10
100.300149002551 -118.654046462732 2882.30596971068 18 21 12
76.0153108057167 -121.83304272691 2874.29974809404 16 19 10
65.722054068682 -122.152108766107 2876.06613042716 14 17 8
25.5205507323937 -128.49122703435 2857.40915314904 12 15 6
5.12781797131678 -130.799936079215 2852.49460750044 12 15 6
-2.82316907559732 -130.597613152339 2856.10908613983 12 15 6
42.7176002078675 -119.734069909729 2895.71835161487 12 15 6
60.8445875545875 -114.389185641707 2916.60451512693 17 20 11
57.2448185602421 -113.375810218875 2922.86351898517 17 20 11
0.621189057659954 -122.809456837065 2894.04802160388 19 22 13
-53.7065558930272 -131.715984843132 2867.12583481763 18 21 12
-111.640117595812 -141.254758714261 2838.21008576185 10 12 7
-105.395993834988 -138.218134186247 2851.39884859919 9 11 6
-115.237820224889 -138.319966268254 2854.10175615795 8 10 5
-105.514294710052 -134.634462963713 2869.40783057362 8 11 4
-99.1339439677432 -131.615233144372 2882.46388893489 10 13 6
-108.09417729532 -131.556166545693 2885.6848279554 11 14 7
-104.210271521905 -129.038004916394 2897.04288493953 11 14 7
-138.946369707734 -133.885660869541 2884.07453014238 11 14 5
-141.090357066721 -132.510573639276 2891.66827910457 11 14 5
-146.670168951493 -131.78982759886 2897.10258884092 14 17 8
-134.949344612165 -127.81292849965 2913.21606646261 16 19 10
-108.412847770474 -121.0825688318 2938.29954961519 16 21 14
-120.830676964701 -121.674818697596 2939.38222162009 19 24 17
-154.177402078998 -126.15274480161 2927.81337154941 12 17 11
-187.646792952738 -130.614794155783 2916.36398381449 20 24 23
88.3935054003806 -152.437226519089 2756.00426788733 10 12 7
134.972931953087 -140.437343408286 2800.08249375844 13 16 9
81.433459792208 -150.158312158899 2769.66409579002 12 14 9
108.153764761918 -142.523461074888 2798.68243711315 12 15 8
112.438260273178 -139.752759792502 2811.02262447507 12 15 8
127.284614847602 -134.742139255657 2830.96450522303 14 17 10
149.525560636885 -128.191396902903 2856.08901563615 16 19 12
148.331709719374 -126.653039545657 2864.13238097261 17 20 13
148.787309819237 -124.773139728355 2873.32115587445 20 23 16
80.6795003340248 -137.324391448489 2833.69849920436 22 25 16
67.9320949869173 -138.174565744114 2833.72931915947 20 23 14
111.761473765966 -127.20339172997 2873.60520360564 17 20 11
94.1458156935298 -129.087791793972 2870.1213348516 17 20 11
92.1348867957406 -127.720279560021 2877.584074376 18 21 10
85.1828332212636 -127.377793389181 2881.60279056179 16 19 8
69.9421521931662 -128.7368932662 2879.93396115102 15 18 7
73.7488140975704 -126.17980425075 2891.36296898828 14 17 6
41.8198500820992 -130.927833865199 2878.42618236898 14 17 8
15.606134416049 -134.473265163872 2869.55570489596 14 17 8
34.437426404641 -128.866309022566 2891.12032085441 15 18 9
51.7065095868343 -123.611847677314 2911.45485103478 15 18 9
45.5657184469582 -123.096192787223 2916.05928668698 16 19 10
-22.8674615296254 -135.049586352099 2879.50552102786 21 24 15
-76.4040068638106 -143.936963894008 2853.21174021382 19 22 15
-118.321227231139 -150.443717906947 2834.86636248262 7 9 4
-135.824587676856 -152.064062096726 2832.64886250001 8 10 5
-116.85286653678 -146.474542217275 2854.076945149 8 10 5
-102.025307122073 -141.735902568176 2872.66077910711 9 12 5
-89.6640156785091 -137.51033206606 2889.51841921942 12 15 8
-96.8921778465868 -137.130751273489 2893.80617059338 13 16 9
-146.988883020833 -145.075730352289 2871.04251384164 13 16 9
-138.862534051259 -141.689151754219 2885.144632641 13 16 7
-145.312018471493 -141.132810402114 2890.04992968459 14 17 8
-145.723448231623 -139.415763126205 2898.70650042925 17 20 11
-129.676470333237 -134.557073478226 2917.47893762906 19 22 13
-124.80148865383 -131.859352881318 2929.24355001046 14 19 12
-128.567732363598 -130.817857151726 2935.66337171102 17 22 15
-162.801626303032 -135.544062003187 2923.59527957118 15 20 14
112.622543475883 -152.838528620919 2784.43314820027 0 1 0
55.0159112180864 -163.59529430204 2751.12170623516 13 14 9
86.5005165967947 -154.78792008553 2783.73786000623 11 12 7
105.255314395153 -148.814854524658 2806.74157217377 10 11 6
121.701170789183 -143.383109424312 2827.86703842074 11 12 7
111.499074909636 -143.746705023118 2829.54947812423 12 13 7
89.0849102080296 -146.731678738078 2822.49113010259 14 15 9
126.870233558941 -136.777530166693 2858.60012594472 18 19 13
105.254937394379 -139.585428703833 2852.13922734011 22 23 15
108.117196400082 -137.157008588173 2863.1081491061 21 22 14
110.198843543782 -134.907478701492 2873.46176057062 20 21 13
101.625499925304 -134.920715964131 2876.30886102785 20 21 13
98.8077308655493 -133.717671841407 2883.18020375767 18 22 8
89.3928212278876 -133.901759575735 2885.47167186196 17 21 7
91.5537811609699 -131.661903997839 2895.74795441277 16 20 6
91.2599237651857 -129.944744731297 2904.28775750943 15 18 7
70.1894392852442 -132.541975809371 2898.67196344946 15 18 7
42.3741335055032 -136.50744454962 2888.61947566618 22 25 16
37.0251111958639 -135.816500828163 2893.82901271245 15 18 9
33.3528272478523 -134.782131009084 2900.15692202906 12 15 6
23.8105283008636 -134.949011109019 2902.57200847783 13 16 9
-7.63493357393763 -139.564797677707 2890.55279878067 19 22 15
-90.6629424110985 -154.593571903287 2844.85696839671 19 22 15
-137.685353319229 -162.23588925139 2823.24682451583 7 9 4
-116.246285598073 -156.046693057125 2846.38722943343 7 9 4
-129.510747061025 -156.852087427627 2846.92487530169 8 10 5
-105.347273485584 -150.17483120061 2871.53883566732 10 13 6
-75.9276753782676 -142.496944198989 2899.28728762982 14 17 10
-87.4012798797863 -142.973579036569 2900.83215202369 15 18 11
-113.473387511624 -146.323264595224 2893.20903386217 15 18 11
-137.060165508275 -149.154221749802 2887.29200675455 15 18 9
-140.061502124545 -147.925736235578 2894.34187455507 16 19 10
-155.132263592833 -149.057204483309 2893.88757797186 17 20 11
-145.16187859198 -145.30530374692 2908.93836591524 17 20 11
-137.721467853753 -142.066326343466 2922.32653759274 13 18 11
-131.959964929035 -139.1703836061 2934.59843344428 12 17 10
-171.424895758143 -144.988836872108 2919.38414051319 16 21 15
60.7173131412626 -170.053346699193 2756.33366807519 15 15 13
47.1420422939399 -171.128125586074 2755.8028578529 12 13 8
96.4594457291579 -158.281669171796 2801.28783699355 11 12 7
90.4999969104399 -155.819134839172 2815.34382785876 12 13 7
79.4127994580664 -156.36665470381 2816.51546111672 11 12 6
142.893110570691 -138.849049399175 2879.83768684493 17 18 10
117.198674623339 -142.596620859277 2870.48109532046 20 21 13
97.1510699932994 -145.094963540938 2865.25186010451 21 22 14
95.1256298440693 -143.703258005726 2872.72543375675 20 22 11
90.64376318597 -142.842019748647 2878.46561228185 20 23 12
93.6026227664506 -140.398018095292 2889.3363053046 18 22 8
99.9138415924707 -137.256394239897 2902.44326073761 18 22 8
83.8680099625657 -138.857824130611 2900.19252688724 17 20 9
73.5967383441083 -139.226630413626 2901.94442925893 17 20 9
50.7938415010107 -142.216099437573 2895.27242456301 18 21 12
44.628386370174 -141.701829928249 2899.9018945235 13 16 7
45.1625968411209 -139.791844590729 2909.00816153803 12 15 6
27.2501371585685 -141.716814368813 2905.82501735639 11 14 7
-58.5206346282954 -155.790086820553 2866.96263417724 17 20 13
-81.7923023481826 -158.718351691471 2860.74707994459 7 9 4
-148.962719054249 -168.693111469826 2835.39979002469 7 9 4
-146.980403024812 -166.404243244043 2845.84622456472 9 12 5
-98.0307302228942 -154.637637781558 2886.18799204651 13 16 9
-89.0285030863836 -150.994397043353 2900.79966348573 14 17 10
-101.389201772501 -151.657374990086 2901.83571978901 15 18 11
-132.680089287085 -156.092863877778 2891.05327686634 15 18 9
-170.974392868434 -161.884627833339 2876.08949842247 15 18 9
-174.032910260455 -160.640147418621 2883.19378353929 15 18 9
-169.294757210276 -157.859073344397 2895.08194916466 15 18 9
-157.574743185833 -153.718846380422 2911.17209165393 13 18 11
-144.908023914328 -149.418353371332 2927.71536390422 10 15 8
-189.138334553703 -154.441576048386 2918.53287599595 15 19 18
35.1509541355495 -181.565995616379 2747.99756931134 14 15 10
88.4714351412197 -167.626054421328 2796.43103894771 13 14 9
88.7010551498464 -165.659594966676 2805.83175978614 14 15 10
57.3428436177101 -170.740543542123 2792.37741279066 15 16 10
72.17951179907 -165.5246697419 2812.29857592744 12 13 7
113.179587778947 -154.557596729977 2850.73387805115 11 12 6
84.1842889176281 -159.087266891681 2839.10271092964 15 16 8
91.9063251570891 -155.51980992498 2853.57958450295 19 20 12
89.8469815537979 -154.112626243649 2861.08453712302 20 21 13
73.8250478481408 -155.752346947878 2858.81573164611 19 20 12
86.6019424282731 -151.125346180826 2876.61858764193 18 21 10
101.117280246373 -146.152144480622 2895.47779409224 17 20 9
107.445500646279 -142.974557043944 2908.56221346746 16 19 8
87.2673722373012 -145.50342854183 2903.4671024392 16 19 8
62.028427431732 -149.09047355977 2895.05172289921 16 19 10
45.8705760647344 -150.711791853375 2892.91516580098 12 15 6
57.2466818573956 -146.473766823259 2909.33235973684 12 15 6
50.269480134205 -146.142159651595 2913.37765631738 21 24 15
50.8431828833782 -144.217855394786 2922.44259058581 19 22 15
-8.31342483219855 -154.836099623427 2892.06673307065 19 22 15
-55.9064597192567 -162.95334075779 2869.67651144669 17 20 13
-71.5617841896772 -164.353561823726 2868.42516895548 9 11 6
-99.1270807257418 -168.209804799653 2859.52552193687 8 10 5
-121.695616727582 -170.999386214484 2854.00849731947 8 10 5
-124.398122480929 -167.793487231967 2870.38840171655 9 12 5
-104.338760539414 -161.823057507942 2892.09705198047 11 14 7
-115.019691999024 -162.153413933678 2894.25006975819 11 14 7
-132.595380391097 -163.875693079044 2892.11945843743 13 16 7
-157.112423411963 -166.983860104037 2885.75026043077 14 17 8
-167.906540113389 -167.299446496577 2888.01348982235 15 18 9
-170.939115359906 -166.04965653725 2895.09122925681 15 18 9
-189.561531399599 -167.921833130258 2892.60527942319 16 19 10
-149.167327236222 -158.015662691547 2926.13070919926 15 20 13
-155.583333264266 -157.470102104673 2931.00435509691 16 21 15
-189.925481591095 -162.447415059203 2919.08087483202 11 16 12
52.9390255497115 -185.273624725836 2762.05610728802 11 14 7
107.106928853757 -170.957783169634 2811.00942546339 10 13 6
92.0160302658402 -172.465526405853 2809.21382929892 14 17 10
80.1216820429631 -173.23396906464 2809.80238033665 15 18 11
87.6990598902507 -169.604727130722 2824.41377004066 16 19 12
118.960311953484 -160.681831214499 2855.81773358129 15 18 11
92.4289103021385 -164.743480384668 2845.92177260417 14 17 10
86.257406464175 -164.234197800283 2850.55798608559 14 17 10
94.8487826107645 -160.447246812665 2865.5560604772 17 20 13
88.7062523286168 -159.941410414468 2870.16401213419 17 20 13
70.1975511486204 -162.158442400187 2866.19886408061 18 21 12
108.631764029976 -151.85696577204 2901.61216809156 18 21 12
106.696296516366 -150.454017656613 2908.99473593814 17 20 11
61.6160250291342 -158.455117201941 2886.92595607199 16 19 10
44.6373923340104 -160.293176288525 2884.2195718428 16 19 12
60.1274188112759 -155.092132930113 2903.49447030815 22 25 18
48.1325602926286 -155.845604884842 2904.18061689188 23 26 19
80.5094371973625 -147.065238208887 2934.4978142324 21 24 17
71.9159758296311 -147.105702120444 2937.36925384084 18 21 14
-87.0353147138925 -177.261964408859 2850.27303409266 10 13 6
-91.769856454337 -176.360320258671 2856.25848857839 8 10 5
-112.601315428701 -178.851794492283 2851.80627931823 8 10 5
-117.363322146081 -177.946527485376 2857.81813363343 7 9 4
-127.228158072318 -178.110072237041 2860.55334894954 7 10 3
-127.725787309433 -176.315374247118 2869.28437814948 7 10 3
-125.633926066542 -173.991122896899 2879.61646522083 8 11 4
-126.077557979305 -172.20329109652 2888.29488909928 11 14 7
-137.664610065211 -172.720199712388 2889.95836106835 11 14 5
-147.55580958885 -172.880096585154 2892.7192166715 13 16 7
-158.328523931613 -173.214125761744 2894.96391903996 17 20 11
-173.44784823894 -174.42674745947 2894.56950267629 19 22 13
-155.671100768276 -168.944006275783 2914.36617505312 24 27 18
-159.50711942631 -167.869964610418 2920.85047403368 26 29 20
-174.652638636358 -169.079090671454 2920.48189078406 15 18 11
-209.908747309568 -174.314646573469 2908.08724553108 17 22 18
74.6097509587837 -189.943843107683 2769.56722624822 20 22 17
130.279577178366 -175.040711206163 2819.77646798684 15 18 11
98.3130104623191 -180.505997823015 2805.56612235908 13 16 9
115.547626361002 -174.59232991767 2827.25435793752 13 16 9
113.437255329017 -173.157012890015 2834.80582345231 14 17 10
73.9663328781313 -180.268924393587 2815.53758705771 16 19 12
96.2339787198441 -173.260544463469 2840.56794528999 17 20 13
116.185301192914 -166.824852850388 2863.73236199889 17 20 13
108.433367338352 -166.69518209979 2867.15991583565 16 19 12
90.8270671023743 -168.781124902238 2863.6962046984 16 19 12
92.8973935234696 -166.431173941139 2874.04621561687 17 20 13
110.662923550029 -160.584701557211 2895.2171770867 16 19 12
121.928791603148 -156.224379863142 2911.72576333401 17 20 13
100.151065844609 -159.224428415143 2905.45455940565 18 21 14
99.0463269007309 -157.626750541518 2913.40032984656 22 25 18
84.6511982358025 -158.963645218876 2912.30548183852 24 27 20
21.0160880327579 -171.092526209317 2878.09764551923 24 27 20
66.6010501829013 -159.245070309314 2917.51794280528 23 26 19
60.4833612274724 -158.743603900419 2922.10187254013 19 22 15
63.5990143466971 -156.236826949104 2932.80758909945 15 18 11
44.0309199647402 -158.649216811623 2928.50639864728 12 15 8
-106.351804560608 -189.22495892845 2838.63144022467 9 12 5
-106.058144490789 -187.225399462273 2847.96333832641 7 9 4
-102.346686737848 -184.504373565075 2859.46299333591 7 9 4
-112.181509489489 -184.684956902335 2862.17058557949 8 10 5
-112.670531782759 -182.874744229789 2870.89077489364 10 13 6
-114.84196419201 -181.428663066327 2878.50128432413 13 16 9
-120.417507827204 -180.705609860713 2883.93101462754 14 17 10
-127.706206085854 -180.342589493109 2888.28132685791 15 18 11
-144.451041664615 -181.955924701272 2886.72647386265 14 17 8
-158.662333223047 -183.024293073491 2886.82629413733 13 16 7
-154.791091938118 -180.323574297927 2898.16994527925 13 16 7
-158.65960910206 -179.239374928294 2904.68535229433 14 17 8
-169.453525159452 -179.586269577651 2906.9530097901 18 19 11
-159.421662209494 -175.646372094089 2921.91496338407 16 17 9
-164.119544494828 -174.745752352297 2927.86416589606 16 19 12
-213.312356916899 -182.923448989162 2907.0711444683 8 13 9
98.775405763365 -191.894613009984 2788.36901684237 21 23 18
89.3168913763596 -192.140339681755 2790.71289531539 19 22 15
108.073884298316 -185.760769143823 2813.65434643466 16 19 12
112.392810279554 -182.797660584 2825.93156827735 12 15 8
88.3892697805662 -186.445569251673 2817.71531893685 14 17 10
89.4853271213529 -184.239377365886 2827.63713166525 14 17 10
88.1698152342101 -182.601801258934 2835.78630581316 17 20 13
138.307450938351 -169.124790952021 2880.36392443755 18 21 14
98.693140253078 -176.330460469723 2861.2519320729 16 19 12
90.9073878093301 -176.203926936326 2864.71353194799 15 18 11
109.421738361714 -170.085027099546 2886.51754822523 16 19 12
102.500908251839 -169.776431602095 2890.51060591781 18 21 14
123.659851967246 -163.118679062063 2913.85958784884 19 22 15
111.822996814448 -163.935307039348 2914.39850702911 21 24 17
105.765772919111 -163.444411653351 2918.92395645802 21 24 17
104.696706331256 -161.837314203964 2926.83291151289 22 25 18
73.6300986196756 -166.918110033641 2914.50622219686 21 24 17
40.7726214414623 -172.35422927609 2901.17625290291 19 22 15
45.4850127331756 -169.439661831682 2913.06993223146 15 18 11
13.3005335976328 -174.669039215097 2900.45801889365 13 16 9
-119.762000116612 -200.020261992715 2830.87126543581 8 11 4
-99.2084879946384 -193.576455375543 2853.43649952729 7 9 4
-66.6708227420067 -184.572994278776 2883.56105840348 8 10 5
-102.75300115887 -190.471784451533 2869.25058187565 9 11 6
-119.394752094568 -192.13323105307 2867.60047514889 11 14 7
-118.169035984296 -189.941071893227 2877.39527099124 14 17 10
-134.013761491931 -191.411942977812 2876.34244857175 15 18 11
-132.762793720028 -189.222862291407 2886.11296197984 15 18 11
-155.531705220572 -192.146340053462 2880.8147030164 14 17 8
-176.655286138208 -194.695573672173 2876.66111197617 14 17 8
-162.470625390363 -189.77607954313 2894.43971428339 13 16 7
-175.869048386126 -190.682359718251 2895.12563465391 13 16 7
-174.567481672748 -188.499762732147 2904.84652301121 13 16 7
-161.073040569058 -183.784603530325 2921.92381492369 17 18 10
-180.57480857206 -185.956287454876 2918.93809448194 12 15 8
104.475702411281 -198.108115026074 2793.54593179756 22 25 18
102.273421014293 -196.639215864237 2801.18370223872 21 24 17
38.8903650034265 -207.698959416353 2773.65311444865 15 18 11
119.271060531327 -186.69281678694 2840.93239545956 15 18 11
137.502825509854 -180.459657618364 2863.00013590969 13 16 9
142.817240318073 -177.295624748497 2875.67637326559 14 17 10
111.44653650039 -182.718049620907 2862.28490134189 16 19 12
98.7735534835394 -183.744782656856 2862.2679141276 15 18 11
103.291726750986 -180.773458549904 2874.34640405738 14 17 10
90.591486199481 -181.796313074306 2874.35591073564 14 17 10
103.404996457333 -176.935075063571 2892.08778665988 14 17 10
117.130689842943 -171.895449725064 2910.3043950023 16 19 12
109.418579840254 -171.785482641563 2913.69531535883 19 22 15
95.0562793076291 -173.18524877779 2912.57716090429 18 21 14
102.280703370152 -169.674382865206 2926.13928769873 17 20 13
92.0543045895101 -170.127554723572 2927.85909987432 17 20 13
53.3903471449229 -176.97495894283 2910.58459771565 15 18 11
-8.44688054641063 -187.044061578471 2887.04053837079 14 17 10
-103.648817697187 -204.350824555159 2842.43399644082 11 14 7
-93.2045747816019 -200.070506507529 2858.35338378184 10 12 7
-76.7543966930138 -194.493267777744 2878.03614530962 10 12 7
-97.5716148781536 -197.130598132206 2873.59135220621 10 12 7
-120.159842713562 -200.131164230385 2868.12506531471 10 13 6
-124.908079874142 -199.217945760856 2874.12240887574 12 15 8
-111.694929866901 -194.406780808503 2891.46449955525 12 15 8
-144.674796101704 -199.61792568542 2879.64006045047 11 14 7
-160.598571594479 -201.110261647839 2878.66890833437 12 15 6
-175.326005636413 -200.384251738458 2887.51818898908 11 14 5
-143.786240238459 -191.722388576364 2915.85000872077 11 14 5
-173.614029226209 -196.156016571634 2906.44823092873 10 11 3
-184.439675560886 -196.530135108987 2908.75142073766 17 18 10
-174.394338455817 -192.494031558311 2923.68611292371 17 20 13
-163.406329923123 -188.283767511874 2939.07588691939 3 8 4
85.1535081043631 -212.405778028914 2770.91911529937 14 14 12
114.992390149507 -203.11221548482 2802.26348176902 20 23 16
60.510610990173 -214.302036516456 2771.58099498786 20 23 16
-5.50010771782095 -228.18584021339 2732.90666541095 19 22 15
21.1848761900715 -219.679399754913 2761.83126054171 17 20 13
83.6887118707716 -202.651707750506 2816.27650887258 17 20 13
161.143562753723 -182.176499603482 2880.87169363962 13 16 9
117.650160356564 -190.601334861902 2858.70666657985 13 16 9
104.179802781994 -191.84787742381 2858.09706252296 14 17 10
111.128447687608 -188.261540229771 2871.92222531654 15 18 11
100.911577952675 -188.732778460133 2873.63524521076 15 18 11
103.00469855422 -186.311754159258 2883.95211656251 14 17 10
105.957594493407 -183.702816739031 2894.8043541349 12 15 8
116.384455157522 -179.369889035771 2910.73322662446 12 15 8
92.9391988119854 -182.912703955286 2903.36396937428 13 16 9
85.1777509203178 -182.803858665829 2906.80404878459 15 18 11
79.9011112260737 -182.11940106817 2911.94266747002 15 18 11
89.6332497883723 -177.995092576075 2927.17499594516 16 19 12
76.0360670306235 -179.2237008372 2926.68868048817 14 17 10
12.9797774940634 -191.692739567148 2893.37358901557 13 16 9
-38.588435787092 -201.462172413779 2868.09008708383 15 18 11
-79.4290202145591 -208.732732613751 2850.20539348734 14 17 10
-120.431303841571 -215.982200434408 2832.47815214189 11 14 7
-117.634825563399 -213.351539142536 2843.48250398521 9 11 6
-105.478008857548 -208.64313701462 2860.47216607332 8 10 5
-104.279607832644 -206.403543609693 2870.28707543853 9 11 6
-116.668278390553 -207.189466943829 2871.36941734056 9 12 5
-126.527747429301 -207.405685743984 2874.10675061743 11 14 7
-139.825854948823 -208.372806256571 2874.70171057041 11 14 7
-127.447944733031 -203.692748229227 2891.47601278048 14 17 10
-121.000622434151 -200.338202464758 2904.4160078458 16 19 10
-150.654335561646 -204.86943249254 2894.85579568899 17 20 11
-146.7664466326 -202.080544181604 2906.17022189738 17 20 11
-171.371116474619 -205.471093334024 2899.9297745746 17 20 11
-170.060385128298 -203.245660950967 2909.63523126294 21 22 14
-168.717725311613 -201.024325665659 2919.30992589948 20 21 13
-154.285725719284 -196.012119023581 2936.82921420885 21 24 17
-158.085438111115 -194.919286238164 2943.27502105302 19 24 20
78.8290766232072 -221.614286606103 2767.22409473088 16 16 14
59.685497111913 -224.266682227078 2762.53682748294 20 22 17
103.240434892192 -211.499821748349 2803.83708138233 18 21 14
45.4009773392761 -223.625875174546 2770.9588806658 18 21 14
55.22782891736 -219.165325771697 2787.46470861608 19 22 15
133.209954698255 -198.181482930083 2852.8780349469 17 20 13
122.225982594442 -198.87168843952 2853.96825278378 16 19 12
68.0544483648839 -209.963033908686 2824.38004287368 15 18 11
87.1183355271112 -203.378316168592 2846.98642280875 13 16 9
120.209605308331 -193.479772593638 2879.26277004034 14 17 10
106.733662519567 -194.751852178335 2878.66248654453 18 21 14
103.085411015031 -193.675076549812 2884.96026372939 19 22 15
100.269741076736 -192.404188060117 2891.81949463276 16 19 12
80.1205093608735 -195.225769337024 2886.73861329658 16 19 12
120.341917314437 -183.835582535978 2923.05045177057 14 17 10
80.2794819286499 -191.320645250405 2904.42474805049 13 16 9
74.9912737989074 -190.634316485851 2909.57457780574 12 15 8
64.7014912581816 -191.11078077658 2911.3607736034 14 17 10
50.2109956247216 -192.551939458056 2910.37603657917 11 14 7
34.0035477615772 -194.374162812692 2908.31842321507 10 13 6
-3.24235860314559 -201.016098326982 2892.43922582203 12 15 8
-113.002366977234 -224.219388865292 2829.15271734591 13 16 9
-132.995054458611 -226.757989004236 2825.29180794184 9 12 5
-114.166147627722 -220.442590280904 2846.75408489292 7 9 4
-110.47505058615 -217.598494795607 2858.25576875843 7 9 4
-77.0176143391641 -208.047308196336 2888.80293716817 8 10 5
-94.4513711673602 -210.011695995311 2886.56683141762 9 12 5
-111.085118097407 -211.777759857065 2884.92423898029 11 14 7
-132.898169786816 -214.683545936075 2880.09142943087 12 15 8
-125.64743962047 -211.093204093486 2893.6156873676 14 17 10
-120.914273608799 -208.081994651155 2905.47479128903 16 19 10
-116.133826906126 -205.076922597664 2917.28785188876 17 20 11
-133.738256476689 -207.018821399949 2915.2179028305 17 20 11
-157.448455365169 -210.28215963389 2909.48767806966 16 19 10
-169.973035366837 -211.071251145941 2910.70511047177 12 13 5
-174.710490965958 -210.15278735498 2916.69097252668 24 25 17
-160.292751369192 -205.076423479876 2934.21493881143 13 16 9
-183.299241147627 -208.129078103296 2929.17169087368 17 22 18
66.0996758071013 -232.471191514941 2758.79732326902 17 17 15
90.270943356952 -224.336903163159 2786.02201402656 20 22 17
80.7920982765262 -224.632506561228 2788.39311509506 18 21 14
107.590566309183 -215.924517190533 2817.17522997111 18 21 14
134.545454116741 -207.236436962262 2845.80529810293 19 22 15
96.8196365049603 -214.529932766783 2827.66480352152 18 21 14
88.9982860691649 -214.430282956547 2831.16572613148 16 19 12
68.1369717647486 -217.513250417106 2825.41401462032 15 18 11
59.4466453881104 -217.605205734272 2828.3889151798 14 17 10
80.1976076706512 -210.548559879942 2852.08441028909 14 17 10
101.893630907665 -203.309681194318 2876.23142128486 16 19 12
100.700097985529 -201.631593064477 2884.25381870004 17 20 13
103.646818418725 -198.967183537035 2895.10398988796 19 22 15
114.066954092115 -194.530183111083 2911.02415848976 19 22 15
98.8964342983967 -196.217637474886 2909.33385074384 18 21 14
91.9786975798447 -195.928967076632 2913.32644373207 17 20 13
65.0913959370154 -200.361332202478 2903.83868836402 16 19 12
82.2915473551671 -194.36596499468 2924.13216324217 14 17 10
48.6218831772258 -200.355487035351 2910.27325317746 12 15 8
37.4365431870824 -201.035874693303 2911.56198122807 11 14 7
-56.8879329033516 -221.091583397425 2857.98860672362 13 16 9
-109.548854960768 -231.319230940574 2832.44065753223 14 17 10
-102.54467580343 -227.656558731642 2846.19905386903 12 15 8
-114.078630365407 -228.291199434349 2847.82719996294 9 11 6
-101.067974409346 -223.274871397384 2865.34038505636 8 10 5
-99.0109304261599 -220.797996186493 2875.68482628334 7 9 4
-92.6626482109598 -217.354541246675 2888.71002887855 8 11 4
-100.761438437907 -217.215905862227 2892.4806912516 10 13 6
-120.840795016286 -219.788042479545 2888.71080221891 11 14 7
-131.558904717519 -220.223452983266 2890.91626548701 12 15 8
-114.81558166679 -214.472474216825 2910.28225103236 11 14 5
-112.604410845571 -212.015265018149 2920.47654865878 12 15 6
-125.02420182332 -212.839119957772 2921.59506203048 14 17 8
-141.797267061372 -214.621350701872 2920.09320419066 15 18 9
-164.685832533088 -217.742739580885 2914.94301456605 19 20 12
-182.439676635448 -219.702317048839 2913.02438708768 21 22 14
-179.355937684696 -217.053618208767 2923.74081889489 16 19 12
84.734557503098 -233.346051267294 2782.93223426956 20 22 17
87.3115609992507 -230.608438104634 2794.13872037607 18 21 14
94.7675989081964 -226.65938432353 2808.82333438124 19 22 15
101.477948262779 -222.920780258133 2822.86228536056 20 23 16
92.0390957164283 -223.233910295287 2825.19660152312 19 22 15
77.7072615428489 -224.756267378785 2824.06597457014 15 18 11
70.6626835081296 -224.457487053346 2828.18336645956 15 18 11
81.5684279027251 -219.725491533075 2844.99462759419 14 17 10
90.9162307864602 -215.405869559505 2860.5797398324 13 16 9
84.7524826469286 -214.913456802876 2865.2107451438 10 13 6
85.1621754579868 -212.814833209962 2874.41277938354 9 12 5
100.432008164006 -207.111420328021 2893.83208352261 12 15 8
101.758503613758 -204.824053052778 2903.5127322732 14 17 10
106.428520813635 -201.74084255377 2915.42390217352 16 19 12
101.188097387906 -201.060036575399 2920.52709727668 18 21 14
98.4437832509744 -199.780836267691 2927.31424233139 17 20 13
64.0318565703342 -206.072684135685 2912.82018421205 15 18 11
84.6363082175889 -199.21643064267 2935.27353729178 14 17 10
19.0931135687076 -212.841306459253 2900.34774578041 13 16 9
-29.098485640024 -222.262618370036 2877.32773914981 16 19 12
-54.7678997635259 -226.30705365574 2869.40742408785 15 18 11
-110.890789371286 -237.465363782358 2841.76649841978 13 16 9
-116.526731059794 -236.732101814073 2847.25469603231 9 11 6
-173.842931504752 -248.042482375353 2819.40465013405 9 11 6
-159.215033931391 -242.561537537621 2838.07703886947 8 10 5
-127.471154957957 -233.153976391561 2867.5132041267 9 12 5
-101.527665036383 -225.145452452538 2892.99663979614 11 14 7
-115.623682586651 -226.387745683092 2893.00769729476 11 14 7
-130.614521648473 -227.821245784275 2892.5183389145 12 15 8
-132.764251594049 -226.310394292787 2900.09806229355 12 15 6
-136.619437097104 -225.192953007654 2906.5949797897 11 14 5
-137.877787777426 -223.490359204547 2914.67812026914 12 15 6
-126.146633378575 -218.862773543496 2930.68516879934 12 15 6
-143.800388669242 -220.872590907804 2928.67457708611 13 14 6
-148.480199620668 -219.955513704476 2934.60306424877 15 16 8
-150.543997523354 -218.455747634208 2942.09875641733 17 20 13
-142.123332304522 -214.62809406192 2955.84342414182 15 20 16
100.695907470667 -238.978394649261 2786.33600819007 22 22 20
77.5935064337911 -242.803874848103 2778.66806835489 20 22 17
87.3941181806233 -238.185637109865 2795.1766465784 18 21 14
111.786562124636 -229.87926826632 2822.15627248542 19 22 15
