ply
format ascii 1.0
comment KinectMotionCapture
element vertex 753
property float x
property float y
property float z
property uchar red
property uchar green
property uchar blue
end_header
-133.099820967515 571.115604931991 2784.80115044954 117 116 112
-138.235490586535 570.790210377959 2779.84150912533 109 108 104
-151.085287078598 569.045216824633 2782.86882840669 111 110 106
-177.863886010702 564.726700561086 2800.48832559012 91 90 86
-205.20736438057 560.289604332473 2818.93276561229 172 172 170
-219.225513101809 558.304065868172 2823.58227075687 159 159 157
-227.655589909054 557.348900671837 2822.40673106634 177 177 175
-236.068895567914 556.394795406482 2821.24335450795 179 179 179
-244.465475370705 555.441786633209 2820.09240291054 185 185 185
-250.789016761288 554.873239864345 2816.74048963318 180 180 180
-254.376390865619 554.815196900953 2810.43422722292 186 186 186
-257.977834332207 554.755775187051 2804.11775864807 190 190 190
-260.914625290745 554.822299243827 2797.04871217165 188 188 188
-266.575971525995 554.378662759254 2792.94243436035 193 193 195
-267.517878878969 554.823238152148 2783.61603212245 196 196 198
-269.835614961511 555.011555625895 2775.76103753837 195 197 196
-267.487110115127 556.083815579893 2762.64762704769 200 202 201
67.0572960473921 585.06759145959 2832.39502454517 209 213 214
61.8236911407006 584.734830621296 2827.3643505292 219 223 222
51.308247066316 583.488998442313 2827.14597905263 144 146 145
40.0667159828596 582.1148723408 2827.63563840291 145 147 146
23.6091771713944 579.832709260311 2832.98534840816 208 210 209
6.46508708056581 577.425305732775 2839.07176500091 216 218 217
-7.6342628996402 575.541584933756 2842.42788471729 147 149 146
-17.9719922136665 574.309104115527 2842.3384100904 166 168 165
-25.3218634952836 573.59591620162 2839.47679236535 162 164 161
-34.1407103810349 572.624849429003 2838.01934440352 146 146 144
-45.1517299457258 571.267914094246 2838.67648802476 157 157 155
-53.1965664201464 570.428595009115 2836.5454729501 153 153 151
-60.4976254683778 569.718714606891 2833.71955148496 151 151 149
-67.7908509654457 569.009289578228 2830.89931103478 144 144 142
-75.0760099884999 568.300388177912 2828.08462631902 152 152 150
-80.9030565884443 567.848256980609 2823.85818574974 144 143 141
-86.7310337735354 567.395901035992 2819.63106944103 132 131 129
-93.2809671183266 566.815416940646 2816.11527381673 119 119 119
-99.8272168825198 566.235131282308 2812.60185502672 121 121 121
-104.937332656359 565.909835328819 2807.66073872966 127 127 125
-109.338568047374 565.711249779417 2801.99881565732 126 126 124
-114.461618462557 565.384607256652 2797.04831594207 125 125 123
-120.299744730912 564.93038360634 2792.81383288601 121 121 119
-125.431110670123 564.60272848403 2787.85700546389 120 119 117
-129.862707495229 564.401006624369 2782.17335133103 112 111 107
-135.710262999561 563.94545153454 2777.93202607658 110 109 105
-147.867484631557 562.353100994219 2780.22714419203 101 100 96
-176.75608725665 557.737032209759 2800.02095187115 98 97 93
-204.106791621103 553.383947837312 2818.46057915225 158 158 156
-220.212214555357 551.053379674021 2825.30063139635 162 162 160
-227.946433316006 550.234743301674 2823.39489449334 159 159 157
-235.668426176772 549.416809002865 2821.49831843922 171 171 171
-243.378029132046 548.599579705502 2819.61072766298 184 184 184
-250.389748453522 547.908180311293 2816.99464835052 181 181 181
-255.343523620695 547.591845573962 2812.16691208603 191 191 191
-257.57798796819 547.773765347579 2804.37225055418 193 193 193
-262.551044733561 547.455420507145 2799.5305264661 192 192 192
-268.205945385295 547.011977595736 2795.42892217633 192 192 194
-271.163775597292 547.065027706753 2788.34455564788 193 193 195
-270.106443578355 547.860584890242 2776.76381812391 194 196 195
-267.753898111271 548.900033875678 2763.65287609437 197 199 198
73.553827939052 578.663983426969 2827.19118163152 205 209 210
63.0099936818436 577.432031542101 2826.95200533495 209 213 212
55.5071240343779 576.712493537985 2823.97973814191 139 141 140
42.7498145409397 575.101191992759 2825.83974376952 144 146 145
26.2834889873829 572.856224538908 2831.18327248109 192 194 193
9.13022408243114 570.488743773724 2837.26353474897 225 227 226
-1.25140322545647 569.268976559691 2837.14200744939 149 151 148
-10.8648824087689 568.177844239518 2836.34323652733 155 157 154
-22.679474086043 566.708372934137 2837.65202571037 183 185 182
-33.7213018224742 565.36792996874 2838.28662489051 152 152 150
-43.2607018263966 564.282231322007 2837.54158306914 125 125 123
-51.3106828452146 563.450302397667 2835.4071705141 173 173 171
-60.0803483275687 562.493226956257 2833.98544607004 164 164 162
-68.1036626418245 561.663129741398 2831.8703740562 147 147 145
-74.6595364037323 561.085021750767 2828.34998965518 147 147 145
-80.4866819106909 560.632494206094 2824.12347537851 153 152 150
-86.3147580027963 560.179741914108 2819.89628536242 149 148 146
-91.4229388935055 559.851824620324 2814.95655842583 136 136 136
-97.2551854906441 559.398405879936 2810.72634174595 127 127 127
-101.655264735542 559.19423832882 2805.06522851466 120 120 118
-106.779477401424 558.864574203842 2800.11387095406 120 120 118
-110.484790108607 558.783146205113 2793.72199388385 119 119 117
-115.624196954522 558.45189271921 2788.75961368746 124 124 122
-120.768963774003 558.120055656135 2783.79334497591 117 116 114
-125.918900838156 557.787610155759 2778.82303068479 112 111 107
-131.777632021598 557.330821120304 2774.57359769188 110 109 105
-146.05084832357 555.391144075587 2779.0384312009 101 100 96
-174.250282363742 550.987783611202 2798.09787267519 101 100 96
-205.096273870751 546.102328046654 2820.17676724853 152 152 150
-221.199667670538 543.812659189469 2827.01820314153 163 163 161
-229.622471760955 542.87938183442 2825.84804646487 167 167 165
-235.268218565331 542.437875363038 2821.75308780286 182 182 182
-242.290636065186 541.751016112345 2819.1292761493 182 182 182
-247.933612166192 541.309256148314 2815.0363247453 182 182 182
-253.577465755249 540.867186122704 2810.94273566096 188 188 188
-256.49711332704 540.912814541928 2803.88601095092 190 190 190
-260.793262637133 540.713003895158 2798.30026081593 190 190 190
-267.129584578095 540.147305107168 2794.93909707043 190 190 192
-271.438488914362 539.946053312701 2789.34438772209 193 193 195
-271.722343643448 540.471580055171 2779.26010080311 192 194 193
-269.361675299653 541.478479881339 2766.15517682935 194 196 195
-268.390705519936 542.238961167172 2754.51165580877 198 200 195
67.2212560562171 570.623292919032 2823.79487407647 170 174 173
58.1989633686555 569.658088954459 2822.18997360745 208 210 209
46.9375437328106 568.319900646248 2822.66539735366 191 193 192
34.2064464597667 566.73473959691 2824.544537186 135 137 136
17.0288330951269 564.406001745003 2830.60734497632 144 146 145
5.13349352437942 562.9519149399 2831.85767621367 221 223 220
-8.21385427541554 561.252286812785 2834.52453971861 179 181 178
-21.5182912070919 559.555895969281 2837.22252662509 144 146 143
-35.5182958041365 557.739000810002 2840.65070793788 188 188 186
-43.5789210631772 556.914125639008 2838.50861487459 199 199 197
-50.8929245926932 556.213532269468 2835.67335671936 123 123 121
-56.734852426749 555.75983706335 2831.43612050388 126 126 124
-65.4974371524939 554.813730666036 2830.01958461176 165 165 163
-70.6048211820334 554.483219327118 2825.08042219749 175 175 173
-77.8939771860119 553.784031087724 2822.26288918403 182 181 179
-84.4522231700222 553.207802440649 2818.74108910484 176 175 173
-89.5645940801832 552.876428671794 2813.79801274898 158 158 158
-95.4013448999924 552.422256704338 2809.56452704672 149 149 149
-99.8057438324207 552.211924546753 2803.90054563383 134 134 132
-105.648879851472 551.756906715966 2799.6624268799 127 127 125
-109.355980047711 551.6667308013 2793.26920971081 118 118 116
-114.497574370002 551.332193427026 2788.30522713257 113 113 111
-118.228682678633 551.239773868435 2781.89459460594 111 110 108
-122.679551779598 551.024890080974 2776.19660844423 117 116 112
-129.250738154477 550.446019548443 2772.66511974085 117 116 112
-142.83135552362 548.658987466892 2776.39776954471 119 118 114
-172.442777567604 544.100603120676 2796.90291881359 119 118 114
-201.905199391183 539.553602400136 2817.51613918238 148 148 146
-218.714698599906 537.18351042421 2825.08062794268 152 152 150
-227.837485959127 536.140105413468 2824.63781174401 169 169 167
-234.177996124548 535.577980552484 2821.27362996787 176 176 176
-241.8910977883 534.776299931741 2819.3835816603 177 177 177
-247.534248315655 534.334197246247 2815.29050207496 189 189 189
-253.861838289711 533.772372267163 2811.93568794023 204 204 204
-256.778886346633 533.806889823104 2804.88079139529 203 203 203
-261.751991569482 533.482447187924 2800.03900129281 201 201 201
-266.053227146644 533.276250115278 2794.44953166577 192 192 194
-269.689354671355 533.187791070991 2788.10777279718 192 192 194
-267.959001734943 534.046524027915 2775.78020586781 190 192 191
-268.288971347271 534.545940891765 2765.66235703415 189 191 190
-269.991596871438 534.805747392206 2757.01888917478 193 195 190
82.7604753472304 565.110984637399 2820.21004737724 207 211 212
72.9468176874017 564.031326886516 2819.26622092648 190 194 193
60.8914130845633 562.586587343693 2820.40056495184 177 179 178
48.8701099212183 561.14444152471 2821.55993745319 200 202 201
38.3829797299202 559.948657907892 2821.36205034353 149 151 150
27.1732688773421 558.633040169348 2821.87536769166 135 137 136
13.0116878032722 556.833554731133 2825.18650695171 188 190 187
-3.3324549551117 554.673613293917 2830.61903925255 209 211 208
-19.6158713501229 552.518322522205 2836.0956169467 125 127 124
-33.6223249655974 550.730578083132 2839.51956535957 139 139 137
-40.9510173527703 550.034011977759 2836.67338485981 179 179 177
-49.741111714426 549.096560725882 2835.23724496258 189 189 187
-55.5852809314163 548.642295607951 2830.99838103406 137 137 135
-62.8905033399565 547.947212625885 2828.169221935 128 128 126
-68.7322985714496 547.492870980086 2823.9320785716 142 142 140
-75.3006554776094 546.918351989326 2820.40266305189 175 174 172
-81.1421677529527 546.463704675147 2816.16572326117 177 176 174
-86.9846620600154 546.008888189725 2811.92807071781 175 175 175
-94.2662905878116 545.31489052009 2809.11631530077 169 169 169
-99.38954065512 544.979210507182 2804.16562507676 147 147 145
-103.803360154672 544.762070694888 2798.49448553459 136 136 134
-107.51455882523 544.662959648707 2792.09825203579 127 127 125
-111.950311675809 544.443754629673 2786.41149655571 124 124 122
-117.103718830854 544.1049938879 2781.4386347337 114 113 111
-121.556809987909 543.884055681696 2775.73930156631 114 113 109
-127.426863903001 543.42563245292 2771.48165220608 118 117 113
-140.312201593751 541.785985587356 2774.48374051576 114 113 109
-169.23656769494 537.43742007005 2794.25297744461 119 118 114
-199.410270617174 532.864381534243 2815.58547970802 152 152 150
-214.839486543314 530.77223688796 2821.68189987619 157 157 155
-223.974092962232 529.741276529706 2821.23028434652 176 176 174
-231.706808788807 528.946191845713 2819.32605072345 175 175 175
-238.739017237975 528.268875098963 2816.69518973645 193 193 193
-245.077155192799 527.708884087486 2813.33273843477 201 201 201
-250.044218993159 527.382332018944 2808.49531720369 203 203 203
-254.33488335785 527.171704004757 2802.91348843057 200 200 200
-258.635348400941 526.959993665621 2797.32484393136 198 198 198
-261.590925293719 526.979759425738 2790.24164781329 189 189 191
-264.565139219495 526.997756889546 2783.14522683251 191 191 193
-266.212341602673 527.245702990671 2774.54158183855 191 193 192
-269.227867005976 527.259965429282 2767.41519436744 188 190 189
-272.261865436669 527.272462499488 2760.2754064626 191 193 188
75.6477118947938 556.921825253398 2817.48274138536 194 198 197
64.338907659474 555.617436867753 2817.92398622746 144 146 145
53.0599137575498 554.31531409203 2818.38685269217 133 135 134
41.8105890534886 553.015385748861 2818.87123810682 159 161 160
32.0867451612688 551.955669603606 2817.99262058109 161 163 162
17.1645168152943 550.065895501922 2821.98692970004 137 139 136
-1.42324320064779 547.586953314235 2829.49709900966 138 140 137
-16.9720466412044 545.587491648265 2834.27167151083 193 195 192
-31.7258095672752 543.710509197431 2838.38846407715 173 173 171
-39.0594465051852 543.018601239065 2835.5390172385 137 137 135
-47.8544627531534 542.091315556418 2834.09906637443 127 127 125
-51.5057907184542 541.989616600069 2827.74622131931 167 167 165
-59.5527900136719 541.181079956981 2825.61408876585 206 206 204
-66.1314409687832 540.608176529875 2822.07721905352 195 195 193
-74.1583454237786 539.800939201965 2819.95966025988 133 132 130
-78.5550414155494 539.5799096155 2814.30120868848 139 138 136
-84.4042513384462 539.124101011687 2810.05868282661 130 130 130
-90.9735804975642 538.551415059679 2806.52857178469 131 131 131
-97.5395262656558 537.978764224817 2803.000913613 134 134 132
-101.957687874979 537.755428117695 2797.32688947435 125 125 123
-106.385522986206 537.531148631121 2791.64555355231 116 116 114
-110.823123386656 537.305928687677 2785.9571338001 117 117 115
-116.686992252142 536.848036388805 2781.70397080359 114 113 111
-119.72783220636 536.852660601946 2774.55918345477 108 107 103
-126.306191547975 536.27798848433 2771.02251618052 108 107 103
-135.687611689294 535.241860286561 2770.39224841711 98 97 93
-162.532335476381 531.327471281647 2787.96585726622 111 110 106
-192.034390674759 526.963033209087 2808.5512712716 146 146 144
-210.962788163278 524.332784705614 2818.28381206987 162 162 160
-219.416629142983 523.428926085621 2817.0913051015 157 157 155
-228.544443285225 522.411610231432 2816.64497702726 166 166 166
-235.585918066083 521.738740520395 2814.00742120378 137 137 137
-242.619297348595 521.066307173278 2811.37544171307 146 146 146
-248.960805614638 520.50822377826 2808.01055686331 159 159 159
-253.25366961318 520.291573033689 2802.42739749938 181 181 181
-257.556061026524 520.073960872443 2796.83703216234 185 185 185
-261.190825996938 519.968794326272 2790.49617641166 190 190 192
-264.164610257574 519.975564888584 2783.40001003784 195 195 197
-265.811056857105 520.20684394836 2774.79682850572 191 193 192
-268.826175017508 520.209847797115 2767.6706792267 189 191 190
-271.859743783061 520.211117965826 2760.53114592883 192 194 189
78.3493592698723 549.795268032209 2815.69972144166 205 209 208
68.5420392695879 548.742490238459 2814.76033097082 158 160 159
58.0032572032949 547.574704646587 2814.5254366072 149 151 150
45.9893623820489 546.17596542952 2815.69039943684 140 142 141
34.7577380117672 544.896081209219 2816.18771772862 145 147 146
19.8270249694459 543.038060644157 2820.17603694804 146 148 145
4.20443373635049 541.068089656781 2824.89756295681 136 138 135
-10.6206636041668 539.218127677372 2828.96278054777 159 161 158
-24.65467656136 537.487674977732 2832.36674632261 191 191 189
-34.2194486613039 536.453063031878 2831.60357049158 167 167 165
-45.2327583883707 535.189580240365 2832.25923280377 131 131 129
-50.3555718764943 534.848648267596 2827.30883246312 118 118 116
-57.6747639919957 534.162590032054 2824.46959213747 160 160 158
-64.2582093002337 533.591638576047 2820.92955126039 201 201 199
-71.5639747309054 532.906339460731 2818.10004807021 195 194 192
-76.6907786610578 532.564546523318 2813.14675061202 188 187 185
-82.5444703843852 532.108016380796 2808.90097214264 149 149 149
-88.399142488909 531.651287328833 2804.65448196649 137 137 137
-94.9719814442549 531.080408077721 2801.12183574967 126 126 124
-99.3965839974766 530.850695288422 2795.44311013418 127 127 125
-105.25645183271 530.393037501899 2791.19284875773 123 123 121
-109.696015643113 530.161803606463 2785.5029752259 109 109 107
-114.145441033791 529.929621453507 2779.80594802096 113 112 110
-118.604816491018 529.696434489218 2774.10199718789 110 109 105
-124.481739676577 529.236737847144 2769.8393616968 109 108 104
-135.271869321933 527.988258324743 2770.65688800764 100 99 95
-155.825547033722 525.167544771142 2781.68033700223 108 107 103
-188.839666745951 520.33252556496 2805.89316900417 142 142 140
-209.865407926453 517.416683260024 2817.8092583763 152 152 150
-219.015095975858 516.41129622262 2817.34683938474 166 166 164
-225.380988592308 515.854354460044 2813.96457805859 162 162 162
-232.431637917539 515.185928862141 2811.32009944539 146 146 146
-240.160745350808 514.406430914937 2809.41856057353 149 149 149
-247.193379759338 513.738967262142 2806.78744070737 178 178 178
-252.172370757986 513.405116113112 2801.94133622443 184 184 184
-255.797190563747 513.292420973971 2795.60765180203 177 177 177
-260.113501297714 513.067676939095 2790.00715992808 193 193 195
-263.764248434826 512.952463190258 2783.65466747262 197 197 199
-267.429066584718 512.835900429108 2777.29196780668 191 193 192
-269.095422699961 513.048599352559 2768.67425932968 189 191 190
-272.126348756689 513.0388517729 2761.53658598076 191 193 188
85.5932124299295 543.33681641135 2809.80201876429 223 227 226
75.7651837076661 542.295634465519 2808.84796931122 155 157 156
62.1954603577222 540.686755054397 2811.35408769427 158 160 159
51.6700529393965 539.535914941103 2811.12897473058 148 150 149
35.1849338927268 537.47881289888 2816.45983121327 140 142 141
20.9982546819201 535.766432003955 2819.75321750006 156 158 155
5.37136165223373 533.831271758321 2824.47180136795 131 133 130
-6.49177454506455 532.465387159251 2825.74621875655 133 135 132
-21.2777817520156 530.650813346527 2829.83965839057 135 135 133
-31.5893072165923 529.516075308553 2829.76967457981 135 135 133
-40.4055172728774 528.608162257836 2828.314457998 177 177 175
-45.5414215485612 528.263033234984 2823.35454660719 163 163 161
-55.0659601070955 527.244515216571 2822.62032397084 130 130 128
-61.6562280348214 526.675370932997 2819.07534638497 133 133 131
-70.4213691722417 525.770967724185 2817.65716853035 129 128 126
-74.1022891359644 525.649127572832 2811.28276958492 140 139 137
-80.6843777933919 525.080217336287 2807.74342803511 172 172 172
-85.1046241735205 524.845211655054 2802.06783349292 182 182 182
-93.1212339240619 524.053774138721 2799.9578175794 188 188 186
-99.6953264379923 523.485003856545 2796.42427331356 155 155 153
-105.553054413267 523.027131087744 2792.17556207833 135 135 133
-108.568896657859 523.011376463449 2785.04879287987 130 130 128
-112.311871533766 522.88355327111 2778.629378699 122 121 119
-116.069018665076 522.7544624804 2772.19968432709 122 121 117
-122.656762366589 522.183749886375 2768.65623418585 117 116 112
-129.943125442022 521.50316948689 2765.8411145553 112 111 107
-147.71685629513 519.177059760525 2773.94187062683 110 109 105
-180.064085440953 514.55575206578 2797.40419169425 158 158 156
-206.682032636123 510.822476646482 2815.14311311052 164 164 162
-217.227774109217 509.611195677703 2816.13799004094 159 159 157
-225.670834490944 508.729195421461 2814.95340887503 141 141 141
-233.40852911099 507.957156847135 2813.04568275141 153 153 153
-241.820192972916 507.077162364804 2811.88387175238 167 167 167
-248.846683843674 506.41533437519 2809.2572340136 172 172 172
-253.13691472887 506.187311219594 2803.6756313692 169 169 169
-256.077264118938 506.174610487908 2796.60360402065 179 179 179
-261.068940109396 505.836221763931 2791.74828093273 178 178 180
-263.364128445324 505.928490551374 2783.90914518583 193 193 195
-268.375111757267 505.58811951233 2779.03981576771 191 193 192
-268.69424338652 505.999440896902 2768.9293773983 189 191 190
-271.056025140864 506.085682987146 2761.04223061183 192 194 189
-268.108046484446 507.026942266466 2747.12739682898 191 193 188
96.6248978270357 537.385933778241 2800.47728982588 221 225 224
86.7654581169166 536.355549576407 2799.50023009305 153 155 154
67.8943603206284 533.9930959333 2806.80559183641 144 146 145
53.6002400106357 532.302151865888 2810.02120035926 155 157 156
37.1084991200346 530.282450703105 2815.34744596879 150 152 151
22.1694408884852 528.488616354417 2819.3303351753 131 133 130
10.2578694957889 527.1405144828 2820.5694364531 145 147 144
-3.84486317221122 525.46412940614 2823.92415418322 140 142 139
-16.4209738699257 524.011568836115 2825.91602426213 142 142 140
-28.221387048462 522.671870003789 2827.23604354168 134 134 132
-37.0470385162747 521.773736876826 2825.7740322164 141 141 139
-47.321995708308 520.657614156331 2825.73065181707 175 175 173
-56.1101004078761 519.762209081299 2824.29587276349 186 186 184
-61.9675716951948 519.304939609283 2820.04735066266 146 146 144
-68.5522842680064 518.738430598243 2816.50611914328 142 141 139
-74.4095730165359 518.28092200269 2812.25772815751 151 150 148
-80.9899049344667 517.71443470499 2808.71996685534 135 135 135
-85.4075205052587 517.473761960434 2803.04595626117 143 143 143
-91.9874818060289 516.907040417266 2799.50816796376 152 152 150
-98.5641290808514 516.340388602182 2795.97307690471 157 157 155
-103.710964995461 515.98997246587 2791.00491967825 148 148 146
-108.15259091718 515.746752599389 2785.31378504363 123 123 121
-111.895209980962 515.610340186458 2778.89458529247 121 120 118
-116.3584453688 515.365135314542 2773.18748096323 118 117 113
-119.423033791974 515.333647238603 2766.02529492658 112 111 107
-126.016435542467 514.764671864719 2762.47775194424 110 109 105
-139.60505173595 513.125679209252 2766.20535307851 107 106 102
-172.680139314699 508.499051154048 2790.37504371516 154 154 152
-200.715813327702 504.632242797066 2809.55562159314 173 173 171
-215.439880308982 502.799391447724 2814.92920154551 152 152 150
-221.815186309664 502.246496473168 2811.54013675402 150 150 150
-231.630806285134 501.163049237511 2811.82961073647 163 163 163
-240.047868607475 500.293277113116 2810.66423253355 186 186 186
-247.079125405903 499.636190639939 2808.03386941179 177 177 177
-252.738050896099 499.190763780857 2803.92933738164 179 179 179
-256.357857480358 499.061373101467 2797.5992025843 185 185 185
-260.669620218914 498.825357819355 2792.00224503521 169 169 171
-262.964178896042 498.90366769152 2784.16349503675 173 173 175
-267.975185611462 498.560232886004 2779.29413313437 186 188 187
-269.635595819421 498.739867342025 2770.68056749441 188 190 189
-273.330139535736 498.603391540634 2764.29621826752 195 197 192
-273.038329386422 499.091947745017 2753.39401921193 189 191 186
99.3309478621449 530.161753364698 2798.69696698367 200 204 203
87.9539656131008 528.926850159574 2799.08914008476 191 193 192
72.8423529150675 527.152164920242 2802.94703787004 160 162 161
57.0319023320729 525.27319973387 2807.53284158928 150 152 151
39.7807671694608 523.182459307352 2813.54326288607 156 158 157
25.5793558880613 521.528220917276 2816.82655856077 159 161 158
14.40165346885 520.308490763803 2817.36327071784 138 140 137
0.286439632595226 518.66083663491 2820.70879163363 138 140 137
-13.0419480337776 517.124112534887 2823.39022488492 132 132 130
-27.0646952259042 515.483456348909 2826.80281229033 139 139 137
-34.422841691707 514.809666639259 2823.93568974435 135 135 133
-44.705353370089 513.708973135498 2823.88691108867 134 134 132
-54.231573422828 512.716830215294 2823.15160309637 122 122 120
-61.5509371568499 512.045719324867 2820.31260854907 125 125 123
-68.1358731110002 511.481492354333 2816.77122665477 164 163 161
-73.9932574654976 511.023527935016 2812.52276405335 137 136 134
-81.2958185510177 510.353345103847 2809.69595480534 146 146 146
-86.430966434949 510.001123035293 2804.73655581138 141 141 141
-91.5714098789373 509.648371993216 2799.77302079655 134 134 132
-96.0019915257158 509.400475725408 2794.08986870563 140 140 138
-100.442271572423 509.151648997084 2788.39938684765 143 143 141
-106.314413636347 508.691637689355 2784.14021569983 129 129 127
-110.770055995003 508.441293017693 2778.43888416241 127 126 124
-115.941824161034 508.085242590145 2773.45262447603 121 120 116
-118.301571846896 508.147035010761 2765.56682838681 117 116 112
-123.492919562161 507.789114638245 2760.5663655957 116 115 111
-135.689979342412 506.38780871468 2762.83357186594 114 113 109
-161.80430043592 502.907354146507 2779.70382654947 124 124 122
-191.965181140724 498.813106129877 2801.04834355733 155 155 153
-208.797867134871 496.702101328085 2808.59704157264 141 141 139
-217.266917204188 495.839274773888 2807.39401152315 156 156 156
-226.40795945341 494.874168420284 2806.93806408626 166 166 166
-234.154363367351 494.117017431789 2805.02409981819 179 179 179
-242.572896918258 493.257541058847 2803.85741276328 176 176 176
-248.927702407345 492.707785513785 2800.48322513197 183 183 183
-253.918432681887 492.363593215124 2795.62826374043 173 173 173
-257.558651646525 492.223811372307 2789.28327893963 168 168 170
-261.888786341625 491.980288567444 2783.67296514009 178 178 180
-266.902008732493 491.633642268886 2778.80198078044 183 185 184
-268.563875375229 491.796385661331 2770.18727378326 186 188 187
-271.591154508436 491.753078293466 2763.05177970307 193 195 190
-271.969522637046 492.114698806271 2752.89844226341 189 191 186
99.7653957984777 522.602493936763 2798.97361842502 209 213 212
88.3872848561218 521.386184173095 2799.36506749169 216 218 217
74.026948025264 519.749425476819 2802.53294870501 186 188 187
60.4644746051002 518.221753091889 2805.04502852349 147 149 148
45.4479593171673 516.486739322037 2808.97177091762 141 143 142
28.2438516748558 514.440175954669 2815.01680171004 160 162 161
17.8026320853983 513.343547775804 2814.8529928943 170 172 169
2.93478082444798 511.619875460257 2818.88756246094 144 146 143
-7.44252984533089 510.528066153728 2818.77010699349 138 138 136
-22.2201760992014 508.811278665466 2822.87039744486 142 142 140
-34.0042752159611 507.515637795477 2824.20217182119 137 137 135
-45.7542961407289 506.222573830067 2825.55895773572 133 133 131
-53.083917693465 505.555819295471 2822.7122546655 135 135 133
-61.1346000246324 504.785758021457 2820.57764708602 134 134 132
-66.2666816055653 504.431006270235 2815.6204581072 135 135 133
-73.5772642186112 503.765405767284 2812.78756261607 141 140 138
-80.1580204769796 503.203514238953 2809.24951697894 192 192 192
-85.295189355894 502.847966602638 2804.28834160091 183 183 183
-89.7201331963011 502.594776717808 2798.60924966294 165 165 163
-94.1547986841389 502.340639553202 2792.92281102009 132 132 130
-99.3127388193562 501.98300136515 2787.94686200305 129 129 127
-105.187218557267 501.522412344958 2783.68599329924 125 125 123
-109.644659495006 501.266041780113 2777.9830329341 127 126 124
-115.525522781636 500.804577158392 2773.7175322245 122 121 117
-120.702879048491 500.444738737083 2768.72749689466 126 125 121
-127.290207969156 499.88093028368 2765.18438240774 122 121 117
-135.974672570499 499.012531410864 2763.8248710649 121 120 116
-156.507823260885 496.421996290457 2774.86466091154 115 115 113
-184.602432704373 492.725308947739 2794.00367141171 135 135 133
-206.314797297151 489.948676350139 2806.65775457282 149 149 147
-214.099630608808 489.196765927602 2804.7156640817 152 152 152
-221.183188688145 488.546266456318 2802.04771448672 163 163 163
-228.258767954479 487.896219190471 2799.38555119408 127 127 127
-236.695752732424 487.045912333376 2798.20553489633 125 125 125
-243.750987353027 486.397020324247 2795.55812572316 161 161 161
-250.798055907516 485.748600267722 2792.9163442191 163 163 163
-255.803041302878 485.399932785977 2788.05132079559 170 170 172
-260.813264657467 485.050661739675 2783.18249720648 177 177 179
-263.133946442535 485.098611460131 2775.32465622943 179 181 180
-266.14907622383 485.045186334015 2768.1982127023 181 183 182
-269.851873286924 484.890985060254 2761.80779066519 185 187 184
-273.568693217272 484.735438674505 2755.40719633908 187 189 184
92.5970019612694 514.360435380881 2796.20571683528 167 168 170
76.7174662756602 512.54638616862 2800.74176810149 208 209 211
60.8940806526408 510.736661698325 2805.31854565204 137 138 140
48.1220489202974 509.341729168162 2807.16868028918 131 132 134
32.4021519658828 507.539955291502 2811.82051925548 133 135 134
18.9714850973246 506.049297371324 2814.42804146465 170 172 171
5.5837764171498 504.561895504181 2817.06672147391 188 190 189
-6.28115907935545 503.281582580657 2818.34026794952 129 131 130
-19.5873342761799 501.800367628246 2821.03808465881 138 140 139
-30.6437636702834 500.627159580764 2821.66294586352 143 145 144
-41.6704059784929 499.456200323943 2822.30941175305 138 140 139
-49.7426873076394 498.692335217634 2820.1591779838 138 140 139
-58.5316376653735 497.828286881652 2818.72394472264 128 130 129
-64.3969496666552 497.368948372798 2814.46972824085 130 132 131
-70.9878367936281 496.808690205127 2810.92405231713 137 137 137
-77.5754845887273 496.24854052235 2807.38101968074 136 136 136
-82.7191483180989 495.889330180418 2802.41511749468 168 166 167
-87.8684306671744 495.52949579456 2797.44543356741 197 196 194
-93.7388338554968 495.06908766081 2793.18752095762 168 167 165
-101.750889678081 494.308876743975 2791.08096445254 141 140 138
-106.905348636672 493.948204788309 2786.1075236481 128 127 125
-111.355962299506 493.686457735213 2780.40948528726 126 125 123
-117.230351803549 493.225114291328 2776.1486781746 119 118 114
-123.105694314978 492.76351441177 2771.88717890766 117 116 112
-128.279568579946 492.400627353748 2766.89965231335 118 117 113
-134.859336301574 491.839567283185 2763.36203302207 117 116 112
-149.115021051065 490.193532425798 2767.8410628832 111 111 109
-178.628548024696 486.385201408411 2788.42097754575 138 138 136
-201.749720597652 483.47302054132 2802.52346689329 156 156 154
-213.697426397442 482.139162070489 2804.97148234307 159 159 159
-219.402794990024 481.689659147135 2800.83326207079 139 139 139
-227.170266603234 480.946558871303 2798.90409654754 131 131 131
-234.240579819847 480.301837207057 2796.24577770195 133 133 133
-241.985519466925 479.560129129105 2794.33295313356 159 159 159
-248.357100856885 479.013664208189 2790.94632648434 154 154 154
-253.36868399585 478.661445172966 2786.07650222637 171 171 173
-258.38552669102 478.308576015727 2781.20286191087 175 175 177
-261.38601586155 478.245273978172 2774.0866871694 176 177 179
-264.405096395337 478.180252151926 2766.9573209179 175 177 176
-266.773313757111 478.209918251592 2759.06522225372 179 181 178
-268.49712395113 478.333738910447 2750.40541390295 191 193 190
100.585572825787 507.808748378585 2789.61236703015 208 212 213
80.9155183488763 505.526821406266 2797.5736980608 156 157 159
61.3233851677464 503.250903631257 2805.59184081646 163 164 166
49.2988175714606 501.979888004211 2806.74941919184 192 193 195
35.0681191151105 500.412329760466 2810.0116285434 210 211 213
21.6292728969969 498.947923810499 2812.61335433893 137 139 138
6.74859891287216 497.288074981141 2816.63924619545 117 119 118
-3.63943205935691 496.227345215731 2816.51417677598 176 178 177
-16.215922007714 494.871459645442 2818.50655608297 180 182 181
-28.018041872877 493.617314696982 2819.82547701922 140 142 141
-40.5195942749872 492.26708169696 2821.87220878411 143 145 144
-48.5945684051623 491.510780075665 2819.72006125647 150 152 151
-55.9281346669884 490.853668256824 2816.8705474247 163 165 164
-63.2540562812847 490.197021802573 2814.02687219526 152 154 153
-70.5720085378809 489.540906045119 2811.18868233436 140 142 141
-77.8823153216854 488.885240783157 2808.35633159871 144 142 143
-83.0239186152921 488.522981551857 2803.3922021003 144 142 143
-88.8889835672031 488.062677283806 2799.13815981811 141 140 138
-95.4708909928139 487.504879142731 2795.59900593207 140 139 137
-103.476903679188 486.752984227115 2793.49687234759 145 144 142
-107.913090501316 486.486610758934 2787.80926887776 149 148 146
-111.649851151341 486.31609620981 2781.39414328171 140 139 137
-116.815095003976 485.951070480215 2776.41286222469 126 125 121
-122.690582917423 485.489040614766 2772.15125537475 120 119 115
-127.864380168508 485.123023245431 2767.1637687538 114 113 109
-131.642561106213 484.94855575292 2760.71859668482 112 111 107
-143.814264537311 483.621922583787 2763.00456254592 110 109 105
-171.956436953351 480.096346450224 2782.10966586723 123 123 121
-197.183118301411 476.963777875129 2798.39011502734 146 146 144
-209.837288763487 475.557711828525 2801.56096452734 144 144 144
-216.24323420941 475.011734009719 2798.14942910786 127 127 127
-226.769061301952 473.895625142449 2799.15922446319 132 132 132
-233.154853481561 473.350857178688 2795.76259918172 153 153 153
-240.902611245053 472.616792049529 2793.84777041365 144 144 144
-245.915412585024 472.261596264932 2788.97675350093 160 160 160
-252.29050504431 471.71705285183 2785.58788581246 172 172 174
-256.633261502321 471.455126670765 2779.96803453387 175 175 177
-260.311737197167 471.286197302725 2773.59516897494 172 173 175
-264.004309628079 471.115946710407 2767.21207769894 178 179 181
-265.702262748578 471.22525329996 2758.57094017597 174 176 175
-266.092903025075 471.5191308544 2748.40836326297 186 188 185
-266.519575653864 471.809914732591 2738.21935558173 188 190 187
109.403068006559 500.996947866484 2792.26444998423 204 208 209
98.7532799890531 499.932163913746 2791.94931228419 174 175 177
86.6215926819702 498.674272310461 2793.02959824796 158 159 161
66.2600414629675 496.348459086977 2801.72475734669 159 160 162
49.7264437216325 494.514784818553 2807.02160229475 160 161 163
36.2408420337346 493.073714846199 2809.58955225375 160 161 163
23.5428607135297 491.732750931277 2811.49393545365 210 212 211
8.65605831063654 490.104806293018 2815.51525181262 200 202 201
-6.17916170040878 488.480796850924 2819.57427575782 133 135 134
-15.7960063398501 487.534823273405 2818.77380040244 161 163 162
-26.8635568489859 486.398173663706 2819.39078484922 178 180 179
-37.1675177623101 485.359702864447 2819.32647787862 147 149 148
-46.7149093191943 484.418862874702 2818.57637654762 135 137 136
-54.7825794515981 483.670815102982 2816.42956565121 156 158 157
-62.8381061829737 482.923556914773 2814.29156176476 176 178 177
-71.6062949640777 482.081906665955 2812.8714924643 174 176 175
-80.3578877082323 481.241421649769 2811.46345988734 167 165 166
-85.4905984050736 480.87665665196 2806.5057641299 168 166 167
-91.3469018366364 480.416643958062 2802.25807473767 163 162 160
-97.2042545666387 479.956367027844 2798.0096233482 137 136 134
-104.490419918805 479.307078533402 2795.19480555114 133 132 130
-109.633532217453 478.940982580946 2790.229268232 140 139 137
-112.65394306117 478.856361565053 2783.09883833668 142 141 139
-117.107361342096 478.582408671667 2777.39870502335 131 130 126
-122.980708570323 478.120148954842 2773.13864883757 127 126 122
-127.449464265172 477.844665199182 2767.42768382848 121 120 116
-131.227311812991 477.661576797721 2760.98270977433 118 117 113
-141.30524081255 476.638664311181 2761.08263144473 115 114 110
-165.978134069557 473.664527037913 2776.53000479003 116 116 114
-189.838846138365 470.792366034817 2791.33162551217 135 135 133
-205.975718728446 468.948183123829 2798.15104838976 132 132 132
-214.461981255712 468.126230917829 2796.93574769881 130 130 130
-224.993423653389 467.028516321913 2797.94156557022 146 146 146
-232.068860556474 466.393675031665 2795.27928802398 149 149 149
-239.819462159667 465.667280639335 2793.36243654961 153 153 153
-244.15389583807 465.400572495523 2787.74888888701 170 170 170
-248.497881004039 465.132900984874 2782.12811779058 172 172 174
-252.175244587785 464.955697576109 2775.75601651507 177 177 179
-258.563165030586 464.412150820574 2772.35756011884 171 172 174
-261.587978044889 464.324066501379 2765.2239214538 175 176 178
-264.63124579065 464.234322847632 2758.07689615523 175 177 176
-263.687991246484 464.687282930614 2746.41172611341 184 186 183
-266.116078806514 464.683710205936 2738.47576342659 187 189 186
103.015654044537 492.549027076138 2798.70720552156 204 208 209
95.4078110078882 491.881400989915 2795.65910382256 199 200 202
83.2860100682504 490.645703156066 2796.74637456387 197 198 200
69.695386920607 489.223428197783 2799.23828742588 186 187 189
53.1506013151226 487.426735524802 2804.52750384855 159 160 162
41.1488054353955 486.200281488618 2805.70181564048 156 157 159
28.4361525311394 484.882295385011 2807.59567948314 155 157 156
14.2768713038146 483.379460006972 2810.90998854221 152 154 153
0.905314146789848 481.973990871934 2813.56079214073 163 165 164
-11.6851157022992 480.665368504529 2815.54330551362 180 182 181
-24.2369229361565 479.359695768245 2817.55383218501 168 170 169
-35.2824832081027 478.243348195709 2818.18686065784 157 159 158
-46.2982580446778 477.129279152032 2818.84149276963 194 196 195
-52.9075693210324 476.574652872751 2815.28248931346 214 216 215
-62.4225514323662 475.649372945526 2814.55596109597 179 181 180
-71.1914174886876 474.818182741336 2813.13545380645 173 175 174
-80.666685457832 473.89579151155 2812.43772984999 179 179 179
-87.9588152840793 473.251490964856 2809.6183190663 184 182 183
-93.8064252872755 472.791689649133 2805.37693279649 186 185 183
-98.9388009121086 472.423501590566 2800.41946260143 179 178 176
-104.076729917875 472.054729222626 2795.45796368237 169 168 166
-107.796289926151 471.868386962581 2789.05522702812 143 142 140
-110.820386274129 471.772090760524 2781.92177181797 133 132 130
-115.985497695977 471.400757850843 2776.94055481574 127 126 122
-122.56629568763 470.846932934279 2773.40222530722 125 124 120
-128.440765398024 470.383984845728 2769.14135192343 123 122 118
-133.615456269259 470.011412879246 2764.15318429784 120 119 115
-140.891342940492 469.366885228439 2761.34584185055 117 116 112
-159.997630929763 467.188272176881 2770.95171365105 115 115 113
-183.87998834962 464.385352824934 2785.73769944188 135 135 133
-201.421148811589 462.40051668697 2794.00907384827 126 126 126
-211.300584272336 461.408595050204 2794.25275021875 127 127 127
-221.154628507542 460.418486833041 2794.51513689285 143 143 143
-228.241731213853 459.787848809115 2791.84471832429 149 149 149
-236.003939142532 459.068415294542 2789.9194884351 166 166 166
-241.029951789855 458.705965761841 2785.03885762208 157 157 157
-246.740093267256 458.254015019964 2780.89716498505 156 156 158
-250.421696908687 458.067905240137 2774.52223936574 169 169 171
-256.140123683096 457.614924833911 2770.37453532463 169 170 172
-259.843088635661 457.426715728386 2763.98381932449 166 167 169
-262.220347258192 457.413549508918 2756.08465502627 180 182 181
-263.952907174175 457.486327178415 2747.41824527252 181 183 180
-265.712756525692 457.556729803802 2738.7320407945 180 182 179
107.997468875164 485.535348942656 2794.8725894948 204 208 209
94.3282627638054 484.133891323843 2797.3076413333 186 187 189
82.9633921296011 483.011884396404 2797.70916624436 172 173 175
72.3797500301555 481.984029029461 2797.44246065953 161 162 164
58.0745536513003 480.499618203298 2800.65108603527 173 174 176
43.0693729000429 478.927319267243 2804.58716373666 166 167 169
31.0959640262101 477.724418757372 2805.78217317822 165 167 166
18.4138082941887 476.432920278538 2807.69827923692 158 160 159
2.80784155829883 474.780340843207 2812.43346434929 144 146 145
-9.78816900041224 473.495497070723 2814.41175811293 137 139 138
-23.0820887223242 472.122843687712 2817.11900896328 147 149 148
-34.1310866448954 471.024957671578 2817.74993339825 176 178 177
-45.8820029431262 469.838991217012 2819.10631823043 155 157 156
-53.9506982064108 469.1063639183 2816.95884230251 150 152 151
-62.734691797933 468.284582614157 2815.52741639781 222 224 223
-71.5020187847393 467.464002131329 2814.10807855294 231 233 232
-79.529836985849 466.73422331596 2811.99024970788 189 189 189
-86.104020211065 466.184170793644 2808.45702896966 184 184 184
-91.9560838156206 465.723575543883 2804.21241016775 179 179 177
-99.24185606519 465.08453966511 2801.39763479364 184 184 182
-105.80571919471 464.534924492464 2797.87160305127 181 181 179
-109.518439187531 464.340453983219 2791.47407817604 149 149 147
-113.955007843241 464.056126437703 2785.78610696596 142 142 140
-118.401369987245 463.770930830646 2780.09103185031 131 132 127
-124.268312490305 463.308293810758 2775.83561667538 126 127 122
-129.433134509886 462.9334893327 2770.85459188285 121 122 117
-133.902317773533 462.646011817783 2765.14296169223 118 119 114
-139.778864624004 462.182148660031 2760.88057791026 115 116 111
-154.014788426387 460.66759771397 2765.3745988956 108 108 106
-177.919094310485 457.933901238423 2780.14531888083 131 131 129
-196.864773054873 455.819350416947 2789.86794423834 124 124 124
-208.828456290388 454.58132152561 2792.30515717672 131 131 131
-218.002350224533 453.693580659606 2791.82578672379 145 145 145
-226.469595519943 452.893994358644 2790.62409084075 152 152 152
-232.870337118424 452.354990415657 2787.21665760241 154 154 154
-239.26736858776 451.816142252546 2783.81162022789 143 143 143
-244.30323351603 451.449619023753 2778.9241211291 158 158 160
-249.344221368708 451.082506127082 2774.03261084926 166 166 168
-255.064965045388 450.62900943495 2769.88322462117 166 167 169
-258.097676263628 450.517672239103 2762.74374259914 165 166 168
-261.148866286089 450.40467375854 2755.59085648284 177 179 178
-261.547157942636 450.631112586148 2745.42209685369 177 179 176
-263.313056297697 450.684247521095 2736.73171433667 181 183 180
113.739482678269 478.578027695421 2790.35371780214 203 207 208
94.7601378107961 476.575678083297 2797.5824329314 199 200 202
78.8704678653653 474.936380019868 2802.11202280541 194 195 197
69.0509001654385 474.014524369802 2801.16441686219 192 193 195
58.5026401710493 473.005307715173 2800.92345492916 187 188 190
47.2323772571421 471.909231739668 2801.39369434108 179 180 182
35.2467588073932 470.726775211683 2802.5799563533 183 185 184
21.8090534271354 469.369995972076 2805.18334879406 177 179 178
7.67384999755905 467.928272477174 2808.51542190631 158 160 159
-7.89120080784844 466.314002628269 2813.28046189548 154 156 155
-20.4547797432308 465.055738871278 2815.28269514503 137 139 138
-33.7138292868318 463.712690526753 2818.01537408716 137 139 138
-44.7341500730529 462.635652838767 2818.66689831415 128 130 129
-54.2650044671751 461.735722462822 2817.92869786359 128 130 129
-62.3199641786196 461.011795361523 2815.79122319854 138 140 139
-68.9119159404516 460.462876951211 2812.2448329364 135 137 136
-75.5007246614627 459.914059225144 2808.70101611864 134 134 134
-80.6440092384273 459.538868256313 2803.73530784323 176 176 176
-87.9491298037136 458.903473018488 2800.90681937973 215 215 213
-95.9629601716891 458.182205734776 2798.79917372601 224 224 222
-103.250274459776 457.547954284908 2795.98359920637 216 216 214
-108.39324292995 457.172296037778 2791.01811771666 184 184 182
-113.541760277323 456.796064204504 2786.04890529914 165 165 163
-118.695757962078 456.419239043246 2781.07571706277 137 138 133
-125.266096104179 455.870831893009 2777.54499756447 127 128 123
-129.722996653563 455.578584136762 2771.84224721333 117 118 113
-134.189945211072 455.28535350673 2766.13250234524 115 116 111
-138.666544848244 454.991211185606 2760.41546210862 115 116 111
-152.906625201177 453.508854019968 2764.9066329896 117 117 115
-175.428265758462 451.01488715062 2778.21052312008 122 122 120
-195.075866435784 448.866871807996 2788.65917741345 120 120 120
-204.285243026212 447.989843591498 2788.15443356444 128 128 128
-214.161241151467 447.030188652701 2788.40105964699 139 139 139
-221.954524684042 446.324223715788 2786.45307613333 132 132 132
-229.735586443042 445.619035197906 2784.5142508539 134 134 134
-236.823090210691 444.998237349 2781.84359138984 151 151 151
-245.260556749802 444.211070548445 2780.66354566997 164 164 166
-250.973996476107 443.757986326304 2776.51945632062 161 161 163
-253.98991597762 443.636882161198 2769.39209750077 165 166 168
-257.024338356118 443.514114761215 2762.25131712592 168 169 171
-259.406975966847 443.472388382714 2754.34810882152 169 171 170
-261.812684950564 443.428624092633 2746.42845974108 174 176 173
-263.575374128085 443.465235572258 2737.74002545377 183 185 182
-262.71132030552 443.828153108202 2726.01698503538 184 186 181
115.690475220907 471.147252524465 2789.26032233295 224 228 229
100.485866639394 469.624221765289 2793.0517856202 231 232 234
80.054078947752 467.499088677852 2801.69704528545 238 239 241
66.4719513593153 466.158141169167 2804.1955286992 237 238 240
56.681179266846 465.251697602394 2803.26916984861 234 235 237
46.9114961879935 464.346847570861 2802.35781246861 239 240 242
34.1814032115799 463.099977618557 2804.2393938481 227 229 228
17.7743218209625 461.427480398623 2809.62876959232 220 222 221
2.90945457846448 459.930713279115 2813.66694613419 208 210 209
-11.1647862575317 458.523367199102 2817.04338645991 207 209 208
-22.9822651709128 457.375258375004 2818.35200486523 204 206 205
-34.7655080409508 456.229748398359 2819.68516039565 209 211 210
-44.318400935857 455.341410695097 2818.93133696174 218 220 219
-52.3903816939739 454.623975946844 2816.78155626176 211 213 212
-58.994767504893 454.07645492845 2813.22615937015 164 166 165
-64.8703437371303 453.613402263335 2808.96448331536 153 155 154
-73.6401011213592 452.813520290575 2807.54348846557 126 126 126
-78.0667758375393 452.518757849668 2801.86293120563 133 133 133
-86.0976109842047 451.804033622329 2799.74269708978 140 140 138
-93.3997283395065 451.173780670851 2796.91641176399 162 162 160
-102.122969032891 450.37708456662 2795.52915399316 183 183 181
-107.980448604424 449.914736199198 2791.28060016132 206 206 204
-113.128909709631 449.535312628054 2786.31141234817 193 193 191
-119.698493327658 448.989431035059 2782.78125261291 169 170 165
-125.558961363045 448.526467169892 2778.53052926223 157 158 153
-130.013697774058 448.228430709846 2772.82961289728 130 131 126
-135.179226160679 447.847091381808 2767.84774846688 117 118 113
-138.952216447655 447.629640508157 2761.40612149209 111 112 107
-151.79832070455 446.343987671092 2764.4384440048 113 113 111
-170.852915006213 444.324493033483 2774.08259562878 117 117 115
-190.516938893227 442.229708266942 2784.51961401033 114 114 114
-201.120808349689 441.201791813476 2785.47328150251 127 127 127
-210.318729526909 440.338820316592 2784.97691312706 129 129 129
-219.495455944156 439.477371664236 2784.49591699894 136 136 136
-227.967281540262 438.698444130785 2783.29100539891 143 143 143
-237.103621805901 437.839883449887 2782.83900620509 155 155 155
-243.502248551027 437.305471875931 2779.43312933034 164 164 166
-249.220242296052 436.851660264595 2775.28573499126 162 162 164
-251.565241192966 436.799241964177 2767.40975763707 163 164 166
-255.278293476367 436.584525831824 2761.01159485221 167 168 170
-257.664867448515 436.528421254047 2753.10575464402 170 172 171
-260.07418808348 436.470344096897 2745.183120426 173 175 172
-262.50657844091 436.41019928997 2737.24404647779 179 181 178
-266.289092480016 436.189198798778 2730.79549755232 184 186 181
123.77430847406 464.187665391353 2792.61484615941 184 188 189
118.40047292832 463.789207307481 2787.48218319102 158 162 163
101.674395197398 462.129790922032 2792.64037793744 151 155 156
78.9747054460044 459.804197597135 2803.34597599414 159 160 162
62.3872119965756 458.155619749224 2808.60468834308 156 157 159
54.1086034864318 457.430362613096 2806.30507915406 144 145 147
47.3375464122312 456.872670081302 2802.62880718604 135 136 138
36.0969564987768 455.816188474714 2803.12075774252 121 123 122
20.4265122618321 454.264012707986 2807.80971030273 122 124 123
4.81216994195099 452.716157782899 2812.53935422581 135 137 136
-8.52936191464893 451.420615091533 2815.21248060448 137 139 138
-18.144797279569 450.540742724847 2814.41336167794 147 149 148
-29.9424677207791 449.415556791552 2815.73616129941 159 161 160
-38.0448074868767 448.703563744639 2813.56440026994 177 179 178
-46.8649497862663 447.910503278115 2812.10691487216 187 189 188
-54.9407249156855 447.200438223723 2809.9544208804 181 183 182
-63.0043350470984 446.4912093103 2807.81074979053 180 182 181
-72.5027546412231 445.619980112633 2807.09650187283 167 167 167
-79.095087689713 445.07531743259 2803.54985676397 154 154 154
-87.1221106623605 444.368679088213 2801.43272160804 144 144 142
