ply
format ascii 1.0
comment KinectMotionCapture
element vertex 755
property float x
property float y
property float z
property uchar red
property uchar green
property uchar blue
end_header
163.897082209587 743.377029895782 2661.99994087219 105 105 103
171.442091464996 744.760572910309 2667.00005531311 117 117 115
179.281860589981 747.260451316834 2676.00011825562 109 109 107
188.07627260685 753.389775753021 2697.99995422363 101 101 101
-256.543874740601 761.464476585388 2753.99994850159 191 193 188
-248.26093018055 758.994460105896 2744.99988555908 170 172 167
-240.201771259308 757.077038288116 2737.99991607666 184 185 180
-232.180073857307 755.1589012146 2730.99994659424 183 184 179
-224.525108933449 754.346311092377 2727.9999256134 160 161 156
-216.647148132324 752.703726291656 2721.99988365173 153 154 149
-209.031954407692 751.890301704407 2719.00010108948 175 176 171
-200.987607240677 749.416887760162 2710.00003814697 145 146 141
-193.348869681358 748.325705528259 2706.00008964539 172 173 168
-185.731440782547 747.233867645264 2701.99990272522 154 155 150
-178.003281354904 745.588541030884 2696.00009918213 190 191 186
-170.054048299789 742.83629655838 2686.00010871887 180 181 176
-162.461683154106 741.466164588928 2680.99999427795 183 184 179
-155.185535550117 741.478502750397 2680.99999427795 177 178 173
-147.79868721962 740.936994552612 2678.99990081787 175 176 171
-140.47484099865 740.671575069427 2677.99997329712 174 175 170
-133.106365799904 740.129172801971 2676.00011825562 174 175 170
-125.889509916306 740.415871143341 2677.00004577637 173 174 169
-118.44539642334 739.319086074829 2673.00009727478 171 170 165
-111.02270334959 738.22158575058 2668.99991035461 168 167 162
-103.738144040108 737.953543663025 2667.99998283386 166 165 160
-96.3864400982857 737.131595611572 2664.99996185303 164 163 158
-89.1846120357513 737.415492534637 2665.99988937378 162 161 156
-81.9464102387428 737.422227859497 2665.99988937378 162 161 156
-74.7080221772194 737.428426742554 2665.99988937378 160 159 154
-67.4188435077667 736.880838871002 2664.00003433228 155 154 150
-60.1629577577114 736.60933971405 2663.00010681152 150 149 145
-52.9322437942028 736.613869667053 2663.00010681152 147 146 142
-45.7185581326485 736.894309520721 2664.00003433228 138 137 133
-38.4849011898041 736.897766590118 2664.00003433228 147 144 139
-31.2628820538521 737.177133560181 2664.99996185303 147 144 139
-23.981261998415 735.796213150024 2660.00008583069 146 145 140
-16.751941293478 735.521137714386 2658.99991989136 147 146 142
-9.53159853816032 735.522150993347 2658.99991989136 150 151 146
-2.30949465185404 734.969556331635 2657.00006484985 152 153 148
4.90359961986542 734.692811965942 2655.99989891052 154 155 149
12.1112512424588 734.415471553802 2654.99997138977 154 153 148
19.3207189440727 734.414219856262 2654.99997138977 155 152 143
26.4901742339134 733.305871486664 2651.00002288818 173 169 160
33.6505509912968 732.473731040955 2648.00000190735 176 172 161
40.8562496304512 732.747316360474 2648.9999294281 148 145 140
48.0854213237762 733.297049999237 2651.00002288818 154 153 149
55.2419275045395 732.739746570587 2648.9999294281 145 144 140
62.434583902359 732.73503780365 2648.9999294281 145 144 140
69.6796625852585 733.283042907715 2651.00002288818 161 160 156
76.9934356212616 734.383583068848 2654.99997138977 142 141 137
84.2653289437294 734.930515289307 2657.00006484985 140 139 135
91.5134474635124 735.200107097626 2657.99999237061 134 133 129
98.6925065517426 734.916031360626 2657.00006484985 137 136 132
105.8659106493 734.631359577179 2655.99989891052 147 146 142
113.118775188923 734.899401664734 2657.00006484985 139 138 134
120.557971298695 736.273169517517 2661.99994087219 121 122 117
127.880036830902 736.816704273224 2664.00003433228 119 120 115
135.11124253273 736.806452274323 2664.00003433228 119 120 115
142.23524928093 736.242473125458 2661.99994087219 116 116 114
149.460405111313 736.231207847595 2661.99994087219 110 110 108
157.038375735283 737.878739833832 2667.99998283386 109 109 107
164.771720767021 740.078926086426 2676.00011825562 106 106 104
172.805234789848 743.384540081024 2687.99996376038 115 115 113
181.037545204163 747.24280834198 2701.99990272522 107 107 105
-264.223337173462 754.573225975037 2756.00004196167 213 213 211
-255.910575389862 752.128124237061 2746.99997901917 165 166 161
-247.827023267746 750.230193138123 2740.00000953674 172 171 167
-240.131869912148 749.42684173584 2736.99998855591 186 185 181
-232.197389006615 747.801542282104 2730.99994659424 184 183 179
-224.62423145771 747.271001338959 2729.00009155273 162 163 157
-216.743066906929 745.644688606262 2723.00004959106 145 146 140
-208.970829844475 744.291543960571 2717.99993515015 169 170 164
-200.928673148155 741.842567920685 2709.00011062622 147 146 142
-193.220674991608 740.488290786743 2703.9999961853 161 160 156
-185.470640659332 738.859593868256 2697.99995422363 166 165 161
-177.752807736397 737.230479717255 2691.99991226196 179 178 174
-170.067131519318 735.600650310516 2686.00010871887 169 168 164
-162.47421503067 734.244108200073 2680.99999427795 176 175 171
-155.081763863564 733.708679676056 2678.99990081787 171 170 166
-147.644653916359 732.898831367493 2676.00011825562 171 170 166
-140.380859375 732.910096645355 2676.00011825562 170 169 165
-133.06699693203 732.646882534027 2674.99995231628 171 172 167
-125.852346420288 732.930898666382 2676.00011825562 170 171 166
-118.366047739983 731.571078300476 2671.0000038147 169 168 163
-111.03144288063 731.032252311707 2668.99991035461 166 165 160
-103.668540716171 730.218946933746 2665.99988937378 164 163 158
-96.3578894734383 729.67916727066 2664.00003433228 163 162 157
-89.0913009643555 729.412615299225 2663.00010681152 161 160 155
-81.9528996944427 730.241060256958 2665.99988937378 161 160 155
-74.7699961066246 730.795085430145 2667.99998283386 159 158 153
-67.4241930246353 729.705095291138 2664.00003433228 161 160 156
-60.1677447557449 729.436278343201 2663.00010681152 152 151 147
-52.8966970741749 728.892982006073 2661.00001335144 147 146 142
-45.7050427794456 729.444801807404 2663.00010681152 147 146 142
-38.4590774774551 729.174256324768 2661.99994087219 146 143 138
-31.2184486538172 728.90305519104 2661.00001335144 146 143 138
-23.9561274647713 727.809548377991 2657.00006484985 148 147 142
-16.7280770838261 727.263271808624 2654.99997138977 149 150 145
-9.52160637825727 727.538406848907 2655.99989891052 156 157 152
-2.30620219372213 726.717054843903 2653.00011634827 158 159 154
4.89475997164845 726.169109344482 2651.00002288818 149 150 144
12.0848473161459 725.62050819397 2648.9999294281 159 158 153
19.2931536585093 726.167142391205 2651.00002288818 150 147 140
26.4922901988029 726.165294647217 2651.00002288818 180 177 170
33.6786583065987 725.888967514038 2650.00009536743 167 163 154
40.8749356865883 725.885987281799 2650.00009536743 147 146 141
48.0529703199863 725.60852766037 2648.9999294281 155 154 150
55.2254728972912 725.330471992493 2648.00000190735 144 143 139
62.3924061655998 725.051879882813 2647.0000743866 147 146 142
69.6589127182961 725.868463516235 2650.00009536743 163 162 158
76.941542327404 726.684331893921 2653.00011634827 139 138 134
84.2402726411819 727.499604225159 2655.99989891052 142 141 137
91.4518162608147 727.49263048172 2655.99989891052 134 133 129
98.6259952187538 727.211236953735 2654.99997138977 139 138 134
105.834379792213 727.203130722046 2654.99997138977 145 144 140
112.999930977821 726.920664310455 2654.00004386902 138 137 133
120.431557297707 728.280901908875 2658.99991989136 123 124 119
127.842038869858 729.366779327393 2663.00010681152 120 121 116
135.172501206398 729.904234409332 2664.99996185303 119 120 115
142.406642436981 729.893445968628 2664.99996185303 116 116 114
149.640440940857 729.882001876831 2664.99996185303 110 110 108
157.344847917557 732.061207294464 2673.00009727478 108 108 106
165.400207042694 735.608994960785 2686.00010871887 107 107 105
173.975810408592 741.073191165924 2706.00008964539 111 111 109
-263.763338327408 745.791792869568 2750.99992752075 209 209 207
-256.022661924362 744.997620582581 2747.99990653992 164 163 159
-248.026341199875 743.389785289764 2742.00010299683 170 169 165
-240.50073325634 743.136823177338 2740.9999370575 186 185 181
-232.554897665977 741.527795791626 2734.99989509583 184 183 179
-224.888101220131 740.731656551361 2732.00011253357 164 165 159
-217.157423496246 739.66372013092 2727.9999256134 146 147 141
-209.217354655266 737.781941890717 2720.99995613098 162 163 157
-201.166465878487 735.357224941254 2711.99989318848 156 155 151
-193.021044135094 732.389628887177 2700.99997520447 162 161 157
-185.209900140762 730.506122112274 2694.00000572205 179 178 174
-177.568361163139 729.164242744446 2688.99989128113 169 168 164
-170.080274343491 728.364229202271 2686.00010871887 172 171 167
-162.608027458191 727.563560009003 2683.00008773804 175 174 170
-155.093818902969 726.491212844849 2678.99990081787 172 171 167
-147.711336612701 725.960671901703 2677.00004577637 171 170 166
-140.3918415308 725.700795650482 2676.00011825562 171 170 166
-132.977947592735 724.897980690002 2673.00009727478 171 170 166
-125.580027699471 724.094450473785 2670.00007629395 171 170 166
-118.153773248196 723.019242286682 2665.99988937378 171 170 166
-110.957011580467 723.299562931061 2667.00005531311 165 164 160
-103.598974645138 722.494423389435 2664.00003433228 164 163 159
-96.2931737303734 721.959948539734 2661.99994087219 164 163 159
-89.0649184584618 721.967339515686 2661.99994087219 161 160 156
-81.9594189524651 723.058998584747 2665.99988937378 159 158 154
-74.8039782047272 723.878860473633 2668.99991035461 155 154 150
-67.4801915884018 723.070919513702 2665.99988937378 153 152 148
-60.17255038023 722.262382507324 2663.00010681152 148 147 143
-52.9406927525997 722.266972064972 2663.00010681152 146 145 141
-45.708704739809 722.270846366882 2663.00010681152 144 143 139
-38.4621545672417 722.002923488617 2661.99994087219 148 147 143
-31.1740208417177 720.649659633636 2657.00006484985 155 154 150
-23.9490326493979 720.38060426712 2655.99989891052 144 143 139
-16.7231187224388 719.839811325073 2654.00004386902 152 151 147
-9.51519981026649 719.840824604034 2654.00004386902 158 157 153
-2.30290973559022 718.485176563263 2648.9999294281 153 152 148
4.8859198577702 717.671453952789 2645.99990844727 154 153 149
12.0721291750669 717.670738697052 2645.99990844727 153 152 148
19.272867590189 718.211948871613 2648.00000190735 158 157 153
26.4644306153059 718.21004152298 2648.00000190735 162 161 157
33.6813554167748 718.750178813934 2650.00009536743 155 154 150
40.8936329185963 719.018340110779 2651.00002288818 147 146 141
48.0931028723717 719.014823436737 2651.00002288818 147 147 139
55.2507378160954 718.468129634857 2648.9999294281 143 142 137
62.4445304274559 718.463480472565 2648.9999294281 149 148 143
69.6907490491867 719.000637531281 2651.00002288818 151 150 145
76.9476667046547 719.537198543549 2653.00011634827 141 140 135
84.1835290193558 719.801962375641 2654.00004386902 139 140 134
91.4246365427971 720.066249370575 2654.99997138977 137 138 133
98.6338034272194 720.058679580688 2654.99997138977 142 143 138
105.962343513966 720.864236354828 2657.99999237061 147 148 143
113.17915469408 720.855474472046 2657.99999237061 138 139 134
120.531633496284 721.659958362579 2661.00001335144 128 129 124
127.804055809975 721.921324729919 2661.99994087219 128 129 124
135.132372379303 722.453474998474 2664.00003433228 123 124 119
142.578080296516 723.527312278748 2667.99998283386 122 123 118
150.045171380043 724.600493907928 2671.99993133545 110 111 106
157.94575214386 727.571547031403 2683.00008773804 99 100 95
166.151985526085 731.626570224762 2697.99995422363 99 101 96
-263.974606990814 738.915324211121 2753.00002098084 195 195 193
-256.414353847504 738.666236400604 2752.00009346008 162 161 157
-248.316198587418 736.806035041809 2744.99988555908 168 167 163
-240.606516599655 736.019194126129 2742.00010299683 183 182 178
-232.657447457314 734.426379203796 2736.00006103516 183 182 178
-225.069716572762 733.906745910645 2733.99996757507 165 166 160
-217.412739992142 733.118176460266 2730.99994659424 148 149 143
-209.617808461189 731.792330741882 2726.0000705719 151 152 146
-201.701134443283 729.928851127625 2719.00010108948 165 164 160
-193.393230438232 726.454079151154 2706.00008964539 162 161 157
-185.430437326431 724.052488803864 2697.00002670288 189 188 184
-177.714198827744 722.455680370331 2690.99998474121 159 158 154
-170.220106840134 721.663773059845 2687.99996376038 174 173 169
-162.741914391518 720.871269702911 2684.99994277954 173 172 168
-155.105918645859 719.27273273468 2678.99990081787 172 171 167
-147.667720913887 718.479216098785 2676.00011825562 172 171 167
-140.192985534668 717.416524887085 2671.99993133545 172 171 167
-132.78940320015 716.62175655365 2668.99991035461 172 171 167
-125.40178000927 715.826511383057 2665.99988937378 172 171 167
-117.98582226038 714.762032032013 2661.99994087219 171 170 166
-110.882572829723 715.576708316803 2664.99996185303 165 164 160
-103.529423475266 714.779675006866 2661.99994087219 163 162 158
-96.2284877896309 714.250683784485 2660.00008583069 163 162 158
-88.9716297388077 713.989496231079 2658.99991989136 159 158 154
-81.8122327327728 714.53332901001 2661.00001335144 157 156 152
-74.6137499809265 714.80804681778 2661.99994087219 154 153 149
-67.3843398690224 714.813768863678 2661.99994087219 152 151 147
-60.1773746311665 715.087532997131 2663.00010681152 147 146 142
-52.9449358582497 715.092062950134 2663.00010681152 145 144 140
-45.6437021493912 714.021861553192 2658.99991989136 143 142 138
-38.4074486792088 713.756740093231 2657.99999237061 150 149 145
-31.1765279620886 713.490962982178 2657.00006484985 156 155 151
-23.968992754817 713.761746883392 2657.99999237061 144 143 139
-16.7433712631464 713.494896888733 2657.00006484985 152 151 147
-9.51596535742283 712.69029378891 2654.00004386902 158 157 153
-2.30483408086002 711.885154247284 2651.00002288818 152 151 147
4.8844669945538 710.273861885071 2644.99998092651 151 150 146
12.0639763772488 710.004687309265 2644.00005340576 150 149 145
19.2598607391119 710.540473461151 2645.99990844727 159 158 154
26.4765564352274 711.344182491302 2648.9999294281 158 157 153
33.6840637028217 711.610317230225 2650.00009536743 152 151 147
40.8660620450974 711.338758468628 2648.9999294281 146 145 140
48.0425320565701 711.066663265228 2648.00000190735 147 146 141
55.2343130111694 711.062490940094 2648.00000190735 146 145 140
62.4731108546257 711.594939231873 2650.00009536743 151 150 145
69.7489157319069 712.395131587982 2653.00011634827 149 148 143
77.0118236541748 712.926268577576 2654.99997138977 140 139 134
84.253691136837 713.188290596008 2655.99989891052 141 142 137
91.4663523435593 713.18131685257 2655.99989891052 139 140 135
98.5673516988754 712.368309497833 2653.00011634827 144 145 140
105.930887162685 713.434159755707 2657.00006484985 148 149 144
113.273300230503 714.230954647064 2660.00008583069 139 140 135
120.677046477795 715.295732021332 2664.00003433228 129 130 125
127.958178520203 715.554416179657 2664.99996185303 130 131 126
135.295182466507 716.081023216248 2667.00005531311 127 128 123
142.803028225899 717.412531375885 2671.99993133545 118 119 114
150.506198406219 719.548940658569 2680.0000667572 110 111 106
158.487930893898 722.758710384369 2691.99991226196 110 111 106
167.458280920982 729.99507188797 2719.00010108948 96 98 93
-275.9969830513 743.698179721832 2799.00002479553 209 211 208
-264.281839132309 732.292890548706 2756.00004196167 189 189 187
-256.619781255722 731.780767440796 2753.99994850159 162 161 157
-248.877570033073 731.002509593964 2750.99992752075 169 168 164
-240.975603461266 729.692339897156 2746.00005149841 182 181 177
-232.845067977905 727.584362030029 2737.99991607666 179 178 174
-224.922135472298 726.007282733917 2732.00011253357 166 167 161
-217.508926987648 726.024091243744 2732.00011253357 152 153 147
-209.787622094154 724.977433681488 2727.9999256134 134 135 129
-202.0133882761 723.664522171021 2723.00004959106 152 151 147
-193.622544407845 719.959080219269 2709.00011062622 161 160 156
-185.719788074493 717.847526073456 2700.99997520447 166 165 161
-177.926123142242 716.001212596893 2694.00000572205 167 166 162
-170.29669880867 714.68585729599 2688.99989128113 172 171 167
-162.694022059441 713.370025157928 2684.00001525879 171 170 166
-155.002281069756 711.521863937378 2677.00004577637 173 172 168
-147.513777017593 710.470676422119 2673.00009727478 173 172 168
-139.994159340858 709.152936935425 2667.99998283386 173 172 168
-132.600858807564 708.366334438324 2664.99996185303 173 172 168
-125.223532319069 707.579076290131 2661.99994087219 172 171 167
-117.906540632248 707.057118415833 2660.00008583069 170 169 165
-110.683351755142 707.066237926483 2660.00008583069 166 165 161
-103.343196213245 706.277310848236 2657.00006484985 163 162 158
-96.0914492607117 706.019461154938 2655.99989891052 159 158 154
-88.8783484697342 706.02685213089 2655.99989891052 157 156 152
-81.6650539636612 706.033706665039 2655.99989891052 156 155 151
-74.5076164603233 706.571638584137 2657.99999237061 152 151 147
-67.2884956002235 706.577360630035 2657.99999237061 151 150 146
-60.1144134998322 707.114100456238 2660.00008583069 147 146 142
-52.8895482420921 707.118690013886 2660.00008583069 146 145 141
-45.5958880484104 706.059277057648 2655.99989891052 145 144 140
-38.396093994379 706.328570842743 2657.00006484985 151 150 146
-31.1907771974802 706.597208976746 2657.99999237061 157 156 152
-23.9799469709396 706.865191459656 2658.99991989136 144 143 139
-16.7384203523397 706.069350242615 2655.99989891052 151 150 146
-9.50956344604492 705.007076263428 2651.99995040894 155 154 150
-2.30415072292089 704.475879669189 2650.00009536743 149 148 144
4.88486140966415 703.146517276764 2644.99998092651 147 146 142
12.0603861287236 702.614188194275 2642.99988746643 147 146 142
19.2468576133251 702.878832817078 2644.00005340576 156 155 151
26.4387093484402 703.142762184143 2644.99998092651 151 150 146
33.6613543331623 703.937828540802 2648.00000190735 147 146 142
40.8385023474693 703.669011592865 2647.0000743866 146 145 140
48.0282604694366 703.665375709534 2647.0000743866 147 146 141
55.2178956568241 703.661203384399 2647.0000743866 150 149 144
62.5017136335373 704.719841480255 2651.00002288818 152 151 146
69.8070973157883 705.777823925018 2654.99997138977 147 146 141
77.0760253071785 706.303596496582 2657.00006484985 141 140 135
84.2604339122772 706.031262874603 2655.99989891052 143 144 139
91.4392247796059 705.758392810822 2654.99997138977 142 143 138
98.5380411148071 704.953372478485 2651.99995040894 146 147 142
105.939321219921 706.274330615997 2657.00006484985 148 149 144
113.452658057213 708.126306533813 2664.00003433228 139 140 135
121.003739535809 709.977686405182 2671.0000038147 125 126 121
128.256395459175 709.967732429504 2671.0000038147 130 131 126
135.50877571106 709.957301616669 2671.0000038147 135 136 131
143.081516027451 711.541175842285 2677.00004577637 122 123 118
150.854989886284 713.921785354614 2686.00010871887 120 121 116
159.736782312393 721.085906028748 2713.00005912781 103 104 99
-272.861778736115 727.737426757813 2766.99995994568 209 211 208
-264.493256807327 725.390315055847 2757.99989700317 181 181 179
-256.452620029449 723.83177280426 2752.00009346008 161 160 156
-248.624846339226 722.798585891724 2747.99990653992 168 167 163
-240.554958581924 720.975816249847 2740.9999370575 183 182 178
-232.692629098892 719.678521156311 2736.00006103516 178 177 173
-225.021585822105 718.906819820404 2733.00004005432 165 166 160
-217.684790492058 719.186782836914 2733.99996757507 155 156 150
-209.957540035248 718.150973320007 2730.00001907349 135 136 130
-202.177315950394 716.851472854614 2724.99990463257 139 138 134
-193.92341375351 713.710010051727 2713.00005912781 163 162 158
-185.940518975258 711.357116699219 2703.9999961853 149 148 144
-177.939966320992 708.740472793579 2694.00000572205 174 173 169
-170.056656002998 706.386268138886 2684.99994277954 171 170 166
-162.464261054993 705.083906650543 2680.0000667572 173 172 168
-154.840752482414 703.517854213715 2674.00002479553 173 172 168
-147.470206022263 703.003466129303 2671.99993133545 173 172 168
-140.057682991028 702.225565910339 2668.99991035461 174 173 169
-132.611364126205 701.183974742889 2664.99996185303 173 172 168
-125.233486294746 700.40488243103 2661.99994087219 171 170 166
-117.915935814381 699.888348579407 2660.00008583069 168 167 163
-110.733784735203 700.160503387451 2661.00001335144 165 164 160
-103.42925041914 699.642837047577 2658.99991989136 162 161 157
-96.062958240509 698.598325252533 2654.99997138977 157 156 152
-88.8854786753654 698.868870735168 2655.99989891052 156 155 151
-81.6101208329201 698.34953546524 2654.00004386902 155 154 150
-74.4295045733452 698.61888885498 2654.99997138977 152 151 147
-67.2179684042931 698.624551296234 2654.99997138977 151 150 146
-60.0062571465969 698.62973690033 2654.99997138977 148 147 143
-52.7943931519985 698.634326457977 2654.99997138977 147 146 142
-45.5308929085732 697.848856449127 2651.99995040894 146 145 141
-38.3413918316364 698.115408420563 2653.00011634827 151 150 146
-31.1698280274868 698.907613754272 2655.99989891052 158 157 153
-23.9458121359348 698.646724224091 2654.99997138977 144 143 139
-16.7208705097437 698.122143745422 2653.00011634827 150 149 145
-9.49957501143217 697.070598602295 2648.9999294281 153 152 148
-2.30259820818901 696.807861328125 2648.00000190735 149 148 144
4.88340994343162 695.755243301392 2644.00005340576 148 147 143
12.0659274980426 695.754528045654 2644.00005340576 148 147 143
19.2484147846699 695.753276348114 2644.00005340576 153 152 148
26.4508463442326 696.277678012848 2645.99990844727 149 148 144
33.6513631045818 696.538388729095 2647.0000743866 147 146 142
40.8418066799641 696.535348892212 2647.0000743866 147 146 141
48.0502806603909 696.794867515564 2648.00000190735 148 147 142
55.2849434316158 697.317063808441 2650.00009536743 151 150 145
62.5539049506187 698.10163974762 2653.00011634827 152 151 146
69.8653012514114 699.148893356323 2657.00006484985 146 145 140
77.111229300499 699.406147003174 2657.99999237061 142 141 136
84.3623802065849 699.662685394287 2658.99991989136 144 145 140
91.4809927344322 698.866248130798 2655.99989891052 143 144 139
98.5087752342224 697.543025016785 2651.00002288818 146 147 142
105.828143656254 698.324203491211 2654.00004386902 148 149 144
113.461695611477 700.946688652039 2664.00003433228 141 142 137
121.103972196579 703.30536365509 2673.00009727478 129 130 125
128.506690263748 704.084753990173 2676.00011825562 134 135 130
135.773196816444 704.074382781982 2676.00011825562 134 135 130
143.306627869606 705.378770828247 2680.99999427795 134 135 130
151.484712958336 709.576785564423 2697.00002670288 143 144 139
-272.684842348099 719.757676124573 2765.00010490417 207 209 206
-264.417111873627 717.69517660141 2756.99996948242 168 168 166
-248.643577098846 715.390741825104 2747.99990653992 162 161 157
-240.83648622036 714.367985725403 2743.99995803833 179 178 174
-233.135566115379 713.604867458344 2740.9999370575 172 171 167
-225.36812722683 712.581038475037 2736.99998855591 158 159 153
-218.019977211952 712.858319282532 2737.99991607666 153 154 148
-210.28134226799 711.833357810974 2733.99996757507 137 138 132
-202.415525913239 710.287094116211 2727.9999256134 130 129 125
-194.152921438217 707.177996635437 2716.00008010864 171 170 166
-186.230063438416 705.109775066376 2707.99994468689 145 144 140
-178.085967898369 701.999425888062 2696.00009918213 172 171 167
-170.13330757618 699.409127235413 2686.00010871887 176 175 171
-162.416398525238 697.599411010742 2678.99990081787 175 174 170
-154.852941632271 696.309983730316 2674.00002479553 172 171 167
-147.426664829254 695.540726184845 2671.0000038147 173 172 168
-140.016302466393 694.770872592926 2667.99998283386 173 172 168
-132.621899247169 694.000542163849 2664.99996185303 172 171 167
-125.196412205696 692.969024181366 2661.00001335144 170 169 165
-117.925338447094 692.718327045441 2660.00008583069 163 162 158
-110.701031982899 692.727506160736 2660.00008583069 161 160 156
-103.398635983467 692.215204238892 2657.99999237061 158 157 153
-95.9983021020889 690.921187400818 2653.00011634827 153 152 148
-88.8591557741165 691.449344158173 2654.99997138977 153 152 148
-81.616684794426 691.195785999298 2654.00004386902 153 152 148
-74.4635462760925 691.722989082336 2655.99989891052 151 150 146
-67.1980753540993 691.207826137543 2654.00004386902 150 149 145
-59.9432960152626 690.692126750946 2651.99995040894 147 146 142
-52.739005535841 690.696656703949 2651.99995040894 147 146 142
-45.500248670578 690.179765224457 2650.00009536743 146 145 141
-38.3300445973873 690.703988075256 2651.99995040894 151 150 146
-31.1371479183435 690.967321395874 2653.00011634827 161 160 156
-23.9206962287426 690.709054470062 2651.99995040894 146 145 141
-16.6970118880272 689.929366111755 2648.9999294281 149 148 144
-9.48600005358458 688.888609409332 2644.99998092651 153 152 148
-2.30017630383372 688.889145851135 2644.99998092651 150 149 145
4.8838066868484 688.628673553467 2644.00005340576 149 148 144
12.0669063180685 688.62783908844 2644.00005340576 149 148 144
19.2499794065952 688.626646995544 2644.00005340576 150 149 145
26.4229997992516 688.364267349243 2642.99988746643 149 148 144
33.6286649107933 688.882768154144 2644.99998092651 149 148 144
40.8296808600426 689.140141010284 2645.99990844727 148 147 142
48.0360239744186 689.397037029266 2647.0000743866 149 148 143
55.2894175052643 690.174221992493 2650.00009536743 152 151 146
62.5825449824333 691.211223602295 2654.00004386902 151 150 145
69.8972344398499 692.24750995636 2657.99999237061 145 144 140
77.1174430847168 692.241668701172 2657.99999237061 144 143 139
84.3691751360893 692.495584487915 2658.99991989136 144 145 140
91.453917324543 691.446781158447 2654.99997138977 144 145 140
98.6281558871269 691.178619861603 2654.00004386902 148 149 144
105.956256389618 691.951751708984 2657.00006484985 150 150 148
113.641120493412 694.807589054108 2667.99998283386 144 144 142
121.204242110252 696.621239185333 2674.99995231628 131 131 129
128.612950444221 697.392463684082 2677.99997329712 138 138 136
136.037677526474 698.163211345673 2680.99999427795 138 138 136
143.745616078377 700.235366821289 2688.99989128113 131 133 130
152.507767081261 706.994235515594 2714.99991416931 139 141 138
-272.606492042542 712.045192718506 2763.99993896484 209 211 208
-264.532804489136 710.519552230835 2757.99989700317 167 167 165
-256.397932767868 708.735823631287 2750.99992752075 165 164 160
-248.571887612343 707.724392414093 2746.99997901917 160 159 155
-240.854755043983 706.969976425171 2743.99995803833 176 175 171
-233.323484659195 706.730425357819 2743.00003051758 172 171 167
-225.714772939682 706.232666969299 2740.9999370575 159 160 154
-218.275651335716 706.249713897705 2740.9999370575 158 159 153
-210.528329014778 705.235540866852 2736.99998855591 138 139 133
-202.579647302628 703.447937965393 2730.00001907349 126 125 121
-194.453969597816 700.88654756546 2720.00002861023 153 152 148
-186.45091354847 698.582291603088 2710.99996566772 144 143 139
-178.232029080391 695.246517658234 2697.99995422363 171 170 166
-169.956654310226 691.394865512848 2683.00008773804 177 176 172
-162.307947874069 689.861714839935 2677.00004577637 177 176 172
-154.807269573212 688.843429088593 2673.00009727478 171 170 166
-147.438332438469 688.34000825882 2671.0000038147 175 174 170
-140.027418732643 687.578320503235 2667.99998283386 172 171 167
-132.582694292068 686.558306217194 2664.00003433228 175 174 170
-125.112295150757 685.279905796051 2658.99991989136 161 160 156
-117.890425026417 685.289621353149 2658.99991989136 165 164 160
-110.6266528368 685.041069984436 2657.99999237061 159 158 154
-103.406928479671 685.049712657928 2657.99999237061 155 154 150
-96.0422083735466 684.026777744293 2654.00004386902 153 152 148
-88.9667347073555 685.06520986557 2657.99999237061 153 152 148
-81.7462950944901 685.072124004364 2657.99999237061 154 153 149
-74.4975954294205 684.820652008057 2657.00006484985 150 149 145
-67.1781897544861 683.79545211792 2653.00011634827 149 148 144
-59.9481537938118 683.542788028717 2651.99995040894 149 148 144
-52.7631752192974 683.805167675018 2653.00011634827 149 148 144
-45.5382727086544 683.55131149292 2651.99995040894 147 146 142
-38.3331589400768 683.554708957672 2651.99995040894 151 150 146
-31.1279390007257 683.557569980621 2651.99995040894 152 151 147
-23.9136219024658 683.302164077759 2651.00002288818 147 146 142
-16.692066565156 682.530462741852 2648.00000190735 148 147 143
-9.49035864323378 682.016015052795 2645.99990844727 153 152 148
-2.30297259986401 682.532012462616 2648.00000190735 153 152 148
4.88974573090672 682.274222373962 2647.0000743866 149 148 144
12.0815811678767 682.273507118225 2647.0000743866 149 148 144
19.2588251084089 681.756734848022 2644.99998092651 148 147 143
26.4551434665918 682.012617588043 2645.99990844727 149 148 144
33.644113689661 682.010114192963 2645.99990844727 149 148 144
40.8484302461147 682.264924049377 2647.0000743866 151 150 145
48.0399243533611 682.261288166046 2647.0000743866 149 148 143
55.2939027547836 683.030366897583 2650.00009536743 152 151 147
62.5876113772392 684.056580066681 2654.00004386902 150 149 145
69.9291899800301 685.33980846405 2658.99991989136 145 144 140
77.1817043423653 685.591638088226 2660.00008583069 148 147 143
84.4711810350418 686.100602149963 2661.99994087219 146 147 142
91.6335210204124 685.578107833862 2660.00008583069 148 148 146
98.8219156861305 685.312628746033 2658.99991989136 150 150 148
106.164164841175 686.07759475708 2661.99994087219 157 157 155
113.778032362461 688.388347625732 2671.0000038147 150 150 148
121.304556727409 689.925312995911 2677.00004577637 136 138 135
128.623217344284 690.173029899597 2677.99997329712 138 140 137
136.150002479553 691.451072692871 2683.00008773804 142 144 141
144.077777862549 694.53239440918 2694.9999332428 140 142 139
-272.92275428772 705.356955528259 2766.99995994568 205 207 204
-264.744520187378 703.592598438263 2759.99999046326 164 164 162
-256.790101528168 702.337622642517 2755.00011444092 162 161 157
-249.043211340904 701.592028141022 2752.00009346008 156 155 151
-241.224214434624 700.590848922729 2747.99990653992 169 168 164
-233.4263920784 699.589133262634 2743.99995803833 163 162 158
-225.732088088989 698.84181022644 2740.9999370575 150 151 145
-218.451753258705 699.368834495544 2743.00003051758 152 153 147
-210.775390267372 698.620557785034 2740.00000953674 137 138 132
-202.892199158669 697.106778621674 2733.99996757507 124 123 119
-194.755107164383 694.572508335114 2723.99997711182 149 148 144
-186.740607023239 692.292451858521 2714.99991416931 143 142 138
-178.510278463364 688.991904258728 2701.99990272522 172 171 167
-170.223414897919 685.1806640625 2687.00003623962 177 176 172
-162.502661347389 683.408856391907 2680.0000667572 176 175 171
-154.877439141273 681.891322135925 2674.00002479553 178 177 173
-147.394835948944 680.883288383484 2670.00007629395 170 169 165
-139.828622341156 679.364621639252 2664.00003433228 173 172 168
-132.443934679031 678.610324859619 2661.00001335144 176 175 171
-124.981120228767 677.345514297485 2655.99989891052 162 161 157
-117.811195552349 677.610337734222 2657.00006484985 162 161 157
-110.469043254852 676.854372024536 2654.00004386902 157 156 152
-103.337436914444 677.373051643372 2655.99989891052 154 153 149
-96.0861518979073 677.126109600067 2654.99997138977 152 151 147
-88.9739170670509 677.898585796356 2657.99999237061 152 151 147
-81.7528963088989 677.90549993515 2657.99999237061 152 151 147
-74.4195133447647 676.89174413681 2654.00004386902 151 150 146
-67.1329945325851 676.132321357727 2651.00002288818 151 150 146
-59.9078088998795 675.882458686829 2650.00009536743 151 150 146
-52.7674593031406 676.652133464813 2653.00011634827 150 149 145
-45.5763265490532 676.911175251007 2654.00004386902 149 148 144
-38.3218228816986 676.149427890778 2651.00002288818 150 149 145
-31.0835223644972 675.3870844841 2648.00000190735 152 151 147
-23.8794833421707 675.134241580963 2647.0000743866 148 147 143
-16.6997313499451 675.646007061005 2648.9999294281 149 148 144
-9.50189307332039 675.647020339966 2648.9999294281 153 152 148
-2.30402988381684 675.647497177124 2648.9999294281 152 151 147
4.89014480262995 675.137341022491 2647.0000743866 149 148 144
12.0780011638999 674.88157749176 2645.99990844727 149 148 144
19.2676763981581 674.88032579422 2645.99990844727 149 148 144
26.4373011887074 674.368381500244 2644.00005340576 149 148 144
33.6214229464531 674.365937709808 2644.00005340576 149 148 144
40.7745875418186 673.852801322937 2641.99995994568 150 149 144
47.9893833398819 674.359321594238 2644.00005340576 148 147 142
55.214911699295 674.865126609802 2645.99990844727 151 150 146
62.5455230474472 676.390707492828 2651.99995040894 149 148 144
69.88225877285 677.660584449768 2657.00006484985 146 145 141
77.1589353680611 678.164720535278 2658.99991989136 149 148 144
84.477998316288 678.92324924469 2661.99994087219 148 149 144
91.6753634810448 678.661167621613 2661.00001335144 149 149 147
98.941370844841 678.908407688141 2661.99994087219 150 150 148
106.412015855312 680.430471897125 2667.99998283386 158 158 156
114.04275894165 682.716846466064 2677.00004577637 150 150 148
121.540851891041 683.98255109787 2681.99992179871 136 138 135
128.82561981678 683.972477912903 2681.99992179871 138 140 137
136.414587497711 685.492038726807 2687.99996376038 147 149 146
144.677355885506 690.071165561676 2706.00008964539 148 150 147
-282.578259706497 703.170597553253 2788.00010681152 209 211 208
-273.140460252762 698.399245738983 2769.00005340576 202 204 201
-264.956295490265 696.653842926025 2762.00008392334 164 164 162
-256.902724504471 695.160150527954 2756.00004196167 162 161 157
-248.971596360207 693.918108940125 2750.99992752075 154 153 149
-241.067036986351 692.675590515137 2746.00005149841 167 166 162
-233.189031481743 691.432476043701 2740.9999370575 158 157 153
-225.749433040619 691.45005941391 2740.9999370575 145 146 140
-218.468606472015 691.971659660339 2743.00003051758 148 149 143
-210.945606231689 691.736102104187 2742.00010299683 133 134 128
-202.907994389534 689.733922481537 2733.99996757507 124 123 119
-194.627299904823 686.722040176392 2721.99988365173 146 145 141
-186.617657542229 684.466302394867 2713.00005912781 144 143 139
-178.590372204781 681.957721710205 2703.00006866455 174 173 169
-170.490264892578 678.943932056427 2690.99998474121 178 177 173
-162.697419524193 676.938593387604 2683.00008773804 175 174 170
-155.005559325218 675.185024738312 2676.00011825562 177 176 172
-147.516965866089 674.187779426575 2671.99993133545 174 173 169
-140.04972577095 673.189997673035 2667.99998283386 180 179 175
-132.603853940964 672.191560268402 2664.00003433228 168 167 163
-125.179380178452 671.192526817322 2660.00008583069 158 157 153
-117.864996194839 670.697689056396 2657.99999237061 156 155 151
-110.519550740719 669.949769973755 2654.99997138977 154 153 149
-103.384681046009 670.463144779205 2657.00006484985 153 152 148
-96.1662828922272 670.47119140625 2657.00006484985 151 150 146
-89.0480726957321 671.235740184784 2660.00008583069 150 149 145
-81.7287638783455 670.485556125641 2657.00006484985 150 149 145
-74.4255483150482 669.734835624695 2654.00004386902 151 150 146
-67.1637654304504 669.23588514328 2651.99995040894 152 151 147
-59.9578879773617 669.241070747375 2651.99995040894 151 150 146
-52.7916438877583 669.750392436981 2654.00004386902 150 149 145
-45.5972105264664 670.00675201416 2654.99997138977 149 148 144
-38.3538603782654 669.505476951599 2653.00011634827 150 149 145
-31.1095379292965 668.751239776611 2650.00009536743 154 153 149
-23.8904543220997 668.24871301651 2648.00000190735 151 150 146
-16.6884865611792 667.998015880585 2647.0000743866 152 151 147
-9.4990823417902 668.25145483017 2648.00000190735 152 151 147
-2.30334862135351 668.251931667328 2648.00000190735 150 149 145
4.89239115267992 668.251752853394 2648.00000190735 150 149 145
12.0835527777672 667.998790740967 2647.0000743866 151 150 146
19.2619636654854 667.492687702179 2644.99998092651 151 150 146
26.4494568109512 667.490899562836 2644.99998092651 150 149 145
33.6368791759014 667.4884557724 2644.99998092651 147 146 142
40.8396497368813 667.737782001495 2645.99990844727 146 145 141
48.0114407837391 667.48183965683 2644.99998092651 146 145 141
55.2402772009373 667.982280254364 2647.0000743866 146 145 141
62.5034272670746 668.734550476074 2650.00009536743 146 145 141
69.8616206645966 670.243322849274 2655.99989891052 148 147 143
77.1942064166069 671.246767044067 2660.00008583069 150 149 145
84.4848304986954 671.744823455811 2661.99994087219 149 149 147
91.6827693581581 671.485424041748 2661.00001335144 151 151 149
98.8750159740448 671.225368976593 2660.00008583069 153 153 151
106.460466980934 673.488140106201 2668.99991035461 162 162 160
114.264950156212 676.759600639343 2681.99992179871 154 154 152
121.777214109898 678.011834621429 2687.00003623962 136 138 135
129.076138138771 678.001761436462 2687.00003623962 145 147 144
136.679247021675 679.505169391632 2693.00007820129 154 156 153
145.437464118004 686.306476593018 2720.00002861023 158 160 157
-281.687080860138 693.405091762543 2779.00004386902 207 209 206
-272.963613271713 690.431594848633 2766.99995994568 197 199 196
-264.976263046265 689.204216003418 2762.00008392334 163 163 161
-257.015377283096 687.976241111755 2756.99996948242 161 160 156
-249.171540141106 686.997354030609 2753.00002098084 151 150 146
-241.348847746849 686.017870903015 2749.00007247925 162 161 157
-233.547225594521 685.037732124329 2744.99988555908 156 155 151
-226.013943552971 684.805870056152 2743.99995803833 142 143 137
-218.724444508553 685.322165489197 2746.00005149841 144 145 139
-211.269691586494 685.338854789734 2746.00005149841 128 129 123
-203.220680356026 683.358311653137 2737.99991607666 122 121 117
-194.857031106949 680.12923002243 2724.99990463257 143 142 138
-186.838701367378 677.897930145264 2716.00008010864 146 145 141
-178.802654147148 675.41629076004 2706.00008964539 176 175 171
-171.010583639145 673.682808876038 2698.99988174438 179 178 174
-163.013532757759 670.950412750244 2687.99996376038 176 175 171
-155.191645026207 668.716430664063 2678.99990081787 173 172 168
-147.583916783333 667.230844497681 2673.00009727478 179 178 174
-140.113398432732 666.2437915802 2668.99991035461 185 184 180
-132.71401822567 665.505766868591 2665.99988937378 158 157 153
-125.330612063408 664.767265319824 2663.00010681152 153 152 148
-118.007503449917 664.277791976929 2661.00001335144 156 155 151
-110.653340816498 663.538038730621 2657.99999237061 154 153 149
-103.431932628155 663.546741008759 2657.99999237061 153 152 148
-96.1740538477898 663.305163383484 2657.00006484985 151 150 146
-89.0217944979668 663.811862468719 2658.99991989136 151 150 146
-81.7353874444962 663.319528102875 2657.00006484985 151 150 146
-74.4315907359123 662.576913833618 2654.00004386902 151 150 146
-67.1945512294769 662.333071231842 2653.00011634827 153 152 148
-59.9401593208313 661.838889122009 2651.00002288818 152 151 147
-52.7561493217945 662.093102931976 2651.99995040894 150 149 145
-45.5322228372097 661.847412586212 2651.00002288818 151 150 146
-38.3280739188194 661.850929260254 2651.00002288818 150 149 145
-31.0885924845934 661.104738712311 2648.00000190735 155 154 150
-23.8833818584681 660.857319831848 2647.0000743866 152 151 147
-16.6835431009531 660.609304904938 2645.99990844727 153 152 148
-9.49627067893744 660.860061645508 2647.0000743866 152 151 147
-2.30092671699822 660.361170768738 2644.99998092651 150 149 145
4.88909520208836 660.610735416412 2645.99990844727 150 149 145
12.0799727737904 660.610020160675 2645.99990844727 151 150 146
19.2781053483486 660.858452320099 2647.0000743866 151 150 146
26.4616142958403 660.606861114502 2645.99990844727 150 149 145
33.6523428559303 660.604476928711 2645.99990844727 147 146 142
40.8121086657047 660.102128982544 2644.00005340576 146 145 141
48.0153523385525 660.348176956177 2644.99998092651 147 146 142
55.2656427025795 661.092877388 2648.00000190735 146 145 141
62.5320971012115 661.837100982666 2651.00002288818 146 145 141
69.8409900069237 662.830293178558 2654.99997138977 149 148 146
77.2004723548889 664.072692394257 2660.00008583069 150 149 147
84.5234245061874 664.815008640289 2663.00010681152 150 150 148
91.6901901364326 664.308607578278 2661.00001335144 152 152 150
98.8830029964447 664.051234722137 2660.00008583069 155 155 153
106.349363923073 665.540754795074 2665.99988937378 164 164 164
114.231526851654 669.276475906372 2680.99999427795 156 156 156
121.741652488708 670.515120029449 2686.00010871887 137 139 138
129.278630018234 671.753227710724 2690.99998474121 150 152 151
137.096226215363 674.238860607147 2700.99997520447 153 155 154
146.518528461456 683.962881565094 2740.00000953674 157 161 160
-281.50537610054 685.414791107178 2776.99995040894 206 208 205
-272.688180208206 682.226896286011 2763.99993896484 194 196 193
-264.900296926498 681.50669336319 2760.99991798401 161 161 159
-257.128059864044 680.785834789276 2757.99989700317 160 159 155
-249.371558427811 680.064618587494 2755.00011444092 149 148 144
-241.630688309669 679.342806339264 2752.00009346008 158 157 153
-233.82043838501 678.373575210571 2747.99990653992 150 149 145
-226.443246006966 678.638160228729 2749.00007247925 140 141 135
-218.980357050896 678.655445575714 2749.00007247925 140 141 135
-211.516961455345 678.672075271606 2749.00007247925 119 120 114
-203.459203243256 676.713168621063 2740.9999370575 116 115 111
-195.15834748745 673.766136169434 2729.00009155273 137 136 132
-187.059745192528 671.312093734741 2719.00010108948 148 147 143
-179.014980792999 668.857514858246 2709.00011062622 178 177 173
-171.277567744255 667.389929294586 2703.00006866455 177 176 172
-163.20838034153 664.440214633942 2690.99998474121 174 173 169
-155.319854617119 661.983728408813 2680.99999427795 168 167 163
-147.485241293907 659.526586532593 2671.0000038147 171 170 166
-140.124589204788 659.044206142426 2668.99991035461 160 159 155
-132.824212312698 658.80823135376 2667.99998283386 145 144 140
-125.528931617737 658.571660518646 2667.00005531311 149 148 144
-118.238739669323 658.334493637085 2665.99988937378 157 156 152
-110.870435833931 657.602906227112 2663.00010681152 153 152 148
-103.595942258835 657.3646068573 2661.99994087219 151 150 146
-96.2542295455933 656.631886959076 2658.99991989136 149 148 144
-88.995523750782 656.392395496368 2657.99999237061 150 149 145
-81.7112475633621 655.905365943909 2655.99989891052 151 150 146
-74.4656771421433 655.664801597595 2654.99997138977 153 152 148
-67.2253370285034 655.423581600189 2654.00004386902 157 156 152
-59.9676482379436 654.934883117676 2651.99995040894 155 154 150
-52.7604520320892 654.939472675323 2651.99995040894 153 152 148
-45.5187670886517 654.449582099915 2650.00009536743 154 153 149
-38.3022837340832 654.206037521362 2648.9999294281 153 152 148
-31.1028715223074 654.208779335022 2648.9999294281 156 155 151
-23.9033810794353 654.211044311523 2648.9999294281 152 151 147
-16.6722983121872 652.97794342041 2644.00005340576 153 152 148
-9.48628317564726 652.978956699371 2644.00005340576 153 152 148
-2.30198516510427 653.473377227783 2645.99990844727 151 150 146
4.89688664674759 654.461145401001 2650.00009536743 152 151 147
12.0992250740528 654.460430145264 2650.00009536743 151 150 146
19.2942470312119 654.212236404419 2648.9999294281 150 149 145
26.4937840402126 654.210388660431 2648.9999294281 149 148 144
33.6932465434074 654.20788526535 2648.9999294281 148 147 143
40.8771857619286 653.957903385162 2648.00000190735 148 147 143
48.0374172329903 653.460323810577 2645.99990844727 152 151 147
55.3118959069252 654.443979263306 2650.00009536743 150 149 145
62.6079589128494 655.427038669586 2654.00004386902 148 147 145
69.9255913496017 656.409442424774 2657.99999237061 149 148 146
77.2357657551765 657.14430809021 2661.00001335144 147 146 144
84.5302864909172 657.631695270538 2663.00010681152 152 152 150
91.7320623993874 657.377541065216 2661.99994087219 155 155 153
98.9653393626213 657.369792461395 2661.99994087219 158 158 156
106.397844851017 658.596277236938 2667.00005531311 167 167 167
114.240735769272 662.044584751129 2680.99999427795 158 158 158
121.706113219261 663.022816181183 2684.99994277954 138 140 139
129.385083913803 664.988279342651 2693.00007820129 149 151 150
137.513294816017 668.928444385529 2709.00011062622 155 157 156
-281.931936740875 678.898990154266 2780.99989891052 204 206 203
-272.905975580215 675.257921218872 2766.00003242493 192 194 191
-264.920294284821 674.05754327774 2760.99991798401 160 160 158
-257.240831851959 673.589050769806 2759.0000629425 159 158 154
-249.662086367607 673.364162445068 2757.99989700317 148 147 143
-241.912618279457 672.650575637817 2755.00011444092 155 154 150
-234.263882040977 672.180473804474 2753.00002098084 148 147 143
-226.872578263283 672.442376613617 2753.99994850159 140 139 134
-219.395637512207 672.459602355957 2753.99994850159 140 141 135
-211.918145418167 672.476410865784 2753.99994850159 117 118 112
-203.920498490334 670.783281326294 2746.99997901917 113 112 108
-195.674255490303 668.112874031067 2736.00006103516 134 133 129
-187.487244606018 665.441691875458 2724.99990463257 148 147 143
-179.425612092018 663.014054298401 2714.99991416931 177 176 172
-171.544581651688 661.074280738831 2707.00001716614 176 175 171
-163.403302431107 657.912850379944 2694.00000572205 173 172 168
-155.563935637474 655.727505683899 2684.99994277954 169 168 164
-147.828325629234 653.785884380341 2677.00004577637 163 162 158
-140.345796942711 652.820467948914 2673.00009727478 145 144 140
-132.984206080437 652.342855930328 2671.0000038147 144 143 139
-125.680223107338 652.109026908875 2670.00007629395 150 149 145
-118.292614817619 651.386141777039 2667.00005531311 158 157 153
-110.962644219398 650.906920433044 2664.99996185303 152 151 147
-103.604316711426 650.182843208313 2661.99994087219 150 149 145
-96.2982326745987 649.702429771423 2660.00008583069 148 147 143
-88.9692455530167 648.977160453796 2657.00006484985 149 148 144
-81.717886030674 648.739814758301 2655.99989891052 150 149 145
-74.4436830282211 648.257613182068 2654.00004386902 152 151 147
-67.2054812312126 648.019134998322 2653.00011634827 156 155 151
-59.9951483309269 648.024320602417 2653.00011634827 154 153 149
-52.7448542416096 647.540390491486 2651.00002288818 152 151 147
-45.5052964389324 647.055804729462 2648.9999294281 153 152 148
-38.2764935493469 646.570801734924 2647.0000743866 153 152 148
-31.0819316655397 646.573603153229 2647.0000743866 156 155 151
-23.8782614469528 646.331548690796 2645.99990844727 152 151 147
-16.667352989316 645.600438117981 2642.99988746643 152 151 147
-9.4942357391119 646.334290504456 2645.99990844727 153 152 148
-2.30217329226434 646.334767341614 2645.99990844727 152 151 147
4.8935916274786 646.823227405548 2648.00000190735 152 151 147
12.0956487953663 647.0667719841 2648.9999294281 151 150 146
19.317677244544 647.798299789429 2651.99995040894 149 148 144
26.525953784585 647.796392440796 2651.99995040894 149 148 144
33.6959958076477 647.061109542847 2648.9999294281 149 148 144
40.8650860190392 646.569669246674 2647.0000743866 150 149 145
48.0776503682137 646.810173988342 2648.00000190735 153 152 148
55.3581528365612 647.783100605011 2651.99995040894 151 150 146
62.6838281750679 648.999571800232 2657.00006484985 149 148 146
69.9838995933533 649.726927280426 2660.00008583069 149 148 146
77.2710517048836 650.209426879883 2661.99994087219 146 145 143
84.5053791999817 650.202870368958 2661.99994087219 152 152 150
91.7394980788231 650.195777416229 2661.99994087219 155 155 153
99.0848913788795 650.920808315277 2664.99996185303 159 159 157
