ply
format ascii 1.0
comment KinectMotionCapture
element vertex 784
property float x
property float y
property float z
property uchar red
property uchar green
property uchar blue
end_header
-78.192021776661 441.834185626158 2864.76747365944 141 143 142
-87.0730724406386 442.640444466146 2867.79934843751 140 142 141
-102.91814838542 443.745405384814 2866.36616716212 133 135 134
-119.67929411637 444.893218752689 2864.4194138354 140 140 140
-140.852468991321 446.234972553287 2859.7403219286 152 152 152
-172.588044762617 448.038880446749 2848.47694305717 171 171 171
-222.842439987861 450.655843760651 2825.72607154383 135 133 134
-247.822061891938 452.186454719664 2819.13061184618 112 110 111
-253.52049385444 452.87994776812 2824.68674105355 115 113 114
-255.689425567932 453.418406277008 2832.42925133016 120 118 119
-258.726592251982 453.993919363244 2839.61087011534 132 132 132
-268.839435934643 454.881830112484 2842.43695613596 131 131 131
-282.52293593308 455.929904808623 2843.11677154589 126 128 127
90.5987935781507 412.75320335123 2683.03268280705 178 180 177
100.384119224587 412.922548544627 2700.21398472943 179 181 178
106.220283662929 413.215583647716 2714.21335852357 180 182 181
103.238077837267 413.797039695137 2721.33985983883 180 181 183
104.311436195326 414.241257662956 2731.54429412622 182 183 185
106.227436635584 414.653989750215 2742.33387312855 186 187 189
107.366528668079 415.089685068601 2752.47429254936 190 191 193
103.650975654756 415.688069005847 2758.90960721039 192 192 194
101.576748162525 416.229137396494 2766.55735121392 186 185 190
100.337296809711 416.739741018066 2774.79790001002 188 187 192
101.578731940445 417.162062612142 2784.83866785199 195 194 199
100.385647967579 417.666555529005 2793.03407631386 179 180 184
95.0920035085483 418.313352889586 2798.19514714869 175 176 180
89.7992537945322 418.959831062448 2803.35537666431 185 186 190
82.8511751083663 419.665019879959 2807.31653843446 224 225 229
80.0461331609421 420.222372540715 2814.27067586969 229 230 234
76.4217703012413 420.807933711549 2820.61733255941 222 222 224
70.3043282832101 421.48280934665 2825.17504943187 219 219 221
64.1840782205558 422.157966973659 2829.73585089787 218 218 220
58.06076907683 422.833274371137 2834.29966794059 223 223 225
51.0947145198113 423.539756347156 2838.27848888797 223 223 225
43.2802578555456 424.278054011134 2841.67817400702 224 223 228
33.7681875353333 425.080262000466 2843.92035002816 226 227 231
26.7737360966196 425.789822619606 2847.92691447673 226 227 232
20.6199055597569 426.468329066562 2852.52056689591 225 226 230
12.7644252267585 427.211208727559 2855.9603119073 226 227 229
2.34439383303009 428.052193592959 2857.68112833151 226 227 229
-11.5107432430319 429.026009964799 2857.12544792696 225 226 228
-26.258754023373 430.037100953963 2856.03398581997 225 226 228
-38.4774122646694 430.954183296613 2856.69546164107 225 226 228
-48.1490370789457 431.775149382129 2859.09330519504 212 213 215
-58.7002686021969 432.631819060557 2860.94208707885 209 210 212
-68.4110468412609 433.45746873558 2863.37778048795 195 196 198
-76.4107353989392 434.217437211382 2866.95820067887 166 167 169
-84.4209276061516 434.978657832368 2870.54920392453 168 169 171
-101.128570965699 436.085406519198 2868.55539129402 165 166 168
-119.626934866909 437.267462358686 2865.49450379139 176 177 179
-139.054821720817 438.491354066766 2861.93355368084 178 179 181
-174.283486752331 440.354897731926 2848.46241267026 140 141 143
-224.540966669202 442.835425796283 2825.73443152961 158 160 159
-247.767340129017 444.236514213856 2820.25127006153 115 117 116
-255.226100703953 445.002059679737 2824.71096365222 109 111 110
-259.163489070762 445.624265223751 2831.36270543352 110 110 108
-263.976196162145 446.281755138356 2837.46186515762 127 129 126
-271.442651237309 447.048431078227 2841.92869457522 126 128 125
-279.80402191717 447.852756987066 2845.86171445088 132 134 131
85.8497556361506 405.295878298269 2680.3486054829 177 179 176
98.0312153907215 405.447259777825 2699.40423163875 180 182 179
107.079959080369 405.683487507248 2715.88983796358 179 181 178
108.132917398834 406.152377496222 2726.11122111989 178 182 183
107.600471615275 406.665914763347 2735.06617866045 182 183 185
107.092031100996 407.176232431869 2743.99743662703 185 186 188
103.357950264146 407.782878462727 2750.44992855688 187 188 190
100.446868330186 408.363152098582 2757.50597755619 188 188 190
99.1809319741495 408.890994772185 2765.76994058566 197 196 201
100.390403207107 409.339357742242 2775.83893798863 187 186 191
100.811340564895 409.809495921122 2785.27049566024 198 197 202
99.6159221401576 410.328094876043 2793.46579955907 188 189 193
94.320212637355 410.975476896749 2798.62883460039 174 175 179
88.1993388185887 411.649179968638 2803.19047044804 173 174 178
82.9034196918075 412.296264087231 2808.35375767887 163 167 170
78.4382792993759 412.91608349269 2814.11300837574 174 175 179
74.8098457948467 413.507936777979 2820.46277730418 195 195 197
68.6886380316856 414.181003807361 2825.02483877036 212 212 214
64.2357460799663 414.798895804875 2830.77221145458 224 224 224
57.2745829054133 415.499896216229 2834.74698535973 221 221 223
49.4672077803733 416.229769576381 2838.14122135607 221 221 223
39.9656325684372 417.017694386639 2840.37474878518 214 213 218
31.2892633541901 417.779102946681 2843.21000070971 204 205 209
24.2889472656893 418.484449516687 2847.22301167684 185 188 193
16.4345142947324 419.21959016244 2850.66286046531 181 185 188
8.56932556077661 419.955968805368 2854.11320691 183 184 186
-1.8601733791952 420.782389490826 2855.84591516901 186 187 189
-13.1655102962651 421.64133913255 2857.02595071931 190 191 193
-27.0621116795953 422.593551923114 2856.51463798471 201 202 204
-38.4254834628104 423.45942144657 2857.7516181015 207 208 210
-50.6739671338994 424.358992458696 2858.44563702429 224 225 227
-62.952803717363 425.262196584732 2859.16892202311 223 224 226
-70.9474055140959 426.013887330462 2862.74551443011 222 223 225
-78.0879768366178 426.735663918015 2866.89571041055 234 235 237
-85.2356024787708 427.458224914902 2871.05245765732 236 237 239
-100.207570591169 428.46709188543 2870.18371720075 206 207 209
-119.574228479613 429.640895607699 2866.56936880479 209 210 212
-145.109201292188 431.047467856078 2859.12680431842 173 174 176
-191.718104596196 433.243108123588 2838.48615191214 159 160 162
-235.878806657252 435.362754039993 2819.67635936562 116 118 117
-249.468720253808 436.35151825551 2820.27234600014 91 93 92
-256.051334084201 437.079463634733 2825.28414167378 108 110 109
-260.872487305264 437.741055212751 2831.39108230545 117 119 116
-269.22549632629 438.536572600951 2835.31710082578 129 131 128
-276.703384990681 439.299648091752 2839.79581611131 128 130 127
-282.412455396366 439.995484755059 2845.36216306477 140 142 137
85.1053581715875 397.701500658925 2680.79333955019 177 179 176
95.6786803098644 397.954823564169 2698.59664675603 181 183 180
106.330553159794 398.198214419676 2716.32341989662 177 179 176
107.381039205845 398.689336034818 2726.54363438936 178 182 183
108.46362459864 399.176250557289 2736.73293340471 184 185 187
108.76750136092 399.680959609947 2746.2756244181 188 189 191
106.661923535523 400.248594753181 2753.95057321147 186 187 189
104.572759216428 400.813954322253 2761.60955947932 185 185 187
101.683689014493 401.399767634068 2768.64293174165 196 196 198
101.262047155517 401.915169435808 2777.48758376971 183 183 185
100.044304160496 402.450604300328 2785.70290579875 189 189 191
98.8466976429745 402.983277804508 2793.89830229383 198 198 200
95.1972027746879 403.584125358198 2800.26765611888 213 213 215
89.0779898576191 404.255273331887 2804.827682467 230 231 233
83.7838524125067 404.902575107395 2809.989168292 236 238 237
79.3207008622932 405.525226613171 2815.74636329795 236 236 236
76.5258796257973 406.098096906461 2822.68805791682 159 159 159
69.5744956909215 406.793176467563 2826.65399599148 142 142 140
63.4521623126663 407.463938192313 2831.21751593311 144 143 139
55.6513636921596 408.185447507692 2834.6061197234 172 171 169
50.3586376600058 408.83165733536 2839.76636538388 179 178 176
40.8590522130594 409.606299193473 2841.99988016146 178 178 178
31.3411835543747 410.383055996544 2844.25157569263 165 167 166
24.3408279354673 411.083424684148 2848.26536164289 149 153 154
16.4863802054587 411.810871758659 2851.70636219378 150 154 155
9.47059083190638 412.51290771864 2855.73556551042 149 150 152
-1.80826401877754 413.350284469821 2856.89283028311 142 143 145
-11.4071175969137 414.136408698712 2859.22322269304 137 138 140
-24.4447493631013 415.034303790077 2859.28387788065 120 121 123
-37.5160977987505 415.936229974561 2859.37775626765 120 121 123
-51.4805666421116 416.870167720782 2858.9365379677 128 129 131
-66.3438095976785 417.836711830373 2857.96574928151 130 131 133
-74.3461217583747 418.581679158137 2861.55099191215 139 140 142
-80.6296624146308 419.270817650484 2866.27187698568 161 162 164
-86.9162643059891 419.960342060156 2870.99574487251 163 164 166
-100.15486442847 420.882451998384 2871.25238566499 160 161 163
-118.650755717659 421.984322850371 2868.20089412821 165 166 168
-152.035393273693 423.594623189167 2855.77019230521 171 172 174
-208.277316275055 425.993050512459 2829.07794515945 107 108 110
-243.710390963578 427.699382994251 2815.83302170425 118 120 119
-252.048193602449 428.485287944505 2819.74536077644 124 126 125
-256.876047029664 429.150744638031 2825.85804570749 112 114 113
-263.463490072549 429.877074447319 2830.87521348305 123 125 122
-273.590257883427 430.727421384813 2833.72034044181 124 126 123
-280.191604574246 431.45556293867 2838.75104697024 134 136 133
82.7596617387627 390.136761591742 2679.98965011906 177 179 176
95.7347917714095 390.390275536711 2699.65896414011 181 183 180
105.5814814903 390.706560045598 2716.75761306476 175 177 174
108.242988587607 391.182355751319 2728.21448147848 180 182 181
108.518520835439 391.710009339897 2737.78192782133 184 186 185
111.253648539287 392.176288123073 2749.16709648144 185 187 186
109.96607026352 392.734869297113 2757.44800712019 181 183 182
107.884581546973 393.310481758059 2765.09819387029 183 185 184
103.370331380715 393.943745396487 2770.90422424679 179 179 179
101.315655142641 394.515666427853 2778.52799355909 196 196 196
101.738027113876 395.024071425778 2787.95247081921 202 202 202
99.7219163579524 395.590865305618 2795.53870182839 237 237 237
97.7224919418651 396.155454116039 2803.10902680574 234 234 234
92.435088349871 396.802467186216 2808.26386848556 216 216 216
87.1486217507931 397.449185227069 2813.41782332278 163 163 161
81.8630493582226 398.095643116918 2818.57092864992 149 148 146
77.4101412263168 398.719964756288 2824.31736710306 166 165 161
72.1282280015467 399.365666505761 2829.4669505797 198 197 193
66.0116126545023 400.033437082002 2834.02523452224 204 201 196
57.3787978273916 400.769171134335 2836.82069313553 188 187 183
50.4108370462317 401.460872815947 2840.80392935471 178 177 173
43.4358219454412 402.153358906893 2844.79371684021 168 168 166
35.6105652410212 402.869813854318 2848.20735490276 179 181 178
26.9292420828453 403.610971973133 2851.05051917322 200 204 203
16.5385507368647 404.401348357856 2852.74968040763 203 207 206
8.67333194629749 405.122398895013 2856.20232218632 203 205 204
-1.75604949917219 405.917315415081 2857.93957007344 204 206 205
-8.79547028022554 406.617065817404 2861.99223968949 207 209 208
-20.9719729924061 407.465724103542 2862.62230533467 203 205 204
-33.1787433133988 408.317975265306 2863.28155829539 205 207 206
-49.7101490194414 409.299635277817 2861.13122712112 202 204 203
-61.1257749932976 410.134912427192 2862.4246179612 210 212 211
-72.5675479399768 410.973367880297 2863.74350337992 217 219 218
-81.4414606132741 411.737360231366 2866.77453699633 205 207 206
-89.4633874026041 412.477045894051 2870.38003787095 199 201 200
-100.101853914345 413.297036632675 2872.32086651918 218 220 219
-116.856337435376 414.305757709448 2870.3880552994 218 220 219
-151.981490571809 415.883462264197 2856.85637234251 203 205 204
-217.840420431125 418.423617137215 2824.10599188133 132 134 133
-245.407437711451 419.795868290723 2815.85219375598 86 88 87
-256.383733414102 420.65712096815 2818.12239328828 89 91 90
-261.221056641412 421.326883790341 2824.24418326887 132 134 131
-267.818169604196 422.052086931531 2829.27078209689 130 132 129
-275.302261981305 422.805936244895 2833.75735922784 134 136 133
-281.907581831866 423.532291932345 2838.79193727092 152 154 151
84.4183189656289 382.47805333944 2682.30868918574 177 179 176
95.7911884798341 382.824718563715 2700.72114739153 182 184 181
104.832470699846 383.208512916987 2717.19235278345 171 173 170
106.685175754391 383.727938208865 2728.02901583043 178 180 177
108.573638274133 384.242796735267 2738.83084615181 180 182 179
110.497986618296 384.752983861231 2749.59773175 174 176 173
110.833166833361 385.292135322313 2759.1042473991 174 176 173
110.382031883402 385.844661036998 2767.97269960437 203 205 202
107.505947112101 386.445803904474 2774.99057359849 218 220 217
104.642531348071 387.045189182306 2781.99646469409 241 241 239
103.43212456645 387.607414549005 2790.20054213026 180 181 176
101.419695790039 388.184918849442 2797.78153388387 156 155 151
100.24793898637 388.742065381406 2805.94798197013 166 162 161
97.4442856598943 389.333415419372 2812.89571568673 145 141 138
91.3412510834641 389.997806350042 2817.44067539144 98 95 88
87.72509390975 390.605625750235 2823.77589395709 73 70 63
79.9583588744834 391.308069118413 2827.13349004235 50 47 38
76.3497721775028 391.914668780004 2833.46137128953 58 54 45
67.7355032264062 392.63783373859 2836.24027128034 57 54 45
59.9442828876313 393.342862633305 2839.62179949426 65 62 53
53.8215687647208 394.008807428784 2844.186409461 77 77 69
47.6958792487769 394.675038866593 2848.75393167139 115 116 110
39.8803011579569 395.382637207958 2852.15926773006 165 166 160
28.672484055472 396.174733725123 2853.25268336748 204 206 201
17.4384360228714 396.969901192516 2854.37169282117 197 199 196
9.57520024099257 397.68306527689 2857.82353105719 195 197 194
-0.852376264443233 398.461963648 2859.5610162456 185 187 184
-9.59601498106855 399.200068400212 2862.46651207304 174 176 173
-21.7745755964542 400.027858831364 2863.10136766439 176 178 175
-32.2691125809591 400.814756368621 2864.90416332511 177 179 176
-44.5037525426506 401.64924964157 2865.59405370124 170 172 169
-53.3251500184986 402.396596917066 2868.57539908517 176 178 175
-63.8867753027892 403.191539218715 2870.44362540667 180 182 179
-79.6590120518443 404.12821970555 2868.96298550749 193 195 192
-92.8766453410854 405.000203498072 2869.20655238906 203 205 202
-103.522748710486 405.805412307278 2871.15714931255 205 207 204
-116.802749521459 406.684976710672 2871.46118981218 202 204 201
-154.544557291283 408.243844745987 2856.2796018217 158 160 157
-222.156734172415 410.647985355481 2822.45616794227 99 101 98
-247.104039313087 411.880798548274 2815.87263160062 92 94 91
-258.083808181746 412.72679032771 2818.14887343416 83 85 82
-262.045132215626 413.375129122861 2824.82052120359 128 130 127
-267.761992953671 414.073009320222 2830.39430203881 129 131 128
-274.36206491267 414.796420089826 2835.42444194755 146 148 145
-280.079309651371 415.494496118637 2840.99857515729 165 167 164
81.2723223382825 374.905112943666 2680.88367467145 178 180 177
93.4396982182113 375.296887275757 2699.91775636439 183 185 182
105.69338311342 375.677869438319 2718.86772700722 171 173 170
110.773999806978 376.168274753985 2732.17129033204 178 180 177
112.671657769612 376.706577087252 2742.96018661629 180 182 179
111.363498859779 377.295661478658 2751.25736360869 175 177 174
110.07539085463 377.882054266362 2759.53468973219 179 181 178
107.993485727142 378.480038923346 2767.18198338371 222 224 221
103.478924453157 379.119474539801 2772.98741047912 196 198 195
103.060357825232 379.684169896113 2781.82172319145 74 75 70
102.665920490082 380.245734918433 2790.63253782136 71 70 66
104.761799618471 380.758370182648 2801.22839113936 63 60 55
101.125411511775 381.374931740179 2807.5824072335 61 57 54
102.453325678467 381.895856388452 2817.52272662601 72 69 60
95.5341493428627 382.572533207163 2821.45973983776 67 65 53
93.5871412234284 383.15255200513 2828.97539627026 67 65 53
84.1702817157577 383.878553144576 2831.13395204421 61 57 46
81.4049056253285 384.47309748914 2838.04320378245 63 59 47
73.6379459377776 385.16757890232 2841.40219972423 72 68 57
66.6980494900975 385.846101225643 2845.35951554879 68 64 53
63.10922869522 386.455647251153 2851.66699564969 80 77 68
58.6878133362823 387.081735148764 2857.38223810352 60 60 52
51.7406954621471 387.760738619346 2861.34631595596 32 33 25
32.9518457900089 388.694081545684 2857.19373546026 34 36 31
16.6438070079851 389.579738973402 2854.83578676857 53 55 50
6.23091326607073 390.341248063093 2856.56126188395 79 81 78
-4.20413301786926 391.105389372721 2858.30868360208 90 92 89
-13.8087097876962 391.853168253319 2860.65042665169 95 97 94
-24.2866924461334 392.62235211572 2862.43940169532 100 102 99
-34.7869530163596 393.39422652523 2864.250101373 86 88 85
-43.5918031916946 394.129286143591 2867.21683115326 74 76 73
-46.3855258383035 394.72604773896 2874.15390373212 85 87 84
-56.9315316354104 395.503335248222 2876.00922904255 85 87 84
-76.1468073624503 396.488136170179 2872.27249045382 77 79 76
-96.2896978112062 397.501116989868 2868.03581270213 70 72 69
-105.206149592751 398.249597106876 2871.11138098329 42 44 41
-117.619246311554 399.08465128617 2871.9783986556 57 59 56
-160.596760005638 400.673048553017 2853.48944804804 64 66 63
-230.844166096011 402.953017186347 2818.05012249793 78 80 77
-251.428921173216 404.019932998598 2814.24425128589 86 88 85
-261.540323667298 404.829276046222 2817.08018061495 85 87 84
-266.3891405524 405.506679553384 2823.21225467773 88 90 87
-273.879814933217 406.251435423547 2827.7063740006 96 98 95
-280.493301041891 406.974207991213 2832.74992868423 149 151 148
81.329929544407 367.2697022153 2681.9549802353 183 185 182
96.7073663403748 367.680555201035 2703.46657928139 166 168 165
108.163651987289 368.130766653271 2721.781237789 164 166 163
113.249641528612 368.656023354059 2735.07431477706 182 182 180
114.344353287761 369.229167807084 2745.23848954329 194 196 191
109.797850040572 369.876227315213 2751.07450868242 16 21 15
109.318180251123 370.465579233538 2759.96585350832 43 48 42
110.491378380017 371.028580319344 2770.05392717639 7 12 5
106.798684908932 371.658562765055 2776.46153388631 18 21 14
104.751079255477 372.263116214737 2784.07345894639 13 12 7
106.820794564861 372.803774228862 2794.69148941523 20 17 10
108.926288328766 373.339892315885 2805.27466234908 157 152 146
106.123328639629 373.94831483835 2812.21918396779 142 135 129
105.810842493363 374.515912460508 2820.94772824005 61 55 43
99.7269821014211 375.173345580919 2825.47467605743 64 58 44
97.7894802731183 375.763399521285 2832.97940941265 65 59 45
90.0460750987633 376.447645310244 2836.3168660374 51 45 31
82.2918113964919 377.133037151785 2839.66459811283 50 44 30
76.1979648583879 377.791139496329 2844.20136340995 58 52 38
73.4516452885101 378.391625552629 2851.09081355917 52 46 34
73.2364871010645 378.946275297596 2859.72462342015 51 49 37
69.6795401180195 379.557716451822 2866.00051009751 30 28 16
63.6008759735218 380.213492032627 2870.522542948 28 29 21
55.8286767635208 380.900407819571 2873.88786000928 25 26 20
-14.6518956627451 382.746945644348 2834.4934050086 29 32 25
-16.6442960100297 383.342564132324 2842.051830967 32 34 29
-11.8111596702155 383.807044377155 2854.18806833794 31 33 28
-18.8738711607854 384.494811830388 2858.26563704748 31 33 28
-23.3782146259598 385.13350649563 2864.06136506195 102 104 99
-39.8750441819868 386.007317344565 2861.89263931886 84 86 81
-43.7497219468579 387.184288278074 2876.90224605341 55 57 52
-43.9370243976978 387.734659770088 2885.50902708007 51 53 48
-135.844733533951 391.84795151396 2861.38869738952 69 71 66
-246.525297318911 395.355031548057 2809.23863964222 75 77 72
-253.124644279635 396.07373490514 2814.26841752848 90 92 87
-261.483298189391 396.831634184045 2818.2056014469 85 87 82
-268.092554636505 397.551632720259 2823.24536601471 99 101 98
-278.232837270504 398.351571419844 2826.11170155016 107 109 106
-288.391994800765 399.153873153509 2828.99609303921 148 150 147
79.7864875597929 359.647904980784 2681.78032060952 163 165 162
96.7645716824914 360.114807833673 2704.5279876878 184 186 183
110.633889862243 360.598983224509 2724.692177317 129 130 125
117.338445716261 361.143049267538 2739.2093704946 36 37 32
120.868020572399 361.712424017666 2751.20731316723 5 7 2
117.957852752002 362.34379684078 2758.25490200069 14 19 12
120.746744157168 362.91262605943 2769.57152560104 34 39 32
119.503852429613 363.521050411836 2777.80103287883 20 26 16
114.199951900055 364.172501936178 2782.97160025994 12 15 6
103.169572619278 364.889511465673 2783.89991534137 46 46 38
108.515555448433 365.416812973443 2796.93451292962 30 27 18
113.090583178995 365.947604600718 2809.31691732974 72 65 57
110.297239855908 366.563306338457 2816.25081388997 60 51 44
107.516333608187 367.17735173199 2823.17260505745 75 67 54
99.780587779529 367.853244388908 2826.50335258598 101 94 78
97.0131191065686 368.465359887322 2833.41208528074 84 77 61
90.0994783977915 369.13110776092 2837.34521682654 98 91 75
82.3451146329059 369.808846269502 2840.69417942489 96 89 73
79.5938694853224 370.418562721802 2847.58715649709 94 88 72
76.8550003575812 371.026614080411 2854.46775225677 63 57 43
78.3264139630435 371.572954300347 2864.26215601687 52 50 37
73.9394248467948 372.201024925399 2869.94258181455 37 35 23
68.7139415663194 372.840880613528 2875.03699356763 33 35 24
15.3064964705671 374.205663043281 2847.10008738388 31 32 24
-47.6404027503143 375.73976605801 2813.02362079403 30 31 23
-27.6296786732826 376.012774007242 2835.62264562652 24 27 20
-37.2908642318128 376.741494128266 2838.02375675847 27 30 23
-29.056600990446 377.185339384335 2852.45364979347 23 26 19
-64.354791963765 380.052642975775 2864.40925072105 21 24 17
-36.9819615795959 380.150086826646 2891.05949368142 46 49 42
-251.713983158479 387.464191073539 2807.05521256954 89 91 86
-257.448457307027 388.165530066516 2812.64597257327 89 91 86
-265.816735929699 388.917065199212 2816.59365459193 94 96 91
-275.075761222106 389.686854715909 2820.00625391358 102 104 99
-289.641679428472 390.561782489226 2820.17100537037 104 106 101
-299.825760552357 391.354194127235 2823.08160810815 117 119 116
84.6489421237697 351.977958949804 2686.58757761126 196 198 195
100.03255555931 352.529040774002 2708.07197955987 15 17 14
119.541276612349 353.042240215718 2732.55124777817 6 7 2
133.525347972681 353.577198151289 2752.59398016475 16 17 11
124.158036995137 354.25999590352 2754.71005679958 31 34 27
118.824153524993 354.916141270743 2759.90970393599 37 42 35
120.802153713313 355.518144160631 2770.60940428801 26 32 22
132.587734646671 356.04091790455 2788.58634303329 30 36 26
117.519869751785 356.766499781038 2786.43745175282 27 30 19
105.679142775166 357.470782646227 2786.75542575307 41 41 31
116.771304038183 357.984352980021 2804.00505358191 45 43 31
117.255253248838 358.581409219791 2813.35528111817 57 51 39
116.119215698732 359.189673413568 2821.47836644753 68 60 49
109.222219134513 359.848811913054 2825.39594697434 85 76 61
103.145904216128 360.500782691405 2829.91620935672 82 73 56
97.0668668259371 361.152965705023 2834.43948166755 72 65 49
90.1531440695993 361.813741056181 2838.37342962443 104 97 79
82.398765276408 362.483815511877 2841.72353988978 88 81 63
79.6473997973055 363.102068129304 2848.61537481148 84 77 61
78.5835205892362 363.700498507187 2856.66825927421 62 54 41
77.540089681388 364.296338014008 2864.70155904413 45 41 29
71.46818336608 364.946868485494 2869.2176564952 33 31 18
59.4900406902852 365.666174998776 2869.66986582748 25 25 15
40.7192811380068 366.469304509016 2865.51856706137 26 27 19
41.3737553580038 367.043772438538 2874.70279928492 25 26 18
36.112174744352 367.68820825349 2879.83237928272 24 27 20
11.2761741264036 368.579405318261 2871.77189730144 27 30 23
-7.02645204560026 369.979196667521 2876.98658971722 30 33 26
-46.0069673438102 371.667164628476 2868.68395081413 25 28 21
-80.6548909810565 372.731236546354 2854.75428658921 22 25 18
-62.8090917930693 373.069779056847 2875.2423620653 47 50 43
-62.1506163832613 373.643241337791 2884.42276968264 33 36 29
-251.656335220817 379.458834277391 2808.18115555362 78 80 75
-255.638534763682 380.133038479781 2814.86971011617 84 86 81
-265.759023101859 380.904594479035 2817.72058457397 88 90 85
-277.658189709323 381.706951236664 2819.49900403079 102 104 99
-293.993701903953 382.585175484954 2818.58634478235 112 114 109
-305.071192586696 383.380491498605 2820.96677783592 120 122 119
81.5044155495874 344.357923529005 2685.16806393659 42 44 41
104.906004297443 344.959754306905 2712.85344174458 41 43 40
129.252841565947 345.541678617641 2741.02002528309 19 20 15
119.870958844813 346.213399196687 2743.15220907608 22 23 17
120.171880748936 346.853489884393 2752.67782496075 27 30 23
110.776290822885 347.526437239392 2754.82343889389 27 33 23
113.547016346066 348.152309111497 2766.14967060433 18 24 14
120.428723014342 348.755461982445 2780.48187955525 22 30 17
106.964401379692 349.445137022221 2779.58010960485 31 34 23
93.4621143496206 350.139332843617 2778.71537168379 38 38 26
112.725544485429 350.668536434494 2802.01860484299 47 45 33
113.199538927848 351.28610095282 2811.37568649666 50 42 31
110.405784873105 351.918896460664 2818.30746446774 54 44 34
106.798670510067 352.554971830887 2824.62952716868 50 41 26
100.71669783319 353.205372521865 2829.15597768909 55 46 29
95.4615015115388 353.850595653683 2834.27910162547 68 59 42
87.7119742886756 354.512569450887 2837.62559148355 67 58 41
83.286319552796 355.152089515818 2843.34272059089 59 50 33
81.372301815414 355.772500300337 2850.81964716836 63 54 37
80.3122891425598 356.384405813986 2858.86703832726 41 34 18
77.5935854041019 357.006914473391 2865.72581061653 42 36 24
70.6802348663516 357.66208338429 2869.65987974228 39 37 24
62.0734970834662 358.332186923352 2872.43948146835 21 21 11
48.3805225140275 359.047886279446 2871.76092087973 21 22 14
44.816109133428 359.677353204896 2878.04121975713 20 21 13
46.3554054465702 360.258920084579 2887.76300850009 16 19 12
29.2027451493935 361.013339541944 2884.84626905574 18 21 14
28.2038797110653 361.616989309149 2892.83382246056 18 21 14
10.1263428306124 362.3883472834 2889.41574847048 20 23 16
-1.15316092580953 363.096664109468 2890.59273261673 22 25 18
-45.9524489594871 364.158542974739 2869.73958425383 15 18 11
-55.6381810367186 364.863969024624 2872.16851329526 10 13 6
-53.2649415353283 365.439160007836 2882.48003579678 39 42 35
-38.7516106868806 365.87421381717 2900.59506215628 32 35 28
-48.4118294821276 366.576377581554 2902.99880045393 26 29 22
-77.1966914928321 367.504512655559 2893.18616167605 29 32 25
-237.610106947843 371.278662695628 2818.11430731796 47 50 43
-259.085220975709 372.177278653482 2813.80020319112 82 85 78
-270.091608900551 372.948122233359 2816.11364717004 91 94 87
-280.240124315355 373.710149895888 2818.99376121325 109 111 106
-293.053287322858 374.50991115187 2820.26292906096 116 118 113
-303.244616973442 375.277277260283 2823.18476925324 165 167 164
101.579752872337 336.740166596929 2701.78429403373 46 48 43
109.779462554029 337.422014962022 2717.63023182643 26 28 25
107.587009322761 338.090470622116 2725.37654795373 23 24 18
121.540870710855 338.759486104491 2745.42980348445 19 20 14
116.994762967372 339.419056113134 2751.26358083604 24 27 20
103.539458606969 340.081589129735 2750.35686817818 33 39 29
119.289361922284 340.727711595992 2771.46382973802 16 22 12
122.927256819756 341.373387828571 2783.34293168255 30 38 25
103.33566251493 342.691016728624 2787.01591344735 37 37 25
111.9606968568 343.318774411559 2802.44749214423 50 48 35
105.034348468017 343.971896356453 2806.39477086888 35 27 16
103.045156273133 344.613594287613 2813.94353840495 38 28 16
99.4202626071212 345.257629293349 2820.28174194392 41 32 17
98.2877123632764 345.893008745231 2828.3976945453 44 35 18
97.1753189131213 346.52572747104 2836.49368656474 49 38 20
91.0931140198974 347.173651261452 2841.02073376424 48 37 19
86.6751046855625 347.815377076461 2846.72994486593 51 40 22
79.7554161273308 348.466732389174 2850.67120922985 46 37 20
77.0160584535704 349.10040832305 2857.54850282191 40 33 17
73.4500120016142 349.73636300741 2863.82980231737 41 35 23
70.7339520851686 350.367000397641 2870.68474782943 40 38 25
68.0304352677221 350.995997562116 2877.52748028341 31 31 21
56.8869337557847 351.669655402815 2878.57453477331 32 33 25
54.189030548963 352.297797460408 2885.41181921338 31 32 24
65.0894842314464 352.842612284646 2901.42995042189 36 39 30
29.2565870728057 353.671994532132 2885.8778508162 39 42 33
10.3447766499798 354.406796516943 2881.87671642807 36 39 30
28.9886293068089 354.893047286522 2902.96739111374 33 36 27
-10.5244673635427 355.777433533901 2885.3933415045 32 35 26
-32.1569310844443 356.548598683333 2879.83741580501 33 36 27
-31.4831209135553 357.158899777394 2888.99715101742 24 27 18
-40.2705352808583 357.840134127525 2891.95452213369 37 40 31
-50.8017514154098 358.537099141191 2893.80703272034 37 40 31
-50.0906542387889 359.14275858454 2902.9304274188 34 37 28
-68.4573589734563 359.909338513883 2899.80054541758 45 48 39
-104.289007477157 360.837170115431 2885.64922658326 38 41 32
-261.655401805021 364.190877780926 2813.28175151488 82 85 78
-273.545389892612 364.955398830214 2815.05664866696 100 103 96
-283.701567474939 365.70541928888 2817.94614601527 112 114 109
-291.230451997683 366.430313700684 2822.4811440888 110 112 107
106.285157638086 328.491792077696 2696.91395437667 11 12 6
108.844067380739 329.19972368041 2708.43839389604 24 25 19
106.627190674529 329.882609806691 2716.2068300784 18 19 14
105.231195883773 330.566353913781 2724.57690089238 24 25 19
107.081516227176 331.258755302532 2735.39036620119 21 24 17
121.902241214373 331.988081050374 2755.99080885023 16 19 12
131.958597386431 332.691008696575 2772.82377235861 18 21 14
125.844002230062 333.342160746333 2777.38250643291 20 23 16
136.825147906728 334.03304052369 2794.71616812178 23 26 17
121.767551792378 334.661505218494 2792.57177150947 22 25 16
110.754495043965 335.302470808077 2793.49378647931 17 20 11
105.455705311184 335.954649060494 2798.65917135357 17 18 10
100.157830908862 336.606579241103 2803.82368395607 19 19 11
96.5088584797456 337.259563086676 2810.18481327013 20 20 12
96.9977451573061 337.913594681554 2819.52171689617 20 18 6
97.5147149537285 338.56402698425 2828.83126554384 21 19 6
96.4003417954578 339.210972599896 2836.92745855658 24 22 9
91.9793477663546 339.856332710768 2842.63909635696 28 24 12
89.2304897197085 340.499994377044 2849.52468591484 32 30 17
79.8098594935914 341.147911360683 2851.69886471407 39 37 25
72.8829923202676 341.795054401897 2855.64754227879 46 44 32
69.3071563969885 342.438051634074 2861.9375219785 41 39 27
70.7880160379388 343.071151331544 2871.70938483084 37 37 27
73.1442167907659 343.698540111222 2882.03011225004 34 34 26
83.1430895129594 344.304046941579 2897.51764711022 33 33 25
88.9767245044508 344.911692173499 2910.05612412511 34 37 30
57.501182715054 345.61884796881 2897.28005567104 33 36 29
21.6512707649605 346.353753074628 2881.75847784307 32 35 28
17.2228459270096 346.99898851815 2887.47751297226 27 30 23
-11.1380064055071 347.730862679454 2877.27283359311 24 27 20
18.6624555547232 348.247193522534 2905.7015569921 20 23 16
-21.7967283410281 349.038578213188 2887.66382225517 24 27 20
-47.7816314710857 349.784119662399 2879.34883597096 31 34 27
-42.803689954285 350.394482938023 2891.31938037031 38 41 34
-40.3720597310855 351.011920368237 2901.56667601548 31 34 27
-58.7008986613364 351.733965275719 2898.4054371255 7 10 3
-72.030029608158 353.063601669736 2907.19387572295 29 30 24
-106.179269160241 353.894767774829 2894.22034352469 43 46 39
-268.605669946327 356.216216256423 2810.02617178793 71 76 70
-276.120691697812 356.934468633042 2814.54838561457 99 104 98
-282.762414507092 357.647414961871 2819.62143207313 104 109 103
119.921570556054 321.025855818536 2708.56540449568 21 22 16
120.911841445715 321.744581202519 2718.81177379121 20 21 15
116.31614036621 322.417066716566 2724.69288915254 30 31 25
117.356942462099 323.129187668087 2734.89039418753 27 30 23
124.881146796727 323.881498384444 2749.9797951532 25 28 21
125.192870707872 324.578134695132 2759.48632706684 19 22 15
132.825664527482 325.316682270459 2774.46993125492 19 22 15
128.337303927359 325.974987154418 2780.24655182437 21 24 17
127.11069926121 326.650867768157 2788.44991580344 21 24 17
121.823616003814 327.302336828088 2793.60378079294 18 21 14
116.537384435771 327.953551096977 2798.75683770032 19 22 15
112.072073518306 328.608360513928 2804.51108622265 20 23 16
101.035822792036 329.233440721607 2805.45881884987 22 25 18
95.740730974657 329.885270730683 2810.6205831097 23 26 19
92.0981291207834 330.543154993687 2816.97432422682 27 27 17
95.0865631607418 331.223120392823 2828.0763731621 27 27 15
93.9661956819968 331.884723588653 2836.17635223974 26 26 14
92.0342877286684 332.541267309969 2843.66570363382 27 27 15
90.9525485654177 333.19783862858 2851.7280679324 29 29 17
81.5356112414109 333.832270990487 2853.90023480445 31 31 21
70.4253497275817 334.465413604151 2854.92026961772 31 31 21
65.1646833548951 335.112048690942 2860.0486167093 37 37 27
65.7943426146934 335.767144720692 2869.24557375716 40 40 30
66.4520634655226 336.418673656599 2878.41519244522 42 42 34
79.8160459457171 337.07820167041 2896.22145221778 41 41 33
81.4057600121907 337.719706590054 2905.88397872825 37 38 32
30.38450014642 338.339131215732 2879.9387846899 41 44 37
17.4507379836606 338.986464428928 2879.933328762 47 50 43
38.6012560601618 339.630551160075 2902.76292318156 54 57 50
37.6453756440216 340.270664591238 2910.70240251031 51 54 47
59.8439979186347 340.89045822702 2933.91171379393 42 45 38
22.0544169965775 341.557681568585 2917.49210278646 30 33 26
-27.0698645120548 342.257465032189 2893.90236999098 26 29 22
-44.4735777742564 342.930608402153 2891.24694242236 35 38 31
-35.1297657383443 343.560436988868 2905.9644581649 57 60 53
-47.3814833419071 344.22819474659 2906.69561248621 45 48 41
-68.3470518211107 344.920431739755 2901.90636265993 45 48 41
-89.3815354637937 345.621074778071 2897.18396635794 43 44 38
-100.889651101016 346.302029214778 2898.59200963054 37 40 33
-260.660982795399 348.146261138371 2816.08291323059 41 46 40
-276.939211593097 348.890156598804 2815.13322445837 82 87 81
-282.702960430318 349.597692306569 2820.75213878898 121 126 120
91.2288389741791 313.163377088863 2687.20733033573 9 10 4
130.577677461549 314.34280949172 2727.31169754713 39 40 34
126.005140948755 315.015500091867 2733.16977983964 28 29 23
127.068934346498 315.746821192196 2743.34161639841 33 36 29
127.358095537661 316.46573212057 2752.86726124777 31 34 27
118.783156248594 317.0930090199 2755.62127851607 26 29 22
115.05573112608 317.768458176285 2762.05699215129 26 29 22
122.708344703077 318.547996665799 2777.01485658807 23 26 19
125.538784444387 319.275875207077 2788.26671465601 22 25 18
117.799283623764 319.907159572553 2791.60778403306 24 27 20
107.594807479057 320.519178949566 2793.14839190769 29 32 25
100.648119391126 321.160095049985 2797.11801011475 29 32 25
99.4480541327558 321.845925715755 2805.29321161423 25 28 21
95.7968488175207 322.510911106365 2811.65478439411 27 30 23
97.9350345225032 323.215583320903 2822.18058152075 37 38 30
100.108831198968 323.915735017941 2832.6713467148 38 40 29
96.5107747497771 324.573754789767 2838.98117140042 40 42 31
91.2579868276993 325.220325431692 2844.10170459901 42 42 32
88.5068898117676 325.881311346475 2850.98695697013 41 43 32
86.6037707560192 326.545341393606 2858.44661408765 41 42 34
76.3426113142422 327.16304712242 2860.04266887389 35 35 27
66.0591321166564 327.783374962414 2861.66049996071 27 27 19
59.9599874059593 328.426092667085 2866.20513810658 22 23 15
49.6416041826806 329.050540612194 2867.85702045715 22 23 17
51.9788171291977 329.729635787706 2878.18896086598 26 25 20
52.6574506657451 330.397781669135 2887.33535697068 28 29 23
28.7412175812438 330.975759806098 2879.82473517049 30 33 26
15.8039709937241 331.599754811418 2879.82652654681 34 37 30
33.538094493919 332.318336353949 2900.36932802878 40 43 36
74.4588386700595 333.085403399553 2936.13956059648 42 45 38
60.7543356598268 333.696161593612 2935.4879581779 41 44 37
33.2722662778351 334.282722803883 2925.84902084651 44 47 40
-12.3833079627822 334.848667290516 2904.50256691219 41 44 37
-32.3417282648744 335.476530513411 2900.1396277905 31 34 27
-41.9908438847809 336.125401978818 2902.54021704942 48 51 44
-41.2608465295312 336.78673356401 2911.63661527285 63 66 59
-66.5546948287186 337.426225429151 2904.06798472586 58 61 54
-84.9737909533164 338.079482274805 2901.0068772516 40 41 35
-250.088215596575 340.123199635864 2823.77372943279 46 51 45
-267.220955428916 340.833016653284 2822.26071021123 76 81 75
90.4902423889244 305.522007112136 2687.65324949106 22 23 17
102.616016013733 306.45696748479 2706.64802233676 22 23 17
122.05110420656 307.483854118021 2731.12448633118 28 29 23
125.518103311771 308.271916348302 2743.15224573545 25 28 21
131.447859945641 309.087262813874 2756.98148370461 23 26 19
119.649483286314 309.66014613984 2757.27682400825 21 24 17
119.164900304181 310.383077405677 2766.15330473789 22 25 18
123.577688070352 311.164182443971 2778.65981960816 22 25 18
128.038177901846 311.939231356654 2791.12019855711 21 24 17
115.407736989205 312.503671962843 2790.82579163505 24 27 20
99.4711380602507 313.034126017065 2788.15149658185 26 29 22
99.0648559372955 313.746581784982 2796.95177167484 24 27 20
103.614358527542 314.510070154317 2809.32546828176 20 23 16
96.677053333099 315.144568204277 2813.28637987994 23 26 19
95.5137215817885 315.839597921917 2821.42408269004 26 29 20
95.198198006488 316.540271357759 2830.1356367851 27 30 21
95.736850942695 317.245952959088 2839.41582577421 30 33 24
86.3238484774835 317.854060923524 2841.58797600776 31 32 24
79.39311810695 318.48708145537 2845.54257708514 30 33 24
81.6461313466363 319.201794124234 2855.95286479759 29 32 25
73.8856682726299 319.826551462307 2859.31571469393 28 29 23
65.275233925866 320.445641226464 2862.10652697623 32 33 27
63.3805180038975 321.119594868994 2869.55637295463 32 35 28
57.286198868054 321.75938970684 2874.09665123177 28 30 25
50.3435268315195 322.393296502752 2878.06297957057 25 26 21
42.5470565744681 323.022062398941 2881.46099266882 22 24 19
33.8908787509733 323.646373393528 2884.29645720415 23 26 19
28.6240011042187 324.294204291894 2889.43079544228 27 30 23
32.7401394497504 324.999210307682 2900.8265634991 36 39 32
48.8673154153414 325.768413048016 2920.12344936963 39 42 35
53.9541298881563 326.464017294953 2931.97362057787 39 42 35
35.9028647008799 327.032291662929 2928.55947407641 34 37 30
-24.376874102618 327.398779540356 2897.67536372646 41 44 37
-14.1720738304083 328.125453153048 2912.94050108779 34 37 30
-41.0704950081318 328.680657468512 2904.14387415672 29 32 25
-51.6024564715099 329.315003095757 2906.00637998388 47 50 43
-67.3669379194504 329.932230014045 2904.56525405397 44 47 40
-80.5660717151828 330.564220834246 2904.82558367951 56 57 51
-123.454944501924 331.104004942005 2886.40359590758 52 55 48
-150.773974962039 331.710818488885 2878.0170123898 46 49 42
-238.639193015358 332.166460316437 2832.00185585685 46 51 45
84.1615083257152 297.772222084991 2683.74690274651 37 38 32
90.6674555163081 298.6684407285 2698.40926926231 15 16 10
103.652514671756 299.670137765514 2717.95814238338 36 37 31
117.532186079997 300.674425073341 2738.03517878945 27 30 23
123.44214297058 301.530390957478 2751.87807466406 25 28 21
143.957321225072 302.620648694187 2776.68953635687 22 25 18
145.151160130153 303.379343399136 2786.72785215563 24 27 20
122.823048615271 303.759147557917 2779.08673934719 28 31 24
121.58203514886 304.478533885901 2787.29764351037 29 32 25
113.016706032917 305.083224774907 2790.04579377915 34 37 30
115.071081818057 305.848291219903 2800.64588915425 32 35 28
103.221908849666 306.405346980164 2800.994010251 32 35 28
108.60260743237 307.212221657299 2813.95281379045 31 34 27
104.148437305665 307.874796253073 2819.69485165282 31 34 27
95.5702316848357 308.480432288615 2822.45564878905 32 37 30
95.2544923400018 309.197776876909 2831.16495315739 32 37 30
93.3039265456261 309.890522526247 2838.6678192763 34 39 32
88.8747604097766 310.549517447684 2844.38555688043 35 40 33
75.2816141397279 311.094551178847 2843.6330896196 36 41 34
71.6763960455769 311.764840031117 2849.94821255981 36 41 35
70.5918559382965 312.46337999822 2858.0068174473 30 35 29
73.724481758092 313.207208112235 2868.95624293228 25 30 24
68.4838709618871 313.852685900156 2874.06484558822 24 29 23
57.341804089007 314.43424522353 2875.12408758097 27 32 28
46.1734630957231 315.018954652987 2876.20895457938 38 40 35
35.8259894282753 315.615433135405 2877.89385804541 38 40 35
30.5504334354927 316.264888796619 2883.0365738702 38 41 34
38.8910744751989 317.044522089145 2897.31120285375 33 36 29
29.3837290775776 317.650267765456 2899.57738615898 28 31 24
33.5353061166943 318.380998209978 2910.93416100985 29 32 25
32.5895877489479 319.061683678067 2918.85755274499 32 35 28
23.9359723132777 319.675116223015 2921.69208062143 33 36 29
0.637178588544618 320.172012587883 2914.99756341978 33 36 29
-21.9958274718892 321.376825386926 2917.45598255153 26 29 22
-46.3476666239706 321.89033790529 2910.38778984815 36 39 32
-65.57371830083 322.450255886937 2906.72454944992 27 30 23
-69.1958023494679 323.121489879933 2913.05594299887 43 44 38
-102.464233077868 323.603587924604 2900.67659388454 48 51 44
-142.848682566382 324.058434184122 2884.03129632731 46 49 42
-200.032060881449 324.436042095378 2857.15569513417 57 62 56
95.4024452911399 290.359179309424 2693.5182124691 24 25 19
101.134688718845 291.275939209644 2707.5289329524 20 21 15
102.909519490561 292.101557409839 2718.3973332933 35 36 30
118.395562576243 293.204487246803 2739.69879603184 29 32 25
138.821618894141 294.392767590081 2764.58426942671 27 30 23
151.289877212729 295.404334458312 2783.22796534404 23 26 19
149.259949211123 296.119437239735 2790.80599709156 24 27 20
134.251451336112 296.582362105678 2788.63697407419 28 31 24
129.781087102228 297.250812903993 2794.39456226621 29 32 25
133.476027078075 298.069963440164 2806.19137817833 27 30 23
131.488492718022 298.779279563264 2813.72816767866 26 29 22
120.498087852591 299.325060787308 2814.6420950435 26 29 22
109.481430663839 299.87393040074 2815.58163489086 24 27 20
103.381551351784 300.511050221829 2820.12782987149 22 25 18
92.3238921844254 301.064733268903 2821.10703602435 21 26 19
85.3788114888285 301.690055868267 2825.0773627797 22 27 20
82.5750553592606 302.383464420421 2832.01011437746 28 33 26
81.4468695681705 303.101673880032 2840.10915293178 32 37 30
71.1704077007305 303.674340052454 2841.72706007968 35 40 33
68.3907824794607 304.364441160474 2848.63633816757 39 44 38
77.3470621768677 305.228094822555 2863.70412000701 46 51 45
80.4950801061031 305.997537405075 2874.63481293452 42 47 41
60.1271656788986 306.424873611635 2869.29089817823 38 43 37
41.3769964826316 306.884213750317 2865.1699648032 29 34 30
36.0878719979523 307.535984366 2870.32581219175 26 31 27
37.5763126630799 308.278165889425 2880.07436257078 24 29 23
30.6064786770097 308.90547218016 2884.06863867878 32 35 28
36.3939362635688 309.696272811134 2896.6259002514 34 37 30
26.8807997224632 310.28974592686 2898.89964812681 39 42 35
17.349421544385 310.885431941832 2901.19152099385 40 43 36
9.51304283261445 311.50360219384 2904.63072980918 42 45 38
23.9913010105202 312.380287092311 2922.71531096689 47 50 43
23.9291333198621 313.081750396228 2931.17550002304 41 44 37
0.602496975210531 313.525898800978 2924.51608923803 31 34 27
-1.19250829496886 314.209412087947 2931.86584599592 34 37 30
-43.6920391037923 314.470621522544 2913.09840909941 56 59 52
-67.2537885798654 314.943672562973 2906.66819733258 46 49 42
-86.5443304774454 315.468909193624 2903.07412256539 48 49 43
-96.3015936797054 316.092128103836 2905.58623325074 48 51 44
-126.182389966329 316.533884710377 2895.51651277511 60 63 56
-145.657663648491 317.081834771683 2892.10252236571 29 34 28
117.205253735502 284.091363445219 2720.97271489093 17 18 12
131.055523159729 285.229870095517 2741.05911034157 38 39 33
131.325270146293 286.028610335408 2750.5922350457 23 26 19
133.235799905073 286.861845906914 2761.32509628429 24 27 20
140.840113328325 287.822139062301 2776.30420802707 20 23 16
157.419903943491 288.978698501515 2797.9285461862 20 23 16
138.370219061568 289.315625425483 2792.70621961663 24 27 20
133.909246556638 289.986001148435 2798.45385933795 23 26 19
136.797549269721 290.81631138659 2809.63311925948 27 30 23
134.817608063488 291.535889091239 2817.16085198855 28 31 24
127.114677138888 292.131737286206 2820.47084436877 29 32 25
109.538712891726 292.52323265088 2816.61118270902 29 32 25
100.967369999418 293.107467636626 2819.3683281202 21 24 17
93.2070671564116 293.710003011866 2822.73430330119 20 25 18
96.1959489097151 294.527117686634 2833.81563704745 19 24 17
83.461749846351 295.031930093321 2833.63307652473 20 25 18
80.6722868351679 295.732043024014 2840.55064394042 22 27 21
72.8944501087394 296.336302331043 2843.93377573048 25 30 24
75.1311821101277 297.127250292405 2854.34896341031 31 36 30
79.9155694146423 297.959323845342 2866.47894132155 35 40 34
78.872522910677 298.680630039109 2874.4933154512 46 51 47
46.7236984070958 298.854037046797 2861.04746736327 48 53 49
38.0609978629387 299.448506544196 2863.8938196169 38 43 39
47.9759795712846 300.358416089967 2879.41966890556 30 35 31
28.315079670866 300.768799280408 2874.79343108067 26 31 25
23.0219979944262 301.421407833743 2879.95308417233 29 32 25
25.3881122539799 302.195765003738 2890.24224546889 27 30 23
10.7330210638246 302.699479531145 2889.13350285472 34 37 30
1.16473230946967 303.286755411379 2891.46293364189 36 39 32
-0.711367601108126 303.991664854631 2898.88971839195 43 46 39
13.7431912344939 304.933755934596 2916.98816634185 41 44 37
-0.1116166117483 305.457112162922 2916.49873681971 40 43 36
-4.51640769377892 306.118343120202 2922.19227699194 46 49 42
-21.0188638923219 306.612661788097 2920.08522736667 31 34 27
-38.4372005488003 307.101423410943 2917.47123474444 57 60 53
-75.011436869028 307.345898897219 2902.74140700708 43 46 39
-76.0438891971145 308.065058705418 2910.74557819832 50 51 45
-80.6709408539432 309.463914066112 2925.05259959056 51 54 47
111.356670620926 274.74136333678 2698.4049097483 36 37 31
125.070668688577 275.962373578667 2718.61476851767 31 32 26
133.275242446459 277.014198339686 2734.40119386106 24 25 19
133.52240518521 277.835245395602 2743.95344811947 32 33 27
143.45028088995 278.916543540513 2760.85840947871 24 27 20
145.389435219453 279.770906248466 2771.55938567188 25 28 21
153.8308274792 280.792819009905 2787.11540556458 21 24 17
150.995975498881 281.508455804464 2794.0754126353 20 23 16
153.859022710338 282.369637468222 2805.27552670206 23 26 19
143.736256613387 282.893074878243 2806.74808766741 22 25 18
127.062804530558 283.254761999957 2803.4131952079 26 29 22
134.875055802377 284.232227599619 2818.18328351341 27 30 23
127.992091641972 284.8405202858 2822.0944446448 29 32 25
113.705467064659 285.271039674859 2820.63028960462 33 36 29
104.320058479368 285.824146684441 2822.7835056666 32 35 28
101.521883575097 286.534217953863 2829.70825228279 21 26 19
101.219247558454 287.299962155208 2838.39772925286 20 25 18
88.4967451453345 287.779535576208 2838.2072840946 18 23 16
78.234961012936 288.319068424461 2839.81551312547 18 23 16
77.9525440571498 289.082027816611 2848.48532386279 20 25 18
91.061040382431 290.132323869171 2866.48752981849 23 28 22
77.4602062292309 290.598613964668 2865.75399717225 25 30 24
