ply
format ascii 1.0
comment KinectMotionCapture
element vertex 792
property float x
property float y
property float z
property uchar red
property uchar green
property uchar blue
end_header
113.674640655518 -241.074681282043 2838.00005912781 16 19 12
121.92914634943 -242.089152336121 2849.99990463257 18 21 14
-201.944559812546 -246.539413928986 2812.99996376038 18 20 15
-194.416508078575 -246.722891926765 2815.00005722046 14 16 11
-187.871932983398 -248.220860958099 2832.00001716614 15 17 12
-181.806460022926 -250.507444143295 2858.00004005432 12 14 9
-172.858625650406 -248.849436640739 2838.99998664856 15 16 11
-165.002450346947 -248.681172728539 2836.99989318848 14 17 10
-158.098950982094 -250.002801418304 2851.99999809265 13 15 10
-150.427863001823 -250.184655189514 2854.00009155273 14 16 11
-142.245441675186 -249.48950111866 2845.99995613098 15 17 12
-134.200617671013 -248.969316482544 2839.99991416931 16 18 13
-128.458842635155 -252.919852733612 2884.99999046326 14 16 11
-120.63193321228 -253.012776374817 2885.99991798401 13 15 10
-111.040897667408 -249.160215258598 2842.00000762939 12 14 9
-103.433959186077 -249.515429139137 2845.99995613098 9 12 5
-95.7711711525917 -249.782711267471 2848.99997711182 8 11 4
-87.9680961370468 -249.698922038078 2848.00004959106 6 8 3
5.27094909921288 -249.106332659721 2841.00008010864 4 6 3
13.1518039852381 -251.561015844345 2868.99995803833 12 14 11
21.2000478059053 -254.190772771835 2898.9999294281 12 14 11
35.9101817011833 -246.560007333755 2812.00003623962 8 10 5
43.4281677007675 -245.681509375572 2802.00004577637 10 11 5
51.6751930117607 -248.572915792465 2835.00003814697 10 11 5
59.1381229460239 -247.430726885796 2822.00002670288 10 11 5
66.6956678032875 -246.901959180832 2815.99998474121 12 13 7
74.1673782467842 -246.197536587715 2808.00008773804 12 13 7
81.7117020487785 -245.843499898911 2803.99990081787 12 15 8
88.9789313077927 -244.787782430649 2792.00005531311 13 16 9
95.1078236103058 -241.013899445534 2749.00007247925 16 19 12
103.502511978149 -243.113815784454 2773.00000190735 16 19 12
-205.812573432922 -259.081155061722 2867.00010299683 17 19 14
-197.723269462585 -258.728265762329 2862.99991607666 17 19 14
-189.920410513878 -258.736580610275 2862.99991607666 14 15 9
-182.880148291588 -259.829044342041 2875 10 11 5
-173.70368540287 -257.848381996155 2852.9999256134 15 14 9
-165.984153747559 -257.946103811264 2854.00009155273 14 15 7
-158.369392156601 -258.224189281464 2857.00011253357 14 15 9
-149.947091937065 -257.146239280701 2845.00002861023 13 16 9
-140.93990623951 -254.892885684967 2819.9999332428 11 16 9
-134.053111076355 -256.435424089432 2836.99989318848 11 16 9
-127.829998731613 -259.514421224594 2871.00005149841 14 16 11
-119.958005845547 -259.429395198822 2869.99988555908 13 16 9
-111.387774348259 -257.716983556747 2851.0000705719 12 15 8
-103.938303887844 -258.535176515579 2859.99989509583 11 14 7
-97.1116125583649 -261.161118745804 2888.99993896484 10 13 4
-89.6012783050537 -262.250006198883 2901.00002288818 8 11 4
-81.51825517416 -261.711329221725 2894.99998092651 11 14 7
5.20949717611074 -253.864228725433 2808.00008773804 2 4 1
13.0503876134753 -257.389724254608 2846.99988365173 15 17 14
21.0821274667978 -260.643661022186 2882.99989700317 11 13 8
28.9085917174816 -260.280907154083 2878.99994850159 7 10 3
36.2917184829712 -256.934434175491 2842.00000762939 11 12 6
51.1079207062721 -253.495186567307 2803.99990081787 8 11 4
58.6745478212833 -253.131181001663 2799.99995231628 10 13 6
65.8401772379875 -251.320362091064 2779.99997138977 11 14 7
73.4246447682381 -251.317322254181 2779.99997138977 11 14 7
81.3876390457153 -252.489149570465 2792.99998283386 14 17 10
89.9311304092407 -255.107015371323 2822.00002670288 14 17 10
97.2832515835762 -254.19893860817 2812.00003623962 15 18 11
104.095235466957 -252.115428447723 2789.00003433228 16 19 12
113.264501094818 -255.636096000671 2828.00006866455 17 20 13
120.293259620667 -254.184722900391 2812.00003623962 17 19 14
-200.276345014572 -259.72130894661 2789.99996185303 10 12 7
-197.162270545959 -265.780985355377 2855.00001907349 12 14 9
-191.70318543911 -269.047826528549 2890.00010490417 17 18 12
-181.790873408318 -266.076892614365 2858.00004005432 15 15 7
-173.696130514145 -265.619248151779 2852.9999256134 15 15 7
-165.395364165306 -264.788806438446 2844.00010108948 15 15 7
-157.586455345154 -264.702826738358 2842.99993515015 14 15 7
-149.571612477303 -264.244079589844 2838.00005912781 13 16 9
-141.183614730835 -263.040125370026 2825.00004768372 11 16 9
-133.621990680695 -263.325572013855 2828.00006866455 11 16 9
-126.844853162766 -265.286773443222 2848.99997711182 14 16 11
-120.62145024538 -268.737614154816 2885.99991798401 13 16 9
-113.062769174576 -269.487798213959 2894.00005340576 13 16 9
-104.624174535275 -268.095850944519 2878.99994850159 11 14 7
-97.7795645594597 -270.894020795822 2908.99991989136 11 14 7
-90.0605767965317 -271.550118923187 2915.99988937378 11 14 7
-82.1340903639793 -271.647095680237 2917.00005531311 10 13 6
5.29831228777766 -265.985071659088 2855.99994659424 0 2 0
13.0406403914094 -264.96022939682 2845.00002861023 10 12 7
20.7009520381689 -263.655602931976 2831.00008964539 12 15 8
28.4153074026108 -263.561338186264 2829.99992370605 12 15 8
36.3667160272598 -265.236258506775 2848.00004959106 14 15 9
43.6723120510578 -262.440532445908 2818.00007820129 10 13 6
50.8322604000568 -259.7376704216 2789.00003433228 9 12 5
57.1213215589523 -253.868073225021 2726.0000705719 9 12 5
65.8135712146759 -258.801102638245 2779.00004386902 9 12 5
72.9195773601532 -257.121711969376 2760.99991798401 11 14 7
81.0343697667122 -258.980751037598 2780.99989891052 13 16 9
89.5766168832779 -261.770665645599 2811.00010871887 13 16 9
96.5524688363075 -259.904026985168 2790.99988937378 15 18 11
106.106005609035 -264.741808176041 2842.99993515015 15 18 11
112.859025597572 -262.408941984177 2818.00007820129 16 19 12
120.501823723316 -262.310564517975 2816.99991226196 17 19 14
-201.487764716148 -268.947601318359 2806.99992179871 11 13 8
-196.255803108215 -272.310048341751 2842.00000762939 15 16 10
-190.235391259193 -274.809986352921 2868.00003051758 16 17 11
-184.39057469368 -277.788877487183 2898.9999294281 14 14 6
-173.018708825111 -272.335022687912 2842.00000762939 15 15 7
-164.980873465538 -271.863520145416 2836.99989318848 15 15 7
-157.135993242264 -271.679162979126 2835.00003814697 14 15 7
-150.671601295471 -273.986130952835 2858.99996757507 13 16 9
-141.87690615654 -272.076100111008 2838.99998664856 11 16 9
-133.946686983109 -271.699041128159 2835.00003814697 11 16 9
-128.486394882202 -276.592820882797 2885.99991798401 14 16 11
-121.284686028957 -278.131991624832 2901.99995040894 13 16 9
-113.252960145473 -277.849793434143 2898.9999294281 13 16 9
-105.564244091511 -278.429925441742 2904.99997138977 12 15 8
-97.4054113030434 -277.763664722443 2898.00000190735 11 14 7
-89.1299769282341 -276.617765426636 2885.99991798401 10 13 6
-82.2148248553276 -279.880583286285 2920.00007629395 13 16 9
5.42421452701092 -280.283540487289 2924.00002479553 6 8 5
13.0537934601307 -272.998064756393 2848.00004959106 12 14 9
20.5172076821327 -268.971353769302 2805.99999427795 13 16 9
36.0841415822506 -270.885795354843 2825.99997520447 13 14 8
43.794296681881 -270.883977413177 2825.99997520447 13 16 9
49.3354834616184 -259.475201368332 2707.00001716614 10 13 6
57.8730367124081 -264.744639396667 2762.00008392334 9 12 5
64.4844099879265 -261.003583669662 2723.00004959106 9 12 5
73.4708607196808 -266.655623912811 2782.00006484985 10 13 6
80.7684510946274 -265.693575143814 2772.0000743866 12 15 8
88.9989659190178 -267.702460289001 2792.99998283386 12 15 8
98.2431396842003 -272.202968597412 2839.99991416931 13 16 9
104.906961321831 -269.418805837631 2811.00010871887 15 18 11
121.694073081017 -272.667020559311 2845.00002861023 17 19 14
-205.641701817513 -282.305419445038 2865.00000953674 12 14 9
-195.418253540993 -278.865814208984 2829.99992370605 16 17 11
-189.364448189735 -281.338155269623 2855.00001907349 17 18 12
-181.011244654655 -280.459821224213 2845.99995613098 16 16 8
-174.532696604729 -282.537579536438 2867.00010299683 15 15 7
-166.368931531906 -281.954169273376 2861.00006103516 15 15 7
-160.121664404869 -284.721195697784 2888.99993896484 14 15 7
-151.613235473633 -283.545851707459 2877.00009346008 13 16 9
-140.671029686928 -277.442097663879 2815.00005722046 11 16 9
-135.499596595764 -282.672226428986 2868.00003051758 11 16 9
-128.257855772972 -283.959716558456 2881.00004196167 14 16 11
-120.902940630913 -285.148322582245 2892.99988746643 13 16 9
-113.013312220573 -285.153776407242 2892.99988746643 13 16 9
-104.977943003178 -284.764677286148 2888.99993896484 13 16 9
-97.3672717809677 -285.557985305786 2897.0000743866 13 16 9
-89.8978710174561 -286.942392587662 2911.00001335144 13 16 9
-81.7041993141174 -286.05929017067 2901.99995040894 6 8 3
5.44065469875932 -289.135187864304 2933.00008773804 7 9 6
13.1769292056561 -283.417105674744 2875 11 13 8
20.669786259532 -278.684467077255 2826.99990272522 13 16 9
28.0412044376135 -275.331616401672 2792.99998283386 16 17 11
35.9164699912071 -277.301669120789 2812.99996376038 12 13 7
43.6837710440159 -277.891248464584 2819.00000572205 14 17 10
49.9163530766964 -270.002841949463 2739.00008201599 11 14 7
57.2627112269402 -269.408822059631 2733.00004005432 8 11 4
74.022002518177 -276.30290389061 2802.99997329712 9 12 5
80.9686332941055 -273.933470249176 2779.00004386902 12 15 8
88.9948159456253 -275.309443473816 2792.99998283386 12 15 8
97.4775552749634 -277.769327163696 2818.00007820129 13 16 9
105.200611054897 -277.863085269928 2819.00000572205 15 18 11
111.847504973412 -275.295227766037 2792.99998283386 16 19 12
-206.278115510941 -291.016340255737 2874.00007247925 12 14 9
-196.997255086899 -288.89936208725 2852.9999256134 13 15 10
-187.830150127411 -286.781936883926 2832.00001716614 16 17 11
-180.875584483147 -288.005858659744 2844.00010108948 16 16 8
-173.185288906097 -288.115531206131 2845.00002861023 15 15 7
-167.814776301384 -292.275756597519 2885.99991798401 15 15 7
-159.282818436623 -291.068285703659 2874.00007247925 14 15 7
-149.234771728516 -286.821961402893 2832.00001716614 13 16 9
-141.863644123077 -287.53787279129 2838.99998664856 11 16 9
-135.162472724915 -289.772719144821 2861.00006103516 11 16 9
-128.162741661072 -291.602164506912 2878.99994850159 13 16 9
-120.270349085331 -291.506826877594 2878.00002098084 13 16 9
-112.461075186729 -291.613757610321 2878.99994850159 13 16 9
-104.318894445896 -290.808618068695 2871.00005149841 13 16 9
-95.9846824407578 -289.294064044952 2855.99994659424 13 16 9
-88.905394077301 -291.628301143646 2878.99994850159 9 11 6
-82.207053899765 -295.78560590744 2920.00007629395 7 9 4
28.2205659896135 -284.761548042297 2811.00010871887 18 19 13
36.0168851912022 -285.773038864136 2821.00009918213 14 15 9
43.5577146708965 -284.7580909729 2811.00010871887 13 16 9
51.2442626059055 -284.85706448555 2812.00003623962 12 15 8
57.6161369681358 -278.573840856552 2750 10 13 6
65.5438601970673 -280.394196510315 2767.99988746643 10 13 6
75.3652155399323 -289.102464914322 2854.00009155273 9 12 5
89.1498848795891 -283.421903848648 2798.00009727478 11 14 7
96.6081693768501 -282.910943031311 2792.99998283386 13 16 9
106.315106153488 -288.578391075134 2848.99997711182 15 18 11
112.322725355625 -284.116387367249 2805.0000667572 16 19 12
121.554337441921 -287.858426570892 2842.00000762939 17 19 14
-206.340074539185 -298.943400382996 2875 12 14 9
-196.29742205143 -295.625686645508 2842.99993515015 16 17 11
-187.091648578644 -293.347269296646 2821.00009918213 14 15 9
-179.340615868568 -293.252140283585 2819.9999332428 17 17 9
-173.663944005966 -296.692430973053 2852.9999256134 16 16 8
-168.678894639015 -301.692485809326 2901.00002288818 16 16 8
-158.776357769966 -297.956556081772 2865.00000953674 14 15 7
-149.596408009529 -295.260101556778 2838.99998664856 13 16 9
-142.20654964447 -295.995235443115 2845.99995613098 11 16 9
-134.919717907906 -297.042071819305 2855.99994659424 11 16 9
-127.132683992386 -297.048509120941 2855.99994659424 13 16 9
-119.5123270154 -297.470599412918 2859.99989509583 13 16 9
-112.143114209175 -298.620462417603 2871.00005149841 13 16 9
-103.950478136539 -297.585636377335 2861.00006103516 13 16 9
-94.5685282349586 -292.701780796051 2813.99989128113 13 16 9
-88.5922610759735 -298.427283763886 2868.99995803833 9 11 6
13.152732513845 -298.555612564087 2869.99988555908 9 11 6
20.748196169734 -295.225948095322 2838.00005912781 11 14 7
28.2292198389769 -292.520046234131 2812.00003623962 18 19 13
35.8491465449333 -292.102366685867 2808.00008773804 15 16 10
43.8034869730473 -294.076830148697 2826.99990272522 12 15 8
50.8772991597652 -290.433675050735 2792.00005531311 12 15 8
58.6608238518238 -291.263103485107 2799.99995231628 12 15 8
66.8192654848099 -293.548494577408 2822.00002670288 10 13 6
81.8930566310883 -292.396903038025 2811.00010871887 10 13 6
89.5597115159035 -292.392700910568 2811.00010871887 10 13 6
97.5373089313507 -293.324172496796 2819.9999332428 11 14 7
104.966588318348 -292.591094970703 2812.99996376038 14 17 10
116.801932454109 -303.402990102768 2917.00005531311 15 18 11
-203.818172216415 -303.033530712128 2839.99991416931 13 15 10
-196.425944566727 -303.576916456223 2845.00002861023 15 16 10
-188.27623128891 -302.946150302887 2838.99998664856 14 15 9
-180.540084838867 -302.955269813538 2838.99998664856 13 13 5
-173.533663153648 -304.244637489319 2851.0000705719 16 16 8
-167.391464114189 -307.241171598434 2878.99994850159 16 16 8
-157.826438546181 -303.940951824188 2848.00004959106 16 17 9
-150.168612599373 -304.162085056305 2849.99990463257 15 18 11
-142.299443483353 -303.955972194672 2848.00004959106 10 15 8
-135.290920734406 -305.670529603958 2864.00008201599 10 15 8
-127.126350998878 -304.823279380798 2855.99994659424 13 16 9
-120.174944400787 -306.964129209518 2875.99992752075 12 15 8
-112.137518823147 -306.43630027771 2871.00005149841 12 15 8
-104.090616106987 -305.80136179924 2865.00000953674 12 15 8
-95.8071947097778 -304.312080144882 2851.0000705719 12 15 8
-88.3099287748337 -305.27737736702 2859.99989509583 12 14 9
13.0558367818594 -304.127931594849 2848.99997711182 14 16 11
20.6521172076464 -301.565110683441 2825.00004768372 13 16 9
28.0471071600914 -298.254638910294 2793.99991035461 12 13 7
35.9367057681084 -300.494760274887 2815.00005722046 14 15 9
43.5533821582794 -300.065726041794 2811.00010871887 13 16 9
51.2209571897984 -300.063341856003 2811.00010871887 13 16 9
59.5377534627914 -303.369641304016 2842.00000762939 12 15 8
67.4078315496445 -303.900122642517 2846.99988365173 11 14 7
73.8526955246925 -298.55939745903 2796.99993133545 10 13 6
81.7432999610901 -299.51611161232 2805.99999427795 10 13 6
96.9444885849953 -299.186885356903 2802.99997329712 11 14 7
-203.736305236816 -310.652524232864 2838.99998664856 14 16 11
-197.175577282906 -312.522768974304 2855.99994659424 15 16 10
-189.858347177505 -313.298523426056 2862.99991607666 15 16 10
-181.802824139595 -312.8702044487 2858.99996757507 14 14 6
-174.742236733437 -314.192473888397 2871.00005149841 16 16 8
-166.801646351814 -313.982248306274 2868.99995803833 16 16 8
-157.929301261902 -311.911135911942 2849.99990463257 16 17 9
-149.686843156815 -310.934036970139 2841.00008010864 15 18 11
-142.991706728935 -313.239842653275 2861.99998855591 11 16 9
-135.284081101418 -313.465893268585 2864.00008201599 10 15 8
-127.921089529991 -314.567148685455 2874.00007247925 13 16 9
-120.419532060623 -315.449118614197 2881.99996948242 12 15 8
-112.288042902946 -314.688950777054 2875 12 15 8
-103.93999516964 -313.162118196487 2861.00006103516 12 15 8
-95.6342816352844 -311.52531504631 2845.99995613098 12 15 8
-88.1510451436043 -312.515258789063 2855.00001907349 9 11 6
13.2201313972473 -315.824657678604 2884.99999046326 5 7 2
20.5998849123716 -308.489203453064 2818.00007820129 13 16 9
28.2665006816387 -308.269023895264 2815.99998474121 12 13 7
35.8837991952896 -307.719975709915 2811.00010871887 13 14 8
52.0200356841087 -312.532067298889 2855.00001907349 13 16 9
59.8070248961449 -312.529176473618 2855.00001907349 13 16 9
66.8124929070473 -308.913469314575 2822.00002670288 11 14 7
74.5089873671532 -308.909833431244 2822.00002670288 10 13 6
83.5743173956871 -314.050555229187 2868.99995803833 10 13 6
91.4620980620384 -314.264982938766 2871.00005149841 10 13 6
96.9741195440292 -306.926190853119 2803.99990081787 11 14 7
104.247093200684 -305.826425552368 2793.99991035461 13 16 9
113.226816058159 -309.542387723923 2828.00006866455 15 18 11
-204.658821225166 -319.834917783737 2851.99999809265 16 18 13
-196.889415383339 -319.845229387283 2851.99999809265 14 15 9
-189.782381057739 -320.976674556732 2861.99998855591 16 17 11
-182.556599378586 -321.995675563812 2871.00005149841 15 15 7
-173.576936125755 -319.873929023743 2851.99999809265 17 17 9
-166.560545563698 -321.340799331665 2865.00000953674 17 17 9
-158.19825232029 -320.22762298584 2855.00001907349 15 16 8
-148.941516876221 -317.094951868057 2826.99990272522 14 17 10
-143.184155225754 -321.477115154266 2865.9999370575 11 16 9
-135.749414563179 -322.381794452667 2874.00007247925 11 16 9
-127.335876226425 -320.930421352386 2861.00006103516 13 16 9
-118.867382407188 -319.142073392868 2845.00002861023 13 16 9
-110.837183892727 -318.362861871719 2838.00005912781 12 15 8
-103.062696754932 -318.256288766861 2836.99989318848 13 16 9
-95.1924696564674 -317.812770605087 2832.99994468689 13 15 10
-87.7450704574585 -318.827241659164 2842.00000762939 17 19 16
13.4256323799491 -328.725963830948 2930.0000667572 5 7 2
20.9789052605629 -321.993410587311 2869.99988555908 12 15 8
35.9202101826668 -315.70765376091 2813.99989128113 14 15 9
43.889693915844 -317.837178707123 2832.99994468689 13 16 9
52.3999221622944 -322.658807039261 2875.99992752075 14 17 10
60.0343085825443 -321.533918380737 2865.9999370575 14 17 10
67.1167597174644 -318.052768707275 2835.00003814697 13 16 9
73.5282376408577 -312.439680099487 2785.00008583069 12 15 8
83.5699439048767 -321.859121322632 2868.99995803833 12 15 8
90.8202156424522 -319.835245609283 2851.0000705719 9 12 5
96.1736813187599 -311.977505683899 2780.99989891052 11 14 7
105.099782347679 -316.010713577271 2816.99991226196 12 15 8
113.501183688641 -318.024218082428 2835.00003814697 15 18 11
-207.877263426781 -332.762628793716 2897.0000743866 16 18 13
-197.086289525032 -327.948868274689 2855.00001907349 14 15 9
-189.905107021332 -328.992813825607 2864.00008201599 17 18 12
-182.928562164307 -330.495983362198 2877.00009346008 15 15 7
-174.602448940277 -329.586416482925 2868.99995803833 17 17 9
-167.249426245689 -330.514520406723 2877.00009346008 17 17 9
-156.915560364723 -325.353354215622 2832.00001716614 15 16 8
-148.038059473038 -322.833925485611 2809.99994277954 14 17 10
-141.677901148796 -325.82876086235 2835.99996566772 11 16 9
-135.128229856491 -328.708410263062 2861.00006103516 11 16 9
-126.839563250542 -327.451556921005 2849.99990463257 13 16 9
-118.485070765018 -325.849592685699 2835.99996566772 13 16 9
-110.596977174282 -325.396120548248 2832.00001716614 13 16 9
-103.238858282566 -326.550871133804 2842.00000762939 13 16 9
-95.892995595932 -327.935039997101 2854.00009155273 13 15 10
13.3149474859238 -333.941876888275 2905.99989891052 7 9 4
21.1239699274302 -332.102298736572 2890.00010490417 12 15 8
28.6248233169317 -327.734231948853 2851.99999809265 12 15 8
36.1225120723248 -325.204372406006 2829.99992370605 14 15 9
43.9183264970779 -325.776785612106 2835.00003814697 13 16 9
52.5610893964767 -331.519782543182 2884.99999046326 14 17 10
60.3243485093117 -330.942183732986 2880.00011444092 14 17 10
67.3972517251968 -327.146679162979 2846.99988365173 13 16 9
74.7387260198593 -325.304359197617 2831.00008964539 13 16 9
82.2547674179077 -324.495732784271 2823.99988174438 10 13 6
90.6242579221725 -326.904147863388 2845.00002861023 10 13 6
98.035916686058 -325.750023126602 2835.00003814697 10 13 6
103.601917624474 -319.080263376236 2776.99995040894 12 15 8
113.29498142004 -325.164139270782 2829.99992370605 14 17 10
123.404905200005 -331.592112779617 2885.99991798401 17 19 14
-218.363419175148 -344.746708869934 2931.99992179871 120 125 121
-207.29224383831 -339.701980352402 2888.99993896484 16 18 13
-198.111265897751 -337.478667497635 2869.99988555908 13 15 10
-189.762398600578 -336.548298597336 2861.99998855591 18 19 13
-182.537347078323 -337.61665225029 2871.00005149841 14 15 7
-174.227997660637 -336.685478687286 2862.99991607666 17 17 9
-165.147796273232 -334.107428789139 2841.00008010864 16 17 9
-155.909851193428 -330.940783023834 2813.99989128113 15 16 8
-147.66138792038 -329.655349254608 2802.99997329712 13 16 9
-140.071734786034 -329.780697822571 2803.99990081787 11 16 9
-133.704110980034 -332.963705062866 2831.00008964539 11 16 9
-127.900794148445 -338.028252124786 2874.00007247925 14 17 10
-120.358623564243 -338.858336210251 2881.00004196167 13 16 9
-112.192064523697 -337.923735380173 2872.99990653992 13 16 9
-104.540936648846 -338.517785072327 2878.00002098084 13 16 9
-97.4668860435486 -341.228604316711 2901.00002288818 14 16 11
-91.748870909214 -349.585235118866 2971.99988365173 14 16 13
13.1080467253923 -336.555600166321 2861.00006103516 10 12 7
21.0570339113474 -338.907361030579 2881.00004196167 10 13 6
28.7336558103561 -336.788535118103 2862.99991607666 12 15 8
36.414097994566 -335.610419511795 2852.9999256134 17 18 12
44.4735959172249 -337.725609540939 2871.00005149841 14 17 10
52.3031763732433 -337.722957134247 2871.00005149841 14 17 10
60.467679053545 -339.601993560791 2887.00008392334 14 17 10
67.8670182824135 -337.24582195282 2867.00010299683 14 17 10
74.8930424451828 -333.712995052338 2836.99989318848 13 16 9
81.5512984991074 -329.356461763382 2799.99995231628 11 14 7
96.2325111031532 -327.347099781036 2782.99999237061 11 14 7
104.715459048748 -330.164521932602 2806.99992179871 12 15 8
113.088704645634 -332.275748252869 2825.00004768372 13 16 9
121.516913175583 -334.268867969513 2842.00000762939 15 17 12
-218.872994184494 -353.562653064728 2938.99989128113 115 117 112
-208.644315600395 -349.844872951508 2907.99999237061 18 21 14
-198.031529784203 -345.163971185684 2868.99995803833 20 23 16
-189.354345202446 -343.610525131226 2855.99994659424 12 15 8
-181.828111410141 -344.101935625076 2859.99989509583 13 16 9
-173.42746257782 -342.908471822739 2849.99990463257 16 17 11
-165.022537112236 -341.594249010086 2838.99998664856 14 17 10
-156.122952699661 -339.076310396194 2818.00007820129 14 17 10
-149.180933833122 -340.769290924072 2832.00001716614 15 18 11
-142.012178897858 -342.100948095322 2842.99993515015 13 16 9
-135.207995772362 -344.515264034271 2862.99991607666 12 15 8
-129.006251692772 -348.854660987854 2898.9999294281 13 16 7
-120.895072817802 -348.259955644608 2894.00005340576 16 19 10
-112.342067062855 -346.22061252594 2877.00009346008 15 18 9
-103.699751198292 -343.579113483429 2855.00001907349 12 15 8
-97.6294800639153 -349.722266197205 2905.99989891052 16 18 13
13.0202705040574 -342.052519321442 2842.00000762939 11 13 8
21.1216416209936 -347.828686237335 2890.00010490417 15 18 11
28.9829522371292 -347.586572170258 2888.00001144409 8 11 4
36.7311425507069 -346.38112783432 2878.00002098084 15 18 9
44.3781837821007 -344.814300537109 2865.00000953674 13 16 9
52.0816668868065 -344.089448451996 2858.99996757507 14 17 10
59.8569512367249 -343.965947628021 2858.00004005432 14 17 10
67.6028802990913 -343.721657991409 2855.99994659424 15 18 11
75.1264691352844 -342.514187097549 2845.99995613098 14 17 10
81.9836482405663 -338.779002428055 2815.00005722046 13 16 9
88.9899432659149 -336.246907711029 2793.99991035461 11 14 7
96.8841388821602 -337.204486131668 2802.00004577637 9 12 5
104.112826287746 -335.875064134598 2790.99988937378 10 13 6
111.281156539917 -334.545344114304 2779.99997138977 16 19 12
119.201444089413 -335.501700639725 2788.00010681152 18 20 15
-218.488708138466 -360.939264297485 2934.00001525879 122 124 119
-207.628458738327 -356.030136346817 2894.00005340576 17 20 13
-199.332073330879 -355.303287506104 2888.00001144409 13 16 9
-188.879832625389 -350.515872240067 2848.99997711182 10 13 6
-179.910883307457 -348.188519477844 2829.99992370605 10 13 6
-173.113629221916 -350.043922662735 2845.00002861023 15 18 11
-166.175857186317 -351.775944232941 2858.99996757507 14 17 10
-157.000660896301 -348.708957433701 2834.00011062622 14 17 10
-151.700973510742 -354.377746582031 2880.00011444092 15 18 11
-145.350828766823 -358.077555894852 2910.00008583069 15 18 11
-136.947706341743 -356.854975223541 2900.00009536743 12 15 6
-128.910049796104 -356.493324041367 2897.0000743866 14 17 8
-120.470561087132 -354.900628328323 2884.0000629425 14 17 8
-111.906260251999 -352.692127227783 2865.9999370575 15 18 9
-104.420326650143 -353.805840015411 2875 15 18 11
-97.3552316427231 -356.642037630081 2898.00000190735 14 16 13
13.0974119529128 -351.875633001328 2858.99996757507 6 8 3
20.9888964891434 -353.474617004395 2871.99997901917 12 14 9
28.7605337798595 -352.734714746475 2865.9999370575 10 13 6
36.5759134292603 -352.732867002487 2865.9999370575 18 21 12
44.4066487252712 -352.853655815125 2867.00010299683 14 17 10
52.0787164568901 -351.86630487442 2858.99996757507 15 18 11
58.8064417243004 -345.58641910553 2808.00008773804 15 18 11
66.7943060398102 -347.305834293365 2822.00002670288 15 18 11
75.0430375337601 -349.886268377304 2842.99993515015 15 18 11
81.6004276275635 -344.83602643013 2802.00004577637 13 16 9
89.2078727483749 -344.70808506012 2801.00011825562 12 15 8
98.3308404684067 -349.994540214539 2844.00010108948 11 14 7
105.897419154644 -349.373430013657 2838.99998664856 11 14 7
113.076142966747 -347.64438867569 2825.00004768372 12 15 8
-218.997791409492 -369.796216487885 2940.99998474121 113 115 110
-195.248931646347 -355.736404657364 2828.9999961853 13 16 9
-192.117616534233 -364.423960447311 2898.00000190735 10 13 6
-182.189270853996 -360.41048169136 2865.9999370575 18 21 14
-172.556266188622 -356.647878885269 2835.99996566772 15 18 11
-165.004074573517 -357.034772634506 2838.99998664856 14 17 10
-158.986032009125 -360.942602157593 2869.99988555908 14 17 10
-153.114497661591 -365.604877471924 2907.00006484985 15 18 11
-143.544510006905 -361.463010311127 2874.00007247925 13 16 9
-136.939913034439 -364.741086959839 2900.00009536743 12 15 8
-127.923801541328 -361.604362726212 2875 15 18 9
-119.670070707798 -360.35367846489 2865.00000953674 13 16 7
-112.329348921776 -361.869722604752 2877.00009346008 15 18 9
-104.341708123684 -361.372858285904 2872.99990653992 15 17 12
-98.4581857919693 -368.674159049988 2930.99999427795 12 14 11
13.3165372535586 -365.689605474472 2907.00006484985 40 42 41
20.7611452788115 -357.386022806168 2841.00008010864 12 14 9
28.6484975367785 -359.145760536194 2855.00001907349 10 13 6
36.3951474428177 -358.766466379166 2851.99999809265 11 14 5
44.1872552037239 -358.889907598495 2852.9999256134 15 18 11
51.6203530132771 -356.497079133987 2834.00011062622 16 19 12
58.6983449757099 -352.594286203384 2802.99997329712 16 19 12
66.2934482097626 -352.339088916779 2801.00011825562 15 18 11
73.903776705265 -352.209240198135 2799.99995231628 14 17 10
89.4893705844879 -353.457629680634 2809.99994277954 13 16 9
97.9103222489357 -356.219470500946 2832.00001716614 13 16 9
106.674648821354 -359.735518693924 2859.99989509583 12 15 8
113.990247249603 -358.219802379608 2848.00004959106 11 14 7
-199.240550398827 -370.877891778946 2887.00008392334 12 15 8
-189.189940690994 -366.649657487869 2854.00009155273 11 14 7
-180.907532572746 -365.6325340271 2845.99995613098 21 24 17
-173.641532659531 -366.670578718185 2854.00009155273 15 18 11
-163.425430655479 -361.284226179123 2812.00003623962 14 17 10
-157.592058181763 -365.533411502838 2845.00002861023 14 17 10
-149.260893464088 -364.128977060318 2834.00011062622 15 18 11
-143.436342477798 -369.020074605942 2871.99997901917 13 16 9
-134.146124124527 -365.044921636581 2841.00008010864 12 15 8
-127.337992191315 -367.750912904739 2861.99998855591 11 14 5
-119.663119316101 -368.143618106842 2865.00000953674 13 16 7
-112.439945340157 -370.077908039093 2880.00011444092 14 17 8
-104.444578289986 -369.570225477219 2875.99992752075 15 17 12
13.2745280861855 -372.437983751297 2898.00000190735 50 52 51
20.8403076976538 -366.525262594223 2851.99999809265 10 12 7
28.5163745284081 -365.238666534424 2842.00000762939 10 13 6
36.4823341369629 -367.421448230743 2858.99996757507 11 14 5
43.4722527861595 -360.73637008667 2806.99992179871 15 18 11
51.1619858443737 -360.990643501282 2809.00001525879 15 18 11
60.2025911211967 -369.469106197357 2875 15 18 11
66.9285580515862 -363.425344228745 2828.00006866455 14 17 10
74.0841999650002 -360.722482204437 2806.99992179871 13 16 9
82.7848464250565 -365.344166755676 2842.99993515015 13 16 9
90.1847407221794 -363.925516605377 2832.00001716614 13 16 9
97.5589230656624 -362.634986639023 2822.00002670288 14 17 10
105.810612440109 -364.556521177292 2836.99989318848 13 16 9
113.703452050686 -365.064054727554 2841.00008010864 12 15 8
-218.153789639473 -384.341299533844 2930.0000667572 46 48 43
-208.740845322609 -381.730169057846 2910.00008583069 14 17 10
-197.779849171638 -375.970005989075 2865.9999370575 11 14 7
-187.455534934998 -370.996236801147 2828.00006866455 12 15 8
-180.197849869728 -371.925354003906 2835.00003814697 9 12 5
-172.597140073776 -372.198015451431 2836.99989318848 15 18 11
-166.379690170288 -375.619053840637 2862.99991607666 14 17 10
-155.145734548569 -367.494255304337 2801.00011825562 14 17 10
-148.778170347214 -370.652049779892 2825.00004768372 15 18 11
-142.678812146187 -374.859273433685 2857.00011253357 13 16 9
-135.601907968521 -376.83567404747 2871.99997901917 12 15 8
-126.79660320282 -373.956769704819 2849.99990463257 10 13 4
-119.781352579594 -376.325964927673 2868.00003051758 12 15 8
-111.847698688507 -375.939190387726 2865.00000953674 13 16 9
-104.184202849865 -376.470506191254 2868.99995803833 13 15 10
28.7354048341513 -375.852763652802 2864.00008201599 11 14 7
36.54395788908 -375.850796699524 2864.00008201599 11 14 5
43.3457754552364 -367.31830239296 2799.00002479553 14 17 10
51.5413992106915 -371.38357758522 2829.99992370605 14 17 10
59.2567622661591 -371.380299329758 2829.99992370605 15 18 11
74.9507024884224 -372.684508562088 2839.99991416931 15 18 11
82.8963965177536 -373.598366975784 2846.99988365173 12 15 8
90.2112349867821 -371.756047010422 2832.99994468689 13 16 9
97.44942933321 -369.913339614868 2819.00000572205 15 18 11
104.499042034149 -367.676556110382 2802.00004577637 15 18 11
112.936355173588 -370.294481515884 2822.00002670288 14 17 10
-210.163176059723 -392.316102981567 2930.0000667572 9 12 5
-198.18226993084 -384.562075138092 2871.99997901917 9 12 5
-187.643349170685 -379.08348441124 2831.00008964539 12 15 8
-170.579418540001 -375.489264726639 2803.99990081787 15 18 11
-165.149509906769 -380.588054656982 2842.00000762939 14 17 10
-156.853452324867 -379.2584836483 2832.00001716614 14 17 10
-150.401800870895 -382.481753826141 2855.99994659424 15 18 11
-144.068539142609 -386.374443769455 2884.99999046326 13 16 9
-134.6495449543 -381.96325302124 2851.99999809265 12 15 8
-126.477599143982 -380.76576590538 2842.99993515015 10 13 4
-119.064204394817 -381.844639778137 2851.0000705719 12 15 8
-111.880011856556 -383.860617876053 2865.9999370575 13 16 9
-104.105316102505 -384.001165628433 2867.00010299683 12 14 9
21.0716035217047 -386.31883263588 2884.0000629425 17 19 14
28.9443507790565 -386.451244354248 2884.99999046326 13 16 9
36.5034677088261 -383.234411478043 2861.00006103516 14 17 8
43.7922216951847 -378.811568021774 2828.00006866455 14 17 10
51.5200607478619 -378.942608833313 2828.9999961853 15 18 11
59.0647384524345 -377.867639064789 2821.00009918213 15 18 11
66.518247127533 -376.524358987808 2811.00010871887 16 19 12
75.1836821436882 -381.609976291656 2848.99997711182 16 19 12
82.9496309161186 -381.605178117752 2848.99997711182 12 15 8
89.9510681629181 -378.385305404663 2825.00004768372 13 16 9
97.2707197070122 -376.906245946884 2813.99989128113 15 18 11
104.530051350594 -375.426799058914 2802.99997329712 15 18 11
112.569414079189 -376.759588718414 2812.99996376038 15 18 11
-209.289968013763 -398.637801408768 2917.99998283386 8 11 4
-199.274450540543 -394.551634788513 2888.00001144409 5 8 1
-194.259881973267 -400.438100099564 2930.99999427795 10 13 6
-173.306554555893 -389.256983995438 2848.99997711182 10 13 6
-161.653161048889 -380.112886428833 2782.00006484985 14 17 10
-156.345546245575 -385.724574327469 2822.99995422363 15 18 11
-150.761336088181 -391.1994099617 2862.99991607666 13 16 9
-142.911314964294 -391.071736812592 2861.99998855591 11 14 7
-135.349527001381 -391.76344871521 2867.00010299683 11 14 7
-125.580221414566 -385.758966207504 2822.99995422363 10 13 6
-117.887675762177 -385.766416788101 2822.99995422363 11 14 7
-111.560925841331 -390.556335449219 2858.00004005432 12 15 8
-105.878107249737 -398.488968610764 2915.99988937378 11 13 8
20.7853727042675 -388.827204704285 2845.00002861023 16 18 13
28.7218596786261 -391.285717487335 2862.99991607666 16 19 12
36.2205393612385 -388.003647327423 2838.99998664856 9 12 3
43.5262955725193 -384.174466133118 2811.00010871887 12 15 8
51.1526949703693 -383.898228406906 2809.00001525879 13 16 9
59.4170242547989 -387.858122587204 2838.00005912781 15 18 11
67.6972717046738 -390.997469425201 2861.00006103516 15 18 11
75.0999078154564 -388.943076133728 2845.99995613098 14 17 10
82.1002498269081 -385.385036468506 2819.9999332428 14 17 10
88.9267176389694 -381.6899061203 2792.99998283386 15 18 11
96.7117547988892 -382.367521524429 2798.00009727478 15 18 11
105.232179164886 -385.641008615494 2822.00002670288 15 18 11
112.042352557182 -382.627964019775 2799.99995231628 14 17 10
118.988648056984 -380.434453487396 2783.99991989136 14 17 10
-206.193387508392 -400.573790073395 2875 13 16 9
-206.093043088913 -416.191577911377 2986.99998855591 10 13 6
-182.707458734512 -400.60943365097 2875 10 13 6
-157.88659453392 -397.296488285065 2851.0000705719 13 16 9
-149.067118763924 -394.518882036209 2831.00008964539 11 14 7
-142.053723335266 -396.478891372681 2845.00002861023 9 12 5
-134.302645921707 -396.487444639206 2845.00002861023 9 12 5
-118.882566690445 -396.781891584396 2846.99988365173 8 10 5
-112.451761960983 -401.527762413025 2881.00004196167 9 11 6
-106.633998453617 -409.339398145676 2937.00003623962 10 12 9
20.6233542412519 -393.491923809052 2822.99995422363 16 18 13
28.6799408495426 -398.508310317993 2858.99996757507 15 18 11
36.2310335040092 -395.857930183411 2839.99991416931 11 14 5
43.6164736747742 -392.649501562119 2816.99991226196 10 13 6
51.3133816421032 -392.785936594009 2818.00007820129 12 15 8
59.5807991921902 -396.685153245926 2845.99995613098 13 16 9
68.2372450828552 -401.977747678757 2884.0000629425 13 16 9
75.754888355732 -400.161236524582 2871.00005149841 13 16 9
82.6482623815537 -395.696103572845 2838.99998664856 12 15 8
89.1440510749817 -390.255004167557 2799.99995231628 12 15 8
98.0191305279732 -395.266681909561 2835.99996566772 13 16 9
105.635821819305 -394.842207431793 2832.99994468689 13 16 9
112.955719232559 -393.441706895828 2822.99995422363 13 16 9
119.194991886616 -388.695925474167 2789.00003433228 13 16 9
127.567127346992 -391.057431697845 2805.99999427795 17 18 13
-214.603066444397 -409.50620174408 2882.99989700317 16 19 12
-205.463618040085 -406.962305307388 2865.00000953674 16 19 12
-196.973413228989 -405.554324388504 2855.00001907349 19 22 15
-190.127417445183 -407.555043697357 2868.99995803833 19 22 15
-182.569071650505 -408.134818077087 2872.99990653992 17 20 13
-174.562528729439 -407.719731330872 2869.99988555908 12 15 8
-161.923751235008 -395.938903093338 2786.99994087219 9 12 5
-154.886454343796 -397.36944437027 2796.99993133545 8 11 4
-149.479046463966 -403.346031904221 2838.99998664856 7 10 3
-143.143266439438 -407.333314418793 2867.00010299683 6 9 2
-135.71035861969 -408.478707075119 2875 6 9 2
-127.165853977203 -406.213670969009 2858.99996757507 4 6 1
-123.301096260548 -419.57750916481 2953.00006866455 6 8 3
-115.801252424717 -421.574234962463 2967.00000762939 6 8 3
-107.280775904655 -419.876217842102 2954.99992370605 10 12 9
28.5878423601389 -404.997229576111 2849.99990463257 13 16 9
36.5859195590019 -407.553046941757 2868.00003051758 15 18 9
44.0936647355556 -404.708415269852 2848.00004959106 11 14 7
51.6924969851971 -403.4264087677 2838.99998664856 11 14 7
60.4353062808514 -410.243690013886 2887.00008392334 11 14 7
68.398542702198 -410.807967185974 2891.00003242493 9 12 5
75.4862576723099 -406.54045343399 2861.00006103516 7 10 3
83.1670388579369 -405.967056751251 2857.00011253357 9 12 5
97.8055968880653 -402.119010686874 2829.99992370605 10 13 6
106.561318039894 -406.091064214706 2858.00004005432 11 14 7
115.469262003899 -410.062491893768 2885.99991798401 11 14 7
-211.835756897926 -411.97943687439 2845.99995613098 19 22 15
-205.164015293121 -414.163857698441 2861.00006103516 14 17 10
-196.064278483391 -411.425918340683 2842.00000762939 12 15 8
-189.58543241024 -414.18868303299 2861.00006103516 14 17 10
-182.811841368675 -416.516721248627 2877.00009346008 14 17 10
-174.247488379478 -414.790660142899 2865.00000953674 11 14 7
-164.237409830093 -409.299701452255 2826.99990272522 8 11 4
-155.818045139313 -407.427608966827 2813.99989128113 8 11 4
-149.311661720276 -410.622656345367 2835.99996566772 9 12 5
-135.98495721817 -417.156517505646 2881.00004196167 8 11 4
-121.372662484646 -420.937746763229 2907.00006484985 9 11 6
-116.301223635674 -431.51593208313 2980.00001907349 9 11 6
-108.18150639534 -431.52317404747 2980.00001907349 9 11 8
21.1247317492962 -418.823450803757 2891.99995994568 20 22 17
28.7665463984013 -415.346086025238 2868.00003051758 12 15 8
35.8309783041477 -406.799644231796 2809.00001525879 6 9 0
51.5071079134941 -409.690350294113 2828.9999961853 6 9 2
59.9918477237225 -415.044993162155 2865.9999370575 6 9 2
68.536102771759 -419.530153274536 2897.0000743866 7 10 3
76.3784423470497 -419.23588514328 2894.99998092651 7 10 3
98.6978560686111 -413.571298122406 2855.99994659424 8 11 4
105.547890067101 -409.94456410408 2831.00008964539 8 11 4
120.333708822727 -407.758086919785 2815.99998474121 8 11 4
126.369178295135 -402.537375688553 2779.99997138977 19 20 14
-212.641179561615 -421.329170465469 2857.00011253357 25 28 21
-195.637986063957 -418.258011341095 2835.99996566772 21 23 18
-190.567344427109 -424.169629812241 2875.99992752075 17 20 13
-183.689758181572 -426.393866539001 2891.00003242493 10 12 7
-173.993140459061 -421.980559825897 2861.00006103516 10 12 7
-147.985979914665 -414.636611938477 2811.00010871887 15 17 12
-141.527533531189 -418.186068534851 2835.00003814697 15 17 12
-133.521944284439 -417.309910058975 2828.9999961853 14 17 10
-113.952241837978 -430.757939815521 2920.00007629395 12 14 9
-106.250591576099 -431.797683238983 2927.00004577637 11 13 10
21.0430100560188 -425.055384635925 2881.00004196167 18 20 15
28.7546459585428 -422.98823595047 2867.00010299683 11 14 7
36.2368039786816 -419.150143861771 2841.00008010864 6 9 0
67.5144344568253 -421.054482460022 2854.00009155273 9 12 5
75.6875723600388 -423.262774944305 2868.99995803833 10 13 6
89.508943259716 -414.842903614044 2812.00003623962 11 14 7
96.2380021810532 -410.853654146194 2785.00008583069 11 14 7
104.870013892651 -414.977759122849 2812.99996376038 11 14 7
110.933899879456 -409.069925546646 2773.00000190735 10 13 6
118.360407650471 -408.619940280914 2769.99998092651 10 13 6
130.179151892662 -422.478288412094 2864.00008201599 9 10 4
-214.562654495239 -432.990103960037 2882.99989700317 21 26 20
-205.209732055664 -429.849565029144 2861.99998855591 24 29 25
-198.10876250267 -431.364446878433 2871.99997901917 22 27 23
-188.699945807457 -427.772134542465 2848.00004959106 22 27 21
-176.657631993294 -436.357438564301 2904.99997138977 31 36 32
-167.527377605438 -433.21418762207 2884.0000629425 5 10 4
-154.46925163269 -419.10445690155 2789.99996185303 19 24 18
-147.713169455528 -421.517789363861 2805.99999427795 9 14 10
-141.71801507473 -426.484525203705 2838.99998664856 10 15 11
-133.4188580513 -424.690872430801 2826.99990272522 6 11 5
-124.56202507019 -420.793384313583 2801.00011825562 6 9 2
-119.269609451294 -429.214388132095 2857.00011253357 15 18 11
-113.944783806801 -438.686728477478 2920.00007629395 13 16 9
-106.606625020504 -441.248029470444 2937.00003623962 14 16 11
-100.350491702557 -449.067294597626 2989.00008201599 12 14 11
21.0489239543676 -433.029234409332 2881.99996948242 26 28 23
36.5149974822998 -430.170565843582 2862.99991607666 13 16 7
43.7599867582321 -424.758851528168 2826.99990272522 12 15 6
58.4142841398716 -419.343084096909 2790.99988937378 15 18 9
67.2261416912079 -427.001565694809 2842.00000762939 15 18 9
82.306832075119 -424.888253211975 2828.00006866455 12 15 8
89.7895246744156 -423.830837011337 2821.00009918213 15 18 11
96.6463536024094 -420.218944549561 2796.99993133545 11 14 7
103.819370269775 -418.409466743469 2785.00008583069 10 13 6
113.286793231964 -425.463408231735 2832.00001716614 8 11 4
119.036316871643 -418.545067310333 2786.00001335144 14 17 10
129.034414887428 -426.499098539352 2838.99998664856 14 15 9
139.079913496971 -433.70121717453 2887.00008392334 15 16 11
146.078035235405 -431.138068437576 2869.99988555908 6 7 2
-215.293034911156 -442.344337701797 2892.99988746643 24 29 25
-206.271946430206 -439.911603927612 2877.00009346008 25 30 26
-197.889000177383 -438.701421022415 2868.99995803833 20 25 21
-189.615234732628 -437.643706798553 2861.99998855591 10 15 11
-182.07773566246 -438.26749920845 2865.9999370575 12 17 13
-174.335435032845 -438.432097434998 2867.00010299683 8 13 9
-166.819423437119 -439.207971096039 2871.99997901917 23 28 24
-156.562879681587 -432.489693164825 2828.00006866455 18 23 19
-147.91402220726 -429.746925830841 2809.99994277954 24 29 25
-142.058089375496 -435.262203216553 2845.99995613098 6 11 7
-134.165123105049 -434.812545776367 2842.99993515015 23 28 22
-125.487610697746 -431.609362363815 2822.00002670288 13 16 7
-121.724583208561 -445.99449634552 2915.99988937378 17 20 13
-114.171355962753 -447.531849145889 2926.00011825562 10 13 6
-106.998793780804 -450.904101133347 2947.99995422363 21 23 18
-100.444547832012 -457.641094923019 2992.00010299683 11 13 10
20.9014546126127 -437.794715166092 2861.99998855591 1 3 0
28.7107098847628 -437.946021556854 2862.99991607666 20 23 16
44.8714941740036 -443.447828292847 2898.9999294281 9 12 3
50.9508326649666 -428.148090839386 2799.00002479553 14 17 8
66.6776448488235 -431.199491024017 2819.00000572205 16 19 10
75.22913813591 -436.242491006851 2851.99999809265 17 20 11
83.7855786085129 -440.367043018341 2878.99994850159 20 23 16
90.2927815914154 -433.937013149261 2836.99989318848 11 14 7
96.7435836791992 -428.271442651749 2799.99995231628 16 19 12
103.141523897648 -423.217326402664 2766.99995994568 15 18 11
111.879296600819 -427.798599004745 2796.99993133545 7 10 3
121.250085532665 -434.061765670776 2838.00005912781 6 9 2
130.116626620293 -437.876999378204 2862.99991607666 1 2 0
137.962818145752 -438.021123409271 2864.00008201599 6 7 2
147.493481636047 -443.211555480957 2898.00000190735 18 19 14
-214.237213134766 -448.016792535782 2878.99994850159 208 213 209
-205.541521310806 -446.163177490234 2867.00010299683 237 242 238
-197.600141167641 -445.865154266357 2865.00000953674 214 219 215
-189.60277736187 -445.411115884781 2861.99998855591 217 222 218
-181.557551026344 -444.800823926926 2858.00004005432 208 213 209
-173.837497830391 -444.9682533741 2858.99996757507 216 221 217
-166.053339838982 -444.979578256607 2858.99996757507 201 206 202
-158.490017056465 -445.61293721199 2862.99991607666 0 2 0
-150.272756814957 -444.378048181534 2855.00001907349 0 3 0
-142.49786734581 -444.387882947922 2855.00001907349 10 15 11
-135.430261492729 -446.731925010681 2869.99988555908 13 18 12
-127.702474594116 -447.052150964737 2871.99997901917 9 12 3
-120.255507528782 -448.461413383484 2881.00004196167 10 13 6
-113.968625664711 -454.695791006088 2921.0000038147 12 15 8
-106.556095182896 -457.038253545761 2936.00010871887 7 9 4
-100.337103009224 -465.295702219009 2989.00008201599 22 24 21
28.1171426177025 -436.532646417618 2803.99990081787 13 16 7
36.7651395499706 -448.829293251038 2882.99989700317 17 20 11
44.326763600111 -445.868611335754 2864.00008201599 10 13 4
51.8392845988274 -443.374454975128 2848.00004959106 22 25 16
59.097021818161 -439.634382724762 2823.99988174438 20 23 14
66.9806152582169 -440.875560045242 2832.00001716614 13 16 7
75.0394314527512 -442.894518375397 2845.00002861023 16 19 10
81.8884074687958 -438.06329369545 2813.99989128113 20 23 16
88.2181003689766 -431.519329547882 2772.0000743866 20 23 16
95.596969127655 -430.734753608704 2766.99995994568 16 19 12
102.240055799484 -426.992058753967 2743.00003051758 9 12 5
108.912028372288 -423.871636390686 2723.00004959106 11 13 8
120.900206267834 -440.519750118256 2829.99992370605 11 13 8
148.247063159943 -453.412175178528 2913.00010681152 19 21 18
35.8190089464188 -444.932758808136 2809.00001525879 11 14 5
44.1689677536488 -452.057778835297 2854.00009155273 21 24 15
52.1451532840729 -453.796774148941 2865.00000953674 5 8 0
59.4905652105808 -450.308322906494 2842.99993515015 7 10 1
67.0469924807549 -449.036836624146 2835.00003814697 24 27 20
74.7442096471787 -448.873609304428 2834.00011062622 26 29 22
81.8537324666977 -445.542097091675 2812.99996376038 19 22 15
88.0848094820976 -438.408851623535 2767.99988746643 11 14 7
96.5577885508537 -442.678987979889 2795.00007629395 16 18 13
103.835761547089 -441.246688365936 2786.00001335144 22 24 19
129.553869366646 -451.517313718796 2851.0000705719 17 22 16
136.788353323936 -449.766129255295 2839.99991416931 13 18 14
146.91399037838 -457.199811935425 2887.00008392334 14 19 15
36.3903120160103 -459.805130958557 2854.00009155273 15 18 9
43.6088107526302 -454.002410173416 2818.00007820129 18 21 14
51.7229624092579 -457.865625619888 2842.00000762939 10 13 6
59.2353716492653 -456.089645624161 2831.00008964539 24 27 18
66.7349398136139 -454.635351896286 2822.00002670288 12 15 8
74.4753181934357 -454.952597618103 2823.99988174438 2 5 0
82.1972563862801 -455.108344554901 2825.00004768372 0 2 0
89.6697789430618 -453.974694013596 2818.00007820129 17 20 13
97.4492952227592 -454.451501369476 2821.00009918213 3 5 0
105.244807898998 -454.927772283554 2823.99988174438 14 16 11
113.456234335899 -457.014441490173 2836.99989318848 27 29 24
122.037075459957 -460.228145122528 2857.00011253357 29 31 26
127.954691648483 -453.615009784698 2815.99998474121 30 35 29
137.694105505943 -460.532456636429 2858.99996757507 21 26 22
148.837611079216 -471.153914928436 2924.99995231628 0 2 0
36.4132635295391 -467.875868082047 2855.99994659424 12 15 6
43.9307130873203 -465.088099241257 2838.99998664856 17 20 13
51.2643940746784 -461.480706930161 2816.99991226196 5 8 1
58.7918646633625 -460.330069065094 2809.99994277954 67 70 63
66.4465203881264 -460.325717926025 2809.99994277954 202 205 198
74.1800591349602 -460.812240839005 2812.99996376038 197 199 194
81.9587707519531 -461.461991071701 2816.99991226196 213 215 210
89.6953567862511 -461.783677339554 2819.00000572205 209 211 206
97.4425300955772 -462.104737758636 2821.00009918213 211 213 208
105.237498879433 -462.589055299759 2823.99988174438 221 223 220
113.008499145508 -462.909072637558 2825.99997520447 16 18 15
120.619110763073 -462.573319673538 2823.99988174438 0 2 0
130.399346351624 -470.099359750748 2869.99988555908 4 9 3
151.117026805878 -486.459374427795 2970.00002861023 50 56 54
160.114586353302 -489.232987165451 2986.99998855591 125 129 130
36.2704545259476 -473.791211843491 2845.00002861023 12 15 8
43.9276099205017 -472.789108753204 2838.99998664856 15 17 12
51.351759582758 -469.954669475555 2822.00002670288 153 155 150
58.8295646011829 -468.285471200943 2812.00003623962 177 179 174
66.4418414235115 -467.947959899902 2809.99994277954 185 187 182
74.0166231989861 -467.443376779556 2806.99992179871 188 190 185
