ply
format ascii 1.0
comment KinectMotionCapture
element vertex 767
property float x
property float y
property float z
property uchar red
property uchar green
property uchar blue
end_header
8.89660723832852 967.062935883358 2761.59009033859 99 71 57
12.0445941587692 965.438320026657 2772.87431700808 103 67 55
13.5302510923885 964.265145255707 2782.90838265548 33 3 0
-2.85586079679234 967.880906489071 2780.22445356315 20 16 7
-21.2199288418842 971.244102170608 2785.21030620632 19 16 7
-11.2649780637959 967.054278020262 2809.95233562131 15 16 10
-9.66658394648023 965.868895876087 2819.87625582318 18 19 14
-19.2706225212631 967.665472387348 2822.06279044736 17 18 13
-18.5014232294951 966.706175068809 2831.35978881254 15 14 9
3.12674620648767 960.221040244522 2854.76876420357 15 15 7
6.60641211448576 958.558974674436 2865.72916378658 18 15 8
-29.109068280833 967.269402974712 2850.3122239101 19 16 9
-33.5034819671227 967.687153763923 2856.03110759547 18 17 12
-52.7812653776758 972.032831730688 2851.85970390104 17 17 9
-46.6689053446165 969.678745868545 2864.5591453916 17 17 9
-30.8307444257769 964.772003468807 2883.56535821315 19 19 9
-40.4643644362754 966.576096232873 2885.77981889943 20 20 8
-20.9630415898547 960.726228871558 2906.95582634572 21 21 9
-11.2296369176965 968.936108968596 2701.94622903599 113 95 81
1.77989547605373 964.675543897702 2720.83165059334 84 62 48
5.62480243601682 962.869882559441 2732.86749312205 45 22 6
-2.28712710342771 964.200367667725 2736.27644520142 61 35 18
-2.60742616786924 963.51076186616 2745.19856193391 112 81 63
4.71568820239199 960.795139816054 2759.58295999551 139 103 87
9.55135162096887 958.747789678235 2772.08793537347 109 66 50
10.1806570148506 957.821460103232 2781.51897782916 74 38 24
1.45975091543127 959.373004512809 2784.28167380555 28 19 10
0.413462313935575 958.894703805606 2792.47656876205 27 18 9
-6.60813437268937 959.996232112245 2796.45215619004 18 11 3
12.1117548739438 954.311524684485 2818.37939034459 19 16 9
-7.77049571976995 958.805718016676 2813.36937167484 13 13 5
-19.9588701602273 961.267815279055 2813.77276054563 16 17 11
-12.3038991946842 958.513895561717 2827.83328048087 16 17 11
9.26595456579493 952.11796108608 2851.28698042716 16 17 11
12.72816515996 950.483924381655 2862.26057074075 17 17 9
-10.738005270706 955.903305197129 2855.00438218832 20 17 10
-39.5163109893177 962.70063609393 2844.31776833605 20 17 10
-56.1663272184867 966.317115870401 2841.89579395419 16 15 10
-3.68595797655003 951.897708381603 2885.43596543345 17 17 9
-34.2375610558898 957.710407151725 2890.82589697603 18 18 6
-46.5267404628822 960.189517206193 2891.32687218551 20 20 8
-5.31780998834508 959.85042896205 2707.33759794738 127 108 94
-5.71813610501026 959.185948892748 2716.33546915349 98 75 61
3.15452504566904 956.082696655178 2732.07259240547 51 25 10
-1.39187831228194 956.518605687468 2737.93972030123 93 66 49
-5.08916223796252 956.732037800901 2744.4137891996 136 103 84
-2.00534151683618 955.167580586964 2755.75284243244 144 107 89
1.11750833633018 953.598380037266 2767.05384022315 117 71 55
2.57795452693843 952.470074441377 2777.10630886657 86 49 33
-1.89762685768669 952.898044670755 2782.90462068947 31 18 9
-3.80611840264455 952.656548564577 2790.50344913819 27 14 5
-1.41718133047597 951.296644549884 2801.08538991547 20 13 3
3.58140363719794 949.262085986957 2813.42635335558 19 15 6
-7.71750970905627 951.474402413315 2814.40032102737 14 11 4
17.9791319099332 942.641263619035 2858.20542497014 16 17 9
36.2159042832797 937.21012879681 2879.15801408357 17 17 9
-17.6431974582485 950.440900538731 2851.33273090528 17 14 7
-26.3843088491447 951.98673651064 2854.11633473939 17 14 7
-17.66593491126 949.025547709154 2868.56876124294 16 15 10
-1.88028305473509 944.251454331154 2887.60717303012 15 15 7
-22.8616410956 948.956048542946 2882.24057782735 15 15 7
-66.7813891090843 959.550451185163 2861.93894900665 17 17 7
-17.3176896479719 945.444956105177 2911.26247853333 17 17 5
-7.77642112392574 952.985466679539 2706.5426077821 134 112 99
-6.50471705520328 951.900224795452 2716.77647318687 104 78 65
-2.67942803503862 950.154826060169 2728.8228898334 68 41 24
-1.33974089384736 949.061498618112 2738.99010424217 121 92 74
-5.03702807552964 949.279943492267 2745.46343548996 135 100 81
-5.33979893846226 948.619499398077 2754.36383637162 135 97 78
-4.77055809743954 947.736653929675 2763.84809688425 121 76 57
-2.47298351383884 946.410793700072 2774.5157303067 88 49 32
-2.69799666689607 945.741503550168 2783.33988623416 33 16 6
2.22692067914387 943.746941682164 2795.74842905951 25 11 2
-6.66532058151548 944.601187162617 2807.28645545131 21 14 4
11.2595084421589 939.278666127309 2828.53275585206 20 17 10
-5.19630895209211 942.798309304854 2825.93225156337 16 16 8
-17.3817747692202 945.216226050971 2826.3392819892 15 16 8
40.5475045133663 929.669314393183 2874.55429078019 16 17 9
14.569693481461 935.629649573191 2865.46117985968 17 17 9
8.50620441203498 936.488474697599 2869.93847084442 16 13 6
-0.176512566961939 938.015627111355 2872.66684958602 15 12 5
6.85233964195486 935.535135692776 2885.89179280146 16 15 10
-10.5832058711521 939.293000425581 2882.81205465829 15 15 7
-3.50023794105248 936.806630361707 2895.98412902382 15 15 5
-112.577263304098 963.138615981608 2841.70204147685 18 18 6
-10.6347973951402 946.949139123557 2696.10307754741 121 107 96
-6.88744785344664 945.24210680996 2708.22121870784 128 104 92
-8.96949589563789 945.040993431562 2715.98676061642 122 94 82
-3.46839384019759 942.89310807998 2729.2627139694 98 66 51
-4.65902269787088 942.469931278827 2737.59245580278 138 107 89
-6.67470331945319 942.260936021048 2745.29292097794 139 102 83
-8.67448713034547 942.050159555089 2752.97820148888 149 111 90
-8.96175301113633 941.403518526117 2761.86082776506 120 75 54
-8.37474201192068 940.53699498935 2771.32536771554 87 46 28
-7.76068980570699 939.66731139199 2780.76318456131 68 44 34
-7.11938679618473 938.794487242008 2790.17440512886 39 16 8
-11.5887593273136 939.226464259602 2795.96562142491 28 14 5
-23.778141444422 941.622112750538 2796.3798320329 21 11 1
-12.773834977073 938.123728772933 2812.89241890798 23 16 6
-12.9030869714124 937.459336391507 2821.62109654318 21 18 9
-7.82473292963104 935.478866714611 2833.87519164176 18 18 8
-12.2258385278258 935.90394769656 2839.59963709529 16 18 7
9.41454232975136 929.746850199749 2862.94800259042 16 16 6
18.996870778452 926.650429216757 2877.97940606822 14 14 4
1.61992756617746 930.362163679392 2874.8482930078 14 14 4
-62.1181292977604 945.746692566555 2840.9272800755 16 16 8
9.61007150915538 927.00990456388 2897.16654711372 17 17 9
0.941177501756041 928.525466578406 2899.88291249613 18 18 8
-22.6133296232858 933.110832931722 2901.33984215065 18 18 6
-16.0422058349186 940.059585370436 2702.4909871002 135 108 97
-13.9511712198872 938.805404657352 2713.35312356342 129 101 89
-9.30278708783217 936.906690999394 2726.02176379259 111 79 64
-7.97849167798192 935.856981852049 2736.1981534952 134 103 85
-8.31241271141892 935.23142336571 2745.12433087905 145 108 89
-8.62290786990272 934.603029613265 2754.02766507387 149 111 90
-10.607223267268 934.400753628194 2761.69599101215 102 57 36
-11.7253152421903 933.98211316815 2769.95303217944 97 54 37
-12.8237258411898 933.561155426516 2778.19120978469 92 65 54
-11.3397066487533 932.493033692348 2788.21137494034 52 28 18
-15.8184128123908 932.928356171296 2794.01170305571 33 16 6
-14.2856302136321 931.854499816727 2803.98429300242 26 13 4
-17.8826394032345 932.071801977792 2810.35821561419 29 20 11
-8.54054010100347 929.048359126168 2825.61738404973 23 20 11
-17.2769927145584 930.558344426933 2828.40166036261 20 20 10
-8.70988226402725 927.740838959769 2842.98271956913 15 17 6
-13.9668602548699 928.383515164453 2848.10798916407 14 16 3
-20.0935949000161 929.24347301474 2852.64791652405 15 15 3
-20.1218160041323 928.58385782575 2861.27556292478 15 15 5
-25.3690268966769 929.226600046684 2866.39112388955 17 16 11
-20.1086296534805 927.257441819887 2878.46277557065 18 18 10
0.116425955895227 921.57897974408 2900.31134353398 19 19 9
-39.3516150585675 930.720441758567 2882.88940795975 19 19 9
-64.8678148919242 936.386855183811 2874.79859896191 18 18 6
-18.8813639281937 933.941639923798 2692.04443601931 103 93 81
-20.1751586714423 933.556576503931 2700.47132780303 125 107 93
-17.2551269630148 932.116611600978 2711.95462603752 124 102 89
-14.2961516953637 930.671973118902 2723.39994349497 119 92 75
-11.2981925053663 929.222891844597 2734.80720598399 134 103 85
-9.9506610168647 928.191436266949 2744.95748620539 142 105 86
-9.41848143257262 927.367632216852 2754.46982279798 119 81 60
-11.4046762507565 927.175853738446 2762.13846350201 107 66 44
-12.5244606675108 926.770209835023 2770.39560224566 121 83 62
-15.3296240405507 926.786833664581 2777.42977974342 119 92 75
-12.9969425090715 925.527723019933 2788.05268588814 88 62 47
-10.6294843410679 924.264771985022 2798.64128808471 38 19 4
-9.08490606452084 923.21040846216 2808.59962155898 42 26 10
-11.8101054406505 923.218130935861 2815.55570924224 40 28 14
-10.2132775927224 922.157901188142 2825.46268730322 30 27 12
-12.9053200506624 922.162151331382 2832.38636288549 21 19 6
-29.4406547194672 925.585851943676 2829.87900069516 18 20 7
-29.5365266143781 924.949389480761 2838.57040336841 15 17 4
-20.911096612485 922.167684050562 2853.08859701047 15 18 7
-37.5042626886275 925.599559763051 2850.63745398629 11 14 3
-31.4320738481992 923.454570257656 2863.34588171476 16 17 9
-13.9267228328315 918.508981683172 2883.53611020797 16 17 9
-41.9528939394822 924.742851906033 2873.60280412669 16 19 10
-21.3348730446734 926.982922673699 2691.25823641691 99 91 78
-25.1452990120304 927.234323607483 2697.83904526015 123 107 92
-20.5594816325716 925.406653095995 2710.55931505353 124 105 90
-18.4490233897114 924.197316724832 2721.39553559303 126 99 82
-11.2471673588552 921.734081828491 2735.86338010908 136 105 87
-10.7443634583873 920.932202417483 2745.40164673788 141 104 85
-10.2141370704709 920.12698390386 2754.91317594917 125 87 66
-13.8991465875469 920.363576571351 2761.37163305857 125 84 62
-14.1745111457579 919.762374377442 2770.23572530552 141 103 82
-15.2786428625369 919.368025188434 2778.47565133285 133 102 82
-12.0917359734483 917.922898371677 2789.69470149641 110 81 63
-10.5785513148371 916.893144640357 2799.68023413894 63 40 22
-11.6085411922935 916.490333226835 2807.84778693689 55 37 17
-15.1994311926464 916.716534854408 2814.21431776601 47 30 12
-17.9207020498384 916.731500030054 2821.16509606171 31 22 5
-24.0858027348936 917.588687550666 2825.74353091999 27 20 4
-32.8524935364372 919.080135670256 2828.56057398782 33 30 15
-42.5026215009239 920.785119017982 2830.80607564489 26 24 11
-43.473784330696 920.376719553997 2838.91603822628 20 20 8
-46.1691372529898 920.390055451362 2845.8416582781 17 17 5
-30.5061124897366 915.948850359878 2864.9526398383 13 15 2
-35.7643692262517 916.592041583732 2870.07910312698 19 21 10
-10.3091926297738 909.796678006749 2895.40163062112 19 20 12
-25.9311972762082 919.855414707664 2698.29280620736 122 106 91
-22.1860159531646 918.264752313909 2710.39623885962 128 106 92
-20.9204529160023 917.285026278166 2720.62026936122 132 103 85
-16.252745276609 915.479098201926 2733.25634523548 137 104 85
-14.9169907259115 914.490995161217 2743.41191264419 147 111 87
-14.3964987120988 913.705402093984 2752.93020760046 148 107 85
-15.5455985746786 913.329046339004 2761.21212823962 150 108 84
-13.273292728742 912.124250319421 2771.88696065474 156 114 90
-10.9662506094037 910.915383122682 2782.52756331308 154 112 88
-6.91526332092973 909.288350874508 2794.33270156964 152 112 87
-6.24661033336515 908.485318107709 2803.70644806873 120 84 60
-9.84141247536829 908.716730429016 2810.07609357408 98 63 41
-14.2885905634031 909.155167590162 2815.84431565365 75 49 26
-21.3178541143892 910.217268780736 2819.83334370183 77 52 30
-25.7624873936781 910.655784872179 2825.59936492482 71 49 28
-35.3988375713055 912.34481982377 2827.83354220184 67 46 27
-43.318578659 913.619148908972 2831.25855109979 53 32 15
-47.7707856184013 914.059517353441 2837.03148148014 40 21 6
-43.5018414212136 912.408133521534 2848.62378445778 27 19 6
-42.6850457691597 911.589668303443 2857.85270401064 12 10 0
-54.0989501863747 913.702789283974 2858.95552055935 20 18 6
-31.3175612175485 907.635244346852 2882.57418377933 12 12 2
-23.3696312544667 911.662209440304 2701.2111512364 123 106 90
-20.4577627253775 910.30240980095 2712.6907072377 126 105 88
-18.3475237799327 909.140394074548 2723.52015157214 129 101 80
-16.2022969861289 907.974380355712 2734.31544335749 134 102 81
-15.7111349079395 907.210352347322 2743.85967606713 146 110 86
-17.732301593937 907.053410542997 2751.55789550766 151 111 86
-19.7376971082623 906.894775376022 2759.24070421985 153 111 86
-19.1759229499793 906.122540180965 2768.71636895072 157 113 86
-14.3253516006419 904.326712746893 2781.16902774529 163 117 91
-10.2822392900586 902.729626958612 2792.97755989761 164 118 94
-7.05261801371471 901.33201035199 2804.14717205488 143 101 76
-12.365600226325 901.978090711457 2809.32755153734 128 88 63
-15.9583628884823 902.214330280911 2815.6941205019 119 85 60
-22.1291016363527 903.065741998013 2820.27900770114 117 85 62
-28.3035404536545 903.917738105312 2824.8674827514 107 77 53
-35.3476779830579 904.976289265167 2828.87180557302 94 66 44
-40.663732739433 905.623995312952 2834.05499586083 78 50 29
-39.8913982833315 904.828471970055 2843.3246752394 57 28 10
-41.7069853990593 904.649269661615 2850.82204122042 46 23 5
-53.1166708250481 906.742163183221 2851.92365785807 29 20 3
-80.3132250028775 912.563717744513 2842.6447171369 23 14 0
-23.3190189581793 904.083641947798 2702.28100144368 120 104 88
-26.2788685040807 904.148661152283 2709.4616317825 120 101 84
-21.6601646450916 902.412066394362 2722.13612170094 121 94 73
-20.3655233300939 901.470955228249 2732.32556978192 126 95 74
-16.5055277058448 899.924374712199 2744.30847485355 140 104 80
-16.8355289692093 899.376573709299 2753.21926732568 146 109 83
-17.1421869409767 898.825960889147 2762.10695730754 158 118 92
-16.5747960131757 898.071428922816 2771.57409013178 161 120 92
-13.4228787706214 896.709364483582 2782.81594679047 167 120 94
-9.37807316578754 895.141090929193 2794.61820119898 168 121 95
-7.00272106581901 893.971540792014 2805.18549783451 159 115 88
-10.5994373097653 894.212878341737 2811.55523928497 152 110 85
-13.3280586712559 894.251224250225 2818.51019891999 152 115 89
-19.4927734209664 895.098692230011 2823.08968708266 143 107 83
-26.5252477624687 896.149640301757 2827.08355191938 134 98 74
-32.6993205941668 896.998759767084 2831.67208870695 123 88 66
-37.1416156965152 897.441947513506 2837.43475977512 109 74 54
-39.8402748499667 897.477872492599 2844.36032430694 82 47 28
-44.2707130513686 897.920155176523 2850.11135506503 64 35 17
-57.4329626872316 900.402494983408 2850.06191524442 26 10 0
-76.7587736214992 904.319391456196 2846.00157730857 36 23 6
-25.7792235564769 897.095399823931 2701.50581431715 119 103 87
-29.5836670905887 897.366037009125 2708.07783940618 119 100 83
-24.1321660810234 895.464702625411 2721.36660720557 115 90 70
-20.3155022903214 893.952551507205 2733.38711493652 122 94 73
-17.3003787159387 892.633042747876 2744.75818217698 134 102 79
-16.785661553866 891.902946694354 2754.274347054 141 107 82
-15.395384205616 890.971420645975 2764.36741046398 155 119 93
-16.525068709659 890.631785615246 2772.62428621611 159 123 97
-15.9301717338587 889.89240718577 2782.06220328393 165 127 104
-15.3081904953991 889.149804299024 2791.47336400994 169 131 108
-11.234187602525 887.607098500486 2803.24284617666 172 138 113
-12.2659252658726 887.25622308397 2811.40445843416 175 140 118
-13.2782742714723 886.903093363461 2819.54681281105 165 133 110
-21.166866290633 888.147313454678 2822.94534031964 167 135 114
-28.2027767159772 889.192902716485 2826.94374711017 159 127 106
-33.514739055394 889.838913473557 2832.12312413067 156 123 104
-37.9587122515419 890.284494616946 2837.88710782776 149 116 97
-39.7895760496363 890.127267578058 2845.39639584496 141 108 89
-45.091427922475 890.772947251393 2850.56578195672 135 104 84
-58.2553213044541 893.230917315862 2850.5212383956 129 111 91
-74.0803321720946 896.298147488743 2848.77844750517 123 104 87
-39.1181388374888 892.615710741424 2692.74175001515 124 111 95
-42.9537025024835 892.894942688796 2699.3430697101 118 101 85
-34.17065485531 890.253214647422 2715.10096742116 104 81 65
-29.5345892685606 888.577999562795 2727.74914499838 108 82 65
-21.4735123173986 886.116701031375 2742.78039356278 126 98 77
-17.5827972564906 884.624640018347 2754.72439797896 131 100 79
-9.40697189119932 882.149465314313 2769.64375056408 147 117 93
-2.86976128444838 880.058583931477 2783.29931696514 159 128 107
-2.24420601231712 879.333869786032 2792.70428467472 162 134 113
-5.00811991771188 879.390994305289 2799.69151485709 163 135 114
-4.33541988057851 878.660795525819 2809.0508155866 166 139 118
-3.63555054647735 877.927361569153 2818.38327711838 167 142 122
-5.48852008362344 877.781884571543 2825.91277981027 171 146 126
-14.2214046015408 879.21263770498 2828.70522343116 171 145 128
-22.1056700527087 880.448115696675 2832.10074667227 169 143 126
-29.13561752294 881.487423201463 2836.09382275918 163 137 122
-33.5697902582672 881.934068625275 2841.84791715361 163 135 121
-37.9997164216648 882.380460507443 2847.59816995468 168 140 126
-43.2974823396379 883.025153330632 2852.76364450888 170 143 126
-53.8364206314572 884.862015759567 2854.45534697169 174 156 136
-65.2738974371276 886.90091822035 2855.59254071541 177 158 141
-50.7833880515807 887.66684319103 2685.21853573346 134 124 114
-45.4198010440745 885.845172509369 2698.58282917613 105 93 81
-34.1207949436138 882.673326753113 2716.17175991227 87 71 58
-17.6883717066731 878.338699296439 2737.33712176385 117 99 87
-4.53316530963876 874.761675644364 2755.9768597593 104 85 71
1.08908421689691 872.908693756384 2769.08892527946 124 105 91
10.1555918660976 870.277993357159 2784.5637131375 127 108 93
19.2881679418901 867.639317795936 2799.97407279673 142 124 110
19.9639805445049 866.926666189291 2809.32735139624 220 207 198
12.1250362756018 868.147349526559 2812.68005667685 244 231 222
6.8431911595801 868.787912401938 2817.83033204384 253 243 233
4.99416567780431 868.652067793725 2825.35483240949 250 242 231
4.02052382654183 868.320181611511 2833.45561022424 255 251 240
-4.69087386186606 869.737198818126 2836.22874726979 255 254 243
-16.8729791124105 871.935681689879 2836.66487283412 255 254 243
-26.488544489395 873.55292595363 2838.88902112916 255 247 237
-30.0488454442811 873.805758229272 2845.22124058579 255 243 235
-32.7316399004038 873.862327240556 2852.1280000597 255 240 233
-37.1460265672559 874.309426757373 2857.8623794809 255 241 232
-45.9239749106612 875.736072076852 2860.70017927978 234 218 205
-52.0909992410674 876.576296244104 2865.28269368055 227 213 202
-59.138896761449 877.61378475099 2869.2942011217 176 166 157
-31.4870555589444 875.655447627521 2700.42355053622 138 129 122
1.23652343360448 867.141811872328 2742.87155449305 94 80 71
32.0737712858152 859.644203960473 2774.28934730036 80 66 57
40.2755639514871 857.250729744581 2789.17083867587 95 81 72
40.9213652669953 856.559847029611 2798.55070149444 155 142 133
40.746225669591 856.056150616839 2807.30119540383 228 214 205
41.4448709612096 855.359136798463 2816.62948954735 255 251 246
37.909707312644 855.612397215644 2822.93668400808 255 254 248
27.5489306113492 857.392597625863 2824.45984399941 255 254 250
18.8775174070686 858.793252138241 2827.19569426019 255 250 244
17.0553974533019 858.664466180908 2834.69209593128 252 249 242
18.6888736512629 857.767382637686 2844.53856870114 255 255 248
11.7344972263091 858.785592283542 2848.46005771927 255 252 245
0.453247492608888 860.765467632295 2849.45083985244 255 251 245
-9.1234183829636 862.364245165716 2851.63908974222 255 252 246
-13.5128200413579 862.809846052363 2857.34888017756 255 253 247
-21.3764896411908 864.026557113377 2860.72706301997 255 253 248
-31.866699330048 865.824253984813 2862.376165912 255 253 246
-42.379869359193 867.624963309621 2864.04762352205 255 253 244
-46.7879462799306 868.074038917527 2869.77544520668 255 248 239
-52.0693436320414 868.71672719173 2874.92496180447 255 254 248
-50.3159575339223 867.807639410198 2884.65447433405 184 179 173
58.0972625411342 848.12839586587 2767.15393037374 142 137 134
62.0344150149195 846.717990417586 2779.03975309565 180 172 170
63.4927535033256 845.86237347148 2789.05434929716 255 250 248
66.6674073284188 844.629192121014 2800.25424148705 255 246 247
64.8140350623683 844.513898964114 2807.77968293622 250 244 244
64.6694921244042 844.022031064102 2816.49804566147 246 242 241
59.4581049335043 844.652945003745 2821.57978137574 255 254 253
58.4986007065242 844.344810051219 2829.66300989921 250 248 251
50.7408029370544 845.538693342628 2832.93909654139 255 254 255
41.2634999673163 847.110661109038 2835.03297791067 255 254 255
33.4792554509136 848.307996370772 2838.3348163638 254 254 255
32.5480197464043 847.996887410085 2846.39041338368 251 251 253
33.3566037704154 847.305519711291 2855.60904008873 254 255 255
29.8826118085662 847.55715529242 2861.85539246833 254 255 255
22.9615338794207 848.565683032926 2865.74524656926 255 255 255
12.5696061801572 850.334301720043 2867.30105173568 255 255 255
3.89029183570511 851.725868627356 2870.04609108952 254 252 253
-10.8919920552406 854.450711151028 2868.73503311765 255 251 252
-23.1015965253296 856.609731430672 2869.20429836739 255 251 250
-35.3422371440528 858.772795285558 2869.70344749087 255 253 252
-42.3607756993047 859.794847831925 2873.68808247386 255 254 253
-50.2643830998149 861.009117684247 2877.10594711032 252 250 251
-57.3002279939385 862.033836758138 2881.10703559005 251 251 251
-68.7498148884957 864.017596845799 2882.26440484971 219 218 214
-36.9511765944184 856.60684930384 2911.29777549383 99 100 95
103.927207065907 832.307365659036 2774.99491102458 96 95 90
107.035888657648 831.108860222277 2786.25518953254 221 217 214
102.670223932024 831.554770945667 2791.941363049 248 244 241
94.1252226863707 832.917611787433 2794.55727321017 255 253 253
88.9198336452606 833.547415752029 2799.63321672686 249 243 243
82.8742542154912 834.360994807281 2804.09941052393 255 253 255
79.3526494780674 834.622583646681 2810.39157200629 246 241 245
73.305921546627 835.436366457644 2814.85887616749 239 237 240
72.3340113903834 835.14276861145 2822.95227538414 250 250 252
68.8368935443231 835.40131642003 2829.22090832642 237 238 242
67.0484303831289 835.288749671997 2836.68149111289 255 254 255
60.162485649514 836.286656588182 2840.5380271845 255 252 255
54.1229843156872 837.099954191385 2844.99788909894 252 250 255
48.9361709629041 837.727888145924 2850.05566306919 252 251 255
47.1820118476338 837.611514509363 2857.48308192942 253 252 255
45.4433292734167 837.493438722106 2864.89504609072 252 253 255
41.1346692814307 837.933342469583 2870.52550089242 253 254 255
36.8302174106967 838.372833654164 2876.15183794412 254 254 255
26.4696865354601 840.121146869893 2877.67980458195 255 255 255
16.0860277022721 841.872506707773 2879.22994949251 255 254 255
1.3312267364145 844.56410531468 2877.89651400614 255 254 255
-11.7225371711149 846.885759487326 2877.76309552014 255 254 255
-26.5581648626441 849.587724493766 2876.50839001787 255 255 255
-38.809665298591 851.730561772767 2877.02165042147 251 251 253
-48.4599852752283 853.312265510506 2879.28556342196 255 255 255
-60.7673150427113 855.46261271445 2879.85315321345 254 255 255
-75.7490395121274 858.183572191481 2878.74105443887 250 251 253
-70.4367334211016 856.068058494964 2899.28458488953 216 218 215
118.550841712517 822.922262408488 2768.94542423582 207 209 208
114.997554372731 823.193021562153 2775.26802948423 231 231 231
113.945042387398 822.922381092571 2783.43807441845 238 238 238
112.912552992237 822.649262388269 2791.58894074864 242 242 242
110.230088830479 822.734802423329 2798.4910903307 250 248 249
105.886084159161 823.180577181074 2804.15577518871 255 254 255
101.546374258926 823.625751545858 2809.81628401336 249 249 251
98.0516325019769 823.889189067381 2816.08183476659 254 254 255
92.8799192010299 824.514511794538 2821.12500010041 253 253 255
84.3307031651674 825.866856807028 2823.74664688954 255 255 255
81.6911797136344 825.947160389743 2830.60692965693 255 255 255
76.5186139155727 826.572826463013 2835.65089078659 253 253 255
73.8972861905181 826.651013091767 2842.49341781348 254 254 255
67.0266592629569 827.641340985676 2846.33552541142 254 252 255
63.5654183309846 827.900850040037 2852.56838997595 255 254 255
60.1119577966456 828.159686133693 2858.7932901119 253 252 255
55.8089318259549 828.600871525455 2864.4182986627 253 254 255
52.3695842942749 828.858223295012 2870.62940376084 254 255 255
47.2147416874251 829.482362704338 2875.65599113989 254 255 255
42.0601520294697 830.106706100742 2880.68229718776 255 255 255
29.9799441779705 832.205659011336 2881.03194761331 255 255 255
18.7366690245323 834.124136987435 2881.99409493178 255 254 255
6.59689493690951 836.230848081777 2882.40141101219 255 254 255
-2.95882459367203 837.786401405059 2884.57558723312 255 254 255
-16.0277123392323 840.08562109037 2884.4601649073 255 255 255
-31.7574446888083 842.945843020874 2882.65301892579 254 255 255
-45.7786174028412 845.440433440197 2882.03744462413 254 255 255
-61.5966624866897 848.312011431484 2880.31665391443 251 252 254
-76.580110326498 851.003362978446 2879.21030466926 250 251 253
-85.4238206356959 852.395074488818 2882.11857027404 254 255 255
-93.3979477649398 853.602489796788 2885.60747514227 250 252 251
-84.530592829509 851.260267431738 2899.82047834393 164 165 160
126.552179006566 814.98013476912 2757.92275522279 209 211 210
129.585163634078 813.844185112483 2769.24895621825 239 241 240
129.349180305839 813.411196694258 2778.04941824108 249 251 250
125.820886565679 813.684171170767 2784.34687705184 249 249 251
123.962570031108 813.601108608468 2791.87246456494 248 248 250
118.788773389605 814.226693973805 2796.91765986893 237 237 239
117.789433041884 813.962605322489 2805.03427406709 232 232 234
114.299451324142 814.23058609125 2811.29408869907 247 247 249
110.81782123774 814.497559935095 2817.54609670272 255 255 255
108.184902434908 814.584755813166 2824.39880227807 253 253 255
102.193669943232 815.386012510381 2828.81251215936 251 251 253
97.0436414679461 816.008483583053 2833.83456561403 252 252 254
91.0475601082457 816.810279550392 2838.25334863105 255 255 255
85.0479912648847 817.612633108113 2842.67551235929 255 255 255
81.5956361515999 817.875988383173 2848.89864686276 252 252 252
76.4469655327109 818.498583120603 2853.91933366837 252 252 252
73.0070208234719 818.760596704436 2860.13068060053 253 253 253
68.7189412631986 819.202328623472 2865.74042852635 254 254 254
62.7191566030199 820.005063201291 2870.16275024927 255 255 255
56.7158430190422 820.808242656027 2874.58851049308 255 255 255
50.7087457052617 821.612148023241 2879.01758290497 254 254 254
42.1069026370313 822.960807964736 2881.69203376709 254 254 254
30.8926721848151 824.856400557311 2882.62872171757 253 253 253
21.3869529024473 826.391674942959 2884.75624417102 253 253 253
10.9925384809459 828.111662994949 2886.32170627602 253 253 253
1.44651269480311 829.652326537883 2888.48811932646 253 253 253
-8.99199416964214 831.378109018212 2890.09650946513 254 254 254
-24.705615871055 834.203795084227 2888.27880759952 254 254 254
-39.5883640921983 836.852436711527 2887.07877465188 254 254 254
-55.3924639132881 839.689705888645 2885.34920691785 254 254 254
-67.7183570004107 841.798946306783 2885.94096808316 254 254 254
-78.3084894883128 843.544597163014 2887.69732601207 255 255 255
-89.8071712524264 845.477595590598 2888.91061191216 255 255 255
-96.0105958739676 846.308773756097 2893.53094717723 255 255 255
-94.2176881193983 845.480621221977 2903.2092519235 255 255 255
138.675493526875 806.151705647961 2750.0231191346 244 246 243
135.102741076436 806.435709983357 2756.36309589356 186 188 187
140.592869320543 804.806482600946 2769.57328898207 254 255 255
139.532907272086 804.563435239768 2777.74665368973 249 251 250
136.838817004592 804.666480450989 2784.65776090926 249 250 252
132.498761018584 805.117005639766 2790.31782255275 255 255 255
130.655970155844 805.042587170697 2797.827053093 252 252 254
125.497608318334 805.666108796089 2802.85722642832 246 246 248
122.009067850817 805.939038160262 2809.11487847727 236 236 238
116.855447214509 806.561903113081 2814.14044078563 239 239 241
112.540776662101 807.008933220463 2819.7758108898 255 255 255
109.071110821592 807.279529068913 2826.01540288971 253 253 255
105.609608813199 807.549036767781 2832.24704891168 250 250 252
102.156016907934 807.817619279199 2838.47063898463 246 246 248
97.0179362914885 808.438525165594 2843.4810593727 249 249 251
91.8802388679385 809.059323775609 2848.49111509996 254 254 255
85.8927287660967 809.857267664859 2852.90195606668 255 255 255
82.4582644367333 810.123720647632 2859.10720475939 255 255 255
76.4693101255847 810.921977577975 2863.51909573798 254 254 255
72.1891997990416 811.365050563623 2869.12106972982 254 254 255
63.6231764462711 812.697944852884 2871.7619433995 255 255 255
59.3417879125626 813.141473820987 2877.36511927595 255 255 255
52.4788270468548 814.120102959571 2881.20134343208 254 254 255
47.3360625428461 814.742365919162 2886.21621441491 254 254 255
36.9993251516556 816.438512624789 2887.72792611677 253 253 255
28.3750040214525 817.779214987911 2890.42587415333 253 253 255
17.9962575278738 819.480893483698 2891.9784839187 253 253 255
7.59459374966953 821.185520036178 2893.55341516499 254 254 254
-3.70348150783872 823.073166387185 2894.57453669761 254 254 254
-19.405114812602 825.864908270751 2892.74994711224 254 254 254
-35.1531324201608 828.662569639436 2890.97020508593 254 254 254
-49.1887343052397 831.10484570233 2890.37669120346 254 254 254
-60.6193818191216 833.009617674524 2891.52692778711 254 254 254
-68.5447136952226 834.193839574659 2894.97080622319 255 255 255
-82.6765372853506 836.648835600639 2894.47096191127 242 242 242
-90.6382681535147 837.838117922691 2897.9502371564 255 255 255
-105.72258496487 840.483380648348 2896.95120204075 252 252 252
-111.941291770665 841.314139660847 2901.58643684933 212 212 212
158.650137147292 795.239061724925 2757.30694367499 239 241 240
154.288515769323 795.695358915086 2762.98790481421 252 254 253
150.752196483945 795.980149472247 2769.29124885646 253 254 255
147.224230445432 796.263755994349 2775.58681084294 248 249 251
145.354600735244 796.203466352782 2783.12026667893 250 251 255
141.846980770541 796.484331022516 2789.39602995793 248 249 253
136.689575569001 797.107732048743 2794.42527116409 253 253 255
132.363442592249 797.558978711689 2800.07140042001 252 252 254
127.208845138409 798.181848870226 2805.09793195321 243 243 245
123.724315219488 798.459448859844 2811.35124899372 238 238 240
119.411173387377 798.908821907281 2816.98475477051 236 236 238
115.102283270687 799.357658958431 2822.61411775106 236 236 238
110.797834284167 799.805864127821 2828.23950185754 247 247 249
105.655078396282 800.427182499989 2833.25450389405 246 246 248
101.357137523816 800.874521287276 2838.87321555596 238 238 240
97.9099158692041 801.1474769462 2845.09017136854 234 234 236
94.4706043177197 801.419507417676 2851.29907123209 232 232 234
91.0396656561541 801.690528284253 2857.50014375332 237 237 239
85.9123849353853 802.310013703369 2862.50004962978 239 239 241
79.931323761659 803.104268168172 2866.90469416888 248 248 250
73.9468566106125 803.899174847932 2871.31296233871 251 251 253
67.9589461085826 804.694456647969 2875.72459436436 253 253 255
63.6870612510454 805.139277255305 2881.31780420417 253 253 255
56.8341406238564 806.111025585867 2885.14541307744 254 254 255
49.1098358263442 807.259939096881 2888.39488721725 254 254 255
39.642846887066 808.762982409805 2890.48837576395 254 254 255
30.1569342861971 810.268516250701 2892.60062552939 254 254 255
21.5213200950384 811.599805057433 2895.31084121995 253 253 255
11.9992668360775 813.110012940186 2897.45828837179 254 254 254
-0.162405929128084 815.154560032838 2897.89653797506 254 254 254
-14.980580797181 817.735371672645 2896.64274581776 254 254 254
-31.5957331359082 820.677039713503 2894.28588795713 254 254 254
-44.7441415617544 822.913280836913 2894.25873904631 254 254 254
-56.1647516963761 824.797799475837 2895.40200179778 254 254 254
-64.0800144961275 825.972260497893 2898.83732414572 253 253 253
-76.4317064135476 828.041575049623 2899.4609427985 255 255 255
-87.9272376974685 829.936187346956 2900.67711152046 252 252 252
-104.783130779443 832.909148084937 2898.55468772971 255 255 255
-112.781099137266 834.095096895602 2902.07044002929 245 245 245
-121.683322030599 835.462577555937 2905.04039080414 255 255 255
164.179934808617 787.822441534461 2744.41015232873 232 234 233
160.616842333587 788.116209316101 2750.73875571423 253 255 254
161.966104261382 787.402246588251 2760.84073012127 246 248 247
161.708251788112 787.020251623304 2769.65537171828 239 240 242
159.010296707972 787.139895583108 2776.56752562411 246 247 249
152.209164153594 788.100220791615 2780.34539650796 254 255 255
147.875735972117 788.55509969705 2785.99823316616 249 250 254
143.546665798947 789.009429206291 2791.6468234582 253 254 255
139.222122328763 789.463057077133 2797.2913602111 253 252 255
134.070926785768 790.085439401928 2802.31458569816 255 255 255
130.585649319061 790.368453864116 2808.56750696599 248 248 250
127.108702763626 790.650405044655 2814.81265051034 238 238 240
121.966586248577 791.271465907238 2819.82705569997 228 228 230
116.824939037747 791.892290700087 2824.84102975458 227 227 229
110.002516994695 792.854310354777 2828.639453135 241 241 243
104.857851065917 793.47551570499 2833.65636857494 241 241 243
99.7135672530192 794.096731852251 2838.67290297237 237 237 239
97.1087489332953 794.204031717347 2845.49473299209 234 234 236
93.6677304501812 794.481335655844 2851.70488628985 232 232 234
91.0849769179687 794.586030810358 2858.50519062449 237 237 239
85.9577408683849 795.205274722655 2863.5050878364 239 239 241
79.9766630258745 795.996700785153 2867.91016696447 248 248 250
73.9923083730298 796.788585872576 2872.31877001195 251 251 253
69.7202335220903 797.235612278179 2877.911842502 252 252 254
68.0321759214286 797.163505688613 2885.26707893085 252 252 254
60.3270797728976 798.301683039676 2888.49906539802 252 252 254
53.4743812079874 799.267991281632 2892.32691996088 253 253 255
43.1516326737249 800.9297057397 2893.82982959217 254 254 255
35.4088216553809 802.072873524674 2897.09852989864 253 253 255
25.0462299426428 803.739833685866 2898.64056692451 252 252 254
14.6605102719528 805.409840469209 2900.2047822231 254 254 254
0.758313515039077 807.780929437963 2899.4893164977 254 254 254
-13.1822767706322 810.156917489891 2898.81125203156 254 254 254
-28.0387413772187 812.712907877829 2897.59881287884 254 254 254
-38.5412182968543 814.397915573821 2899.27709056527 254 254 254
-52.5913779814573 816.788011433603 2898.70574500417 254 254 254
-62.2648436093951 818.304583022698 2901.00226848168 253 253 253
-76.3822686630009 820.703512564005 2900.49641281208 247 247 247
-85.2166949297688 822.050475710541 2903.40207301412 255 255 255
-101.177478797764 824.810919501513 2901.83911177142 242 242 242
-109.167292428194 825.987466705857 2905.34815585945 255 255 255
-119.846952033691 827.696593197423 2907.19847598274 241 241 241
-126.076411643405 828.523328570591 2911.8453210187 255 255 253
150.329511275141 784.306340713367 2716.17318570066 238 239 241
172.667105621412 779.353599536954 2742.90193250978 250 251 253
172.36105959725 778.994014499796 2751.76111883771 253 254 255
164.740463368347 780.11487581595 2754.91175493795 251 252 254
161.195095136589 780.411657400655 2761.22231244909 248 249 251
162.573607407913 779.715118042115 2771.29266566624 249 250 254
161.519869333112 779.511384852169 2779.45403925871 252 253 255
155.54748084837 780.299697505041 2783.85128772864 253 254 255
149.571692068306 781.088320881515 2788.25186681728 245 246 250
145.246362045959 781.544655576029 2793.89644671876 236 237 242
140.925390031919 782.00044087435 2799.53678025408 244 243 248
135.778000851241 782.622225409041 2804.55631432021 231 230 235
132.29669249299 782.909797783209 2810.80495838926 248 247 252
127.988668567929 783.363773862698 2816.43270168258 255 254 255
124.521859097771 783.649459452818 2822.66722700728 234 233 238
118.547416070157 784.437205549894 2827.06659940535 229 228 233
113.410021651764 785.05737627303 2832.07644704542 240 239 244
107.430459373544 785.845603864417 2836.48049392838 235 234 239
102.291959509142 786.465913946587 2841.49141869548 237 236 241
98.846642460436 786.748890075482 2847.70500218515 240 239 244
94.561070285335 787.199740911013 2853.31091246854 243 242 247
92.8303644564599 787.14298957785 2860.70589187628 243 243 245
88.5592865644682 787.59217704726 2866.29799280906 242 242 244
82.5841024761162 788.3799706359 2870.69775623018 241 241 243
76.6056415774305 789.168223249466 2875.1010435707 241 241 243
74.05529629846 789.277029495595 2881.86855841324 246 246 248
71.516939241453 789.384501342339 2888.6243659978 247 247 249
64.6814267864291 790.342981994726 2892.43631141381 248 248 250
54.3837419326616 791.985261381513 2893.91720493491 249 249 251
44.0633079504402 793.630395619501 2895.42060457308 250 250 252
36.3226572792552 794.764858516202 2898.68844620157 249 249 251
28.5706093182045 795.901053066519 2901.96734956973 247 247 249
18.1928614320177 797.55377948365 2903.52620279905 249 249 251
2.55189877325845 800.24052837366 2901.65654644192 249 249 251
-11.3844902420306 802.588920097347 2900.97838877745 249 249 251
-25.3593158417393 804.942275300884 2900.33766560935 249 249 251
-35.8559013279671 806.610218961059 2902.01227723037 249 249 251
-50.7808908101421 809.145232609577 2900.87132248701 249 249 251
-63.0991053473728 811.166630905178 2901.46877960811 250 250 252
-77.2180684079067 813.538628676514 2900.96843170597 246 246 248
-85.1672382815414 814.70102985906 2904.43920671853 248 248 250
-100.23866031544 817.255165352442 2903.44049762139 255 255 255
-108.226271620063 818.423061345263 2906.94863341262 255 255 255
-122.474325376895 820.812276551259 2906.5739297509 255 255 255
-132.287691512002 822.334324206046 2909.00890498201 252 252 250
-149.292907157764 825.256526210584 2907.04226282313 253 253 251
170.167500493278 773.504507776713 2723.57633226725 230 231 233
175.472663032934 772.037705722 2736.94619264208 254 255 255
178.394285098469 771.049595353063 2748.36112772566 251 252 255
177.28816497939 770.866251419601 2756.57184178124 250 251 255
170.494334156929 771.815526528535 2760.34375729526 244 245 249
163.693298830861 772.765474004318 2764.12272761233 252 253 255
162.619666664166 772.577503728807 2772.30186442227 244 245 249
161.56570220926 772.386949125975 2780.46151502411 244 245 249
158.885521338599 772.52014297184 2787.35435405193 241 242 247
152.09248378717 773.468302568396 2791.12598455032 241 242 247
144.465019472249 774.580889547817 2794.28466370486 226 227 232
139.313166528887 775.203177841894 2799.3085558979 237 236 241
135.823371962277 775.497199238586 2805.5643358926 224 223 228
134.007535135185 775.461486527148 2813.04107998291 232 231 236
130.538000531062 775.752894864824 2819.27712774435 247 246 251
125.403518537732 776.372698430504 2824.28413756899 239 238 243
119.430972113274 777.157374926946 2828.68208029772 228 227 232
113.455046652072 777.942359467006 2833.08333293119 240 239 244
110.002796886658 778.231411869638 2839.30256479844 238 237 242
105.714438479209 778.68509064474 2844.91082388351 234 233 238
100.584146041092 779.304189143938 2849.91377762641 235 234 239
94.6060532820407 780.089328968676 2854.31715946766 237 236 241
89.4746553979142 780.708566826907 2859.32119033759 233 233 235
86.047954914211 780.994503236362 2865.51584977483 234 234 236
80.9211903228775 781.61327493207 2870.51534861514 242 242 244
77.5066505807072 781.897868231217 2876.6977929254 243 243 245
74.1004831899477 782.181510962181 2882.8724017025 242 242 244
70.7023493873029 782.46437680702 2889.03914783127 244 244 246
63.8650178742344 783.417425773235 2892.85370239965 246 246 248
55.2930974888892 784.707472476473 2895.50710260635 248 248 250
47.5715268382078 785.83133336654 2898.75756446438 248 248 250
39.8387305818 786.95672736023 2902.01894692279 248 248 250
32.0945811682032 788.08367053743 2905.29137426547 246 246 248
20.8534949133394 789.887885826496 2906.26823595053 245 246 250
4.34534267049047 792.710687512187 2903.82269380833 245 246 250
-9.58680309576998 795.031536584382 2903.1443933267 246 247 251
-24.4345209882644 797.526911726201 2901.93256530648 247 248 252
-34.0497810208689 799.008253320231 2904.17649674528 247 248 252
-51.6138130758517 802.023387026403 2901.33412295894 246 247 251
-63.0505681209481 803.852800194965 2902.50156240963 247 248 252
-77.1691984336251 806.197630357966 2902.0048994446 247 248 252
-84.231207821774 807.180890542766 2906.03809725938 249 250 254
-100.189017293633 809.875975717063 2904.48184237235 251 252 255
-109.957650999587 811.377936775898 2906.87536643015 253 254 255
-123.316415082355 813.56875460397 2907.06381733949 253 254 255
-132.236789394802 814.905559965096 2910.05632653768 253 253 253
-144.758857134484 816.932502895213 2910.85505556577 255 255 255
-150.123844288783 817.585846929822 2916.08600315608 247 247 247
183.490875172187 764.072988557475 2725.91010538027 251 252 254
183.136233481603 763.751962630787 2734.81184890365 247 248 252
182.805424271475 763.427755334776 2743.69039662663 250 251 255
181.686726297407 763.259454970137 2751.91103940325 237 238 242
179.774632213991 763.247624849703 2759.47950069353 239 240 244
173.801946672632 764.031257445164 2763.87773585551 230 231 235
165.374112664746 765.294294447113 2766.39204818146 242 243 247
161.846527283545 765.59902279002 2772.68411037372 233 234 238
159.969323910234 765.582204452922 2780.21866192933 229 230 234
158.108150042566 765.563306373113 2787.73760333394 230 231 235
152.137982167937 766.345619106628 2792.13353349066 234 235 239
144.510528929858 767.450008022756 2795.29341331591 220 221 225
138.529524862904 768.233346055445 2799.69961459103 230 229 234
135.868621445435 768.371539744165 2806.57257184827 212 211 216
133.21975199813 768.508039453255 2813.43382956469 201 200 205
129.748403092477 768.804852731288 2819.67121794853 218 217 222
124.611966925577 769.424725745118 2824.68015803201 232 231 236
118.637469840326 770.206758680849 2829.08042851286 230 229 234
113.499951101517 770.82659126359 2834.09044958195 232 231 236
110.047696464578 771.120833537086 2840.30891922605 239 238 243
106.603772200404 771.414071565647 2846.5196029558 231 230 235
101.475395188257 772.03269271966 2851.5207252038 226 225 230
94.6509146508689 772.978283702375 2855.32362085007 239 238 243
88.6694469063589 773.760959525159 2859.73071828019 248 247 252
84.3885898023578 774.216346238962 2865.33127602746 241 240 245
79.2580008211767 774.835364184472 2870.3345361478 220 219 224
75.8397972812674 775.125595582359 2876.52012319684 222 221 226
72.4295469001475 775.414837396122 2882.69762105974 234 233 238
69.0275827591145 775.703257435054 2888.86734986369 231 230 235
63.9101278090295 776.321032409037 2893.85775140765 243 243 245
55.3383926204276 777.600087563558 2896.51259225734 245 245 247
47.6169393394725 778.715736990426 2899.76415121617 247 247 249
40.7518080945994 779.666924391344 2903.60658646773 247 247 249
34.7488605710917 780.453251582794 2908.03447396523 247 247 249
24.3851865761413 782.071535032441 2909.58444226805 243 244 248
9.63191558810506 784.525283352706 2908.28497950157 244 245 249
-7.78942277413064 787.484511296171 2905.30917161625 244 245 249
-23.5102366071809 790.116578924008 2903.52689052228 244 245 249
-35.7607014099632 792.085635488917 2904.06446939849 244 245 249
-49.80386847076 794.393531805643 2903.49832911514 244 245 249
-61.2364535038772 796.20343131581 2904.66451179249 244 245 249
-73.5808029421641 798.184782243492 2905.29384024017 245 246 250
-85.0690886783396 800.002057525286 2906.51424440323 247 248 252
-98.3618939904476 802.1596753575 2906.64210422315 248 249 253
-109.907879812944 803.984696402603 2907.91866060446 250 251 255
-122.373535241833 805.982119510528 2908.66573439083 251 252 255
-131.291597422811 807.307547251365 2911.6576292156 254 254 254
-143.811087943464 809.312392747192 2912.45740286022 255 255 255
-150.072439918572 810.134611217837 2917.1362472407 255 255 255
197.147366635078 755.001356712051 2719.35776581544 232 233 235
195.972308570274 754.854241943993 2727.63158161539 247 248 250
192.400084475453 755.171392158986 2733.96579692089 244 245 247
188.836299200311 755.487288582283 2740.29215550556 238 239 243
186.090189740377 755.645717827588 2747.24673281611 244 245 249
182.544903735377 755.958810373329 2753.55513576394 232 233 237
179.007636280422 756.270728184859 2759.85541195624 231 232 236
173.848121094671 756.894984896387 2764.886621938 221 222 226
167.871977149068 757.675987099678 2769.28868011734 238 239 243
163.530733557192 758.142642557021 2774.94753702437 227 228 232
160.015069904729 758.450998264496 2781.22722464085 223 224 228
157.330663067196 758.600528506129 2788.12184560409 227 228 232
150.533390840917 759.538325755747 2791.89887490556 232 233 237
144.55591622108 760.318552210445 2796.30236911939 215 216 220
137.746040351117 761.25764350548 2800.09172276601 224 223 228
134.252322012319 761.562525031553 2806.35013184411 218 217 222
130.76662060804 761.866408933555 2812.60038959412 201 200 205
128.123929560878 762.009972611059 2819.45446801642 215 214 219
124.656827499121 762.311439763668 2825.68695138086 227 226 231
119.520776140639 762.931028390977 2830.69555137609 222 221 226
112.704210280981 763.870255439595 2834.49152821706 233 232 237
110.092430281944 764.009804350673 2841.31550489234 237 236 241
105.804026101339 764.468501246459 2846.92306775479 232 231 236
102.366303931647 764.766205628021 2853.12693258801 239 238 243
96.3921319303695 765.545190171602 2857.52733080671 246 245 250
89.5643011788771 766.485601463522 2861.33431882114 240 239 244
84.4333311588312 767.104490538555 2866.33797636571 214 213 218
79.3028293659894 767.723261617282 2871.34118639355 209 208 213
75.8846640102173 768.018618489357 2877.52597798233 224 223 228
71.6166228539401 768.475043146504 2883.11365589648 226 225 230
68.2127411079509 768.768835217914 2889.28449492644 228 227 232
63.9550714447616 769.224247227694 2894.86202346347 236 235 240
56.2470880739849 770.329766016168 2898.1017039063 238 237 242
49.3933600675187 771.27391381918 2901.93385602305 241 240 245
40.7972330064972 772.545311630371 2904.61405011464 245 244 249
34.7944394213293 773.32872994295 2909.04221468012 245 244 249
24.4309571101704 774.930654862873 2910.59441042165 239 240 244
11.4246077614899 777.026921711565 2910.44688288386 239 240 244
-4.24183106162612 779.619747581769 2908.61674435785 237 238 242
-21.7088283397779 782.546991508128 2905.69100367475 236 237 241
-34.8341417629467 784.658373606323 2905.65937519426 235 236 240
-48.8750219023166 786.939032866565 2905.09498958918 235 236 240
-58.5394402315775 788.399563922453 2907.3908117317 236 237 241
-71.762673891933 790.523644235393 2907.45454270367 237 238 242
-83.2467470989751 792.321400498829 2908.67364866542 238 239 243
-95.6463859452024 794.288315850882 2909.36001388429 240 241 245
-107.186159316795 796.093388849231 2910.63334952261 242 243 247
-120.538184976353 798.234531003662 2910.82245112097 242 243 247
-128.557502644577 799.381893055594 2914.36510670746 248 248 250
-138.38116632253 800.864255544874 2916.81617300097 249 249 251
-146.427404349968 802.015777930575 2920.38494600661 251 251 253
-153.584866853433 803.001990297971 2924.51249384466 255 255 255
207.188179152596 746.277932688785 2719.17854040631 247 248 250
205.212399632478 746.296834127762 2726.80570016561 248 249 251
