ply
format ascii 1.0
comment KinectMotionCapture
element vertex 757
property float x
property float y
property float z
property uchar red
property uchar green
property uchar blue
end_header
-86.9156678668932 580.220011145693 2726.92795520797 140 140 138
-104.832051326695 577.559459518069 2734.92360534639 129 129 127
-119.880038428225 575.419735390611 2740.06081431967 139 139 137
-129.99667463107 574.184872196454 2740.13130826321 149 149 147
-138.005348004533 573.337141759294 2738.02676046406 158 158 158
-148.077622134129 572.105165820405 2738.12972252277 166 166 166
-156.054993628319 571.25940361831 2736.04787609342 183 183 183
-163.332439414352 570.54232522185 2733.23903592671 183 183 183
-165.804282848865 570.720219443058 2725.27227283855 180 180 180
-168.982323191806 570.768364613604 2718.02824644217 178 178 178
-171.497858006352 570.942271267155 2710.02979034238 191 191 191
-171.32154393944 571.623191415236 2699.04513455017 192 192 192
-163.743935395961 573.698835241834 2679.84631879658 194 194 194
334.961766273472 613.01584831991 2903.23375857692 195 196 198
325.478390075881 611.991395340606 2901.29430872352 202 203 205
316.833919059669 611.104136838712 2898.72865742711 172 173 175
306.563223276523 609.947146341081 2897.45282810446 154 155 157
301.21819585708 609.603865441255 2892.34132824494 135 135 135
296.683659953719 609.395526580509 2886.58272338398 128 128 126
292.13968377832 609.186582670363 2880.81756648068 123 123 121
286.776031370481 608.842439762355 2875.69226612633 122 122 120
282.215758899869 608.632593877261 2869.91529112217 118 118 116
280.065797954891 608.825571307861 2862.18194391941 111 111 109
276.284802194084 608.748437433498 2855.73522433905 108 107 105
266.073506269248 607.597434349609 2854.5027800458 101 100 98
241.486244757693 604.037333910914 2865.06882065807 101 100 98
205.831831197708 598.612335094904 2884.89429120466 133 132 130
183.861949440646 595.471156112234 2893.65444381377 141 140 138
169.911879315133 593.671082098657 2895.88387226384 135 135 133
159.169298132205 592.407476590837 2895.50075422453 132 132 130
142.930001277013 590.214318378222 2899.7740866794 132 132 130
128.320426104256 588.291404067382 2902.75984026507 135 135 133
115.327332146363 586.637761006883 2904.44870623438 134 134 132
106.284668823214 585.650086074052 2902.82892483701 149 149 147
103.499670494009 585.72299238894 2895.8699484044 154 154 152
99.9185119581645 585.662316405615 2889.56817845562 149 149 147
94.771819629583 585.336417223979 2884.60054397797 152 152 150
86.5257399196699 584.482538121462 2882.32386411483 148 148 146
78.2920369110625 583.629601925966 2880.0561611626 147 147 145
66.9939565713591 582.251372654564 2880.50480596684 146 148 147
55.7258277005839 580.87548017045 2880.97517506639 146 148 147
47.546590486407 580.026717336461 2878.7469766698 151 153 152
39.3796320319604 579.17891934704 2876.52768429531 150 152 151
31.2249058422398 578.332052563664 2874.31726406731 155 157 156
20.80793587437 577.093899166447 2874.17031746663 164 166 165
12.6845594721994 576.249352603755 2871.98234064402 167 169 168
6.8347073082049 575.796837624902 2867.73936589073 165 167 166
-0.519371237791111 575.083737440742 2864.87499315133 167 169 168
-7.86554896590452 574.37118769522 2862.01635067151 169 171 170
-15.9510553733448 573.52930117611 2859.85613456693 171 173 172
-20.2992579064334 573.33674445028 2854.23268668226 165 163 164
-24.6570895447817 573.143407659537 2848.60225450251 165 163 164
-28.284247144875 573.078497416583 2842.26711740302 169 167 168
-31.1871390132796 573.141584192841 2835.22262768998 168 166 167
-34.1085652587871 573.203139605945 2828.16469425477 168 166 167
-39.2505794990548 572.876603756775 2823.20044779833 176 174 175
-40.7388853533357 573.192894381212 2814.71233646767 197 195 196
-41.5250483452638 573.635389825724 2805.4988261055 154 152 153
-43.7976508004358 573.81870077343 2797.67652449205 146 144 145
-46.8185981152898 573.871835407135 2790.54640345688 164 162 163
-47.6890813944393 574.307380480385 2781.27173231402 162 160 161
-47.870499475883 574.868090450558 2771.26188211701 159 157 158
-48.8068151601548 575.298182877179 2761.93946004001 152 152 152
-50.4914532818681 575.598130678157 2753.30923495615 156 156 156
-49.3465169777021 576.404986366335 2741.79176640024 161 161 161
-51.0948176548081 576.699597558897 2733.11536394037 140 140 140
-52.870368251964 576.991901229934 2724.41890126685 112 112 112
-56.0885505977517 577.028310828816 2717.14571563295 132 132 130
-64.2629859343753 576.176680962533 2714.9209836978 144 144 142
-82.9725752490096 573.429087828915 2723.576217731 135 135 133
-100.20189694582 570.939910356625 2730.83576501872 132 132 130
-117.361647672042 568.455920830217 2738.1457720657 152 152 150
-128.879172391984 566.984646189386 2739.66990229159 156 156 154
-138.973706850252 565.767296464799 2739.75680144764 160 160 160
-146.966285541086 564.928457340954 2737.66396606366 171 171 171
-154.256435349619 564.215805977705 2734.8456444267 177 177 177
-160.163343980009 563.753949027361 2730.56126090435 178 178 178
-164.700160112504 563.541910915906 2724.80127879622 198 198 198
-167.879963062276 563.578681458385 2717.5559170338 197 197 197
-172.440424117357 563.364299279422 2711.77848786649 196 196 196
-174.295024873104 563.647062455723 2703.02467172151 193 193 193
-168.733512590395 565.295529767207 2686.06758539422 192 192 192
340.362145281111 606.127715206855 2899.70291008793 201 202 204
330.04123296777 604.979740505775 2898.39072339765 204 205 207
318.919769694981 603.700705868044 2897.73286749407 171 172 174
311.103087226739 602.954879240384 2894.53297753309 136 137 139
304.929995621952 602.475132745191 2890.0555416779 127 127 127
300.387165171929 602.260267039773 2884.2908908633 128 128 126
292.582391434268 601.515972718345 2881.09964155669 130 130 128
289.651705769099 601.564859124061 2874.03493159955 127 127 125
283.467984186493 601.084938535991 2869.54978896477 117 117 115
282.92994636824 601.527271375013 2860.51585453559 105 105 103
279.142974457589 601.441050256477 2854.064756688 108 107 105
272.935631857679 600.959753796912 2849.56248370462 108 107 105
251.527304075673 597.985307741957 2857.49552668035 105 104 102
213.447490465093 592.265434735346 2879.26668373837 135 134 132
189.863414181034 588.914953795033 2889.32597986598 141 140 138
175.103121683041 587.009850967136 2892.20256546479 135 135 133
163.555214975741 585.630630840685 2892.47039526174 132 132 130
146.513914651016 583.341204923507 2897.39688730025 134 134 132
133.467670930421 581.707601744176 2899.04732537825 135 135 133
122.029445131438 580.337077404672 2899.39441477521 135 135 133
110.62116915086 578.968919590654 2899.7632274216 155 155 153
103.924558323669 578.38129225837 2896.14077150113 150 150 148
98.009663204166 577.923478202832 2891.85061888044 147 147 145
94.4216121029551 577.853670607364 2885.54380611052 150 150 148
86.9508970649644 577.136856972844 2882.59486227957 147 147 145
77.9453025592165 576.162699939101 2881.00202132984 146 146 144
67.4176480520559 574.932099024713 2880.77487539932 148 150 149
57.6827300743723 573.832193838168 2879.88773199027 145 147 146
51.7934035303815 573.376391378581 2875.61612476476 152 154 153
42.0895056785082 572.278830295104 2874.75177485727 151 153 152
33.1672708850634 571.311067864819 2873.2193955319 158 160 159
21.2281730587724 569.832506304164 2874.43817598352 171 173 172
13.8604134101254 569.123574767381 2871.56361215884 175 177 176
8.76220745668332 568.798048765862 2866.63112837951 163 165 164
2.90694125658808 568.344617239183 2862.38422423341 164 166 165
-4.44818940945968 567.636439943665 2859.51881924812 170 172 171
-14.0377468682937 566.547365037587 2858.73740011585 172 174 173
-19.880432231316 566.094683851848 2854.49961988766 167 165 166
-23.4951776912524 566.022235765098 2848.17344243281 166 164 165
-26.3833390226835 566.075224298059 2841.13958005078 169 167 168
-28.5513738803902 566.253145822206 2833.39305442183 170 168 169
-32.2151730295335 566.176604351938 2827.03129616702 169 167 168
-37.3615379938146 565.846549623397 2822.06387795407 173 171 172
-38.8533921374821 566.145734912846 2813.57310775082 191 189 190
-39.6429067261825 566.568452484981 2804.3570675658 167 165 166
-39.009018098952 567.239741125514 2793.70377407498 147 145 146
-41.3173263608075 567.405980706945 2785.85579656745 159 157 158
-42.9253233340576 567.695607772398 2777.28078353414 160 158 159
-44.560758305729 567.982922438258 2768.68586839745 164 162 163
-48.3799091789721 567.893108691931 2762.21142513577 146 146 146
-50.0637608421815 568.176272448935 2753.58168515797 147 147 147
-49.631755624781 568.830937434636 2742.78195787287 166 166 166
-49.9525365707703 569.357804168326 2732.67090913853 156 156 156
-51.0196236031291 569.757407966889 2723.25353368959 124 124 124
-54.2417509245778 569.782116781952 2715.97742899187 132 132 130
-61.0100812712613 569.185751921805 2712.30293780385 147 147 145
-79.7316152307297 566.486161553673 2720.9500505296 142 142 140
-98.3746035826885 563.792475818724 2729.65383807358 135 135 133
-114.842514616752 561.474810826015 2736.23118031536 155 155 153
-127.064929960558 559.901225753591 2738.47913316861 152 152 150
-138.553944835005 558.45346978259 2740.02404991663 161 161 161
-145.162451716274 557.868230219181 2736.46547452131 175 175 175
-152.45769381317 557.16028477836 2733.64377968928 181 181 181
-157.681344337154 556.820264941028 2728.62028504952 178 178 178
-164.967150428498 556.112565741084 2725.80513734953 192 192 192
-168.14433144116 556.138257108638 2718.56162016707 188 188 188
-172.021230693568 556.040240214474 2712.04527232236 195 195 195
-173.875118859624 556.306243234511 2703.29188785535 195 195 195
-171.018477498188 557.421440589379 2689.31172274879 192 192 192
339.152748297201 598.162215588108 2901.25591883695 202 203 205
332.956792238639 597.679660916125 2896.7618938273 204 205 207
323.472047838591 596.676465869472 2894.82185428739 166 167 169
314.00462142114 595.674842645614 2892.89408240722 149 150 152
306.189901845247 594.934511747208 2889.69534874872 123 123 123
303.276232664113 594.973066890126 2882.64292207412 124 124 122
297.904708388021 594.621844299336 2877.51217385151 125 125 123
293.339544984289 594.399822304144 2871.73129715414 121 121 119
286.338203078262 593.78966949174 2867.88811555236 114 114 112
285.794793201655 594.212030906558 2858.85018564424 111 111 109
284.415298059371 594.503212283506 2850.44112081457 117 116 114
279.799781317576 594.277857904064 2844.62372502866 110 109 107
262.372041022816 591.995899775672 2849.27011631167 107 106 104
222.661418915742 586.125570788411 2872.32867113362 132 131 129
191.887963399932 581.679305967612 2888.28660108264 139 138 136
176.327990332955 579.675385758881 2891.81831174767 134 134 132
166.359728231304 578.57029865993 2890.76228043295 131 131 129
150.09897292741 576.445720544141 2895.02040457212 136 136 134
136.255609019579 574.708030485985 2897.32750262365 136 136 134
124.809704259923 573.355613751091 2897.66911709673 136 136 134
112.611252569961 571.878494951216 2898.69959922853 158 158 156
105.909993476745 571.292801552807 2895.0740779536 148 148 146
98.4343232300264 570.580654357033 2892.1212711455 147 147 145
97.1749618071889 570.8821549848 2883.79905160486 149 149 147
88.9236409317977 570.043414553287 2881.51864898936 147 147 145
79.913082548468 569.079400173482 2879.92226099338 146 146 144
68.6104815345692 567.738274407557 2880.36811107801 146 148 147
59.6398456956813 566.777314967635 2878.80067926035 145 147 146
53.7461128705954 566.320737343432 2874.52587390128 149 151 150
44.0371910803252 565.23605190542 2873.6576527743 150 152 151
34.3491274087699 564.152947078387 2872.80485462583 163 165 164
23.1651340318315 562.820881801092 2873.33643733384 175 177 176
16.5489617356092 562.241742432794 2869.77233601433 173 175 174
9.93598145099606 561.662692779965 2866.21084358359 161 163 162
2.5747877812794 560.959192153547 2863.34106708579 163 165 164
-2.52949883407649 560.62994738458 2858.40415646859 171 173 172
-9.88153495065713 559.927009390648 2855.54102132634 173 175 174
-15.7352723279267 559.473044533701 2851.29522275511 169 167 168
-21.5899195186267 559.018916355997 2847.04876381347 166 164 165
-24.481932835712 559.060271382182 2840.01205011883 166 164 165
-27.3924788793767 559.100065307016 2832.9618937479 167 165 166
-31.0580622165291 559.014716444418 2826.59879748595 167 165 166
-35.4720885605899 558.80478887705 2820.92754452921 172 170 171
-36.9676292759657 559.086838115569 2812.434309531 170 168 169
-38.4904472852012 559.366637358796 2803.92099476665 189 187 188
-38.5850841493383 559.889958048786 2793.97386474199 172 170 171
-40.8926872330577 560.042185089033 2786.12632745686 144 142 143
-41.0531822256033 560.560080920428 2776.13142799146 150 148 149
-42.6923984095124 560.830221996513 2767.53397926273 162 160 161
-46.515553116544 560.731510657517 2761.05658846843 170 170 170
-47.4861270555515 561.119665712586 2751.70911943041 167 167 167
-47.7739745326913 561.626945853378 2741.62184566052 144 144 144
-46.6734817355816 562.374619860177 2730.07215376802 145 145 145
-48.4584656200593 562.632553433692 2721.36867861188 134 134 134
-48.8552022202935 563.130813596171 2711.2027175819 133 133 131
-53.5221606820393 562.899081342557 2705.34799829019 150 150 148
-70.8617297406018 560.488437549894 2712.52802270114 141 141 139
-95.1444761498337 556.874809902401 2727.01994604852 144 144 142
-113.021680007707 554.355739191648 2735.04471494525 145 145 143
-125.946935044591 552.685495908518 2738.01771134195 152 152 150
-136.050350231994 551.499628662218 2738.09833213289 171 171 171
-142.665803397612 550.916245996825 2734.53473063336 179 179 179
-149.27798573124 550.332839944601 2730.9737945883 170 170 170
-155.886452158892 549.749485588565 2727.41525806762 166 166 166
-164.548879771553 548.807310967331 2726.07134811946 185 185 185
-169.09291243989 548.582829088676 2720.30607156035 194 194 194
-170.239392369467 548.953706375706 2710.83070252342 175 175 175
-170.059466740646 549.559970484419 2699.84828668196 195 195 195
-167.212033634669 550.638485963063 2685.86126051356 198 198 198
343.30463151255 590.561816012597 2907.93261442772 199 203 204
342.075384585288 590.846160278969 2899.63213862725 206 207 209
335.872996832479 590.362726105133 2895.13344669033 217 218 220
328.025809970037 589.624524986115 2891.9114820677 136 137 139
316.086930898267 588.250692416844 2891.89562046591 153 154 156
308.26741285874 587.515001628223 2888.69372627881 132 132 132
302.903243823619 587.161088984144 2883.5682964017 126 126 124
299.161219092398 587.060585943849 2877.14970938294 120 120 118
295.405559274095 586.959157540883 2870.72123331143 115 115 113
291.636216223183 586.856799874921 2864.28283326568 114 114 112
290.273925611706 587.132427280751 2855.88586710661 119 119 117
288.884806388419 587.406090373176 2847.46944236465 118 117 115
286.666092931261 587.551777387005 2839.6863099403 111 110 108
271.619774001733 585.683515890658 2842.35573548339 112 111 109
232.676896327631 580.050860583521 2864.73671738711 131 130 128
197.892533552317 575.059309853529 2883.96006518612 137 136 134
181.521642681886 572.96114799527 2888.13848350625 133 133 131
169.956587213463 571.618077257391 2888.39377042705 130 130 128
154.474367990882 569.652717637395 2891.98204183022 138 138 136
141.405564669824 568.065709241049 2893.61636198417 137 137 135
129.160664507392 566.606395114182 2894.61326281119 136 136 134
117.732790498107 565.274168757216 2894.96805042825 159 159 157
107.895918441986 564.192779740876 2894.007386597 147 147 145
102.750664094258 563.857527657018 2889.04074716807 146 146 144
99.1526828054634 563.769709386835 2882.72664456563 148 148 146
92.4446414335058 563.185875814348 2879.09592161546 147 147 145
82.6526476099891 562.108002947716 2878.16780878276 146 146 144
71.3426470532714 560.785086679709 2878.60809253857 145 147 146
63.1321660105044 559.957272066534 2876.35735093072 146 148 147
55.6993153240199 559.253492725521 2873.43562732049 147 149 148
45.9850448851831 558.181617600768 2872.5638882078 150 152 151
35.5311268544156 556.988673898884 2872.39009168682 166 168 167
25.861113707911 555.920175005027 2871.5504527311 173 175 174
19.2381702387729 555.342787233093 2867.98145171602 170 172 171
11.8641826470092 554.643338738976 2865.10271563296 162 164 163
3.74607443310238 553.822469660773 2862.9189722406 164 166 165
-2.85995675211859 553.246212997187 2859.36223703034 171 173 172
-8.71492940784013 552.791849349833 2855.11554095945 173 175 174
-13.8254361701189 552.458784897853 2850.17410187755 166 164 165
-18.1979396453058 552.246605227311 2844.53293832726 165 163 164
-21.8391275578229 552.154778916325 2838.18749401969 167 165 166
-24.7557369803055 552.18270044306 2831.13288204002 166 164 165
-29.16414546445 551.967402963016 2825.46567439016 166 164 165
-33.5825122677582 551.751249362623 2819.79153788283 172 170 171
-33.6168208585808 552.257202744392 2809.88805314213 172 170 171
-35.1476842601779 552.519542695513 2801.36911214342 185 183 184
-34.5221991181721 553.140085242893 2790.70946974786 183 181 182
-37.5657277155126 553.157426181945 2783.56279775698 150 148 149
-38.4574737894683 553.53255043326 2774.27240671702 150 148 149
-40.1022424563626 553.785443325854 2765.6705510324 153 151 152
-43.9316156913923 553.677654979259 2759.18860631761 160 160 160
-44.9078472608653 554.045755731781 2749.83693436353 174 174 174
-45.2011316030936 554.5303109828 2739.74560418807 166 166 166
-43.3934564243519 555.368721905914 2727.4739868672 155 155 155
-43.0556401169033 555.965511990907 2716.6056868834 133 133 133
-41.3425642952483 556.796139823464 2704.26545304683 135 135 133
-42.5022586591717 557.149019580709 2694.78070790042 140 140 138
-57.7666155739496 555.13386774979 2699.76169676177 139 139 137
-87.0032615309817 550.761019726375 2719.30443236305 168 168 166
-109.102992573128 547.578531892714 2731.67564958142 147 147 145
-122.041010687705 545.934348478142 2734.6395257491 168 168 166
-132.156535065261 544.763631082497 2734.71144506666 173 173 173
-140.168483347609 543.946930741978 2732.6043859127 180 180 180
-147.477920058951 543.248141187205 2729.77244747811 176 176 176
-155.467589244473 542.432688494126 2727.6818397135 178 178 178
-163.444894247791 541.617968590526 2725.60019872017 206 206 206
-169.358488099512 541.154136211133 2721.31095893227 197 197 197
-171.183502219187 541.389171173969 2712.57834901837 178 178 178
-170.997794290528 541.97089056842 2701.59970608862 189 189 189
-167.467020929152 543.130116198301 2686.87342003819 195 195 195
333.799069039668 581.367078391435 2915.8168736321 196 200 201
339.211210990207 582.637582241898 2902.45499546848 198 199 201
337.140709622319 582.779134899387 2894.77898973229 234 235 237
331.758396854985 582.420137909835 2889.64038132328 136 137 139
318.169302584244 580.815056901637 2890.8974399229 151 152 154
307.891467004835 579.710898971666 2889.61670241693 130 130 130
301.714048624421 579.229816186443 2885.13612322118 129 129 127
300.417866116621 579.493294148078 2876.78701869795 127 127 125
299.095042627545 579.754912612196 2868.41859214013 117 117 115
297.74510945828 580.014494607799 2860.0307973585 113 113 111
295.561516460344 580.148588280753 2852.27277130496 110 110 108
293.355382655649 580.281105230616 2844.49869143017 113 112 110
291.126798628824 580.411972335182 2836.70803407643 109 108 106
276.8683798979 578.695413414156 2838.71435706236 107 106 104
240.300706986451 573.54150044857 2859.11449062465 132 131 129
200.71467027367 567.90974413049 2882.26427399829 140 139 137
182.747311492 565.600938280751 2887.75467944133 133 133 131
168.803754319585 563.909199603526 2889.98937800994 131 131 129
154.9032939953 562.220832763998 2892.25533548251 137 137 135
138.683916756618 560.169805715804 2896.54382801486 132 132 130
127.23165563851 558.854363289021 2896.8810219102 158 158 156
119.723991339488 558.149761153254 2893.90535462504 148 148 146
114.566726625331 557.810359315189 2888.92969312883 145 145 143
109.404072465438 557.4705611022 2883.95041717769 147 147 145
103.459967585827 557.009245597848 2879.639072043 147 147 145
95.1924250639142 556.184814039731 2877.34698248701 145 145 143
85.3931008204722 555.119640326213 2876.41362000019 146 146 144
74.0753764586013 553.814768286099 2876.84839600237 145 147 146
64.3228517650813 552.753256012041 2875.94868357693 146 148 147
55.3566404894377 551.813654962127 2874.38456740406 150 152 151
47.9333901527279 551.11562245155 2871.47012687811 154 156 155
38.9960262999534 550.178209005065 2869.92693389834 168 170 169
30.0753755468977 549.242030018417 2868.39586285403 172 174 173
22.6844922080476 548.546380620373 2865.50489792651 166 168 167
14.5470735591844 547.731863237096 2863.30718816032 165 167 166
6.42194027214371 546.918191745599 2861.11838859972 164 166 165
-1.69105539069991 546.105413921301 2858.93839238852 165 167 166
-6.05250551306846 545.88839428935 2853.30521713422 167 169 168
-9.67819832122263 545.789250017143 2846.97096849157 168 166 167
-13.3179977685827 545.688962949838 2840.62648785663 162 160 161
-18.4545655861899 545.350561095714 2835.66612952455 167 165 166
-22.8573578609412 545.129923441191 2830.00296613571 169 167 168
-27.2700586588068 544.908403828447 2824.33290985673 166 164 165
-33.1617633304027 544.450138449025 2820.05956620059 169 167 168
-35.3921603819947 544.58055995929 2812.26759228948 170 168 169
-35.4550784535155 545.061831953648 2802.34353738659 176 174 175
-34.0980651137175 545.774934340426 2790.97962759783 179 177 178
-34.9635565868176 546.132738895364 2781.70818135065 168 166 167
-36.5844803891569 546.370775475843 2773.12353606707 151 149 150
-36.0685311486921 546.957262375515 2762.3843162603 151 149 150
-39.189415095638 546.956746368411 2755.1814772767 141 141 141
-39.4609071546213 547.420822824625 2745.10613554032 136 136 136
-40.4831966053822 547.765615917259 2735.72066271025 127 127 127
-40.1124589865582 548.340080567341 2724.87640948194 126 126 126
-39.0718431908945 549.02728237731 2713.28300516965 120 120 120
-35.2433350522723 550.174323118474 2698.77219721734 127 127 125
-32.8897933758498 551.084816525536 2685.66161865279 140 140 138
-46.7773490774221 549.333578501936 2689.17164913602 125 125 123
-78.8587450131706 544.586338887762 2711.59070939437 215 215 213
-103.78412993186 541.003534663971 2726.8522576046 133 133 131
-118.133550211326 539.154996563798 2731.26201638376 145 145 143
-128.956146977766 537.884589590198 2732.05589551878 178 178 178
-138.363285363098 536.845661002063 2731.4069698669 167 167 167
-145.677489652633 536.151642701924 2728.57130500345 179 179 179
-154.360649872463 535.229336512047 2727.21276066043 194 194 194
-160.282397788799 534.764724074854 2722.91760586593 191 191 191
-167.572775274738 534.071859341932 2720.09921940394 205 205 205
-170.083273013931 534.176015302195 2712.10435596358 204 204 204
-171.937125993924 534.391716880303 2703.35074221698 191 191 191
-168.399928602645 535.512748936003 2688.62891962494 189 189 189
-160.87486637848 537.308268858071 2669.39059304029 199 199 199
337.999523794768 574.695047818863 2904.00646031753 194 195 197
334.284934475589 574.578605233093 2897.60768107752 237 238 240
328.911703586078 574.217177554724 2892.47564400365 157 158 160
318.611528938889 573.124363908849 2891.17906436877 126 127 129
309.151108850543 572.155091985468 2889.2565353918 135 135 135
302.155757836197 571.551926219582 2885.417437629 133 133 131
300.860695504539 571.798706915907 2877.06906057042 130 130 128
300.35040344233 572.16470484009 2868.05514745756 123 123 121
300.618280760899 572.649474862255 2858.37091091067 121 121 119
298.429109949916 572.769047001669 2850.60876782699 118 118 116
297.827348270184 573.128381664424 2841.52851268559 114 113 111
297.997070345167 573.60582732726 2831.77308420856 110 109 107
284.520348058284 572.03502136269 2833.11148279025 109 108 106
246.330169481216 566.742258156531 2854.80509180112 135 134 132
208.314732923727 561.463162693837 2876.62514978396 140 139 137
187.149391251748 558.714029077169 2884.73518535133 133 133 131
173.193231495615 557.048164525329 2886.96117357261 130 130 128
158.490663999189 555.266269795669 2889.88022933028 138 138 136
143.047913494401 553.368780261929 2893.49745622465 134 134 132
131.583734958782 552.071131949391 2893.8261010604 157 157 155
124.065000969192 551.37070091115 2890.84213577072 147 147 145
118.896792447129 551.027286310675 2885.85881502619 146 146 144
113.723430703228 550.683484113669 2880.87175663792 148 148 146
104.662256706639 549.747003654853 2879.23881576844 147 147 145
96.3921168494895 548.930158251498 2876.94488177408 146 146 144
85.8177337824588 547.759876916331 2876.68416684384 146 146 144
76.8087577889949 546.827475718359 2875.08908608304 146 148 147
67.0489043260734 545.77863285922 2874.18412504934 149 151 150
57.30976619581 544.731329171889 2873.2944832756 150 152 151
49.8820421056352 544.038002103304 2870.37652898726 154 156 155
40.9394333069017 543.110659155647 2868.82987932032 170 172 171
32.772736448615 542.301715838307 2866.61097338904 173 175 174
25.375116516563 541.610588566999 2863.71485338979 164 166 165
17.230626299563 540.803235131906 2861.51205357976 165 167 166
9.85073667753911 540.113405212284 2858.62908770899 166 168 167
0.228192324748022 539.074849508967 2857.82371708602 165 167 166
-4.137594955822 538.851544367598 2852.18766037285 165 167 166
-7.76728829671836 538.743443026328 2845.85046628932 168 166 167
-9.18027854821024 538.981894994189 2837.4165585783 167 165 166
-14.3276983864045 538.639477455075 2832.44831304467 164 162 163
-20.2196322319692 538.180984406652 2828.17480210224 165 163 164
-24.638561822599 537.953094939963 2822.49990369687 165 163 164
-30.5369356150256 537.49387108067 2818.22172059783 159 157 158
-32.0407151249336 537.724729130828 2809.72195935115 165 163 164
-32.8415493378613 538.068205545443 2800.49731195687 179 177 178
-32.2177705013553 538.638454930193 2789.83617787925 173 171 172
-32.3606979066333 539.090871217438 2779.85397634299 174 172 173
-33.2636662515138 539.425954140701 2770.55524722211 156 154 155
-33.476718818535 539.872619405594 2760.52188685248 143 141 142
-38.0425236674249 539.632184581396 2754.74074637023 149 149 149
-39.7493578999408 539.846174727785 2746.09370098248 149 149 149
-40.7686550544162 540.171564872967 2736.71059352911 151 151 151
-41.106965775638 540.607784111375 2726.58637793917 144 144 144
-39.3499312564225 541.380944781457 2714.27771961809 131 131 131
-34.8088778367048 542.602697472515 2699.04879274807 141 141 139
-31.0412420081203 543.7059837562 2684.4939300112 147 147 145
-44.2311379231437 542.096807819363 2687.27539190577 125 125 123
-75.6233876962118 537.562244836904 2708.96006954442 219 219 217
-99.1628579427408 534.276951810601 2722.75743609483 124 124 122
-112.132972426521 532.684326000647 2725.69830606894 132 132 130
-124.364768821114 531.207004914362 2727.93994599434 147 147 147
-135.171830151934 529.956436810828 2728.74518758597 155 155 155
-143.186143835119 529.154998981067 2726.63678548712 151 151 151
-150.499513113875 528.465977190866 2723.80175124911 159 159 159
-155.059949892559 528.222930305646 2718.02448896491 211 211 211
-161.682225241336 527.645268067929 2714.45597089431 217 217 217
-167.619118507094 527.178622147022 2710.1498266128 216 216 216
-172.877280374554 526.822573250922 2705.10123277329 181 181 181
-173.398330897869 527.241001336628 2694.84445508526 183 183 183
-167.203214886208 528.761855609976 2677.11099860846 200 200 200
335.959862093455 566.643278731696 2906.19248658854 200 201 203
332.252442003635 566.518783952163 2899.79886368994 193 194 196
326.063445028876 566.035448807735 2895.30987951541 222 223 225
319.874097831248 565.552324266611 2890.82064252359 228 229 231
312.047480756995 564.831263177972 2887.61367619704 160 160 160
305.861583532029 564.348716842184 2883.12694309275 153 153 151
302.930907702768 564.34078767647 2876.06195248379 143 143 141
301.605803838073 564.568555764871 2867.69170137419 127 127 125
299.444431617433 564.67610112829 2859.94964916391 120 120 118
296.453009618521 564.663878155433 2852.8406006112 107 107 105
297.469422631542 565.240096087192 2842.46412565924 109 108 106
298.44562542965 565.813305876743 2832.05878070454 108 107 105
290.57328926971 565.089845037848 2828.81836500484 111 110 108
256.354690855961 560.491528536245 2847.21880264325 142 141 139
214.324578053451 554.73244054358 2872.30187698189 141 140 138
191.552494105199 551.799193264639 2881.71658594703 134 134 132
178.376012791511 550.276229716936 2883.27317242594 131 131 129
162.868869528515 548.406073672555 2886.84356360817 136 136 134
146.625820797443 546.42341756806 2891.11524248282 138 138 136
134.366200149679 545.027265365053 2892.1020865205 154 154 152
127.623884706871 544.447525749339 2888.44653830162 146 146 144
122.447135149484 544.100282679453 2883.45700658636 143 143 141
116.486325142416 543.636717716249 2879.13354015432 145 145 143
106.641328185929 542.59444951491 2878.16689008702 145 145 143
96.0428509937423 541.438287373187 2877.88878032776 144 144 142
86.2420162412221 540.399457801719 2876.95445627894 146 146 144
78.7727940400216 539.707936763354 2874.0064282722 148 150 149
69.7755174726455 538.78693851703 2872.41988643325 151 153 152
61.5606179120527 537.982095914467 2870.1660581053 149 151 150
52.5942651794344 537.063433970562 2868.60223992497 157 159 158
43.6447123822838 536.146092778504 2867.05031258923 174 176 175
34.7118245393263 535.229982145957 2865.51047226746 168 170 169
27.3092617070603 534.543483283461 2862.61108697517 156 158 157
19.9147861205251 533.857569475868 2859.71727278631 160 162 161
13.2805854431548 533.286080539456 2856.1401410595 163 165 164
3.64826140285412 532.260006057735 2855.32803862921 163 165 164
-1.4741469904036 531.916567790021 2850.3779192556 161 163 162
-5.85578886795091 531.6860532534 2844.7300382127 163 161 162
-8.01622008270253 531.794163157689 2836.9889654942 168 166 167
-11.6826014676521 531.674396950584 2830.62511637973 168 166 167
-18.3204347966501 531.102135778355 2827.0453473547 166 164 165
-22.7434669721069 530.867999318837 2821.36744325578 166 164 165
-27.9114460714456 530.520451109006 2816.38426788714 157 155 156
-30.1537579717244 530.62165891744 2808.5838031518 152 150 151
-33.1495525130776 530.608832386243 2801.4712873156 174 172 173
-33.2506827210972 531.042290525719 2791.51928943288 190 188 189
-32.6617950991737 531.58462093059 2780.83272055406 184 182 183
-33.5615125016306 531.900341373154 2771.53625003594 189 187 188
-35.2147528859081 532.1019748226 2762.92799338342 187 185 186
-39.054129679823 531.967477132286 2756.43866158721 196 196 196
-39.321083948997 532.387262698225 2746.36638504941 189 189 189
-39.62421913335 532.804017232434 2736.26757036427 194 194 194
-40.6765894944721 533.107072363836 2726.86037430634 176 176 176
-41.7608480141518 533.407394839231 2717.43004800031 152 152 152
-36.5002998839177 534.698896158564 2701.48801486208 159 159 157
-34.1366725352472 535.543562391709 2688.38441418897 150 150 148
-43.7966308503461 534.512520523575 2687.55195944532 119 119 117
-76.5985151109829 529.855993777082 2710.68451292575 227 227 225
-97.3386683511637 527.077826407708 2721.57299733504 136 136 134
-108.920057364885 525.730853252747 2723.05175505999 143 143 141
-120.466796971981 524.386437752505 2724.55534935726 139 139 139
-131.286212331096 523.153688136689 2725.35172550428 137 137 137
-139.312181310555 522.359222153459 2723.2349095462 155 155 155
-145.948431225084 521.783265651289 2719.65626965454 147 147 147
-151.894769266613 521.316003957751 2715.3432755345 132 132 132
-159.210556421415 520.63142679668 2712.50680551649 155 155 155
-164.472270345219 520.272282185089 2707.45562103513 182 182 182
-169.059342332641 520.020644732406 2701.65871232975 197 197 197
-170.268089519161 520.307984662413 2692.13807577326 201 201 201
-165.429941087972 521.562996630411 2675.88965125297 191 191 191
339.709512766902 559.425965368847 2903.93369027437 189 190 192
333.518767418135 558.941891148474 2899.44343492264 181 182 184
326.504938176074 558.341410507131 2895.59095549891 130 131 133
322.77779735409 558.207133225679 2889.1829870704 114 115 117
318.218382997547 557.955685546297 2883.40642341016 118 118 118
312.833667200289 557.587611569589 2878.26573253972 115 115 113
308.258057791154 557.335180501319 2872.47742375917 112 112 110
304.485139106629 557.197911628253 2866.03625482816 117 117 115
302.318044636364 557.290923757159 2858.28998082331 120 120 118
299.320751840739 557.266843987501 2851.17661634777 118 118 116
300.332192782726 557.81762646749 2840.79640819982 111 110 108
301.303423509801 558.365400805272 2830.38733004914 112 111 109
296.627992647604 558.105948116359 2824.52632852406 116 115 113
265.583783377879 554.060148353753 2840.29030621018 118 117 115
225.115748579281 548.650331997109 2864.03716562452 141 140 138
198.339963133583 545.199685479605 2876.72265730184 135 135 133
186.729168767739 543.9278579971 2876.94514798092 133 133 131
169.618253862303 541.860147611237 2881.82229795709 134 134 132
153.355641202803 539.911065845597 2886.07996458315 137 137 135
138.72057959411 538.193786222732 2889.04828408774 151 151 149
131.183670968787 537.501989899451 2886.05148183031 146 146 144
125.217158052461 537.037484986475 2881.72387647661 143 143 141
119.249871506667 536.572977144699 2877.39571028757 145 145 143
107.06701713921 535.204332178258 2878.43804869267 145 145 143
96.4676104221107 534.064046333307 2878.15934551753 145 145 143
88.2109662618289 533.263708136226 2875.8752784541 147 147 145
82.2774828270671 532.801849107705 2871.5716302784 149 151 150
73.2708627897396 531.890608847587 2869.9783645848 148 150 149
63.5148042809361 530.868460674839 2869.0765842852 149 151 150
53.0162374032335 529.735925774771 2868.87102132174 162 164 163
43.3046209640868 528.717218187382 2868.00118097709 173 175 174
34.3732256956413 527.811683637675 2866.46247622438 162 164 163
27.7296535390996 527.241835617921 2862.87885370091 152 154 153
21.0896894438202 526.672239661082 2859.29755353778 155 157 156
14.4530531666858 526.10280874295 2855.71866661699 158 160 159
7.06929105386189 525.422627389569 2852.83294236688 162 164 163
1.19000352139009 524.964576331344 2848.56860124547 161 163 162
-3.1980029554588 524.727616617542 2842.91607372262 160 158 159
-6.85192075367946 524.600256990571 2836.56122126599 162 160 161
-10.5200863266388 524.471683391136 2830.19603414437 172 170 171
-15.6815451641863 524.121676204466 2825.21757299744 170 168 169
-19.3736324616234 523.991045190935 2818.83503408603 163 161 162
-21.6099207536335 524.078701182246 2811.03886735025 161 159 160
-25.3348831929177 523.945257556053 2804.63248230049 154 152 153
-29.0740950574635 523.810629695593 2798.21576153987 160 158 159
-32.8274791774117 523.674734236761 2791.78876058822 179 177 178
-31.5109923572334 524.301121285568 2780.39503303023 184 182 183
-33.8600030480998 524.37936629991 2772.51680927643 189 187 188
-36.9540867876956 524.346907690011 2765.3332365395 180 178 179
-41.5062611595387 524.095717939149 2759.56192260513 179 179 179
-41.7631489864969 524.493934582005 2749.49653971826 171 171 171
-40.6257743927316 525.105572567696 2737.97289517798 150 150 150
-40.9597321014692 525.497436561366 2727.85190498865 139 139 139
-42.0406736146934 525.778421421515 2718.42359082553 137 137 137
-38.9017416408721 526.702853939428 2704.64739242377 157 157 155
-37.9402372552753 527.300054887075 2692.99588821287 148 148 146
-45.4752393367155 526.605276464814 2690.00045294486 121 121 119
-75.4681686704044 522.481330349979 2710.23123995296 226 226 224
-96.9139485709831 519.652889528692 2721.84327699858 138 138 136
-105.008355263065 518.861572052611 2719.67686502989 139 139 137
-115.872159581218 517.644374328842 2720.4411414466 142 142 142
-126.012893118911 516.535749695695 2720.49510061806 141 141 141
-135.437034750478 515.535233035908 2719.83404351411 140 140 140
-141.395863255035 515.066899731752 2715.51198936294 141 141 141
-149.415290689954 514.280391433198 2713.39966134032 153 153 153
-157.422586865519 513.494547669336 2711.29642536952 156 156 156
-164.053171315221 512.920733318202 2707.72219782165 175 175 175
-166.600115988214 512.979597818918 2699.70038933397 145 145 145
-167.136876013888 513.352224603887 2689.43228597682 148 148 148
-160.954040565015 514.772719691649 2671.6891242419 183 183 183
345.114882206389 552.414805814238 2900.40583630275 197 198 200
338.086102003511 551.815324499493 2896.54252367024 199 200 202
333.530211861575 551.557889220202 2890.76848446 119 120 122
329.786067913702 551.413661258449 2884.34813970051 141 142 144
326.028433315325 551.268519634998 2877.9180106527 134 134 134
318.174858110587 550.555670060988 2874.69154339498 133 133 131
312.772493520918 550.18317914451 2869.53803616561 131 131 129
308.177026386194 549.923433844656 2863.73529504798 125 125 123
305.192070055414 549.888822909899 2856.63082019664 122 122 120
301.381427512935 549.740253337134 2850.16224719567 116 116 114
299.973464447179 549.92821083256 2841.73172803441 115 114 112
300.145388329595 550.338881563053 2831.97726298936 122 121 119
295.474577027611 550.073839086894 2826.11987644571 122 121 119
271.620415849694 547.120301916139 2835.98509839129 133 132 130
234.31735217127 542.273232195522 2857.08872234331 139 138 136
205.924401537177 538.667678782666 2871.071479565 130 130 128
188.746389055208 536.63255968318 2875.9001541573 134 134 132
168.468203537409 534.156902191766 2883.41995121199 136 136 134
152.996146924052 532.354276173204 2887.01611950822 139 139 137
142.290313105515 531.221514312184 2886.66030316645 142 142 140
136.311596808618 530.755557774718 2882.32384396898 142 142 140
130.332008940678 530.289620246 2877.98675304734 143 143 141
122.013927009927 529.49222095985 2875.65816331911 144 144 142
110.600287859613 528.254676727897 2876.02374967285 144 144 142
99.9911883065527 527.129572189746 2875.73809685038 146 146 144
90.9527848577096 526.22634671008 2874.12183127993 149 149 147
84.2423797469443 525.65373271709 2870.48945163444 150 152 151
72.9258254624021 524.423720273425 2870.92574950628 146 148 147
63.1713895736161 523.414941383637 2870.02491871959 161 163 162
53.4378607743324 522.407732136053 2869.13954635583 172 174 173
45.2488282829178 521.620343792653 2866.90426355061 162 164 163
35.5528645478103 520.615968630852 2866.04613725875 154 156 155
28.9070423940916 520.048228114741 2862.46059986221 151 153 152
23.0197269376515 519.589302665838 2858.19043469843 152 154 153
15.6255720248377 518.913387475953 2855.29719809478 156 158 157
8.23940889196395 518.238034671225 2852.40946327453 162 164 163
1.60935215957281 517.67126803341 2848.83565397826 161 163 162
-1.28601855094868 517.644153508241 2841.7961596257 157 155 156
-4.94393440612662 517.507792204913 2835.43836329699 155 153 154
-7.87402006905924 517.477810215208 2828.37339433327 158 156 157
-13.7815285876508 517.016741080642 2824.08857992961 175 173 174
-17.4778493406818 516.877084743262 2817.70322085786 172 170 171
-20.4527975562483 516.843304090981 2810.60571083135 152 150 151
-23.4465138970301 516.807938689858 2803.4948818403 153 151 152
-25.7281623764336 516.877671100194 2795.66574175018 150 148 149
-30.2185781408979 516.625947824 2789.93890076886 150 148 149
-30.360206572654 517.011391974078 2779.95730165915 179 177 178
-33.4349414832236 516.969183959711 2772.78741144163 193 191 192
-37.2504727274987 516.819381934168 2766.31528827378 173 171 172
-41.0804116258126 516.668288662762 2759.83300862664 157 157 157
-41.336136254448 517.044240414819 2749.76835619099 154 154 154
-39.4819114654921 517.73362756814 2737.52972884121 153 153 153
-36.9638941605774 518.524280948906 2724.53748067946 151 151 151
-38.7659924649484 518.679726592284 2715.82107979353 143 143 143
-37.7603140749836 519.252705739332 2704.20177004994 144 144 142
-42.4528082100952 518.983606574991 2698.32864460989 139 139 137
-51.3815654705123 518.085873197884 2696.79189171998 125 125 123
-77.8490808991648 514.578090441656 2713.40596986976 226 226 224
-98.5895109038513 511.914265249503 2724.29483281222 146 146 144
-103.886717049838 511.547615226417 2719.21788124517 134 134 132
-113.362762877879 510.556803698427 2718.51895236288 141 141 141
-122.817797898011 509.567435791406 2717.83555645289 141 141 141
-132.251543895066 508.579543199037 2717.16730640579 146 146 146
-138.908465442201 508.006672055774 2713.57399131147 146 146 146
-148.308723064845 507.020999508731 2712.93002894663 140 140 140
-157.688014724059 506.036707205938 2712.30156672434 168 168 168
-163.63426432242 505.568287672887 2707.98863085396 157 157 157
-166.180600933591 505.613146700868 2699.96719222279 163 163 163
-165.360364131847 506.168653514743 2688.21336341356 172 172 172
-159.179515091413 507.539201569682 2670.46880317423 187 187 187
348.039207335022 545.036081634296 2898.78296293941 200 201 203
344.305238270678 544.883671571441 2892.36995272619 192 193 195
338.08823599923 544.396917617216 2887.86064959747 129 130 132
333.512678238025 544.132228314935 2882.07231616724 122 123 125
326.471849290447 543.53460874872 2878.20027857269 135 135 133
321.8845686816 543.269302933604 2872.40314940024 135 135 133
315.659250718642 542.782502625686 2867.8878178145 134 134 132
311.057705381989 542.516380157894 2862.08063817695 125 125 123
307.256986267007 542.359802280685 2855.6192183167 119 119 117
304.250263688481 542.312181263906 2848.49889874923 114 114 112
302.836874657813 542.482881311685 2840.06435877784 110 109 107
303.806874380395 542.98042050505 2829.65383931781 120 119 117
298.326597486614 542.599328044529 2824.44410270496 121 120 118
276.859522824787 540.032444777698 2832.33662319966 138 137 135
237.943662416946 535.0719154421 2854.74059494682 139 138 136
210.332457979579 531.650429737714 2868.05565790281 126 126 124
191.556271490294 529.43453476512 2874.19523412047 134 134 132
171.268744934963 527.006931242504 2881.70850306053 138 138 136
154.21200823424 525.019155949747 2886.62533286052 141 141 139
145.075088373384 524.118598877079 2884.93766415657 139 139 137
137.522268399901 523.435520646195 2881.92937158214 139 139 137
130.759058390985 522.861048492073 2878.25870312711 141 141 139
120.881830409755 521.855864405898 2877.26917041751 142 142 140
111.802930034397 520.959932878838 2875.62358470609 142 142 140
102.740736981928 520.065339895305 2873.99011726957 144 144 142
95.2406413113134 519.386443305227 2871.02006684832 147 147 145
85.4367925115693 518.387014161278 2870.08346294626 150 152 151
73.3486545090973 517.068575295548 2871.1950120465 147 149 148
60.5288207290378 515.646126651555 2873.01035458456 167 169 168
52.3312759821692 514.86581083893 2870.76923136448 174 176 175
44.9077482036029 514.192818382942 2867.85471654782 157 159 158
37.4922113797149 513.520403181209 2864.94570299163 153 155 154
29.3269348638683 512.742507287763 2862.72798395822 151 153 152
24.194692621478 512.388907525568 2857.77068434753 153 155 154
16.7980449012961 511.717823806916 2854.87566512698 158 160 159
10.1601491643688 511.152786580587 2851.29588745182 163 165 164
3.52557959506417 510.587944131162 2847.71852197314 161 163 162
0.626506287036754 510.549118585601 2840.67628421 155 155 155
-3.77952292052264 510.298794874438 2835.01062393375 155 153 154
-6.71147467144317 510.25721619261 2827.94453794052 156 154 155
-11.1416618273785 510.004826288958 2822.26164906329 177 175 176
-14.1062574478181 509.960532987451 2815.17159060528 183 181 182
-17.0896211934728 509.914654937102 2808.06821318274 148 146 147
-20.0916147820205 509.867222853851 2800.95132271801 147 145 146
-21.6501849967228 510.026131734709 2792.41147808341 150 148 149
-26.1513715014061 509.767621270733 2786.6767947842 148 146 147
-27.7561494902681 509.922662741353 2778.10372803581 153 151 152
-30.8369486049171 509.868597197986 2770.92938168662 172 170 171
-33.2143324871104 509.91616077761 2763.03072867042 197 195 196
-36.3348356035604 509.858680022329 2755.82787722129 187 187 187
-38.7559816708012 509.902568530907 2747.89718697124 197 197 197
-38.3379239122452 510.355424141662 2737.08632667131 184 184 184
-37.2471564505992 510.907560386252 2725.52859423826 193 193 193
-36.9128159574983 511.353584579426 2714.65730538052 192 192 192
-38.7459694669201 511.489547161343 2705.91829322815 148 148 146
-42.7269890468556 511.316973892001 2699.32608869324 141 141 139
-50.2452639359328 510.633632327682 2696.34283725389 128 128 126
-75.31483446283 507.407890866571 2711.50137635592 224 224 222
-95.3652063474049 504.901971362509 2721.65624035046 178 178 176
-103.462983131532 504.126063622876 2719.48746338348 147 147 145
-114.331464491548 502.946080802267 2720.24853781355 148 148 148
-123.089376883962 502.071328568509 2718.83575041848 136 136 136
-131.830571225087 501.197721579997 2717.43508809647 145 145 145
-139.865944260129 500.425868531082 2715.31156947677 147 147 147
-147.202095227237 499.755294553691 2712.46040822552 186 186 186
-154.530220438503 499.085106482438 2709.61477249363 161 161 163
-159.803000048669 498.715775263581 2704.5555146629 156 156 156
-164.400826237202 498.445816829061 2698.75101168527 179 179 179
-164.261674703039 498.87344919732 2687.73783855042 164 164 164
-158.756200315236 500.094704257828 2670.73796524293 187 187 187
349.700535639028 537.804868031873 2888.83474914215 201 205 206
339.354137458192 536.774510489085 2887.50468295672 133 137 138
332.313720924256 536.179045238413 2883.63295524166 133 137 136
325.276914031696 535.583987319003 2879.76414077289 130 132 129
322.328192606846 535.529031241334 2872.68553584897 128 130 127
317.731942140873 535.257258783921 2866.88216595787 128 130 127
313.126628384866 534.984876164146 2861.07192832679 125 125 123
308.511823735512 534.71192920194 2855.25510216309 120 120 118
306.311819754534 534.760051352073 2847.48474397501 120 120 118
305.70074091036 535.020621491776 2838.39723436049 108 108 106
307.469313576742 535.599558052001 2827.33099313432 111 111 109
301.980449152633 535.214603483547 2822.11501167513 132 132 130
278.903539376509 532.485256685915 2831.30977868848 150 149 147
241.570874361596 527.848252869699 2852.39300802517 134 133 131
215.536546365489 524.711564250946 2864.38225718361 132 132 130
195.159411927668 522.325661547064 2871.8307786802 130 132 129
174.069982276799 519.840064364929 2879.99747383273 137 139 136
156.216233174391 517.78372862331 2885.57122169066 158 160 157
150.218693346881 517.31535101271 2881.22110465092 148 150 147
140.300770921261 516.320148285629 2880.20212222767 139 141 138
131.967340565555 515.53700912593 2877.86247832899 138 140 137
120.528331700209 514.334824228392 2878.20985273689 140 142 139
115.337507064914 513.973670679729 2873.21004723795 142 144 141
106.265926523275 513.088757436585 2871.56982363999 146 148 145
96.4381844172966 512.100700603199 2870.61595657332 146 148 145
84.319006986556 510.801269907041 2871.70510080973 144 144 144
76.0768264326357 510.025269087719 2869.43164199683 151 151 151
64.7815077503551 508.834291554829 2869.88323725245 169 169 169
56.5725566874589 508.060818399374 2867.63388000986 171 171 171
46.8520088050877 507.081042222812 2866.75776226669 157 157 157
39.4315805275585 506.41319985382 2863.84552043068 151 151 151
31.2614936327869 505.64268096201 2861.6243516169 147 147 147
24.6143646990102 505.07931536828 2858.03788906745 156 156 156
17.9706590491704 504.516137483004 2854.45390908036 161 161 161
10.5792765534467 503.850394235053 2851.56273378392 157 157 157
3.19588501240187 503.185228241355 2848.67705974794 156 156 156
0.299562257915831 503.135184580696 2841.6367590978 160 160 162
-4.10420652021859 502.879079966384 2835.97300265069 155 155 157
-6.29102605434584 502.928404627333 2828.21220824045 149 149 151
-9.98095686423151 502.771989625643 2821.8311020119 164 164 166
-12.9472741360799 502.716111332985 2814.74003128881 177 177 179
-16.6678205491226 502.557126510281 2808.33671813951 167 167 169
-17.4690401061017 502.802547042952 2799.11129472873 148 148 150
-18.3022490642606 503.045316333556 2789.86266808928 151 151 153
-21.3541351059678 502.982326784804 2782.70953071887 151 151 153
-25.8781246061375 502.715979706415 2776.9582773476 144 144 146
