ply
format ascii 1.0
comment KinectMotionCapture
element vertex 758
property float x
property float y
property float z
property uchar red
property uchar green
property uchar blue
end_header
161.038398742676 793.813824653625 2736.99998855591 184 186 185
168.586894869804 794.381618499756 2739.00008201599 178 180 179
176.274418830872 795.528829097748 2743.00003051758 185 187 186
183.983281254768 796.675503253937 2746.99997901917 207 209 208
191.155970096588 795.501470565796 2743.00003051758 195 195 193
198.30659031868 794.327139854431 2739.00008201599 211 210 206
205.73553442955 794.312298297882 2739.00008201599 201 202 197
213.397592306137 795.167028903961 2742.00010299683 170 172 169
220.914393663406 795.441210269928 2743.00003051758 177 179 176
228.436186909676 795.714795589447 2743.99995803833 175 177 174
235.791057348251 795.408129692078 2743.00003051758 148 150 147
243.406072258949 795.970857143402 2744.99988555908 147 149 146
250.757336616516 795.663297176361 2743.99995803833 197 199 196
258.573144674301 796.805024147034 2747.99990653992 198 200 197
266.119778156281 797.076523303986 2749.00007247925 202 204 201
274.168908596039 798.797190189362 2755.00011444092 193 195 192
282.863438129425 802.257061004639 2766.99995994568 194 196 193
-147.77310192585 809.747338294983 2818.00007820129 212 214 211
-137.73949444294 795.965433120728 2769.99998092651 222 224 221
-129.705563187599 792.814791202545 2759.0000629425 207 209 206
-121.863916516304 790.525496006012 2750.99992752075 195 197 194
-114.31497335434 789.959847927094 2749.00007247925 186 188 185
-106.776602566242 789.393603801727 2746.99997901917 175 177 174
-99.3211939930916 789.401590824127 2746.99997901917 149 149 147
-91.7986705899239 788.83421421051 2744.99988555908 167 167 165
-84.2560827732086 787.978827953339 2742.00010299683 165 165 163
-76.7856240272522 787.697732448578 2740.9999370575 151 151 149
-69.3204328417778 787.415981292725 2740.00000953674 203 203 201
-61.9056858122349 787.708520889282 2740.9999370575 169 169 167
-54.4058792293072 786.850869655609 2737.99991607666 192 191 189
-46.9222478568554 785.992622375488 2734.99989509583 197 196 194
-39.4981354475021 785.99601984024 2734.99989509583 202 201 199
-32.0973806083202 786.573708057404 2736.99998855591 203 202 200
-24.6676653623581 786.575794219971 2736.99998855591 196 194 195
-17.2001160681248 784.853100776672 2730.99994659424 192 192 192
-9.78660210967064 784.854173660278 2730.99994659424 192 192 192
-2.36959056928754 783.705115318298 2726.99999809265 181 183 182
5.02940081059933 783.13022851944 2724.99990463257 173 175 172
12.4312033876777 783.417046070099 2726.0000705719 169 171 166
19.8602322489023 784.565269947052 2730.00001907349 165 167 162
27.2709745913744 784.563362598419 2730.00001907349 157 158 152
34.6308425068855 783.411383628845 2726.0000705719 163 164 158
42.0460104942322 783.695757389069 2726.99999809265 187 174 165
49.5209097862244 784.841775894165 2730.99994659424 150 134 121
56.9965727627277 785.699784755707 2733.99996757507 123 105 91
64.4177123904228 785.69507598877 2733.99996757507 132 113 96
71.8387067317963 785.689771175385 2733.99996757507 129 108 89
79.3755054473877 786.83340549469 2737.99991607666 138 116 95
86.8704468011856 787.401795387268 2740.00000953674 145 119 102
94.2727848887444 787.107408046722 2739.00008201599 137 116 97
101.669490337372 786.812424659729 2737.99991607666 144 125 108
109.020717442036 786.22967004776 2736.00006103516 136 119 103
116.403385996819 785.933613777161 2734.99989509583 144 128 115
123.644582927227 784.774899482727 2730.99994659424 171 158 149
130.959764122963 784.190535545349 2729.00009155273 174 173 169
138.31453025341 783.892869949341 2727.9999256134 171 170 166
145.770400762558 784.169495105743 2729.00009155273 171 171 169
153.287500143051 784.732818603516 2730.99994659424 178 178 176
160.697460174561 784.720897674561 2730.99994659424 181 183 182
168.35330426693 785.857856273651 2734.99989509583 181 183 182
175.96623301506 786.706924438477 2737.99991607666 178 180 179
183.595091104507 787.555515766144 2740.9999370575 207 209 206
190.961062908173 787.254154682159 2740.00000953674 190 190 188
198.24880361557 786.665022373199 2737.99991607666 208 209 204
205.450177192688 785.788178443909 2734.99989509583 201 202 197
213.024064898491 786.347508430481 2736.99998855591 175 177 174
220.447242259979 786.331593990326 2736.99998855591 176 178 175
227.953210473061 786.602437496185 2737.99991607666 170 172 169
235.550180077553 787.160277366638 2740.00000953674 154 156 153
243.157520890236 787.717521190643 2742.00010299683 151 153 150
250.683844089508 787.987053394318 2743.00003051758 196 198 195
258.309215307236 788.543283939362 2744.99988555908 195 197 194
265.751332044601 788.524746894836 2744.99988555908 183 185 182
273.591041564941 789.654731750488 2749.00007247925 184 186 183
281.860858201981 791.933059692383 2756.99996948242 189 191 188
-146.211087703705 793.62028837204 2788.00010681152 211 213 210
-137.799769639969 788.79189491272 2770.99990844727 206 208 205
-129.668489098549 785.101592540741 2757.99989700317 200 202 199
-121.917597949505 783.403217792511 2752.00009346008 185 187 182
-114.24058675766 781.988978385925 2746.99997901917 174 176 171
-106.745973229408 781.712889671326 2746.00005149841 178 180 175
-99.2565453052521 781.436145305634 2744.99988555908 143 144 139
-91.7054563760757 780.589699745178 2742.00010299683 173 174 169
-84.2011719942093 780.027091503143 2740.00000953674 165 166 161
-76.707549393177 779.463887214661 2737.99991607666 152 153 148
-69.224625825882 778.900265693665 2736.00006103516 179 180 175
-61.7749877274036 778.620719909668 2734.99989509583 159 160 155
-54.3505139648914 778.625249862671 2734.99989509583 195 194 190
-46.8744523823261 777.775228023529 2732.00011253357 203 202 198
-39.4001193344593 776.639699935913 2727.9999256134 199 199 197
-31.9591499865055 775.788486003876 2724.99990463257 198 198 196
-24.5884787291288 776.644766330719 2727.9999256134 191 191 189
-17.1762704849243 776.361703872681 2726.99999809265 188 188 186
-9.78736858814955 777.50152349472 2730.99994659424 187 187 185
-2.3680382873863 775.793790817261 2724.99990463257 179 179 177
5.02979476004839 775.793671607971 2724.99990463257 173 173 171
12.4276159331203 775.793015956879 2724.99990463257 167 168 163
19.8472365736961 776.64589881897 2727.9999256134 164 165 160
27.2531285881996 776.644051074982 2727.9999256134 154 155 150
34.5827341079712 774.933457374573 2721.99988365173 154 153 148
41.9721975922585 774.930417537689 2721.99988365173 164 157 149
49.3615716695786 774.926841259003 2721.99988365173 174 165 156
56.8550825119019 776.346206665039 2726.99999809265 173 163 153
64.2577856779099 776.341378688812 2726.99999809265 121 105 92
71.7391893267632 777.190268039703 2730.00001907349 120 102 88
79.2077258229256 777.753710746765 2732.00011253357 126 107 92
86.7186412215233 778.601288795471 2734.99989509583 135 116 101
94.1079705953598 778.309524059296 2733.99996757507 132 114 100
101.454541087151 777.732610702515 2732.00011253357 127 111 98
108.710333704948 776.585757732391 2727.9999256134 135 123 111
116.029277443886 776.007771492004 2726.0000705719 161 149 137
123.337134718895 775.42918920517 2723.99997711182 176 167 158
130.729854106903 775.419473648071 2723.99997711182 169 168 164
138.274386525154 776.263058185577 2726.99999809265 166 167 162
145.674645900726 776.252150535584 2726.99999809265 169 169 167
153.130725026131 776.525437831879 2727.9999256134 176 176 174
160.591945052147 776.798248291016 2729.00009155273 178 180 179
168.242901563644 777.924358844757 2733.00004005432 179 181 180
175.658106803894 777.911305427551 2733.00004005432 178 180 179
183.206915855408 778.466999530792 2734.99989509583 207 209 206
190.417721867561 777.599155902863 2732.00011253357 191 191 189
197.901502251625 777.869284152985 2733.00004005432 209 210 205
205.164909362793 777.285039424896 2730.99994659424 204 205 200
212.572738528252 777.269601821899 2730.99994659424 181 183 180
220.060676336288 777.538180351257 2732.00011253357 174 176 173
227.720081806183 778.375566005707 2734.99989509583 171 173 170
235.39537191391 779.212474822998 2737.99991607666 157 159 156
242.909073829651 779.479622840881 2739.00008201599 150 152 149
250.336349010468 779.461860656738 2739.00008201599 188 190 187
257.857173681259 779.72811460495 2740.00000953674 183 185 182
265.38297533989 779.993891716003 2740.9999370575 173 175 172
273.311823606491 781.397521495819 2746.00005149841 180 182 179
281.471729278564 783.369719982147 2753.00002098084 189 191 188
291.453242301941 790.178716182709 2776.99995040894 212 214 211
-146.222308278084 786.112666130066 2788.00010681152 210 212 209
-137.810349464417 781.330049037933 2770.99990844727 195 197 194
-129.584446549416 777.110934257507 2756.00004196167 196 198 195
-121.705487370491 774.582922458649 2746.99997901917 182 184 179
-114.04150724411 773.182272911072 2742.00010299683 170 172 167
-106.637626886368 773.472726345062 2743.00003051758 181 183 178
-99.119633436203 772.916793823242 2740.9999370575 141 142 137
-91.6457027196884 772.642314434052 2740.00000953674 176 177 172
-84.1155424714088 771.803200244904 2736.99998855591 165 166 161
-76.6014754772186 770.963490009308 2733.99996757507 153 154 149
-69.1541433334351 770.687282085419 2733.00004005432 163 164 159
-61.6443008184433 769.56444978714 2729.00009155273 156 157 152
-54.2752854526043 770.132958889008 2730.99994659424 194 193 189
-46.7923358082771 769.008994102478 2726.99999809265 203 202 198
-39.3598861992359 768.448352813721 2724.99990463257 197 197 195
-31.9147519767284 767.323136329651 2720.99995613098 196 196 194
-24.5453435927629 767.889380455017 2723.00004959106 189 189 187
-17.1461254358292 767.608940601349 2721.99988365173 186 186 184
-9.76663548499346 768.456101417542 2724.99990463257 184 184 182
-2.36387946642935 767.046570777893 2720.00002861023 178 179 174
5.02280751243234 767.328381538391 2720.99995613098 174 175 170
12.4057913199067 767.045855522156 2720.00002861023 170 169 165
19.8051445186138 767.608523368835 2721.99988365173 166 167 162
27.2053200751543 767.888605594635 2723.00004959106 158 157 153
34.5473363995552 766.75820350647 2719.00010108948 154 153 148
41.9292375445366 766.755223274231 2719.00010108948 154 149 143
49.2747724056244 766.187608242035 2717.00000762939 177 170 162
56.7135885357857 767.029464244843 2720.00002861023 174 165 156
64.07430768013 766.742706298828 2719.00010108948 133 119 108
71.6134011745453 768.429279327393 2724.99990463257 132 116 103
79.0689364075661 768.987357616425 2726.99999809265 134 118 105
86.6302847862244 770.390927791595 2732.00011253357 140 122 110
93.9432010054588 769.53786611557 2729.00009155273 120 103 93
101.276725530624 768.966197967529 2726.99999809265 138 126 114
108.519494533539 767.83013343811 2723.00004959106 163 153 143
115.867994725704 767.539501190186 2721.99988365173 173 166 158
123.256094753742 767.530143260956 2721.99988365173 165 162 155
130.595922470093 767.23837852478 2720.99995613098 158 159 154
138.18359375 768.355846405029 2724.99990463257 160 161 156
145.578965544701 768.34499835968 2724.99990463257 165 166 161
152.917891740799 768.051564693451 2723.99997711182 171 172 167
160.133361816406 767.193794250488 2720.99995613098 174 174 172
167.640015482903 767.745137214661 2723.00004959106 172 172 170
175.349995493889 769.141852855682 2727.9999256134 176 176 174
183.019772171974 770.256102085114 2732.00011253357 201 201 199
190.362319350243 769.959986209869 2730.99994659424 190 190 188
198.061138391495 771.073162555695 2734.99989509583 205 205 203
205.180197954178 769.930362701416 2730.99994659424 205 205 203
212.588503956795 769.914746284485 2730.99994659424 199 201 196
219.915822148323 769.616842269897 2730.00001907349 174 176 171
227.653577923775 770.727932453156 2733.99996757507 175 177 172
235.240623354912 771.274626255035 2736.00006103516 171 173 168
242.394611239433 770.411491394043 2733.00004005432 148 150 145
249.897435307503 770.675420761108 2733.99996757507 191 193 188
257.405191659927 770.938873291016 2734.99989509583 177 179 174
265.111535787582 771.765768527985 2737.99991607666 167 169 164
272.833615541458 772.592008113861 2740.9999370575 180 182 177
280.980408191681 774.545252323151 2747.99990653992 188 190 185
290.109276771545 779.034733772278 2763.99993896484 200 202 197
-145.604148507118 775.252997875214 2776.00002288818 206 208 205
-137.721553444862 773.309111595154 2769.00005340576 174 176 173
-129.735559225082 770.526707172394 2759.0000629425 188 190 187
-122.025109827518 769.140183925629 2753.99994850159 176 178 173
-114.258341491222 767.194390296936 2746.99997901917 172 174 169
-106.76259547472 766.923725605011 2746.00005149841 180 182 177
-99.1635546088219 765.814661979675 2742.00010299683 146 147 142
-91.7197838425636 765.822112560272 2742.00010299683 173 174 169
-84.1221511363983 764.432609081268 2736.99998855591 165 166 161
-76.5514597296715 763.042330741882 2732.00011253357 180 181 176
-69.1089704632759 762.768864631653 2730.99994659424 150 151 146
-61.6265647113323 761.936068534851 2727.9999256134 167 168 163
-54.2398206889629 762.220084667206 2729.00009155273 194 193 189
-46.727392822504 760.548114776611 2723.00004959106 193 192 188
-39.305217564106 759.992957115173 2720.99995613098 189 189 187
-31.8586267530918 758.59922170639 2716.00008010864 184 186 183
-24.4931988418102 758.880794048309 2717.00000762939 186 187 182
-17.1096865087748 758.603096008301 2716.00008010864 184 185 180
-9.74590331315994 759.442090988159 2719.00010108948 180 181 176
-2.35972111113369 758.325397968292 2714.99991416931 177 176 171
5.01212850213051 758.325219154358 2714.99991416931 173 172 167
12.3839667066932 758.324563503265 2714.99991416931 172 169 164
19.7557751089334 758.323192596436 2714.99991416931 168 167 162
27.1475240588188 758.880078792572 2717.00000762939 164 161 156
34.5246568322182 758.877635002136 2717.00000762939 159 155 152
41.9171266257763 759.153842926025 2717.99993515015 157 156 151
49.2605231702328 758.591711521149 2716.00008010864 154 151 144
56.6972084343433 759.425401687622 2719.00010108948 175 170 164
64.1029179096222 759.699881076813 2720.00002861023 173 163 154
71.6190338134766 761.090993881226 2724.99990463257 131 118 109
79.0171548724175 761.085093021393 2724.99990463257 118 104 93
86.415097117424 761.078596115112 2724.99990463257 124 107 97
93.6751291155815 759.954273700714 2720.99995613098 136 123 114
100.987523794174 759.388208389282 2719.00010108948 167 157 148
108.408398926258 759.659290313721 2720.00002861023 173 168 162
115.749299526215 759.371221065521 2719.00010108948 158 155 148
123.129822313786 759.361863136292 2719.00010108948 150 149 144
130.414038896561 758.793413639069 2717.00000762939 159 158 153
137.94070482254 759.62096452713 2720.00002861023 162 161 156
145.269632339478 759.330689907074 2719.00010108948 166 165 160
152.536630630493 758.760631084442 2717.00000762939 171 170 165
159.733638167381 757.910847663879 2713.99998664856 174 173 169
167.098686099052 757.898330688477 2713.99998664856 172 173 168
174.720495939255 759.002268314362 2717.99993515015 176 177 172
182.430684566498 760.384917259216 2723.00004959106 196 197 192
190.028145909309 761.208534240723 2726.0000705719 187 189 186
197.569072246552 761.752367019653 2727.9999256134 199 201 198
204.819887876511 761.178731918335 2726.0000705719 200 202 199
212.292969226837 761.442303657532 2726.99999809265 203 205 200
219.851598143578 761.984705924988 2729.00009155273 177 179 174
227.587148547173 763.084828853607 2733.00004005432 175 177 172
235.085994005203 763.346910476685 2733.99996757507 175 177 172
242.412373423576 763.050138950348 2733.00004005432 148 150 145
250.007063150406 763.590514659882 2734.99989509583 187 189 184
257.612109184265 764.130413532257 2736.99998855591 175 177 172
265.517979860306 765.507400035858 2742.00010299683 166 168 163
273.052245378494 765.7670378685 2743.00003051758 176 178 173
281.00049495697 767.14301109314 2747.99990653992 181 183 178
289.290130138397 769.355893135071 2756.00004196167 194 196 191
299.022436141968 775.197267532349 2776.99995040894 210 215 211
-153.370797634125 768.870770931244 2779.99997138977 210 212 209
-145.510524511337 767.222940921783 2773.9999294281 203 205 202
-137.7322524786 765.851140022278 2769.00005340576 167 169 166
-129.886761307716 763.925552368164 2762.00008392334 184 186 183
-122.123271226883 762.275874614716 2756.00004196167 172 174 169
-114.433668553829 760.902047157288 2750.99992752075 173 175 170
-106.809854507446 759.804487228394 2746.99997901917 177 179 174
-99.2436781525612 758.98277759552 2743.99995803833 151 152 147
-91.6935577988625 758.160531520844 2740.9999370575 171 172 167
-84.0980485081673 756.784498691559 2736.00006103516 166 167 162
-76.5575096011162 755.684435367584 2732.00011253357 170 171 166
-69.0891295671463 755.136907100677 2730.00001907349 149 150 145
-61.5862607955933 754.035651683807 2726.0000705719 174 175 170
-54.1447326540947 753.487050533295 2723.99997711182 191 190 186
-46.662449836731 752.108037471771 2719.00010108948 184 183 179
-39.2794497311115 752.111494541168 2719.00010108948 181 182 177
-31.8494252860546 751.007795333862 2714.99991416931 176 178 173
-24.4771130383015 751.010000705719 2714.99991416931 174 175 170
-17.0921459794044 750.458419322968 2713.00005912781 173 174 168
-9.72158554941416 750.182807445526 2711.99989318848 170 167 162
-2.35469383187592 749.353587627411 2709.00011062622 171 168 163
5.00329677015543 749.630093574524 2710.00003814697 171 166 162
12.3712662607431 750.182569026947 2711.99989318848 171 166 162
19.7355151176453 750.181317329407 2711.99989318848 167 162 158
27.0997174084187 750.179350376129 2711.99989318848 165 160 156
34.4765670597553 750.453650951386 2713.00005912781 164 159 156
41.8587662279606 750.72717666626 2713.99998664856 157 158 153
49.2462888360024 751.000165939331 2714.99991416931 150 152 147
56.6808469593525 751.825869083405 2717.99993515015 155 154 150
64.060851931572 751.820981502533 2717.99993515015 180 173 167
71.4932829141617 752.368867397308 2720.00002861023 181 172 165
78.8203924894333 751.809656620026 2717.99993515015 157 144 136
86.2316265702248 752.079784870148 2719.00010108948 167 154 146
93.5447812080383 751.519441604614 2717.00000762939 180 171 164
100.958302617073 751.788318157196 2717.99993515015 165 158 152
108.377039432526 752.056777477264 2719.00010108948 145 144 140
115.75835198164 752.047955989838 2719.00010108948 152 154 149
122.958265244961 750.932276248932 2714.99991416931 159 161 156
130.280181765556 750.645816326141 2713.99998664856 164 161 154
137.697830796242 750.911951065063 2714.99991416931 166 163 156
145.173996686935 751.45411491394 2717.00000762939 166 163 156
152.436137199402 750.889420509338 2714.99991416931 169 166 159
159.745931625366 750.600755214691 2713.99998664856 170 170 162
166.988357901573 750.035107135773 2711.99989318848 172 171 166
174.540996551514 750.851571559906 2714.99991416931 174 173 168
182.042568922043 751.391112804413 2717.00000762939 180 181 176
189.694002270699 752.483129501343 2720.99995613098 179 181 178
197.294309735298 753.298044204712 2723.99997711182 186 191 187
204.760164022446 753.559410572052 2724.99990463257 188 193 189
212.308898568153 754.096746444702 2726.99999809265 199 201 196
219.787433743477 754.356980323792 2727.9999256134 181 183 178
227.354258298874 754.893481731415 2730.00001907349 162 164 159
234.759405255318 754.876136779785 2730.00001907349 168 170 165
242.341533303261 755.411565303802 2732.00011253357 150 152 147
250.11682510376 756.499409675598 2736.00006103516 174 176 171
257.819175720215 757.310330867767 2739.00008201599 165 167 162
265.730917453766 758.67360830307 2743.99995803833 167 169 164
273.072004318237 758.377611637115 2743.00003051758 174 176 171
280.816107988358 759.186983108521 2746.00005149841 175 177 172
288.680911064148 760.272443294525 2750 190 192 187
297.7514564991 764.398455619812 2765.00010490417 196 201 197
-163.01241517067 771.229445934296 2815.99998474121 210 212 207
-153.437867760658 761.656045913696 2780.99989891052 201 202 197
-145.364478230476 758.928894996643 2770.99990844727 202 203 198
-137.74299621582 758.392214775085 2769.00005340576 163 165 160
-130.038008093834 757.307171821594 2765.00010490417 182 184 181
-122.22146987915 755.399823188782 2757.99989700317 169 171 166
-114.442676305771 753.491818904877 2750.99992752075 173 175 170
-106.857143342495 752.67881155014 2747.99990653992 174 176 171
-99.3238613009453 752.139270305634 2746.00005149841 153 154 149
-91.8011739850044 751.599013805389 2743.99995803833 169 170 165
-84.1354429721832 749.688625335693 2736.99998855591 167 168 163
-76.5916034579277 748.599350452423 2733.00004005432 162 163 158
-69.0439939498901 747.235536575317 2727.9999256134 148 149 144
-61.5233816206455 745.871186256409 2723.00004959106 178 179 174
-54.1092827916145 745.601832866669 2721.99988365173 187 186 182
-46.6490052640438 744.510233402252 2717.99993515015 176 175 171
-39.2392426729202 743.965923786163 2716.00008010864 176 177 172
-31.7815765738487 742.051243782043 2709.00011062622 170 172 167
-24.4069397449493 741.50562286377 2707.00001716614 169 170 165
-17.0620083808899 741.781175136566 2707.99994468689 169 168 163
-9.71160922199488 742.056310176849 2709.00011062622 166 163 158
-2.35401233658195 741.782784461975 2707.99994468689 168 165 160
5.00369630753994 742.330551147461 2710.00003814697 170 167 162
12.3722553253174 742.877662181854 2711.99989318848 171 166 162
19.7225380688906 742.328524589539 2710.00003814697 165 162 157
27.0519163459539 741.504907608032 2707.00001716614 163 160 155
34.4157740473747 741.776287555695 2707.99994468689 165 160 157
41.784979403019 742.047190666199 2709.00011062622 152 153 148
49.2139346897602 743.139326572418 2713.00005912781 153 155 150
56.6019378602505 743.408918380737 2713.99998664856 148 149 144
64.0188083052635 743.952035903931 2716.00008010864 150 145 141
71.3938176631927 743.946671485901 2716.00008010864 169 162 156
78.7396430969238 743.666708469391 2714.99991416931 178 169 162
86.1115753650665 743.660151958466 2714.99991416931 180 169 163
93.4488847851753 743.379175662994 2713.99998664856 157 150 144
100.817687809467 743.371486663818 2713.99998664856 149 144 140
108.18625241518 743.363201618195 2713.99998664856 153 154 149
115.511983633041 743.08055639267 2713.00005912781 153 155 150
122.786745429039 742.523372173309 2710.99996566772 152 154 149
130.194365978241 742.787301540375 2711.99989318848 165 162 155
137.607127428055 743.050754070282 2713.00005912781 166 163 156
145.024999976158 743.313670158386 2713.99998664856 164 161 154
152.279496192932 742.754220962524 2711.99989318848 167 164 157
159.581705927849 742.468297481537 2710.99996566772 170 167 160
166.878089308739 742.181777954102 2710.00003814697 169 168 163
174.297258257866 742.442488670349 2710.99996566772 171 172 167
181.721448898315 742.702543735504 2711.99989318848 173 174 169
189.220443367958 743.236184120178 2713.99998664856 175 175 173
196.802288293839 744.042992591858 2717.00000762939 183 185 182
204.475089907646 745.123088359833 2720.99995613098 186 188 185
212.091326713562 745.928823947906 2723.99997711182 196 198 193
219.481661915779 745.912551879883 2723.99997711182 180 182 177
227.121353149414 746.717274188995 2726.99999809265 191 193 188
234.604865312576 746.973752975464 2727.9999256134 163 165 160
242.359489202499 748.051404953003 2732.00011253357 151 153 148
250.04380941391 748.854398727417 2734.99989509583 169 171 166
257.838070392609 749.93109703064 2739.00008201599 161 163 158
265.65346121788 751.00702047348 2743.00003051758 164 166 161
273.1913626194 751.261115074158 2743.99995803833 172 174 169
280.836373567581 751.788556575775 2746.00005149841 172 174 169
288.281708955765 751.768112182617 2746.00005149841 185 187 182
296.480357646942 753.66348028183 2753.00002098084 194 196 193
-162.388280034065 760.65993309021 2805.0000667572 209 211 206
-153.505027294159 754.435062408447 2782.00006484985 196 197 192
-145.375847816467 751.463651657104 2770.99990844727 201 202 197
-137.654304504395 750.39005279541 2766.99995994568 157 158 152
-129.907131195068 749.04453754425 2762.00008392334 181 182 176
-122.053824365139 746.884882450104 2753.99994850159 173 174 169
-114.368513226509 745.538234710693 2749.00007247925 174 175 170
-106.865599751472 745.275735855103 2747.99990653992 168 169 164
-99.3679016828537 745.012760162354 2746.99997901917 170 171 166
-91.7750149965286 743.935525417328 2743.00003051758 161 162 157
-84.1113924980164 742.04409122467 2736.00006103516 172 173 168
-76.5977129340172 741.236746311188 2733.00004005432 159 160 155
-68.9988806843758 739.344120025635 2726.0000705719 163 164 159
-61.4379122853279 737.450778484344 2719.00010108948 175 176 171
-53.9744533598423 736.370503902435 2714.99991416931 169 170 165
-46.5669222176075 735.832095146179 2713.00005912781 167 168 163
-39.1990356147289 735.835492610931 2713.00005912781 164 163 158
-31.7606590688229 734.211027622223 2707.00001716614 163 162 157
-24.3908632546663 733.670771121979 2704.99992370605 162 161 156
-17.0444753021002 733.672380447388 2704.99992370605 162 161 156
-9.69446077942848 733.402252197266 2703.9999961853 161 160 155
-2.35333223827183 734.216511249542 2707.00001716614 160 159 154
5.00225182622671 734.758913516998 2709.00011062622 161 160 155
12.3686855658889 735.300600528717 2710.99996566772 161 160 155
19.702285528183 734.214425086975 2707.00001716614 162 161 156
27.0141083747149 733.127593994141 2703.00006866455 161 160 155
34.3549847602844 733.125150203705 2703.00006866455 159 158 153
41.7420491576195 733.93577337265 2706.00008964539 156 155 150
49.1634532809258 735.017001628876 2710.00003814697 154 153 148
56.5855987370014 735.826432704926 2713.00005912781 150 149 144
63.953198492527 735.821664333344 2713.00005912781 147 146 141
71.3206380605698 735.816240310669 2713.00005912781 149 148 143
78.6588937044144 735.538899898529 2711.99989318848 151 150 145
86.0549807548523 735.803604125977 2713.00005912781 149 148 143
93.3874249458313 735.525250434875 2711.99989318848 146 145 140
100.677065551281 734.975218772888 2710.00003814697 149 148 143
107.995487749577 734.695792198181 2709.00011062622 152 151 146
115.350767970085 734.68679189682 2709.00011062622 154 153 148
122.660525143147 734.406292438507 2707.99994468689 156 155 150
130.156576633453 735.209882259369 2710.99996566772 159 158 153
137.617915868759 735.741853713989 2713.00005912781 161 160 155
145.19664645195 736.815512180328 2717.00000762939 163 162 157
152.515977621078 736.532628536224 2716.00008010864 163 162 157
159.770682454109 735.978066921234 2713.99998664856 161 160 155
166.952580213547 735.151827335358 2710.99996566772 160 159 155
174.375012516975 735.40985584259 2711.99989318848 162 161 157
181.802466511726 735.66722869873 2713.00005912781 162 161 157
189.165219664574 735.652923583984 2713.00005912781 163 162 158
196.599990129471 735.909342765808 2713.99998664856 173 172 168
204.340323805809 737.249732017517 2719.00010108948 178 177 173
212.02951669693 738.318502902985 2723.00004959106 170 171 166
219.337061047554 738.031089305878 2721.99988365173 176 177 172
226.805254817009 738.28536272049 2723.00004959106 189 190 185
234.450414776802 739.081382751465 2726.0000705719 157 158 153
242.288783192635 740.419149398804 2730.99994659424 145 146 141
250.062316656113 741.485238075256 2734.99989509583 166 167 162
257.762879133224 742.279708385468 2737.99991607666 165 166 161
265.479207038879 743.073761463165 2740.9999370575 165 166 161
272.812992334366 742.783010005951 2740.00000953674 166 167 162
280.754417181015 744.118213653564 2744.99988555908 175 176 171
288.407474756241 744.639754295349 2746.99997901917 179 180 175
296.501606702805 746.245145797729 2753.00002098084 188 190 187
305.731743574142 750.560522079468 2769.00005340576 202 204 201
-161.474600434303 748.806178569794 2789.00003433228 208 210 205
-153.351485729218 746.133685112 2779.00004386902 188 189 184
-145.177394151688 742.923498153687 2766.99995994568 200 201 196
-137.466132640839 741.860628128052 2763.00001144409 157 158 152
-129.682198166847 740.260243415833 2756.99996948242 177 178 172
-121.97483330965 738.927602767944 2752.00009346008 173 174 169
-114.252738654613 737.325966358185 2746.00005149841 171 172 167
-106.796324253082 737.334728240967 2746.00005149841 161 162 157
-99.3034541606903 737.074434757233 2744.99988555908 170 171 166
-91.7823240160942 736.545026302338 2743.00003051758 151 152 147
-84.1181054711342 734.672367572784 2736.00006103516 174 175 170
-76.547771692276 733.33615064621 2730.99994659424 160 161 156
-68.9790844917297 731.730878353119 2724.99990463257 163 164 159
-61.4428408443928 730.12501001358 2719.00010108948 168 169 164
-54.0185458958149 729.592561721802 2717.00000762939 164 165 160
-46.5706549584866 728.522479534149 2713.00005912781 163 164 159
-39.1877330839634 728.257417678833 2711.99989318848 161 160 155
-31.7632146179676 726.917624473572 2707.00001716614 160 159 154
-24.3838056921959 726.114273071289 2703.9999961853 160 159 154
-17.0521512627602 726.653039455414 2706.00008964539 160 159 154
-9.6880691125989 725.579917430878 2701.99990272522 160 159 154
-2.35178251750767 726.38601064682 2704.99992370605 159 158 153
4.99157467857003 725.848853588104 2703.00006866455 159 158 153
12.351430952549 726.922333240509 2707.00001716614 159 158 153
19.6820348501205 726.115465164185 2703.9999961853 160 159 154
26.9962921738625 725.307941436768 2700.99997520447 161 160 155
34.3450307846069 725.5739569664 2701.99990272522 160 159 154
41.7454019188881 726.645052433014 2706.00008964539 155 154 149
49.1673946380615 727.71555185318 2710.00003814697 154 153 148
56.5692819654942 728.248298168182 2711.99989318848 150 149 144
63.9583170413971 728.512048721313 2713.00005912781 148 147 142
71.3526383042336 728.775084018707 2713.99998664856 146 145 140
78.6651819944382 728.232026100159 2711.99989318848 145 144 139
85.9666839241982 727.688372135162 2710.00003814697 151 150 145
93.2571142911911 727.144241333008 2707.99994468689 146 145 140
100.536473095417 726.59957408905 2706.00008964539 148 147 142
107.844568789005 726.322650909424 2704.99992370605 152 151 146
115.189574658871 726.313769817352 2704.99992370605 154 153 148
122.670203447342 727.109909057617 2707.99994468689 157 156 151
130.118817090988 727.636933326721 2710.00003814697 159 158 153
137.577995657921 728.163301944733 2711.99989318848 160 159 154
144.940793514252 728.152275085449 2711.99989318848 161 160 155
152.303278446198 728.140532970428 2711.99989318848 160 159 154
159.547656774521 727.591454982758 2710.00003814697 158 157 152
166.780799627304 727.041721343994 2707.99994468689 157 156 152
174.13130402565 727.028429508209 2707.99994468689 161 160 156
181.682452559471 727.820038795471 2710.99996566772 158 157 153
189.040303230286 727.805733680725 2710.99996566772 156 155 151
196.470186114311 728.059470653534 2711.99989318848 168 167 163
204.130485653877 729.117870330811 2716.00008010864 177 176 172
211.967781186104 730.712652206421 2721.99988365173 164 165 160
219.27310526371 730.427861213684 2720.99995613098 164 165 160
226.822376251221 730.947852134705 2723.00004959106 186 187 182
234.554052352905 732.004106044769 2726.99999809265 153 154 149
242.484375834465 733.596861362457 2733.00004005432 138 139 134
250.17237663269 734.383642673492 2736.00006103516 164 165 160
257.687836885452 734.633207321167 2736.99998855591 164 165 160
265.208184719086 734.882235527039 2737.99991607666 164 165 160
272.633850574493 734.862387180328 2737.99991607666 165 166 161
280.774891376495 736.720860004425 2744.99988555908 173 174 169
288.743376731873 738.042116165161 2750 176 177 172
296.846091747284 739.631175994873 2756.00004196167 182 184 181
305.532813072205 742.561459541321 2766.99995994568 179 181 178
-161.081939935684 739.429891109467 2782.00006484985 195 197 192
-153.087615966797 737.315952777863 2773.9999294281 179 180 175
-145.031422376633 734.66968536377 2763.99993896484 200 201 196
-137.427240610123 734.14933681488 2762.00008392334 158 159 153
-129.692450165749 732.830822467804 2756.99996948242 173 174 168
-121.940173208714 731.245875358582 2750.99992752075 173 174 169
-114.261835813522 729.926228523254 2746.00005149841 174 175 170
-106.804825365543 729.935109615326 2746.00005149841 155 156 151
-99.3837416172028 730.209171772003 2746.99997901917 149 150 145
-91.8231159448624 729.41929101944 2743.99995803833 135 136 131
-84.1863378882408 727.831423282623 2737.99991607666 174 175 170
-76.5819475054741 726.242959499359 2732.00011253357 146 147 142
-69.0352618694305 724.919676780701 2726.99999809265 158 159 154
-61.4929758012295 723.329842090607 2720.99995613098 169 170 165
-54.0228933095932 722.271203994751 2717.00000762939 158 159 154
-46.574417501688 721.211969852448 2713.00005912781 160 161 156
-39.1764417290688 720.683753490448 2710.99996566772 160 159 154
-31.8127162754536 720.686614513397 2710.99996566772 159 158 153
-24.4308691471815 720.157206058502 2709.00011062622 160 159 154
-17.0598290860653 719.627201557159 2707.00001716614 162 161 156
-9.68526769429445 718.033254146576 2700.99997520447 163 162 157
-2.34936410561204 718.299448490143 2701.99990272522 162 161 156
4.98643703758717 717.767775058746 2700.00004768372 161 160 155
12.3296119272709 718.298733234406 2701.99990272522 159 158 153
19.6545068174601 717.765808105469 2700.00004768372 160 159 154
26.9684828817844 717.232167720795 2697.99995422363 160 159 154
34.3350879848003 718.027234077454 2700.99997520447 159 158 153
41.7333357036114 719.087481498718 2704.99992370605 157 156 151
49.1350665688515 719.881296157837 2707.99994468689 155 154 149
56.5112493932247 720.142900943756 2709.00011062622 154 153 148
63.8691559433937 720.138132572174 2709.00011062622 152 151 146
71.2269023060799 720.132648944855 2709.00011062622 148 147 142
78.5264521837235 719.594955444336 2707.00001716614 152 151 146
85.878387093544 719.588398933411 2707.00001716614 151 150 145
93.230128288269 719.581186771393 2707.00001716614 143 142 137
100.544475018978 719.307661056519 2706.00008964539 144 143 138
107.853159308434 719.033479690552 2704.99992370605 149 148 143
115.198731422424 719.02459859848 2704.99992370605 152 151 146
122.634641826153 719.546794891357 2707.00001716614 155 154 149
130.033060908318 719.802498817444 2707.99994468689 158 157 152
137.487381696701 720.32356262207 2710.00003814697 159 158 153
144.845321774483 720.312535762787 2710.00003814697 159 158 153
152.315229177475 720.832347869873 2711.99989318848 159 158 153
159.619018435478 720.554292201996 2710.99996566772 157 156 151
166.793793439865 719.744145870209 2707.99994468689 158 157 153
174.209147691727 719.996690750122 2709.00011062622 160 159 155
181.696549057961 720.514357089996 2710.99996566772 156 155 151
189.054906368256 720.499992370605 2710.99996566772 152 151 147
196.340397000313 720.219373703003 2710.00003814697 160 159 155
203.920617699623 721.001267433167 2713.00005912781 167 166 162
211.750343441963 722.579836845398 2719.00010108948 186 187 182
219.3703353405 723.360598087311 2721.99988365173 156 157 152
226.839557290077 723.609507083893 2723.00004959106 180 181 176
234.48571562767 724.389135837555 2726.0000705719 144 145 140
242.236360907555 725.434124469757 2730.00001907349 149 150 145
250.191062688828 727.009952068329 2736.00006103516 159 160 155
257.706969976425 727.256715297699 2736.99998855591 160 161 156
265.130937099457 727.237343788147 2736.99998855591 163 164 159
272.454768419266 726.951837539673 2736.00006103516 165 166 161
280.590891838074 728.791356086731 2743.00003051758 172 173 168
288.869380950928 730.895936489105 2750.99992752075 175 176 171
297.190696001053 733.000099658966 2759.0000629425 178 180 177
305.665224790573 735.369324684143 2767.99988746643 166 168 165
-169.738784432411 736.654758453369 2799.99995231628 209 214 208
-161.094605922699 731.932163238525 2782.00006484985 185 187 182
-153.154879808426 730.102837085724 2775.00009536743 177 178 173
-145.147830247879 727.746725082397 2766.00003242493 198 199 194
-137.33859360218 726.179242134094 2759.99999046326 156 157 151
-129.608675837517 724.874377250671 2755.00011444092 172 173 167
-121.949888765812 723.831832408905 2750.99992752075 171 172 167
-114.354163408279 723.051846027374 2747.99990653992 173 174 169
-106.930054724216 723.323941230774 2749.00007247925 150 151 146
-99.4640588760376 723.332107067108 2749.00007247925 141 142 137
-91.8974131345749 722.550451755524 2746.00005149841 138 139 134
-84.2853486537933 721.241891384125 2740.9999370575 165 166 161
-76.6722038388252 719.66952085495 2734.99989509583 145 146 141
-69.1420957446098 718.622863292694 2730.99994659424 161 162 157
-61.5883395075798 717.049300670624 2724.99990463257 173 174 169
-54.0869124233723 715.738356113434 2720.00002861023 157 158 153
-46.5781763195992 713.900446891785 2713.00005912781 158 159 154
-39.165161550045 713.114500045776 2710.00003814697 159 158 153
-31.8152867257595 713.380515575409 2710.99996566772 159 158 153
-24.4418643414974 713.119626045227 2710.00003814697 160 159 154
-17.073817551136 712.858200073242 2709.00011062622 162 161 156
-9.68963839113712 711.017251014709 2701.99990272522 162 161 156
-2.3495543282479 711.017668247223 2701.99990272522 162 161 156
4.98684076592326 710.491359233856 2700.00004768372 162 161 156
12.3306112363935 711.016893386841 2701.99990272522 160 159 154
19.6560975164175 710.489332675934 2700.00004768372 159 158 153
26.9706659018993 709.961175918579 2697.99995422363 159 158 153
34.2870131134987 709.69545841217 2697.00002670288 158 157 152
41.6749939322472 710.744976997375 2700.99997520447 160 159 154
49.0664504468441 711.530685424805 2703.9999961853 156 155 150
56.4532279968262 712.052822113037 2706.00008964539 155 154 149
63.7564063072205 711.521565914154 2703.9999961853 151 150 145
71.1011588573456 711.516201496124 2703.9999961853 146 145 140
78.4167274832726 711.247146129608 2703.00006866455 152 151 146
85.8218297362328 711.76666021347 2704.99992370605 152 151 146
93.2376012206078 712.285757064819 2707.00001716614 145 144 139
100.58968514204 712.278008460999 2707.00001716614 145 144 139
107.861764729023 711.743354797363 2704.99992370605 148 147 142
115.165323019028 711.471378803253 2703.9999961853 151 150 145
122.644387185574 712.251245975494 2707.00001716614 154 153 148
130.091413855553 712.767422199249 2709.00011062622 154 153 148
137.346044182777 712.230682373047 2707.00001716614 155 154 149
144.589483737946 711.693227291107 2704.99992370605 157 156 151
152.046382427216 712.207734584808 2707.00001716614 158 157 152
159.513786435127 712.721705436707 2709.00011062622 158 157 152
166.683673858643 711.919605731964 2706.00008964539 154 153 149
174.158409237862 712.432384490967 2707.99994468689 153 152 148
181.576624512672 712.681651115417 2709.00011062622 153 152 148
188.999831676483 712.93032169342 2710.00003814697 154 153 149
196.210622787476 712.389230728149 2707.99994468689 151 150 146
203.785955905914 713.162958621979 2710.99996566772 149 148 144
211.688682436943 714.988470077515 2717.99993515015 163 164 159
219.548285007477 716.550290584564 2723.99997711182 183 184 179
227.190047502518 717.32234954834 2726.99999809265 159 160 155
234.589457511902 717.304825782776 2726.99999809265 155 156 151
242.254599928856 718.07587146759 2730.00001907349 154 155 150
249.935492873192 718.846499919891 2733.00004005432 146 147 142
257.53790140152 719.353497028351 2734.99989509583 150 151 146
265.053749084473 719.596982002258 2736.00006103516 159 160 155
272.873252630234 720.629096031189 2740.00000953674 164 165 160
281.020700931549 722.449660301209 2746.99997901917 172 173 168
289.100527763367 724.006712436676 2753.00002098084 175 176 171
297.104567289352 725.300252437592 2757.99989700317 180 182 179
305.135130882263 726.593196392059 2763.00001144409 156 158 155
315.681397914886 733.671009540558 2789.99996185303 197 199 196
-169.206485152245 726.763725280762 2790.99988937378 209 214 208
-161.049365997314 724.17277097702 2780.99989891052 169 171 166
-153.05657684803 722.101986408234 2773.00000190735 176 177 172
-145.211815834045 720.551371574402 2766.99995994568 191 192 187
-137.399271130562 719.000160694122 2760.99991798401 149 150 144
-129.666030406952 717.708647251129 2756.00004196167 169 170 164
-121.959619224072 716.416537761688 2750.99992752075 164 165 160
-114.52978849411 716.686487197876 2752.00009346008 165 166 161
-107.094220817089 716.955780982971 2753.00002098084 138 139 134
-99.6167808771133 716.96412563324 2753.00002098084 148 149 144
-92.038668692112 716.190457344055 2750 154 155 150
-84.4151452183723 714.895367622375 2744.99988555908 144 145 140
-76.7624974250793 713.078856468201 2737.99991607666 151 152 147
-69.1983178257942 711.782574653625 2733.00004005432 169 170 165
-61.6611279547215 710.485696792603 2727.9999256134 167 168 163
-54.1111752390862 708.667278289795 2720.99995613098 160 161 156
-46.5819500386715 706.587791442871 2713.00005912781 163 164 159
-39.1538813710213 705.549478530884 2709.00011062622 161 160 155
-31.8061336874962 705.812811851501 2710.00003814697 161 160 155
-24.4258083403111 705.294132232666 2707.99994468689 160 159 154
-17.0373823493719 703.993618488312 2703.00006866455 162 161 156
-9.6904244273901 703.734219074249 2701.99990272522 163 162 157
-2.35061510466039 703.995227813721 2703.00006866455 162 161 156
4.99278726056218 703.995168209076 2703.00006866455 161 160 155
12.327047996223 703.473448753357 2700.99997520447 159 158 153
19.6576938033104 703.211784362793 2700.00004768372 158 157 152
26.9728545099497 702.688932418823 2697.99995422363 158 157 152
34.2643670737743 701.905131340027 2694.9999332428 157 156 151
41.6166484355927 702.422916889191 2697.00002670288 159 158 153
48.9796847105026 702.940106391907 2698.99988174438 156 155 150
56.3743375241756 703.717231750488 2701.99990272522 157 156 151
63.6908188462257 703.451931476593 2700.99997520447 152 151 146
71.0280016064644 703.446388244629 2700.99997520447 146 145 140
78.3940255641937 703.700840473175 2701.99990272522 153 152 147
85.7652872800827 703.954756259918 2703.00006866455 152 151 146
93.2106599211693 704.728841781616 2706.00008964539 145 144 139
100.523412227631 704.460501670837 2704.99992370605 146 145 140
107.870399951935 704.452216625214 2704.99992370605 148 147 142
115.131922066212 703.92245054245 2703.00006866455 150 149 144
122.563540935516 704.433798789978 2704.99992370605 154 153 148
129.957675933838 704.684138298035 2706.00008964539 154 153 148
137.306213378906 704.673528671265 2706.00008964539 155 154 149
144.600927829742 704.401910305023 2704.99992370605 157 156 151
152.114555239677 705.171406269073 2707.99994468689 158 157 152
159.585237503052 705.679953098297 2710.00003814697 158 157 152
166.881561279297 705.406665802002 2709.00011062622 154 153 149
174.236387014389 705.393254756927 2709.00011062622 153 152 148
181.590795516968 705.379366874695 2709.00011062622 154 153 149
189.014509320259 705.625295639038 2710.00003814697 155 154 150
196.225821971893 705.089569091797 2707.99994468689 152 151 147
203.801691532135 705.855190753937 2710.99996566772 149 148 144
211.782842874527 707.922101020813 2719.00010108948 140 141 136
219.806924462318 709.988415241241 2726.99999809265 169 170 165
227.623954415321 711.27313375473 2732.00011253357 160 161 156
235.037446022034 711.255490779877 2732.00011253357 151 152 147
242.539152503014 711.497664451599 2733.00004005432 150 151 146
250.137180089951 711.999654769897 2734.99989509583 143 144 139
257.745504379272 712.501227855682 2736.99998855591 147 148 143
265.364140272141 713.002383708954 2739.00008201599 158 159 154
272.99302816391 713.502883911133 2740.9999370575 163 164 159
281.041443347931 715.044260025024 2746.99997901917 171 172 167
289.016723632813 716.324746608734 2752.00009346008 174 175 170
296.910792589188 717.344462871552 2756.00004196167 181 183 180
304.936349391937 718.623876571655 2760.99991798401 155 157 154
-169.341087341309 719.754815101624 2792.99998283386 208 213 207
-161.177933216095 717.190861701965 2782.99999237061 162 164 159
-153.123900294304 714.883983135223 2773.9999294281 179 180 175
-145.223349332809 713.091909885406 2766.99995994568 189 190 185
-137.410208582878 711.556792259216 2760.99991798401 152 153 147
-129.676386713982 710.278868675232 2756.00004196167 158 159 153
-122.013717889786 709.258079528809 2752.00009346008 163 164 159
-114.663824439049 710.040688514709 2755.00011444092 155 156 151
-107.258431613445 710.565090179443 2756.99996948242 146 147 142
-99.8057276010513 710.831105709076 2757.99989700317 147 148 143
-92.1799838542938 709.807932376862 2753.99994850159 142 143 138
-84.5142230391502 708.268642425537 2747.99990653992 145 146 141
-76.7967328429222 705.955505371094 2739.00008201599 168 169 164
-69.077305495739 703.126192092896 2727.9999256134 169 170 165
-61.5304931998253 701.584994792938 2721.99988365173 163 164 159
-54.0161244571209 700.043261051178 2716.00008010864 163 164 159
-46.5685501694679 699.016273021698 2711.99989318848 164 165 160
-39.1281507909298 697.731018066406 2707.00001716614 164 163 158
-31.773503869772 697.733938694 2707.00001716614 162 161 156
-24.3917144834995 696.963012218475 2703.9999961853 164 163 158
-17.0261599123478 696.191370487213 2700.99997520447 164 163 158
-9.68045275658369 695.676982402802 2698.99988174438 162 161 156
-2.34819715842605 695.935249328613 2700.00004768372 164 163 158
4.98949876055121 696.192920207977 2700.99997520447 158 157 152
12.3280500993133 696.192145347595 2700.99997520447 156 155 150
19.6738541126251 696.448624134064 2701.99990272522 155 154 149
26.9950460642576 695.931315422058 2700.00004768372 155 154 149
34.3052968382835 695.413172245026 2697.99995422363 156 155 150
41.6508913040161 695.667862892151 2698.99988174438 158 157 152
49.0199588239193 696.179687976837 2700.99997520447 157 156 151
56.3997812569141 696.69097661972 2703.00006866455 159 158 153
63.7195631861687 696.428298950195 2701.99990272522 154 153 148
71.0600465536118 696.422755718231 2701.99990272522 146 145 140
78.4293785691261 696.674525737762 2703.00006866455 150 149 144
85.7404693961143 696.410119533539 2701.99990272522 150 149 144
93.14925968647 696.918487548828 2703.9999961853 144 143 138
100.420013070107 696.3951587677 2701.99990272522 146 145 140
107.759423553944 696.386754512787 2701.99990272522 148 147 142
115.055955946445 696.120142936707 2700.99997520447 149 148 143
122.528024017811 696.883797645569 2703.9999961853 151 150 145
129.871994256973 696.873724460602 2703.9999961853 153 152 147
137.21564412117 696.863114833832 2703.9999961853 154 153 148
144.505485892296 696.59411907196 2703.00006866455 155 154 149
152.01424062252 697.355568408966 2706.00008964539 157 156 151
159.538924694061 698.116362094879 2709.00011062622 161 160 155
166.833087801933 697.845757007599 2707.99994468689 158 157 153
174.121379852295 697.574615478516 2707.00001716614 155 154 150
181.403860449791 697.303056716919 2706.00008964539 152 151 147
188.889726996422 697.803854942322 2707.99994468689 155 154 150
196.241050958633 697.788953781128 2707.99994468689 155 154 150
203.967809677124 699.061751365662 2713.00005912781 148 147 143
211.954951286316 701.107025146484 2720.99995613098 145 146 141
219.904392957687 702.894032001495 2727.9999256134 140 141 136
227.807983756065 704.422771930695 2733.99996757507 172 173 168
235.485523939133 705.178141593933 2736.99998855591 145 146 141
243.356302380562 706.448078155518 2742.00010299683 149 150 145
250.887781381607 706.687092781067 2743.00003051758 138 139 134
258.235782384872 706.41028881073 2742.00010299683 143 144 139
265.77153801918 706.648170948029 2743.00003051758 156 157 152
273.312121629715 706.885635852814 2743.99995803833 162 163 158
281.266868114471 708.153188228607 2749.00007247925 170 171 166
289.248019456863 709.420084953308 2753.99994850159 172 173 168
297.04025387764 710.171341896057 2756.99996948242 177 179 176
304.848104715347 710.922062397003 2759.99999046326 159 161 158
