ply
format ascii 1.0
comment KinectMotionCapture
element vertex 758
property float x
property float y
property float z
property uchar red
property uchar green
property uchar blue
end_header
40.4038382683791 905.364926541098 2893.7436726677 252 250 251
43.7283472640937 907.967102395952 2881.34553773949 255 254 255
48.5239534027517 911.072995545893 2867.54601621695 255 254 251
54.777406761481 914.681711830844 2852.33549841912 255 250 244
67.0210401903071 920.312802557027 2831.59645725147 202 193 188
68.5828556854551 922.389778978823 2820.38792120669 129 118 112
57.2954651041297 920.160200045245 2820.84000299103 114 101 95
55.0505614729801 920.968594538367 2813.04124149465 122 105 97
51.2856620775874 921.269777994889 2806.60810676496 130 112 102
46.7604709753462 921.317421745754 2800.85757275216 131 109 98
31.8036571736684 917.829785944899 2804.81901112868 130 106 94
20.610400999399 915.607653716664 2805.33937067265 96 70 57
10.9272608533413 913.892111387674 2804.48693827226 126 100 87
2.00348984435239 912.430083411338 2802.95094175903 209 176 161
-6.90323434727991 910.969376673503 2801.42730953982 229 192 176
-13.5925833383201 910.264851418357 2797.80952576833 238 199 182
-20.2783103090609 909.560510457995 2794.19466308716 216 173 154
-24.0438355962953 909.861643210298 2787.76107437829 207 165 141
-30.0037060173186 909.408161453086 2783.43834014565 179 135 108
-33.0656649308245 909.958417757889 2776.28100694666 179 135 108
-36.8682282974078 910.256370781259 2769.82055243768 150 111 82
-36.36298257955 912.056940801994 2759.07972298931 140 103 76
-42.3604688262376 911.600232511955 2754.72970389886 133 99 72
-43.3476661901444 912.895236490873 2745.37477755395 124 94 70
-44.3662336654822 914.187758884731 2735.99709777607 108 82 59
-35.4556543025595 918.977124946761 2716.54299544841 38 21 5
196.002992024344 902.809780958059 3053.46280319353 156 161 157
189.406765760403 902.100432712597 3049.91250164485 151 153 150
183.647649165422 901.648636763259 3045.73530668396 141 143 140
178.719184136786 901.45398941934 3040.92653464968 138 140 137
170.474794190846 900.235063136184 3038.64923069656 134 134 132
163.895655478233 899.529787644629 3035.1113369078 140 140 138
153.203080741816 897.546436895601 3034.76082395721 131 131 129
145.822750686256 896.588321565734 3031.87617988828 131 131 129
137.632299425542 895.376094926415 3029.63801117421 148 147 145
131.089330397903 894.676139335326 3026.12636450833 143 142 140
122.921255533609 893.466800822339 3023.90443155049 150 149 147
119.642256359011 893.788767289134 3017.82364153053 146 145 143
113.91887065859 893.345840322257 3013.67239358078 147 145 148
109.003758757923 893.158069880696 3008.8733363468 176 174 177
101.666402769798 892.207189431532 3006.01958726554 174 172 175
98.3569596780529 892.528720891234 2999.91672559693 185 183 186
94.2325919343507 892.59564277947 2994.45714911531 185 183 186
87.7012039926397 891.900508733485 2990.95392224786 187 185 188
83.56599433057 891.967497848087 2985.48619209173 188 186 189
78.626657818619 891.780513158349 2980.66957790004 192 190 193
74.4758990824312 891.847079037952 2975.19057374448 197 195 198
67.9438586730252 891.153336344749 2971.68717541377 191 189 192
62.204725835703 890.713554726489 2967.52452796024 204 202 205
56.4653357655169 890.274050988575 2963.36169544063 207 205 210
50.7257880545668 889.834773455262 2959.19874978964 221 219 224
47.331766228544 890.153575417487 2953.03456136611 223 221 226
43.9243368388853 890.471709424239 2946.86065013025 232 230 235
38.1708189530454 890.032315795818 2942.68757661329 241 239 244
33.192274667992 889.845082286147 2937.84253860982 248 246 251
28.2091803934539 889.657828281098 2932.99390764104 239 237 240
28.617834048303 891.232766955516 2923.41724478378 250 248 251
30.5285671457556 893.308257174373 2912.46163902726 244 242 243
35.4611778847804 896.386356001171 2898.76129427963 248 246 247
36.510270762891 898.203621039685 2888.41479580755 255 253 254
37.5193830478944 900.018005667171 2878.03929996044 255 254 255
38.4885628853162 901.829513783956 2867.6348416598 251 249 250
43.206596176423 904.891842527447 2853.77886526227 253 252 250
43.329088518715 906.445928952978 2843.9946523418 255 254 253
35.8822867879529 905.49335143591 2841.06155511003 255 254 251
33.7019866663937 906.293178712478 2833.30958268183 255 253 251
31.4993326137576 907.091363944398 2825.54110261762 255 252 250
31.5144109167047 908.637644792055 2815.67898343092 255 251 247
21.8141823917808 906.934508576734 2814.81393166239 255 252 246
8.42328121790903 903.984976668042 2817.44289138792 255 250 244
-1.22329218175077 902.285898755548 2816.61705039788 255 251 246
-7.89627910540402 901.585447225833 2813.01114847244 255 250 244
-11.6222612829737 901.88165825215 2806.60620047815 255 252 246
-18.2965851755366 901.18098928379 2802.99962273106 255 250 243
-24.9669656386768 900.480629418815 2799.39561074877 193 174 160
-27.9875445009636 901.023364594885 2792.268236736 191 168 152
-31.0260927503869 901.564753179451 2785.12753503324 192 164 142
-35.5328016818863 901.607989912938 2779.39067129504 185 157 133
-40.0487382864523 901.650528487435 2773.64682020638 175 145 119
-40.2517134077254 903.179622526451 2763.62654238439 169 139 113
-42.6449954052608 903.962723231782 2755.71979564862 157 129 105
-43.6289764877316 905.238989232134 2746.36710594321 144 118 93
-43.9306017923931 906.760091506117 2736.27527401811 123 97 74
-39.2865658187365 910.009139551261 2721.13127004984 107 90 74
-44.6412313322382 909.793766036254 2716.01343120637 63 47 32
191.483268933486 895.485918728932 3048.91422603404 161 163 160
188.217864048802 895.795603870215 3042.84322859762 144 146 143
183.279313104619 895.597858831301 3038.02683490045 141 143 140
176.680207596002 894.893425661393 3034.47476549871 132 134 131
167.608166865315 893.430379046044 3032.83127994038 137 137 135
159.377679205657 892.22237698881 3030.56410938463 135 135 133
151.982148679924 891.268885145228 3027.66846958934 129 129 127
143.776485033747 890.064018884044 3025.41901589715 154 154 152
134.766729872255 888.608119486337 3023.82101315625 141 140 138
124.959943775566 886.901787606521 3022.87869934323 140 139 137
120.864504018418 886.963346032122 3017.44006620942 146 145 143
115.139317127245 886.520631611598 3013.28751361465 142 140 143
110.222792107859 886.330346580676 3008.48712476684 174 172 175
102.883056766429 885.384959398179 3005.63197314309 165 163 166
97.9641790508641 885.195330544419 3000.8301765763 177 175 178
94.644642962046 885.508755613344 2994.71995721825 177 175 178
89.7127053328579 885.319074047413 2989.90839849734 182 180 183
85.573505714764 885.380492833719 2984.43804219916 182 180 183
81.4256571353571 885.441678549848 2978.96112042676 185 183 186
75.6827056663947 885.000990141687 2974.79570017259 190 188 191
69.148804005422 884.310192986363 2971.29067302361 183 181 184
61.8303184677371 883.36969369716 2968.45095059423 197 195 198
57.6664544940115 883.431015839304 2962.96241961173 196 194 199
50.3563198695316 882.491671017724 2960.12875678516 210 208 213
46.9651476600399 882.802698159433 2953.96659472847 212 210 215
42.7805776414774 882.86336888426 2948.46334466965 223 221 226
37.8094506752955 882.673977686262 2943.62337823278 233 231 234
32.8334523105056 882.484441184287 2938.78017415614 240 238 241
27.852719178906 882.294819832472 2933.9335373162 236 234 237
27.4941267870039 883.599394746034 2925.03405413224 249 247 250
27.1042278015092 884.901742553828 2916.11215932676 245 243 244
31.2835073784226 887.694125945993 2903.09929816702 248 246 247
33.111730439467 889.736584909223 2892.08371181443 255 254 255
31.0840003752637 890.534015339593 2884.44232853631 255 255 255
28.2737172469045 891.081658820912 2877.46742725053 254 255 255
25.4456025658945 891.628086364487 2870.4792988557 255 255 255
24.8664889217021 892.9168979892 2861.42016974265 254 254 254
18.2276573756988 892.221553793156 2857.83934812606 254 252 253
15.3497786566037 892.764487588999 2850.81512702148 245 243 244
12.453557694676 893.306005560805 2843.77789653923 255 254 255
11.7801869440037 894.587838490675 2834.65040308969 255 253 253
7.3517597534587 894.632149104089 2828.96999841852 254 249 246
0.686139488554893 893.934993185949 2825.36974791116 255 254 251
-6.71580543480577 892.991546001536 2822.4692145833 255 253 251
-11.157082977139 893.03482595152 2816.77978367439 255 254 252
-16.3434443626689 892.831045299767 2811.78371632819 244 244 242
-23.0026098260021 892.134352548725 2808.18814739027 255 254 248
-29.6577804133404 891.437913324999 2804.59518123037 255 253 244
-35.5798664993576 890.987671751752 2800.29985408071 240 228 216
-38.5938679238471 891.519946911642 2793.17719521092 192 175 157
-40.1760840562524 892.541881293915 2784.62458054025 192 171 152
-42.5080671148419 893.316266563247 2776.76222656811 177 155 132
-43.4215759166818 894.579302814843 2767.46055671159 174 149 127
-46.5217304594385 895.104538867531 2760.27540795331 168 146 122
-44.6267874999435 897.342378939103 2748.07414129362 164 142 118
-46.3507440617759 898.352830765858 2739.41871779936 152 131 110
-41.6956876866001 901.561906816836 2724.28250028931 135 119 106
-49.1702859027752 900.611389387525 2721.32955770382 133 119 108
195.288337290531 890.668785515616 3038.06162073156 161 163 160
192.824225850552 891.219977800082 3031.33768466575 157 159 156
183.716547590461 889.764678546514 3029.66840394372 140 142 139
174.626561678365 888.311360623158 3028.01225329518 138 140 137
164.730864622689 886.60977472714 3027.00551006988 139 139 137
158.144232585865 885.91141991347 3023.46221926509 136 136 134
149.922890708523 884.713777520847 3021.20173115587 137 137 135
140.080361281463 883.018062493262 3020.23385449333 140 140 138
131.075102881412 881.574286556596 3018.63887848147 136 136 134
126.965206678426 881.629585266193 3013.18943937784 137 137 135
119.60354176645 880.687201049132 3010.31840575101 136 134 135
113.867857780375 880.244532404081 3006.15824381999 168 166 167
106.519383372435 879.30411292218 3003.29678222281 154 152 153
102.396616369401 879.36040024315 2997.83801780906 157 155 156
98.264967482204 879.416386239156 2992.37281320166 155 153 154
91.724831773532 878.72646852257 2988.86356579001 168 166 167
87.5821080451162 878.782453490155 2983.39033278866 167 165 166
81.8395931869365 878.341740708522 2979.2252289195 171 169 170
76.0969140859 877.901373084277 2975.06000773548 179 177 178
69.5631876923382 877.213517574511 2971.5551225416 169 167 168
62.2445910404901 876.27850571482 2968.7153473581 182 180 181
58.8677600932539 876.582091549321 2962.56354389679 183 181 184
52.3399060837306 875.895607925382 2959.06292266829 195 193 196
48.9449406108289 876.198392201406 2952.89826351929 194 192 195
43.1965228497311 875.759471483783 2948.72888958699 209 207 210
38.225730410649 875.567538402157 2943.88915278082 216 214 217
34.0256841897442 875.622116132969 2938.37465283042 218 216 219
30.5900615135095 875.922791240029 2932.18021524668 224 222 225
27.9123627358957 876.46903717952 2925.3011256304 221 219 222
24.4472563939753 876.767752345931 2919.08559925772 239 237 240
24.80328030118 878.295759981421 2909.47025178123 248 246 249
24.3589310906298 879.575355362474 2900.50876960005 249 249 251
20.0711215353921 879.624366265258 2894.93032546154 254 255 255
17.2944736306109 880.163741712803 2887.97976518792 252 255 255
16.016069968364 881.192604124074 2879.64742575238 254 255 255
14.7106545675038 882.219408129282 2871.29578898185 247 248 250
10.3637789844662 882.264350950874 2865.67450601362 253 254 255
6.00765285828597 882.308663862937 2860.04651393863 254 255 255
2.39140716419062 882.596976756162 2853.7210762575 255 255 255
-1.98576065534151 882.639714902407 2848.07811711047 251 251 253
-4.88235364049139 883.170508593264 2841.04056262005 252 252 254
-9.2824049918887 883.211561791292 2835.3807117008 255 255 255
-13.6918961674877 883.251910002099 2829.71401408062 254 252 255
-17.3723877999454 883.535376720716 2823.34197860087 244 252 254
-22.5390391478366 883.330335457072 2818.36048757336 248 255 255
-27.7107490770356 883.124944135742 2813.37532769919 238 243 239
-34.3507579340983 882.43242165294 2809.7933724402 239 240 234
-38.7985169983251 882.469620352555 2804.09921213501 255 252 243
-42.5283030476216 882.748974186031 2797.69142124792 253 243 231
-45.5465741846042 883.270079462665 2790.56531611774 255 253 237
-46.4145576559678 884.517566265251 2781.29656978382 207 190 172
-49.4760589718337 885.035179773656 2774.13940296492 178 161 143
-51.118725488704 886.035727707631 2765.5428581939 158 141 121
-52.0721257258165 887.276414287227 2756.21215697913 158 141 121
-51.6286280532561 888.998377647342 2745.42616689672 151 134 116
-49.8016289288314 891.200841602945 2733.17546711399 142 128 117
-52.991851575745 891.707668785102 2725.9249328203 125 112 103
216.51974483493 889.720422502898 3022.56994044642 169 171 168
201.542224189806 886.534169953064 3025.28256344958 165 167 164
190.755456192238 884.592357659314 3024.86397819427 143 145 142
181.648080633395 883.149031690961 3023.19497755389 140 142 139
174.20648343516 882.202980026597 3020.26598073057 141 141 139
165.952101395251 881.010726427383 3017.98156839769 142 142 140
156.891482305245 879.57280133746 3016.34648987591 125 125 123
147.031180558811 877.88961624818 3015.36549866937 142 142 140
138.823413852206 876.702692350028 3013.11490578241 136 136 134
132.254996913318 876.010842001284 3009.58514691426 132 132 130
124.069382380734 874.826489345873 3007.35062563486 134 132 133
117.514385567687 874.13673146347 3003.83031142406 167 165 166
111.770332793005 873.694101778993 2999.66408297692 153 151 152
106.830538430626 873.497939194541 2994.84709039184 152 150 151
102.688533272106 873.547948248966 2989.37434802796 149 147 148
94.5379428350055 872.368643457051 2987.16524203124 164 162 163
89.59133877697 872.173183831426 2982.34331651308 163 161 162
81.4582291951518 870.996001751146 2980.14659903635 168 166 167
76.5112933503556 870.80129191669 2975.32443679672 176 174 175
69.9776492341986 870.116310775442 2971.81962580672 165 163 164
62.6590212540084 869.187091527879 2968.97985725336 178 176 177
58.4962230207573 869.237925351598 2963.49204572348 176 174 177
52.7551497880276 868.79912167216 2959.32799658936 187 185 188
49.3608192374477 869.093951712737 2953.16375741933 186 184 187
43.6126389029345 868.65510997313 2948.99455600267 201 199 202
40.1980978626373 868.948889818422 2942.81536602086 207 205 208
36.7700628707901 869.241815478411 2936.62638965897 207 205 208
33.3285240242547 869.534065382276 2930.4276206418 216 214 217
28.3306765397313 869.338148225787 2925.56825087568 204 202 205
23.3278613655474 869.142077964672 2920.70557362683 232 230 233
21.3883763807825 869.91887635655 2913.12805658469 245 243 246
18.6618381700252 870.451069052516 2906.21349103859 255 255 255
13.6292841956505 870.253187055081 2901.32924632202 249 250 252
9.35212752647674 870.297694375451 2895.75879635344 245 246 248
9.61550941154687 871.797465870102 2886.07614767641 247 251 252
6.8188843512007 872.32470803378 2879.11104407891 253 254 255
3.2503348659465 872.608460973902 2872.8201593004 252 255 255
-3.33849610612136 871.922713198406 2869.27533829765 234 238 241
-5.42679174987915 872.689069350331 2861.58989234103 248 252 255
-9.03213762141197 872.97008034806 2855.27231918835 252 255 255
-10.4158504991811 873.974997634113 2846.86351756829 252 255 255
-13.3123722946764 874.494923717761 2839.82595963819 251 255 255
-19.1898241767672 874.048238268992 2835.56300678797 251 255 255
-22.85229044877 874.324980340149 2829.20400421503 247 255 255
-30.2099546289232 873.395814532688 2826.3356432809 246 255 255
-32.4210477731168 874.152700668123 2818.56113082809 244 252 254
-37.5821549739284 873.945360326724 2813.58364722583 250 255 255
-41.2889085280344 874.218395146494 2807.19252107899 252 255 253
-45.0094831492347 874.490370049509 2800.79137037697 230 229 224
-48.7438722354367 874.76116608298 2794.38019930325 226 223 218
-48.8766922925175 876.230464243135 2784.41047550656 227 222 216
-51.2079611740899 876.977604445227 2776.54850125495 233 226 220
-54.9992549713318 877.243730818669 2770.09605508904 240 235 229
-59.5208872927744 877.269079708325 2764.34798798451 242 235 229
-61.1949953118265 878.250661339178 2755.72884900653 233 226 220
-58.6233744085241 880.664759408807 2742.78368230461 240 231 224
-59.6548049052701 881.879707927217 2733.39628492103 226 217 210
-62.1329974278775 882.61464695677 2725.42774078518 203 198 194
-64.6340687413678 883.347563676042 2717.44289555918 176 172 169
201.111791226974 880.357917948088 3017.52844074567 166 168 165
190.325028836478 878.433431814979 3017.10994731546 157 159 156
182.037465498468 877.246495831806 3014.80150808624 135 137 134
172.119158752404 875.571586456941 3013.77880421272 139 141 138
161.403461817794 873.654460142936 3013.41157045001 136 136 134
151.531610833394 871.984270103897 3012.4225672539 136 136 134
144.128426833024 871.049206162185 3009.52117815546 139 139 137
135.920653026817 869.871123773534 3007.27062490583 132 132 130
126.914926895308 868.450680135522 3005.67572248517 135 133 134
121.162461857709 868.007129988672 3001.50339114679 154 152 153
117.023396565388 868.051223592081 2996.03274999173 168 166 167
112.875494233382 868.095079247243 2990.55570147276 150 148 149
107.11419078593 867.652187198376 2986.37696631586 149 147 148
98.9524465944491 866.480402705908 2984.15981281636 158 156 157
92.3994431380217 865.795775402659 2980.64126409673 153 151 152
85.8508414589547 865.111912540796 2977.12561571448 163 161 162
80.8934040967948 864.91384272608 2972.29582368183 170 168 169
73.5575787400107 863.988537140397 2969.44331372962 158 156 157
67.019138900557 863.306404016475 2965.93533512025 173 171 172
60.4851074405577 862.624916381152 2962.43026103174 172 170 171
54.7398837894271 862.185955702982 2958.26320237551 175 173 174
49.7768720100629 861.988987637499 2953.42937490945 183 181 182
44.0287780634634 861.550332127723 2949.26023706052 190 188 189
39.0587509696338 861.353323079491 2944.42102935869 213 211 212
36.4116534560548 861.879833721769 2937.56431776562 192 190 191
33.746626000414 862.405250301671 2930.69460283326 214 212 213
30.2921865812169 862.688568931674 2924.48643667699 207 205 208
24.5159129273764 862.24876568383 2920.29686494339 227 225 228
21.0408889600786 862.530894686394 2914.07377058321 216 214 217
16.0221700664458 862.331206037848 2909.19954606087 249 247 250
11.7615310300767 862.37166416894 2903.64075508986 244 244 246
6.73080739516374 862.171301721545 2898.75782466146 255 255 255
6.24577471334709 863.410141915585 2889.76664373067 247 249 248
2.70469371379578 863.687815719075 2883.49564065162 255 255 255
-1.60416540277075 863.724845436427 2877.90187654981 254 255 255
-6.67416065208215 863.521898988448 2872.99046420156 237 238 240
-9.50025083772088 864.036298980714 2866.0039356578 253 254 255
-10.8495400393347 865.027455931631 2857.62001879641 251 255 255
-14.4614728174908 865.299927645229 2851.29762740139 251 255 255
-20.3163444477465 864.85507144868 2847.05105272313 251 255 255
-26.9126038445129 864.171589591068 2843.50085817411 250 254 255
-30.5504422168643 864.442022406444 2837.15967693358 250 255 255
-34.9387119098905 864.473047546574 2831.50861047285 249 255 255
-37.867627007331 864.979644910208 2824.44720795725 250 254 255
-40.0829680455899 865.722445841355 2816.66954477103 251 255 254
-42.3207144614977 866.463660303925 2808.87533693561 252 254 253
-43.8537007505826 867.440424051007 2800.35847570783 250 250 248
-49.0406558901497 867.228171420612 2795.36193502441 250 249 247
-50.6166198662377 868.201502881184 2786.8136064919 236 234 235
-53.6616990128131 868.698580532086 2779.66824043582 225 223 224
-57.4438885415898 868.957080318681 2773.22235551825 208 208 210
-60.5233129190874 869.451256135219 2766.05207717295 208 206 209
-63.6210193923938 869.943711922848 2758.86853703395 202 200 201
-63.1756475053624 871.616657955332 2748.08365732718 210 203 197
-64.1906906181826 872.81387575755 2738.70804969836 216 209 203
-66.652906612763 873.53630824274 2730.75102394052 207 202 198
-66.3153247543369 875.200472695361 2719.88825493824 203 199 196
-61.7971717510213 878.275624762392 2704.65211490088 199 198 196
-53.1384125863625 882.758786526478 2685.01420622927 197 197 197
195.699001337955 872.693765617232 3013.56577339795 167 169 166
187.398348521374 871.514372349705 3011.24788353172 141 143 140
179.933115794676 870.578533938428 3008.30180454155 140 142 139
169.196955288178 868.676428729701 3007.92010686074 138 140 137
158.487394947712 866.776826535589 3007.5574104092 139 139 137
148.61970740034 865.121372040843 3006.57150001589 139 139 137
140.400962518719 863.951003982119 3004.31303267417 137 137 135
132.195393006072 862.782001994293 3002.06412335801 134 132 133
126.430056607719 862.337707842752 2997.882457527 141 139 140
119.858000085082 861.652960521842 2994.34980174814 154 152 153
114.094880311815 861.209682355066 2990.16974794212 138 136 137
108.331596295692 860.766749345679 2985.98957682125 142 140 141
103.368479941061 860.564694584142 2981.15564778123 148 146 147
96.0067836826664 859.641953184493 2978.28439644843 146 144 145
89.4494067068523 858.96031723105 2974.76269242304 153 151 152
82.8963899649659 858.279322865881 2971.24385799703 161 159 160
76.3474490875828 857.598957410268 2967.72798143773 152 150 151
69.8025885784377 856.91923158744 2964.21536054133 166 164 165
63.261995313213 856.240080075844 2960.7055414931 161 160 158
57.5104546949983 855.800786884336 2956.53390184838 170 169 167
50.9758466100973 855.122717677247 2953.02842706718 177 176 174
46.7867224464205 855.161750667322 2947.52176601198 184 182 183
42.5886736524586 855.200289279698 2942.00833832069 197 195 196
38.3815055477479 855.238447589093 2936.48829792011 179 177 178
33.3910436555924 855.037642675332 2931.63455184708 191 189 190
28.3958054531945 854.83663005862 2926.77734227277 222 220 223
24.1654878833026 854.873629928947 2921.24051446312 209 207 210
21.4605312179303 855.385655348975 2914.34178616564 199 197 200
16.4420057158652 855.183353639434 2909.46768860131 221 219 222
12.9446861961844 855.455909757632 2903.22838323085 221 217 218
6.3906245783194 854.778056911876 2899.70880726436 244 240 239
3.6332426667296 855.286611971895 2892.77205720902 240 239 237
0.857799580684215 855.793823362989 2885.82220741693 247 243 242
-4.19818241265268 855.589253571149 2880.92065087741 247 245 246
-8.5073176776258 855.62089433241 2875.32695377063 224 224 224
-12.8256149994688 855.651961737955 2869.72631751211 252 252 252
-14.910672127125 856.391337066074 2862.04308256173 252 252 252
-18.5089574866728 856.656669726283 2855.730548311 251 253 252
-22.8641956313733 856.684983488461 2850.10311891388 250 251 253
-27.9698725083033 856.476637190475 2845.16581284098 249 250 252
-33.8193966840936 856.032154453559 2840.92311653823 249 248 246
-37.4596233991413 856.294208883859 2834.58016149894 251 247 246
-38.9104433579011 857.261308600118 2826.12252097029 250 246 245
-40.3883659469211 858.226152957253 2817.64522174272 248 246 247
-44.0832411353655 858.483839995566 2811.26262873711 247 245 246
-44.8808269768075 859.679795216317 2802.04465412986 244 242 245
-47.8866893198011 860.169116747487 2794.92767788534 241 240 245
-49.463921959954 861.126095114389 2786.37834683954 235 235 243
-53.9532003136709 861.14326176408 2780.65398684905 229 229 237
-57.7328224969804 861.393844375422 2774.20992295295 226 229 238
-60.8093844469866 861.877308603953 2767.04137090909 218 220 232
-63.9043957994554 862.359109352061 2759.85973055083 216 216 224
-65.5928007263196 863.306723061019 2751.22976090801 234 230 227
-68.7287980912934 863.78502425358 2744.01839118866 223 219 216
-71.1751359472579 864.495072069773 2736.07310757859 219 218 216
-72.2322764891086 865.669512156256 2726.66657277442 214 212 213
-69.0995746393437 868.239352201298 2712.89419233629 201 201 201
-63.9203961685002 871.503185933303 2696.90316284796 199 199 201
-60.2106793105335 874.296044631117 2682.31457695358 185 185 187
193.585812722766 865.98900240908 3007.05947593184 160 162 159
188.572388652415 865.77582239133 3002.18902140346 146 148 145
177.813789404764 863.888508174948 3001.79113231962 138 140 137
167.899702756149 862.242906067031 3000.77134165486 144 144 142
155.560196015284 859.882887561101 3001.69539238595 137 137 135
147.323937666077 858.719514235751 2999.42397011051 143 143 141
139.10075959748 857.557569380275 2997.16233172212 135 133 134
132.508925559898 856.873739458704 2993.61563792443 136 134 135
124.307511200064 855.714394119766 2991.36978968005 147 145 146
117.729059045936 855.03247433503 2987.83251189345 135 133 134
111.957333057478 854.589156150812 2983.64621905569 140 138 139
106.185542418262 854.146131448237 2979.45988083775 145 143 144
100.41353278857 853.703566955513 2975.27338619999 143 141 142
92.2533315599567 852.549292910466 2973.05743992107 149 147 148
85.6938460028518 851.870701946066 2969.53392828655 157 155 156
79.1384844557763 851.192743791547 2966.01340944022 151 149 150
71.7977448499782 850.278521267783 2963.15768765894 164 162 163
66.0400482064896 849.838609881944 2958.98158224885 160 159 157
60.2820943301379 849.398976376451 2954.80529177268 169 168 166
54.5237935319625 848.959493997866 2950.62875057097 173 172 170
49.5457006176054 848.756285711783 2945.78395886036 179 177 178
45.341535659682 848.789131134747 2940.26606859416 186 184 185
38.7994179940927 848.113918709154 2936.75516442782 174 172 173
34.5832976431026 848.146164433217 2931.22889888147 204 202 203
29.5864121964455 847.942498772734 2926.37018726943 196 194 197
26.1237176124651 848.209087914416 2920.1562465069 195 193 196
22.6476624076875 848.474942801325 2913.93232214906 190 188 191
16.862022113374 848.034858701665 2909.7359589153 202 200 203
11.8390984699586 847.82980058264 2904.85836460567 212 208 209
6.05022252224341 847.389633590415 2900.65965535785 235 231 230
1.77818733981727 847.418544465856 2895.09283906525 244 240 239
-1.74643816802744 847.681181542328 2888.83368875933 238 234 235
-6.79368730372221 847.474461864596 2883.93874644211 236 234 235
-11.8455695157687 847.267475985264 2879.04014968359 230 228 229
-17.6525297452634 846.826381658869 2874.82832605683 248 246 247
-20.4690410284394 847.319810900332 2867.8486352429 247 247 247
-23.3037994660832 847.811761918784 2860.85570918978 247 247 247
-27.6433273460996 847.83585195661 2855.23964710482 246 246 246
-30.5100161708194 848.325395489057 2848.2235618383 244 245 247
-36.350729715297 847.881626511536 2843.98725616554 247 243 242
-39.981786545682 848.136179158263 2837.65091057333 247 242 239
-42.1576354865354 848.854936210001 2829.90175426434 245 241 240
-43.6235801177951 849.804381109933 2821.43306011269 245 241 242
-46.5768008601488 850.287083465089 2814.35391688345 242 240 241
-48.0926711994938 851.232553928072 2805.84930486626 239 237 240
-48.909662554768 852.407819064924 2796.61715798854 233 232 237
-52.6523688606428 852.653326858986 2790.19982949486 232 232 240
-57.1303019245861 852.665965558115 2784.48337653507 227 227 235
-60.8985428300701 852.909285277208 2778.04752638216 212 215 224
-59.6619303261756 854.770468991969 2766.60215071624 209 211 223
-61.3290236652699 855.703558859477 2757.98755673209 218 221 228
-65.1609445968169 855.941421067204 2751.50551592592 231 230 228
-71.1379020084606 855.485599172149 2747.17038311587 215 213 214
-74.2829626295918 855.952053790259 2739.95238324348 226 224 225
-75.3283058804985 857.108341926391 2730.55460308109 225 223 224
-74.9976068939835 858.722590039901 2719.68629722496 209 209 209
-76.1104610413401 859.873170065257 2710.23954806028 208 208 210
-74.4574183472102 861.940978590929 2697.86206149252 207 207 209
-74.9448154381034 863.315405295194 2687.63452221732 194 194 196
-74.078316030985 865.146068027161 2675.92068907414 198 198 200
196.39265985017 860.682075366892 2996.71608896082 177 179 176
184.793496230515 858.573312968365 2996.94277177568 164 166 163
175.679574815005 857.176475095178 2995.26926137547 138 140 137
164.135446763835 855.072947861069 2995.53586716558 145 147 144
155.063132818705 853.680267684977 2993.89283444517 132 134 131
147.631698233393 852.761017506829 2990.97104599463 140 139 137
139.399606142827 851.607192600809 2988.70298677063 136 135 133
129.56621104325 849.98391013385 2987.74209866222 141 140 138
120.559769439256 848.598049589022 2986.14655827345 147 146 144
115.584490390628 848.389453338816 2981.30377910305 140 139 137
109.00371186742 847.711108952598 2977.76483299196 137 136 134
101.628637650522 846.798585728563 2974.88422992564 138 137 135
93.4660953972006 845.652416066342 2972.66633316123 140 139 137
85.316492288956 844.507603696626 2970.45811761119 146 145 143
79.5552078383195 844.06698345169 2966.27940773261 146 145 143
73.0038262579202 843.392345267994 2962.7620853424 155 154 152
69.6064341778269 843.654237065251 2956.59516548856 155 154 152
63.8398589512206 843.213964878054 2952.41262197656 162 161 159
58.8561293160152 843.007660868474 2947.56343392924 162 161 159
53.0867352405124 842.567638273601 2943.37884823775 178 177 175
48.8741126957581 842.594372208905 2937.85509040749 178 176 177
41.5467968287997 841.688276569508 2935.00884646822 178 176 177
37.3245669159399 841.714710151372 2929.47812253044 183 181 182
31.5491565805268 841.275036585764 2925.28917729165 192 190 193
28.082903754346 841.533321440532 2919.07232054354 187 185 188
23.067615524607 841.32584529897 2914.20054353749 187 185 188
17.282071521346 840.885768999959 2910.00425014669 198 196 199
10.7327166429947 840.213734139777 2906.48811566536 226 224 229
4.18735124123337 839.542141959321 2902.97487548301 210 208 213
-0.077739463342219 839.566178727733 2897.4130687023 233 231 236
-2.08182929081135 840.284381821513 2889.78812695719 240 238 243
-8.63553377176185 839.612293314089 2886.26883908438 214 212 217
-13.6808562769424 839.403100987047 2881.37528089828 226 224 227
-19.4811658217149 838.962425952655 2877.16828061861 239 237 240
-23.0383418790443 839.214659375629 2870.88548102815 237 237 239
-26.6093324013754 839.46571392906 2864.59266106599 237 237 239
-29.4506188875145 839.946322472231 2857.59494523933 235 235 237
-33.051373248238 840.195145054262 2851.28053753015 234 234 236
-38.144273436542 839.982277635731 2846.35247065114 233 231 232
-41.7683269309483 840.229152984279 2840.0211630396 231 229 230
-43.9365910722236 840.93489254113 2832.27714470049 230 228 229
-47.5929008665634 841.179224871843 2825.92273540489 229 229 231
-50.5323704877012 841.652048359178 2818.85351061847 230 230 232
-53.4902720406314 842.123329269041 2811.77121079491 228 228 230
-53.5627782488262 843.510168065783 2801.84479212151 230 230 232
-55.8422104103278 844.206901773214 2794.02014009569 220 220 222
-58.8659717421902 844.67278756268 2786.89006978551 214 214 216
-61.9080250729995 845.137131752417 2779.74673140642 213 211 214
-61.3825645107859 846.742961480448 2769.01956973215 234 232 235
-62.3273785030265 847.888634049696 2759.69461160483 245 245 247
-66.1546103849033 848.118691220058 2753.21593045679 201 201 203
-71.4168610917976 847.891208363642 2748.16502374266 218 218 220
-75.9757686408367 847.891073869645 2742.38980595179 228 228 230
-78.4259529405964 848.57326818219 2734.44159288904 224 224 226
-82.3066108168726 848.798280325399 2727.92415654343 226 226 228
-85.4993835502822 849.249448303235 2720.67119723575 216 216 218
-88.7106056861544 849.69895280065 2713.40514961366 229 229 231
-90.5454337428107 850.600949347554 2704.66880365932 226 226 228
-91.0172028283482 851.954427753666 2694.45278182848 217 218 220
-84.5956667148897 855.572310655906 2676.89378950193 209 210 214
187.673489447348 852.045617749545 2995.29207189285 178 180 177
177.734284309053 850.425712252461 2994.2544969343 149 151 148
166.18509064017 848.341131642947 2994.51752651841 146 148 145
157.922099897517 847.192450809862 2992.22709425785 137 139 136
150.484189085432 846.278351647563 2989.30063714322 142 141 139
143.864200130055 845.598155501363 2985.73355165055 139 138 136
134.826832656143 844.220543502911 2984.11563421919 141 140 138
126.611997903637 843.077317181273 2981.86013889176 157 156 154
120.819019931803 842.632635812284 2977.6584331329 141 140 138
113.424485498574 841.723842934875 2974.76344735839 137 136 134
104.441172079029 840.351815152336 2973.18503762679 137 136 134
97.0682668211253 839.445431661311 2970.30574350707 137 136 134
90.4977805604616 838.771695281876 2966.77457629423 142 141 139
84.7235865066844 838.330148702743 2962.58650327677 143 142 140
76.5799418403637 837.194650759545 2960.38235983082 151 150 148
70.8116881224301 836.754123108201 2956.19859825066 152 151 147
63.47232692469 835.851662294825 2953.34393528217 160 159 157
59.274226309006 835.87370741607 2947.83038648143 158 157 155
54.2859215599054 835.664533889381 2942.97816177876 170 169 167
50.8505918633051 835.91636229023 2936.783689164 171 170 168
44.2949765288829 835.245682679937 2933.26331768609 176 175 173
39.2925177232395 835.036128828037 2928.40053600233 178 176 177
34.2849599955422 834.826172264964 2923.53435043836 194 192 195
29.2726193555088 834.616126951726 2918.66469718964 185 183 186
25.0233505092146 834.635580214843 2913.11404231826 183 181 184
16.9365641718029 833.506550847037 2910.95144392999 210 208 213
11.1527468053958 833.066733912497 2906.75640352883 222 219 226
4.60722955550041 832.397877646148 2903.24306712647 200 199 205
1.10175898988096 832.645636937384 2896.99772728804 226 225 231
-1.66066051615976 833.121223516791 2890.05715838112 237 236 242
-8.21442055419186 832.451878724122 2886.53784413125 205 204 210
-13.2595912112383 832.239950482974 2881.64438216517 221 220 225
-19.8101288000545 831.570926488444 2878.12740556241 231 230 235
-22.6166245699848 832.04336060563 2871.15486886332 231 230 235
-26.9330948353363 832.058156832326 2865.55576913734 230 229 234
-29.7714259039772 832.528121064532 2858.55984736334 228 228 230
-34.8525711723089 832.313457710115 2853.64029277991 227 227 229
-38.4600951186216 832.553546977535 2847.32093341771 224 225 227
-42.8186960205319 832.56498989663 2841.691275309 222 223 225
-44.2470081057551 833.484684097941 2833.24971109994 221 222 224
-47.9005077286381 833.720989079009 2826.89700382046 222 223 227
-50.8374429335001 834.183095122524 2819.82985647755 223 224 226
-53.7924339134119 834.643668344704 2812.74931787691 223 224 226
-53.8615686909902 836.008973772379 2802.82523415475 226 226 228
-56.8621008350483 836.465868010751 2795.71195763457 213 211 212
-59.1591172013999 837.147436123991 2787.87448162667 209 208 206
-62.917873813352 837.374975139823 2781.44542690818 235 231 228
-61.6695298127947 839.182503389561 2770.00828387904 246 242 239
-64.7564699723753 839.632158639765 2762.83233167746 220 219 217
-67.8617196015738 840.080151387291 2755.64309812972 207 208 212
-73.8280302498127 839.625072511178 2751.31568714921 225 226 230
-77.6695641565364 839.845308204824 2744.82658841042 228 228 230
-81.5250262899851 840.064236325327 2738.32738617971 226 226 228
-85.3944024805342 840.282037252031 2731.81809164262 230 230 232
-88.5758235642626 840.723082592655 2724.57360459192 226 226 228
-93.1748748910486 840.713422904369 2718.76923747287 230 230 232
-94.9935953432601 841.600115566246 2710.04449074755 219 219 221
-96.8395857323867 842.484609417487 2701.30025880259 219 219 221
-92.4747737844653 845.383043657142 2685.95206345108 219 220 224
-92.3221223461392 846.93286236029 2674.95436077988 222 223 225
-89.4551399822645 849.373985400753 2660.98840816167 216 216 216
178.153096065318 843.202200981064 2994.52151400563 182 186 185
166.603173177134 841.136858548962 2994.78411240827 167 171 170
161.59622203251 840.918586991755 2989.91832445223 138 140 139
156.585141003953 840.700567947667 2985.0492494572 146 146 146
149.949968893098 840.02206924349 2981.47116596898 136 136 136
138.474540898993 837.964255323978 2981.78780544354 140 140 140
130.25077368841 836.82860976393 2979.52587318467 150 150 150
124.449267356327 836.38335699028 2975.31798214119 151 149 150
117.846747173462 835.708986693418 2971.76329516657 142 140 141
108.85240921978 834.347287279544 2970.1766513531 137 136 134
102.264877430657 833.674728647882 2966.63283896141 139 138 136
95.6813330197646 833.002742371963 2963.09221448141 144 140 139
90.6864465146908 832.789201687089 2958.23490192584 140 136 135
81.7368870340323 831.432036344518 2956.68103642607 140 136 135
74.3803733041775 830.53355256974 2953.81366488847 156 155 153
67.0320837588689 829.635984379267 2950.95255435239 149 147 148
61.258989079934 829.195542506615 2946.76528389077 154 152 153
58.610129111468 829.667543498567 2939.90701855442 166 164 165
53.6065453320731 829.454732089042 2935.043404853 164 162 163
48.5980420085443 829.241771475216 2930.17651859033 166 164 167
40.4864134522209 828.118556050421 2927.99594099618 187 185 188
36.2495011890016 828.133215184497 2922.45421939237 172 170 173
29.6925969499231 827.465717068387 2918.93292967486 186 184 189
26.211684401273 827.706683492043 2912.70535805982 193 191 196
18.8881990631677 826.812607955981 2909.86195183685 213 211 216
13.1001382883538 826.372566745667 2905.66383416237 203 201 206
5.02719232680438 825.25296299297 2903.51131670053 205 203 208
0.762898295823877 825.266131182647 2897.95003239401 241 239 244
-3.51056109307279 825.278785493001 2892.38180684401 235 233 238
-6.28384504602231 825.74273804431 2885.43330313903 199 197 202
-10.5804208896356 825.753639151661 2879.84831109736 221 219 224
-17.1378877399675 825.086692895917 2876.32661632623 222 220 225
-22.9431628760417 824.645735080882 2872.11601495112 223 221 226
-26.5110342174517 824.880672517391 2865.8253745134 223 221 226
-27.8611550420667 825.790092302201 2857.44044077589 220 218 223
-31.4632163092421 826.022379461056 2851.12500190715 217 215 220
-35.8184947536007 826.028763978337 2845.49743222001 213 213 215
-40.9205759143174 825.809656367654 2840.56267825036 211 211 213
-43.0874693118777 826.488084558859 2832.81951525517 211 211 213
-46.0098896691956 826.940493092534 2825.76284091521 214 214 216
-48.2201095366919 827.615421714861 2817.98854638834 219 220 224
-51.1811438087899 828.064631988612 2810.90356932065 221 221 223
-51.9818705763739 829.18386067587 2801.68292915399 223 223 223
-55.7102831752307 829.405792480118 2795.27584305654 212 210 211
-58.0089945200661 830.073552305896 2787.43736285788 209 208 206
-60.3302391738973 830.739416580153 2779.58224370429 254 250 247
-61.2394038363329 831.849681357149 2770.28294918949 248 245 240
-65.0410566492692 832.065440911998 2763.82273843417 189 185 182
-68.8565895434043 832.279896794029 2757.35245910841 223 224 228
-74.818680855999 831.825040243528 2753.02810794047 227 228 232
-79.364259487732 831.814883549232 2747.26279627882 229 229 231
-83.2128386490174 832.026124620745 2740.76854472511 233 233 235
-87.0753011925476 832.236121495834 2734.26422250923 229 229 231
-90.2497356015048 832.666739973036 2727.02474743405 226 226 228
-93.4424794800801 833.095695947561 2719.7719910127 225 225 227
-94.5604718943129 834.188017344512 2710.32092744024 221 221 223
-97.7965477119964 834.613044742011 2703.03673887247 230 230 232
-97.5848293255523 836.143044433207 2692.08204918233 216 217 221
-98.795327731916 837.227334118803 2682.5638853598 216 217 219
-96.5934658388214 839.413795658839 2669.34981391346 217 217 217
-95.8182970697929 841.154254662715 2657.56931634197 210 210 210
-88.2437447944449 845.097391919979 2638.37774425679 219 219 219
165.388703500104 833.476238881135 2996.33498813085 177 181 180
166.900185138051 835.078376073644 2986.32288995071 148 152 153
162.688366533977 835.084433674859 2980.79931570748 141 141 141
156.8480978213 834.635264046493 2976.56330514743 143 143 143
143.738949684757 832.140495780041 2978.16378050093 138 138 138
135.501865472157 831.012135528442 2975.89223136463 152 152 152
129.687446235887 830.566015896989 2971.67497509052 157 155 156
122.27095943674 829.666736214193 2968.76412376367 145 143 144
114.862844559763 828.768324340281 2965.8596402945 139 138 136
108.260084770682 828.097399773925 2962.30479707753 141 140 138
104.044738732227 828.106109418937 2956.77897363198 144 140 139
96.6513505123943 827.209776367342 2953.88488188349 140 136 135
86.1060754404805 825.410480465442 2953.64208187731 138 134 133
75.5866479140965 823.613397990621 2953.41803051995 154 152 153
67.4504508769571 822.495421246522 2951.21966924469 148 146 147
63.2445638270012 822.506141436835 2945.70041852856 152 150 151
60.5921674347631 822.966922820841 2938.83953273362 163 161 162
56.3635774335491 822.976281769433 2933.30381726866 166 164 167
50.5719453568192 822.535234318053 2929.1031055844 171 169 172
43.2302355553338 821.644591748435 2926.24679992467 176 174 177
37.4420086067859 821.204059125674 2922.0485592982 177 175 178
31.6533450474545 820.763550876385 2917.85000228672 186 184 189
25.8641386831484 820.3232376291 2913.65105277205 201 199 204
18.542482458805 819.434637829581 2910.80929472539 206 204 209
14.2842650835151 819.442791506763 2905.25209563974 194 192 197
6.97025739576063 818.554930811636 2902.4158859242 202 200 205
2.70211213891391 818.562459451138 2896.8514867394 253 251 255
-3.84688971303193 817.898877067975 2893.33565098791 218 216 221
-5.86244189707696 818.575356915641 2885.70248307646 207 205 210
-10.9115971107423 818.357669193786 2880.80610344733 216 214 219
-15.2150495435992 818.362636277351 2875.21609636237 219 217 222
-21.0247474660004 817.921200679669 2871.002286395 219 217 222
-25.3425987122671 817.925061042583 2865.40183569715 220 218 223
-26.6939815988541 818.818008780936 2857.01590362982 217 215 220
-30.2979419486822 819.041907804797 2850.699340065 214 212 217
-33.9156764227662 819.264680612604 2844.37249116203 212 210 213
-37.5471871194644 819.486456880372 2838.03565053362 211 209 212
-41.1925122811647 819.707054278596 2831.6887895335 211 209 212
-43.3857141269742 820.369789346044 2823.92647549396 213 211 214
-45.6017291474697 821.030626906484 2816.14790856301 215 213 216
-47.1117199029205 821.911024357689 2807.646934697 215 213 216
-48.6488132886316 822.789166449772 2799.12630213208 216 214 217
-53.8341655941066 822.560325756937 2794.13113383252 206 204 207
-56.8585426995314 822.993302563521 2787.00045044446 227 225 228
-59.1812942534748 823.645363428384 2779.14416898983 213 211 214
-60.0917135663273 824.736408543842 2769.8438676008 194 192 195
-64.6105667482417 824.723447813994 2764.09762110805 199 197 200
-69.1391309195959 824.709531512633 2758.34462454868 217 217 219
-75.8101572032175 824.034749425714 2754.74027395383 219 219 221
-79.6423064085086 824.239256091844 2748.25789871476 232 232 234
-84.1950580701738 824.222842639684 2742.48735547892 214 214 216
-87.3483413537381 824.644350605 2735.26287268237 225 225 227
-90.5201254863377 825.064250665964 2728.02526455819 226 226 228
-94.4101989916906 825.263288148201 2721.50087105535 227 227 229
-94.1274268610166 826.774717893932 2710.59730120331 224 224 226
-97.3630430237893 827.188849410425 2703.3133906594 222 222 224
-98.5368562031581 828.257063089863 2693.8220337897 221 221 223
-103.198265310859 828.230413321228 2687.9726706034 221 221 223
-103.046144598769 829.730541919206 2676.97433150725 220 220 222
-102.247647424986 831.445408629043 2665.2106155642 221 221 223
-100.124725376292 833.592366729327 2651.93882437026 221 221 223
-93.2788057008431 837.259197644029 2633.45268804673 219 218 223
174.649328568211 829.88070781843 2980.79786908987 180 184 185
168.794006811034 829.430020006507 2976.55093856672 161 161 161
161.31869703582 828.530227175892 2973.597737087 141 141 141
149.813122471532 826.508446064976 2973.89270518275 147 147 147
142.36617774159 825.611597942955 2970.9597865682 142 142 142
135.73101117461 824.939970226641 2967.38174190176 146 144 145
128.29914452737 824.045060523256 2964.4597635296 150 148 149
119.27764134994 822.703146147294 2962.85352728082 142 141 139
111.86712941174 821.810454722395 2959.94733510603 143 142 140
106.054319344824 821.365839559355 2955.73125297355 144 143 141
99.4489126732097 820.698165707276 2952.17450744045 139 138 136
88.8963231574933 818.914766546848 2951.926485558 137 133 132
79.1576356073009 817.356570253999 2951.0345826476 153 151 152
71.7982351399424 816.469144202361 2948.16517446192 141 139 140
65.2307353352764 815.805208769597 2944.63622183849 144 142 143
61.0118921555776 815.809741400804 2939.10754760621 158 156 157
53.6665282772617 814.923940778317 2936.24861755362 165 163 166
49.4380361860252 814.928050202972 2930.71294647582 170 168 171
44.4252462285335 814.709544612068 2925.84292465431 165 163 166
40.9530509460412 814.934608450876 2919.6215918218 182 180 183
34.3852431901284 814.271772844739 2916.09212705176 189 187 190
26.2846304313373 813.166178090649 2913.9196242965 210 208 211
19.728993590439 812.504507695808 2910.39898838452 197 195 200
13.9410324077236 812.06441480975 2906.20094264473 192 190 193
7.39064463187988 811.403239749909 2902.68440887802 226 224 227
0.844241828891867 810.742496646565 2899.17047161409 241 239 242
-5.69830933199222 810.082065569186 2895.6593280682 200 198 201
-7.70641664930416 810.745526944221 2888.0314911584 205 203 206
-11.995741017752 810.746022639935 2882.45170316037 211 209 212
-14.7930997911223 811.18627811357 2875.48562707391 214 212 215
-20.6027528690436 810.744905892606 2871.27184993627 215 213 216
-24.1740528211087 810.963195768052 2864.97863970234 215 213 216
-28.5032964329521 810.96057704749 2859.36989761772 213 211 214
-30.6162396683436 811.615963750703 2851.66602201379 211 209 212
-33.4915625540257 812.050201980836 2844.64339759995 209 207 210
-37.1226625508019 812.263707129566 2838.30681280183 208 206 209
-40.7675836146726 812.47615236154 2831.96020344852 207 205 208
-44.4264602790774 812.687347546603 2825.60347105083 209 207 210
-46.6372014852572 813.334980396577 2817.82836585894 211 209 212
-48.1421295308153 814.199189561498 2809.33127453954 211 209 212
-50.4004385169794 814.842968890802 2801.52166692995 213 211 214
-54.8546613130043 814.830105974883 2795.82227287866 217 215 218
-57.8741427730058 815.252426777533 2788.69508447368 236 234 237
-59.471923969767 816.109103443302 2780.13034929278 194 192 195
-61.0970407196398 816.963456495161 2771.54608069351 196 194 197
-65.6113260251625 816.94530963943 2765.80311928309 202 200 203
-70.8486733194096 816.708731887544 2760.77021951681 217 217 219
-74.6687497388359 816.906151168917 2754.29656019886 230 230 232
-77.0847646283186 817.536377891668 2746.37255956772 223 223 225
-80.9371509623773 817.730821246735 2739.87546302947 203 203 205
-85.5081698967408 817.707192535505 2734.0916409111 227 227 229
-91.4933182452171 817.249512206916 2729.7505609028 225 225 227
-95.3787201715701 817.440623748839 2723.22951378082 225 225 227
-95.7882234160479 818.711671078666 2713.05791778032 223 223 225
-96.9295926784701 819.763454800155 2703.58999697743 220 220 222
-100.183172417673 820.164899229365 2696.29299999101 218 218 220
-106.220492641257 819.701797520751 2691.91407201668 220 220 222
-108.123638364721 820.531585476988 2683.12783537695 217 217 219
-107.306197330124 822.220564439646 2671.37772111635 217 217 219
-107.903108729351 823.475245100976 2661.0704805216 221 221 223
-106.488194276821 825.372062678245 2648.5192091297 221 220 225
-104.442363631922 827.479508568389 2635.19162707183 220 219 224
-86.8532011762504 834.52098216792 2604.74853149003 224 225 227
173.277462229137 823.292796712149 2973.59423273503 186 186 186
164.981041366129 822.175700616412 2971.27972624971 146 146 146
155.889620316381 820.83799020093 2969.62312081408 146 146 146
148.427299039393 819.945452581927 2966.67907724596 144 144 144
140.973387926963 819.053965101314 2963.7414301818 146 146 146
132.726734963794 817.94203589298 2961.46302768047 149 149 149
122.894986764404 816.389194955408 2960.50339576837 143 142 140
114.678539482334 815.280250438443 2958.24690512795 143 142 140
109.654169809084 815.056027256206 2953.36845996263 145 144 142
103.83257084801 814.611178045245 2949.14600538771 142 141 139
93.2681959566386 812.843193943318 2948.88951811525 136 135 133
82.72980974633 811.077494445837 2948.65188216428 154 152 153
72.2175587520217 809.313961577759 2948.43290868652 138 136 137
