ply
format ascii 1.0
comment KinectMotionCapture
element vertex 804
property float x
property float y
property float z
property uchar red
property uchar green
property uchar blue
end_header
138.038218021393 191.153690218925 2707.99994468689 18 21 12
146.175980567932 192.137002944946 2721.99988365173 19 22 13
152.696684002876 191.002532839775 2706.00008964539 16 19 10
160.135164856911 191.067725419998 2707.00001716614 16 19 10
167.392805218697 190.9209638834 2704.99992370605 16 19 10
173.152893781662 189.150661230087 2680.0000667572 15 18 11
180.661395192146 189.356341958046 2683.00008773804 15 18 11
191.338315606117 192.737638950348 2730.99994659424 16 19 12
199.874222278595 193.789601325989 2746.00005149841 18 21 14
206.82980120182 193.288743495941 2739.00008201599 18 23 19
213.824689388275 192.858219146729 2733.00004005432 19 24 18
221.352815628052 192.921444773674 2733.99996757507 24 25 17
239.879354834557 195.869579911232 2776.00002288818 23 25 14
247.975870966911 196.284770965576 2782.00006484985 23 24 16
297.154366970062 204.000055789948 2891.99995994568 59 49 40
302.389144897461 202.226832509041 2867.00010299683 49 36 27
309.434205293655 201.723143458366 2859.99989509583 75 59 46
317.660212516785 201.995104551315 2864.00008201599 82 64 54
326.474905014038 202.619418501854 2872.99990653992 69 52 42
335.686594247818 203.455075621605 2884.99999046326 67 53 44
-145.038634538651 186.685279011726 2750.99992752075 103 93 83
-136.885017156601 185.807749629021 2737.99991607666 76 64 52
-129.085391759872 185.337126255035 2730.99994659424 96 80 67
-121.234357357025 184.730499982834 2721.99988365173 99 83 68
-113.515570759773 184.259369969368 2714.99991416931 96 77 62
-106.186255812645 184.398785233498 2717.00000762939 108 89 74
-98.9183336496353 184.673696756363 2720.99995613098 56 33 19
-91.3927853107452 184.473291039467 2717.99993515015 90 67 53
-83.7596580386162 184.001103043556 2710.99996566772 85 66 52
-76.3334110379219 183.935910463333 2710.00003814697 80 62 50
-69.141261279583 184.481367468834 2717.99993515015 38 28 16
-61.8143193423748 184.755071997643 2721.99988365173 26 19 9
-54.3454177677631 184.621274471283 2720.00002861023 23 19 8
-46.421442180872 182.654559612274 2690.99998474121 19 21 10
-38.8007983565331 181.366324424744 2671.99993133545 12 15 8
-31.5785072743893 181.774795055389 2677.99997329712 12 15 8
-24.1511519998312 180.89334666729 2664.99996185303 12 15 8
-16.8516580015421 180.622532963753 2661.00001335144 16 19 12
-9.60275903344154 180.894464254379 2664.99996185303 18 21 14
-2.31625675223768 179.944381117821 2651.00002288818 18 21 14
4.93279984220862 180.419489741325 2657.99999237061 18 21 14
12.4493194743991 184.2882335186 2714.99991416931 18 21 14
19.6332447230816 182.183489203453 2684.00001525879 17 20 13
27.0195007324219 182.58997797966 2690.00005722046 15 18 11
34.1701507568359 181.570783257484 2674.99995231628 11 14 7
41.8589115142822 183.266416192055 2700.00004768372 11 12 4
49.1187572479248 182.857632637024 2694.00000572205 14 15 7
56.0941100120544 181.634098291397 2676.00011825562 16 17 9
63.5158717632294 181.971445679665 2680.99999427795 16 17 9
71.4930817484856 183.666035532951 2706.00008964539 15 16 8
78.8194164633751 183.527752757072 2703.9999961853 16 19 8
85.8476310968399 182.778403162956 2693.00007820129 18 21 10
92.5039947032928 181.417986750603 2673.00009727478 17 20 9
100.581586360931 182.840034365654 2694.00000572205 18 21 10
107.651576399803 182.36143887043 2687.00003623962 21 24 13
115.624375641346 183.375716209412 2701.99990272522 20 23 12
122.17640131712 182.150185108185 2684.00001525879 22 25 14
130.028918385506 182.892471551895 2694.9999332428 18 21 12
138.348743319511 184.177413582802 2713.99998664856 20 23 14
146.503135561943 185.12274324894 2727.9999256134 20 23 14
153.32256257534 184.371307492256 2717.00000762939 16 19 10
160.4955047369 184.094697237015 2713.00005912781 17 20 11
169.811949133873 186.192765831947 2743.99995803833 16 19 10
174.450933933258 183.201566338539 2700.00004768372 16 19 12
183.495610952377 184.891954064369 2724.99990463257 16 19 12
190.503925085068 184.478729963303 2719.00010108948 17 20 13
200.681522488594 187.050521373749 2756.99996948242 18 21 14
205.779433250427 184.87286567688 2724.99990463257 17 22 18
214.45769071579 185.951501131058 2740.9999370575 18 23 17
222.412660717964 186.351448297501 2746.99997901917 23 24 16
230.817943811417 187.09035217762 2757.99989700317 23 23 13
238.6774122715 187.354117631912 2762.00008392334 23 23 13
291.491746902466 197.621360421181 2914.00003433228 86 85 80
296.650171279907 195.781007409096 2887.00008392334 44 35 26
303.34809422493 195.025607943535 2875.99992752075 57 47 37
311.067044734955 194.948181509972 2875 75 63 51
320.443242788315 195.887610316277 2888.99993896484 71 57 48
330.689936876297 197.30132818222 2910.00008583069 57 44 35
-137.639418244362 179.318755865097 2753.00002098084 97 89 76
-129.609569907188 178.606539964676 2742.00010299683 90 81 66
-121.639184653759 177.894040942192 2730.99994659424 93 80 64
-113.64471912384 177.050992846489 2717.99993515015 99 82 66
-106.306999921799 177.184820175171 2720.00002861023 100 81 66
-99.1760492324829 177.709251642227 2727.9999256134 61 39 25
-91.8329358100891 177.907779812813 2730.99994659424 55 33 20
-84.2567831277847 177.650049328804 2726.99999809265 65 45 34
-76.7584517598152 177.522361278534 2724.99990463257 71 55 42
-69.5505738258362 178.111031651497 2733.99996757507 28 20 9
-61.9753301143646 177.787438035011 2729.00009155273 17 13 2
-54.1074424982071 176.421195268631 2707.99994468689 17 19 8
-46.3194735348225 174.924433231354 2684.99994277954 23 26 15
-38.5406948626041 172.906160354614 2654.00004386902 15 18 11
-31.4970090985298 174.01485145092 2671.0000038147 13 16 9
-24.342268705368 174.993008375168 2686.00010871887 12 15 8
-16.8838817626238 173.690661787987 2665.99988937378 15 18 11
-9.58145689219236 173.235058784485 2658.99991989136 16 19 12
-2.31633358635008 172.714039683342 2651.00002288818 18 21 14
4.95523400604725 173.951864242554 2670.00007629395 18 21 14
12.2800674289465 174.472779035568 2677.99997329712 17 20 13
19.7070445865393 175.514668226242 2694.00000572205 16 19 12
26.9500855356455 174.797281622887 2683.00008773804 14 17 10
34.2479273676872 174.665972590446 2680.99999427795 13 16 9
42.3874258995056 178.117632865906 2733.99996757507 11 12 4
49.5579764246941 177.073746919632 2717.99993515015 13 14 6
56.0959577560425 174.335822463036 2676.00011825562 14 15 7
63.2573589682579 173.943012952805 2670.00007629395 15 16 8
71.6275423765183 176.611855626106 2710.99996566772 14 15 7
79.5216262340546 177.716881036758 2727.9999256134 14 15 7
87.0299786329269 177.844494581223 2730.00001907349 16 19 8
94.514288008213 177.906706929207 2730.99994659424 17 20 9
100.472867488861 175.29784142971 2690.99998474121 17 20 9
107.014074921608 173.991665244102 2671.0000038147 19 22 11
114.002019166946 173.532128334045 2664.00003433228 18 21 10
123.181894421577 176.26416683197 2706.00008964539 19 22 11
130.370900034904 175.999537110329 2701.99990272522 16 19 10
138.812050223351 177.363097667694 2723.00004959106 19 22 13
146.561622619629 177.749365568161 2729.00009155273 20 23 14
154.286906123161 178.070217370987 2733.99996757507 16 19 10
161.269783973694 177.544146776199 2726.0000705719 16 19 10
168.022707104683 176.822483539581 2714.99991416931 16 19 10
176.330372691154 177.728846669197 2729.00009155273 16 19 12
184.646308422089 178.569748997688 2742.00010299683 16 19 12
192.261710762978 178.694054484367 2743.99995803833 16 19 12
198.940947651863 177.971571683884 2733.00004005432 14 19 13
208.882227540016 180.114075541496 2766.00003242493 15 20 16
216.811805963516 180.432990193367 2770.99990844727 16 21 17
224.36298429966 180.426120758057 2770.99990844727 21 22 14
230.825260281563 179.572612047195 2757.99989700317 22 22 12
237.734347581863 179.109558463097 2750.99992752075 22 22 10
247.991770505905 181.120350956917 2782.00006484985 22 24 13
299.433797597885 189.671337604523 2914.00003433228 34 27 19
306.31086230278 189.01127576828 2904.00004386902 41 32 23
315.080016851425 189.522579312325 2911.99994087219 56 47 38
-130.700826644897 172.564148902893 2765.00010490417 101 95 83
-122.266590595245 171.319827437401 2744.99988555908 55 45 33
-114.108264446259 170.324891805649 2729.00009155273 87 73 60
-106.66211694479 170.328304171562 2729.00009155273 83 69 56
-99.4700342416763 170.768365263939 2736.00006103516 75 59 46
-92.1048521995544 170.95859348774 2739.00008201599 37 19 7
-84.6302360296249 170.96135020256 2739.00008201599 54 40 29
-76.9862458109856 170.589342713356 2733.00004005432 73 61 49
-69.5018917322159 170.529201626778 2732.00011253357 57 50 40
-61.9545839726925 170.281544327736 2727.9999256134 22 18 7
-54.1291534900665 169.097378849983 2709.00011062622 17 19 8
-46.1656861007214 167.039051651955 2676.00011825562 17 20 9
-38.861408829689 167.040377855301 2676.00011825562 17 20 13
-31.5451808273792 166.979029774666 2674.99995231628 14 17 10
-16.9730857014656 167.292669415474 2680.0000667572 15 18 11
-9.58896894007921 166.107058525085 2661.00001335144 15 18 11
-2.32514552772045 166.10723733902 2661.00001335144 19 22 15
4.96096024289727 166.856288909912 2673.00009727478 19 22 15
12.3584140092134 168.229296803474 2694.9999332428 16 19 12
19.6125730872154 167.354896664619 2680.99999427795 15 18 11
26.8303994089365 166.729941964149 2671.0000038147 13 16 9
34.6067100763321 169.101029634476 2709.00011062622 13 16 9
42.5748266279697 171.409428119659 2746.00005149841 10 11 3
49.7965887188911 170.471653342247 2730.99994659424 11 12 4
56.9362752139568 169.5336997509 2716.00008010864 12 13 5
64.0412345528603 168.720364570618 2703.00006866455 14 15 7
71.5241283178329 168.967917561531 2707.00001716614 14 15 7
78.8828283548355 168.903186917305 2706.00008964539 13 16 7
87.0327353477478 170.398622751236 2730.00001907349 15 18 7
94.2057967185974 169.896468520164 2721.99988365173 16 19 10
100.812084972858 168.52031648159 2700.00004768372 16 19 10
107.337966561317 167.206391692162 2678.99990081787 18 21 10
115.67460000515 168.700858950615 2703.00006866455 17 20 9
121.956616640091 167.199313640594 2678.99990081787 17 20 11
131.147012114525 169.62942481041 2717.99993515015 15 18 9
138.663455843925 169.750109314919 2720.00002861023 18 21 12
145.975425839424 169.62094604969 2717.99993515015 19 22 13
154.40459549427 170.739650726318 2736.00006103516 15 18 9
161.393120884895 170.235574245453 2727.9999256134 15 18 9
166.666388511658 168.046504259109 2693.00007820129 15 18 9
175.172731280327 169.164508581161 2710.99996566772 15 18 11
185.392782092094 171.77976667881 2753.00002098084 15 18 11
192.96832382679 171.83643579483 2753.99994850159 15 18 11
201.276525855064 172.516837716103 2765.00010490417 15 18 11
210.852175951004 174.195200204849 2792.00005531311 15 20 14
219.244062900543 174.812629818916 2802.00004577637 16 21 15
226.151183247566 174.244463443756 2792.99998283386 21 22 14
232.840970158577 173.551380634308 2782.00006484985 22 22 12
240.161329507828 173.35718870163 2779.00004386902 22 22 12
248.712420463562 174.036100506783 2789.99996185303 22 24 13
-123.29476326704 165.205731987953 2767.99988746643 129 129 121
-114.906169474125 164.015546441078 2747.99990653992 16 13 6
-107.525229454041 164.197906851768 2750.99992752075 22 19 12
-99.9457016587257 164.081618189812 2749.00007247925 38 35 28
-92.4102962017059 164.024770259857 2747.99990653992 47 44 37
-84.8799869418144 163.967698812485 2746.99997901917 14 14 4
-77.2139430046082 163.611978292465 2740.9999370575 16 16 6
-69.6057751774788 163.315713405609 2736.00006103516 17 17 7
-61.7974959313869 162.42228448391 2720.99995613098 15 15 5
-53.930975496769 161.110773682594 2698.99988174438 19 19 9
-46.3051088154316 160.216897726059 2684.00001525879 22 24 13
-38.8480685651302 159.680902957916 2674.99995231628 17 20 11
-31.723041087389 160.577386617661 2690.00005722046 15 18 9
-24.2894068360329 159.981265664101 2680.0000667572 13 16 7
-17.0116052031517 160.340070724487 2686.00010871887 14 17 8
-9.68295708298683 160.400167107582 2687.00003623962 15 18 9
-2.32958537526429 159.146726131439 2665.99988937378 17 20 11
4.95368707925081 159.325778484344 2668.99991035461 18 21 12
12.239558622241 159.325510263443 2668.99991035461 19 22 13
19.6716953068972 160.518929362297 2688.99989128113 18 21 12
26.8111266195774 159.32434797287 2668.99991035461 15 18 9
34.5438905060291 161.412730813026 2703.9999961853 14 17 8
42.1730019152164 162.366703152657 2720.00002861023 12 15 8
50.0898621976376 163.977041840553 2746.99997901917 10 13 6
57.2524704039097 163.020357489586 2730.99994659424 9 12 5
63.9720931649208 161.168083548546 2700.00004768372 11 14 7
71.050688624382 160.509467124939 2688.99989128113 12 15 8
78.6520019173622 161.044463515282 2697.99995422363 12 15 8
87.5773429870605 163.966789841652 2746.99997901917 15 18 11
93.897171318531 161.934688687325 2713.00005912781 16 19 12
101.599253714085 162.409260869026 2720.99995613098 14 17 10
109.585009515285 163.241758942604 2734.99989509583 17 20 13
117.004781961441 163.178727030754 2733.99996757507 17 20 13
123.644717037678 162.100866436958 2716.00008010864 14 17 10
130.957961082458 161.977738142014 2713.99998664856 13 16 9
138.565674424171 162.212491035461 2717.99993515015 14 17 10
145.764961838722 161.969587206841 2713.99998664856 16 19 12
154.296338558197 163.158759474754 2733.99996757507 15 18 11
162.936195731163 164.347663521767 2753.99994850159 13 16 9
167.785376310349 161.776795983315 2710.99996566772 15 18 11
175.50103366375 162.070170044899 2716.00008010864 15 18 11
186.408445239067 165.167808532715 2767.99988746643 15 18 11
195.216298103333 166.236340999603 2786.00001335144 15 18 11
203.975930809975 167.185246944427 2802.00004577637 14 17 10
210.707351565361 166.463270783424 2789.99996185303 11 17 7
215.494602918625 164.309248328209 2753.99994850159 13 19 7
227.777257561684 167.822867631912 2812.99996376038 17 23 13
236.446797847748 168.532148003578 2825.00004768372 17 23 13
243.279546499252 167.928740382195 2815.00005722046 18 24 14
250.59175491333 167.683094739914 2811.00010871887 21 24 15
-115.662179887295 157.54497051239 2766.00003242493 1 1 0
-108.231917023659 157.719001173973 2769.00005340576 14 14 6
-100.457616150379 157.380193471909 2763.00001144409 17 17 9
-92.4802348017693 156.642436981201 2750 24 24 16
-85.0987508893013 156.872808933258 2753.99994850159 10 10 0
-77.075332403183 155.849799513817 2736.00006103516 10 12 1
-69.3788230419159 155.339226126671 2726.99999809265 12 14 3
-62.139980494976 155.853778123856 2736.00006103516 13 15 4
-54.0724284946918 154.146507382393 2706.00008964539 19 21 10
-46.4789904654026 153.464362025261 2694.00000572205 21 23 12
-39.1832366585732 153.693422675133 2697.99995422363 17 20 11
-31.8654850125313 153.922319412231 2701.99990272522 16 19 10
-24.4079437106848 153.4104347229 2693.00007820129 15 18 9
-17.1007718890905 153.809785842896 2700.00004768372 14 17 8
-9.75531432777643 154.208943247795 2707.00001716614 13 16 7
-2.33839196152985 152.443140745163 2676.00011825562 17 20 11
4.94455173611641 151.75949037075 2664.00003433228 17 20 11
12.2811915352941 152.556791901588 2677.99997329712 19 22 13
19.701536744833 153.410837054253 2693.00007820129 18 21 12
27.0027779042721 153.125330805779 2687.99996376038 15 18 9
34.6726514399052 154.605552554131 2713.99998664856 14 17 8
41.9416539371014 154.091790318489 2704.99992370605 12 15 8
49.325454980135 154.090479016304 2704.99992370605 10 13 6
56.6042363643646 153.804138302803 2700.00004768372 9 12 5
64.0213489532471 153.916358947754 2701.99990272522 9 12 5
71.766197681427 154.711902141571 2716.00008010864 10 13 6
78.8000524044037 153.969258069992 2703.00006866455 10 13 6
86.3046124577522 154.194742441177 2707.00001716614 12 15 8
94.2806079983711 155.160531401634 2723.99997711182 13 16 9
101.900927722454 155.442550778389 2729.00009155273 14 17 10
110.189214348793 156.635671854019 2750 16 19 12
117.82132089138 156.803339719772 2753.00002098084 15 18 11
124.012492597103 155.148178339005 2723.99997711182 12 15 8
130.382686853409 153.891548514366 2701.99990272522 11 14 7
138.722598552704 154.969900846481 2720.99995613098 12 15 8
146.306246519089 155.136749148369 2723.99997711182 13 16 9
152.494758367538 153.879642486572 2701.99990272522 13 16 9
161.816716194153 155.754566192627 2734.99989509583 12 15 8
168.966129422188 155.465215444565 2730.00001907349 14 17 10
177.186131477356 156.143739819527 2742.00010299683 14 17 10
186.548441648483 157.733127474785 2769.99998092651 15 18 11
195.221826434135 158.638924360275 2786.00001335144 14 17 10
202.816903591156 158.633396029472 2786.00001335144 14 17 10
209.655940532684 158.058315515518 2776.00002288818 11 17 7
215.657189488411 156.913742423058 2756.00004196167 13 19 7
222.925156354904 156.736925244331 2753.00002098084 16 22 12
235.783770680428 160.374268889427 2816.99991226196 17 23 13
245.533362030983 161.734044551849 2841.00008010864 18 24 14
-115.247219800949 149.457111954689 2756.00004196167 2 3 0
-109.055757522583 151.303961873055 2789.99996185303 11 12 4
-100.460402667522 149.84256029129 2763.00001144409 14 15 7
-91.2721157073975 147.187769412994 2713.99998664856 19 20 12
-84.297701716423 147.949412465096 2727.9999256134 15 17 6
-75.5843818187714 145.511046051979 2683.00008773804 13 16 5
-69.3298727273941 147.790864109993 2724.99990463257 14 17 6
-62.0962753891945 148.280769586563 2733.99996757507 17 20 9
-54.853267967701 148.878961801529 2744.99988555908 18 21 10
-46.8080975115299 147.14477956295 2713.00005912781 18 21 10
-39.2424240708351 146.549344062805 2701.99990272522 18 21 12
-31.7838191986084 146.170645952225 2694.9999332428 19 22 13
-24.4448781013489 146.279886364937 2697.00002670288 19 22 13
-17.0759148895741 146.226212382317 2696.00009918213 16 19 10
-9.65828355401754 145.358756184578 2680.0000667572 14 17 8
-2.34719621948898 145.684376358986 2686.00010871887 15 18 9
4.94469003751874 144.491076469421 2664.00003433228 16 19 10
12.1714686974883 143.948465585709 2654.00004386902 18 21 12
19.4387082010508 144.110754132271 2657.00006484985 19 22 13
26.9533023238182 145.52029967308 2683.00008773804 17 20 11
34.5841906964779 146.821171045303 2707.00001716614 16 19 10
42.0048497617245 146.928623318672 2709.00011062622 14 17 10
49.4180098176003 146.981611847878 2710.00003814697 13 16 9
56.5429180860519 146.275088191032 2697.00002670288 11 14 7
63.4307637810707 145.188719034195 2677.00004577637 9 12 5
71.8474686145782 147.464781999588 2719.00010108948 9 12 5
78.9480060338974 146.866142749786 2707.99994468689 9 12 5
87.1040895581245 148.165509104729 2732.00011253357 9 12 5
94.4216772913933 147.946119308472 2727.9999256134 9 12 5
101.829066872597 147.889226675034 2726.99999809265 13 16 9
109.711423516273 148.482903838158 2737.99991607666 13 16 9
117.43938177824 148.805215954781 2743.99995803833 11 14 7
123.697213828564 147.337794303894 2717.00000762939 10 13 6
130.531042814255 146.683648228645 2704.99992370605 11 14 7
138.777390122414 147.601872682571 2721.99988365173 11 14 7
146.686255931854 148.086085915565 2730.99994659424 12 15 8
154.192119836807 148.136302828789 2732.00011253357 11 14 7
159.513652324677 146.180108189583 2696.00009918213 11 14 7
169.280201196671 148.290321230888 2734.99989509583 13 16 9
176.221638917923 147.851958870888 2726.99999809265 13 16 9
184.735104441643 148.714646697044 2743.00003051758 14 17 10
193.05482506752 149.360239505768 2755.00011444092 14 17 10
201.803177595139 150.276660919189 2772.0000743866 14 17 10
208.981841802597 150.000184774399 2766.99995994568 11 17 7
216.758504509926 150.157228112221 2769.99998092651 13 19 7
222.607210278511 149.013116955757 2749.00007247925 16 22 12
228.759095072746 148.139953613281 2733.00004005432 17 23 13
244.329929351807 153.228878974915 2826.99990272522 18 24 14
251.051098108292 152.626216411591 2815.99998474121 23 26 17
-107.729598879814 141.941085457802 2756.00004196167 22 23 15
-100.281246006489 142.046764492989 2757.99989700317 21 22 14
-91.4763212203979 140.092089772224 2720.00002861023 14 15 7
-82.3222175240517 137.210041284561 2664.00003433228 17 20 9
-76.2343555688858 139.3753439188 2706.00008964539 16 19 8
-69.458931684494 140.613377094269 2730.00001907349 16 19 8
-62.0070733129978 140.615075826645 2730.00001907349 17 20 9
-54.4150918722153 140.256032347679 2723.00004959106 17 20 9
-46.8783490359783 139.948278665543 2717.00000762939 16 19 8
-39.0691831707954 138.558685779572 2690.00005722046 19 22 13
-31.5605849027634 137.838453054428 2676.00011825562 20 23 14
-24.3458244949579 138.354286551476 2686.00010871887 20 23 14
-17.0066971331835 138.303309679031 2684.99994277954 17 20 11
-9.64412558823824 137.840077280998 2676.00011825562 16 19 10
-2.33851955272257 137.84022629261 2676.00011825562 14 17 8
4.94110910221934 137.11903989315 2661.99994087219 15 18 9
12.1075864881277 135.985612869263 2640.00010490417 18 21 12
19.2782673984766 135.727643966675 2634.99999046326 19 22 13
26.8033277243376 137.426882982254 2667.99998283386 17 20 11
34.4828963279724 139.022842049599 2698.99988174438 17 20 11
42.5176620483398 141.236752271652 2742.00010299683 16 19 12
49.5834462344646 140.050873160362 2719.00010108948 14 17 10
56.3138015568256 138.34972679615 2686.00010871887 13 16 9
63.8589635491371 138.811737298965 2694.9999332428 11 14 7
71.3737159967422 139.119029045105 2700.99997520447 10 13 6
80.0871178507805 141.486346721649 2746.99997901917 10 13 6
87.6484140753746 141.58721268177 2749.00007247925 9 12 5
94.3549424409866 140.400245785713 2726.0000705719 8 11 4
101.122260093689 139.470666646957 2707.99994468689 13 16 9
108.552262187004 139.519482851028 2709.00011062622 12 15 8
116.372480988503 140.0316208601 2719.00010108948 10 13 6
123.472824692726 139.668017625809 2711.99989318848 10 13 6
129.086762666702 137.759312987328 2674.99995231628 13 16 9
137.863293290138 139.249354600906 2703.9999961853 13 16 9
145.991817116737 139.966696500778 2717.99993515015 12 15 8
154.252558946609 140.735298395157 2733.00004005432 12 15 8
161.884531378746 140.885770320892 2736.00006103516 13 16 9
176.032334566116 140.259310603142 2723.99997711182 12 15 8
183.729618787766 140.460714697838 2727.9999256134 13 16 9
190.116584300995 139.683708548546 2713.00005912781 14 17 10
199.988320469856 141.429334878922 2746.99997901917 15 18 9
208.836168050766 142.350926995277 2765.00010490417 13 19 9
215.746745467186 141.933768987656 2756.99996948242 14 20 8
221.155241131783 140.589833259583 2730.99994659424 16 22 12
227.341920137405 139.812082052231 2716.00008010864 16 22 12
233.618885278702 139.1371935606 2703.00006866455 21 24 15
245.351627469063 141.653507947922 2752.00009346008 22 25 16
-107.49775916338 134.128853678703 2750 15 18 9
-100.39284825325 134.667918086052 2760.99991798401 13 16 7
-92.6557406783104 134.377613663673 2755.00011444092 7 10 1
-84.0548276901245 132.672592997551 2720.00002861023 14 20 8
-76.4053016901016 132.284343242645 2711.99989318848 16 22 10
-67.7559599280357 129.896014928818 2663.00010681152 17 23 11
-60.8048066496849 130.580469965935 2677.00004577637 16 22 10
-53.7769757211208 131.264805793762 2690.99998474121 17 23 11
-46.6034673154354 131.753817200661 2700.99997520447 18 24 12
-38.9394462108612 130.779266357422 2680.99999427795 17 20 11
-31.5024070441723 130.292341113091 2671.0000038147 18 21 12
-24.2920555174351 130.732044577599 2680.0000667572 18 21 12
-17.1274747699499 131.903305649757 2703.9999961853 17 20 11
-9.71284508705139 131.464600563049 2694.9999332428 16 19 10
-2.36130016855896 131.806209683418 2701.99990272522 14 17 8
4.97278943657875 130.684211850166 2678.99990081787 15 18 9
12.1812736615539 129.562050104141 2655.99989891052 18 21 12
19.4689817726612 129.805564880371 2661.00001335144 19 22 13
26.8843770027161 130.536705255508 2676.00011825562 18 21 12
34.3304537236691 131.072521209717 2687.00003623962 17 20 11
42.3946864902973 133.364260196686 2733.99996757507 17 20 13
49.3476204574108 131.997287273407 2706.00008964539 16 19 12
56.1894178390503 130.727738142014 2680.0000667572 15 18 11
63.8368725776672 131.409153342247 2694.00000572205 13 16 9
71.5076476335526 131.992846727371 2706.00008964539 12 15 8
79.7101110219955 133.356750011444 2733.99996757507 11 14 7
87.6506119966507 134.08637046814 2749.00007247925 10 13 6
94.8765128850937 133.693918585777 2740.9999370575 8 11 4
101.535566151142 132.618486881256 2719.00010108948 13 16 9
107.913821935654 131.347790360451 2693.00007820129 11 14 7
115.647777915001 131.784021854401 2701.99990272522 10 13 6
131.985455751419 133.387476205826 2734.99989509583 13 16 9
139.447286725044 133.384183049202 2734.99989509583 13 16 9
146.102875471115 132.649198174477 2720.00002861023 11 14 7
154.933676123619 133.864745497704 2744.99988555908 12 15 8
162.421047687531 133.860930800438 2744.99988555908 13 16 9
168.236538767815 132.540315389633 2717.99993515015 13 16 9
176.16593837738 132.926300168037 2726.0000705719 12 15 8
183.330044150352 132.726922631264 2721.99988365173 13 16 9
191.592857241631 133.307576179504 2733.99996757507 14 17 10
199.701979756355 133.741736412048 2743.00003051758 16 19 10
207.104042172432 133.688136935234 2742.00010299683 14 20 10
214.734673500061 133.780658245087 2743.99995803833 15 21 9
220.917671918869 132.995456457138 2727.9999256134 16 22 12
226.845175027847 132.11265206337 2710.00003814697 15 21 11
236.476734280586 133.374691009521 2736.00006103516 20 23 14
249.36954677105 136.342570185661 2796.99993133545 22 25 16
-107.265748083591 126.348793506622 2743.99995803833 11 14 5
-100.649751722813 127.456307411194 2767.99988746643 14 17 8
-93.2296887040138 127.642720937729 2772.0000743866 13 19 9
-85.2620527148247 127.046167850494 2759.0000629425 14 20 8
-76.801560819149 125.52846968174 2726.0000705719 15 21 9
-68.3682337403297 123.73423576355 2687.00003623962 16 22 10
-60.5109743773937 122.676588594913 2664.00003433228 16 24 11
-53.4784942865372 123.230516910553 2676.00011825562 15 23 10
-46.4492924511433 123.968474566936 2691.99991226196 15 21 9
-39.129201322794 124.061569571495 2694.00000572205 18 21 12
-31.7744351923466 124.062404036522 2694.00000572205 18 21 12
-24.4648586958647 124.293297529221 2698.99988174438 18 21 12
-17.0835442841053 124.201700091362 2697.00002670288 18 21 12
-9.72389057278633 124.248057603836 2697.99995422363 18 21 12
-2.36572651192546 124.662660062313 2707.00001716614 15 18 9
5.01745892688632 124.478422105312 2703.00006866455 15 18 9
12.2687080875039 123.188771307468 2674.99995231628 17 20 11
19.6084640920162 123.418658971786 2680.0000667572 17 20 11
27.0658582448959 124.062828719616 2694.00000572205 19 22 13
34.3568287789822 123.831860721111 2688.99989128113 19 22 13
41.4187647402287 123.00205975771 2671.0000038147 16 19 12
48.8746464252472 123.415485024452 2680.0000667572 13 16 9
56.4213991165161 123.920805752277 2690.99998474121 13 16 9
63.885785639286 124.149650335312 2696.00009918213 14 17 10
72.2228661179543 125.851914286613 2733.00004005432 13 16 9
79.6245485544205 125.758036971092 2730.99994659424 12 15 8
87.2063040733337 125.940307974815 2734.99989509583 11 14 7
94.9133932590485 126.260533928871 2742.00010299683 10 13 6
101.911403238773 125.65965950489 2729.00009155273 9 12 5
108.677759766579 124.874442815781 2711.99989318848 10 13 6
115.69332331419 124.457478523254 2703.00006866455 12 15 8
123.752005398273 125.145360827446 2717.99993515015 12 15 8
132.519409060478 126.431629061699 2746.00005149841 12 15 8
139.654546976089 126.106217503548 2739.00008201599 12 15 8
147.449195384979 126.379176974297 2744.99988555908 12 15 8
153.921350836754 125.547021627426 2726.99999809265 14 17 10
161.95148229599 126.003801822662 2736.99998855591 14 17 10
175.976157188416 125.351622700691 2723.00004959106 16 19 12
184.479311108589 126.084089279175 2739.00008201599 16 19 12
192.648530006409 126.540154218674 2749.00007247925 16 19 12
199.415370821953 126.075431704521 2739.00008201599 18 21 12
207.259893417358 126.300990581512 2743.99995803833 14 20 10
213.800519704819 125.743955373764 2732.00011253357 16 22 10
220.760777592659 125.46294927597 2726.0000705719 17 23 13
228.85936498642 125.826120376587 2733.99996757507 16 22 12
236.655011773109 126.005038619041 2737.99991607666 19 22 13
-114.171087741852 118.25206130743 2730.00001907349 16 19 10
-108.792744576931 120.550237596035 2782.99999237061 5 8 0
-101.597443223 121.029011905193 2793.99991035461 14 17 8
-94.6107506752014 121.854193508625 2812.99996376038 14 17 8
-85.4493975639343 119.776867330074 2765.00010490417 15 21 9
-77.3949399590492 118.998885154724 2746.99997901917 15 21 9
-68.7768906354904 117.094419896603 2703.00006866455 17 23 11
-60.8530603349209 116.056129336357 2678.99990081787 16 24 11
-53.359791636467 115.667499601841 2670.00007629395 15 23 10
-46.433087438345 116.578333079815 2690.99998474121 16 22 10
-39.5367816090584 117.922261357307 2721.99988365173 19 22 13
-32.1997627615929 118.269614875317 2730.00001907349 18 21 12
-24.5288666337729 117.230504751205 2706.00008964539 18 21 12
-17.0902647078037 116.884373128414 2697.99995422363 18 21 12
-9.67725459486246 116.321466863155 2684.99994277954 18 21 12
-2.36315815709531 117.144733667374 2703.9999961853 16 19 10
5.01014711335301 116.928093135357 2698.99988174438 16 19 10
12.3148486018181 116.321377456188 2684.99994277954 16 19 10
19.6308586746454 116.2343993783 2683.00008773804 17 20 11
27.2071287035942 117.31693148613 2707.99994468689 17 20 11
34.3192741274834 116.363190114498 2686.00010871887 17 20 11
41.3576737046242 115.539245307446 2667.00005531311 14 17 10
48.711609095335 115.711532533169 2671.0000038147 13 16 9
56.4226657152176 116.576805710793 2690.99998474121 13 16 9
64.4085630774498 117.745131254196 2717.99993515015 14 17 10
72.4094733595848 118.696689605713 2740.00000953674 14 17 10
79.8012837767601 118.565075099468 2736.99998855591 13 16 9
87.1444940567017 118.38997900486 2733.00004005432 12 15 8
94.2232087254524 117.911495268345 2721.99988365173 12 15 8
102.063067257404 118.38586628437 2733.00004005432 11 14 7
109.481677412987 118.340253829956 2732.00011253357 12 15 8
124.027967453003 117.988660931587 2723.99997711182 11 14 7
131.846725940704 118.332400918007 2732.00011253357 11 14 7
139.963582158089 118.892543017864 2744.99988555908 11 14 7
146.163254976273 117.849968373775 2720.99995613098 11 14 7
153.360307216644 117.673508822918 2717.00000762939 12 15 8
160.475745797157 117.453590035439 2711.99989318848 12 15 8
169.482171535492 118.576057255268 2737.99991607666 15 18 11
176.367804408073 118.182606995106 2729.00009155273 16 19 12
187.716349959373 120.690435171127 2786.99994087219 15 18 11
193.984270095825 119.863599538803 2767.99988746643 14 17 10
201.603963971138 119.902715086937 2769.00005340576 15 18 11
207.944229245186 119.205556809902 2753.00002098084 14 20 10
213.022544980049 117.858819663525 2721.99988365173 17 23 13
219.793736934662 117.507889866829 2713.99998664856 16 22 12
229.282900691032 118.585579097271 2739.00008201599 15 21 11
241.241186857224 120.831951498985 2790.99988937378 19 22 13
243.941813707352 118.445806205273 2736.00006103516 20 23 14
-109.185963869095 113.361284136772 2792.99998283386 5 8 0
-100.799597799778 112.511083483696 2772.0000743866 14 17 8
-93.065582215786 112.310111522675 2766.99995994568 13 16 7
-85.0803479552269 111.743681132793 2753.00002098084 16 22 10
-77.0584791898727 111.01471632719 2734.99989509583 16 22 10
-68.2439878582954 108.864895999432 2681.99992179871 16 22 10
-61.195082962513 109.353333711624 2694.00000572205 15 21 9
-53.9404936134815 109.557449817657 2698.99988174438 15 21 9
-46.6756410896778 109.802044928074 2704.99992370605 15 21 9
-39.3923707306385 110.08707433939 2711.99989318848 18 21 12
-32.1414731442928 110.615521669388 2724.99990463257 18 21 12
-24.5384518057108 109.885431826115 2707.00001716614 18 21 12
-17.0526206493378 109.276957809925 2691.99991226196 16 19 10
-9.7062960267067 109.31783169508 2693.00007820129 16 19 10
-2.3632082156837 109.764471650124 2703.9999961853 16 19 10
5.01953531056643 109.764441847801 2703.9999961853 16 19 10
12.3655637726188 109.439522027969 2696.00009918213 15 18 9
19.7117608040571 109.358012676239 2694.00000572205 15 18 9
27.1172784268856 109.560489654541 2698.99988174438 15 18 9
34.2944487929344 108.950965106487 2684.00001525879 15 18 9
41.3585528731346 108.260117471218 2667.00005531311 15 18 11
48.9132553339005 108.868069946766 2681.99992179871 13 16 9
56.8222478032112 110.003560781479 2710.00003814697 13 16 9
64.5758062601089 110.61118543148 2724.99990463257 14 17 10
72.3317265510559 111.096873879433 2736.99998855591 13 16 9
80.0653770565987 111.460633575916 2746.00005149841 12 15 8
87.2101038694382 111.012421548367 2734.99989509583 13 16 9
94.8482900857925 111.213527619839 2740.00000953674 14 17 10
102.326638996601 111.211508512497 2740.00000953674 14 17 10
110.205329954624 111.615225672722 2750 14 17 10
117.581680417061 111.4911288023 2746.99997901917 13 16 9
123.575240373611 110.149346292019 2713.99998664856 14 17 10
132.332116365433 111.283130943775 2742.00010299683 13 16 9
140.629351139069 111.929707229137 2757.99989700317 12 15 8
145.897731184959 110.222324728966 2716.00008010864 12 15 8
152.62970328331 109.732329845428 2703.9999961853 12 15 8
163.260266184807 111.961096525192 2759.0000629425 12 15 8
169.238075613976 110.943257808685 2733.99996757507 13 16 9
179.92602288723 112.968683242798 2783.99991989136 14 17 10
187.046691775322 112.680964171886 2776.99995040894 13 16 9
195.319846272469 113.082908093929 2786.99994087219 13 16 9
202.336207032204 112.754344940186 2779.00004386902 14 17 10
209.610253572464 112.587958574295 2775.00009536743 14 20 10
213.418215513229 110.636346042156 2726.99999809265 15 21 11
221.498921513557 110.956594347954 2734.99989509583 15 21 11
230.543226003647 111.722953617573 2753.99994850159 16 22 12
243.925645947456 114.476822316647 2822.00002670288 18 21 12
244.125053286552 111.064590513706 2737.99991607666 19 22 13
-108.367145061493 104.943685233593 2772.0000743866 5 6 0
-100.72884708643 104.869946837425 2769.99998092651 16 17 9
-92.596523463726 104.228176176548 2753.00002098084 14 17 8
-84.8038792610168 103.889130055904 2743.99995803833 17 20 9
-75.989343225956 102.111220359802 2697.00002670288 17 20 9
-68.9069330692291 102.529078722 2707.99994468689 17 20 9
-62.2639320790768 103.779770433903 2740.9999370575 14 20 8
-54.7609850764275 103.74303907156 2740.00000953674 14 20 8
-46.5212762355804 102.078050374985 2696.00009918213 14 20 8
-39.2624214291573 102.343909442425 2703.00006866455 17 20 11
-31.8590253591537 102.268859744072 2700.99997520447 18 21 12
-24.4754869490862 102.231554687023 2700.00004768372 18 21 12
-17.1289779245853 102.383404970169 2703.9999961853 17 20 11
-9.8074097186327 103.02734375 2720.99995613098 16 19 10
-2.37461715005338 102.876000106335 2717.00000762939 14 17 8
5.04748104140162 102.951712906361 2719.00010108948 15 18 9
12.4758910387754 102.98939794302 2720.00002861023 15 18 9
19.7487361729145 102.19394415617 2698.99988174438 15 18 9
26.9671101123095 101.625554263592 2684.00001525879 15 18 9
34.1545790433884 101.208470761776 2673.00009727478 15 18 9
41.4369106292725 101.169876754284 2671.99993133545 16 19 12
48.8230437040329 101.358339190483 2677.00004577637 15 18 11
56.8024069070816 102.568916976452 2709.00011062622 14 17 10
64.7666826844215 103.476449847221 2733.00004005432 13 16 9
71.9895884394646 103.134371340275 2723.99997711182 12 15 8
79.0172889828682 102.602869272232 2710.00003814697 12 15 8
87.6901373267174 104.115702211857 2750 13 16 9
94.8847755789757 103.773213922977 2740.9999370575 13 16 9
102.552726864815 103.960633277893 2746.00005149841 14 17 10
110.447958111763 104.337200522423 2756.00004196167 13 16 9
117.412783205509 103.842876851559 2743.00003051758 12 15 8
124.807067215443 103.764869272709 2740.9999370575 14 17 10
133.444726467133 104.670964181423 2765.00010490417 13 16 9
140.479147434235 104.289822280407 2755.00011444092 12 15 8
147.028669714928 103.605724871159 2736.99998855591 12 15 8
155.116349458694 104.019269347191 2747.99990653992 12 15 8
162.553340196609 103.978432714939 2746.99997901917 12 15 8
169.860392808914 103.86173427105 2743.99995803833 11 14 7
177.796721458435 104.123443365097 2750.99992752075 13 16 9
183.008879423141 102.833218872547 2717.00000762939 13 16 9
191.46902859211 103.397443890572 2732.00011253357 14 17 10
200.665459036827 104.30209338665 2756.00004196167 16 19 10
206.894963979721 103.654935956001 2739.00008201599 15 21 11
214.51798081398 103.726729750633 2740.9999370575 15 21 9
222.556009888649 103.987596929073 2747.99990653992 15 21 11
231.887012720108 104.815892875195 2769.99998092651 16 22 12
250.192761421204 106.169231235981 2805.99999427795 19 22 13
-108.955547213554 97.9049056768417 2786.99994087219 7 8 0
-101.494364440441 98.047286272049 2790.99988937378 15 16 8
-93.4727564454079 97.6274684071541 2779.00004386902 15 16 8
-83.4455937147141 94.8537141084671 2700.00004768372 20 23 12
-75.7935121655464 94.5038050413132 2690.00005722046 19 22 11
-69.3916901946068 95.8049669861794 2726.99999809265 17 20 9
-61.9697719812393 95.8412662148476 2727.9999256134 17 20 9
-53.742703050375 94.4721251726151 2688.99989128113 17 20 9
-46.2978072464466 94.2622199654579 2683.00008773804 17 20 9
-38.9145277440548 94.122439622879 2678.99990081787 16 19 10
-31.6355004906654 94.2284762859344 2681.99992179871 18 21 12
-24.4124829769135 94.6154519915581 2693.00007820129 19 22 13
-17.1166229993105 94.9320197105408 2701.99990272522 19 22 13
-9.74631682038307 95.0025245547295 2703.9999961853 18 21 12
-2.37466115504503 95.4593867063522 2717.00000762939 16 19 10
5.04943076521158 95.5647602677345 2720.00002861023 16 19 10
12.4577768146992 95.4240784049034 2716.00008010864 16 19 10
19.7271537035704 94.7211161255836 2696.00009918213 15 18 9
27.0078014582396 94.4396182894707 2687.99996376038 15 18 9
34.423541277647 94.6498662233353 2694.00000572205 15 18 9
41.6082702577114 94.2627266049385 2683.00008773804 18 21 14
48.7692318856716 93.9457267522812 2674.00002479553 15 18 11
56.1744011938572 94.1204354166985 2678.99990081787 15 18 11
64.0332251787186 94.9274227023125 2701.99990272522 16 19 12
70.907361805439 94.2587181925774 2683.00008773804 16 19 12
78.872948884964 95.030277967453 2704.99992370605 14 17 10
86.7351219058037 95.5557823181152 2720.00002861023 13 16 9
94.6095809340477 96.0108637809753 2733.00004005432 12 15 8
102.591976523399 96.5009331703186 2746.99997901917 12 15 8
110.20951718092 96.6044440865517 2750 12 15 8
118.014208972454 96.8483164906502 2756.99996948242 14 17 10
125.628963112831 96.9164296984673 2759.0000629425 11 14 7
134.31590795517 97.7571904659271 2782.99999237061 11 14 7
141.90948009491 97.7547541260719 2782.99999237061 11 14 7
149.448752403259 97.7170839905739 2782.00006484985 11 14 7
156.361028552055 97.2929000854492 2769.99998092651 12 15 8
161.550298333168 95.8852022886276 2730.00001907349 12 15 8
168.996810913086 95.8823040127754 2730.00001907349 13 16 9
178.381606936455 96.9329252839088 2759.99999046326 14 17 10
183.079525828362 95.4547375440598 2717.99993515015 15 18 11
190.000668168068 95.2056795358658 2710.99996566772 16 19 12
196.591600775719 94.8160439729691 2700.00004768372 18 21 12
204.859137535095 95.2339768409729 2711.99989318848 17 23 13
214.991390705109 96.4593887329102 2746.99997901917 16 22 10
221.831068396568 96.1747393012047 2739.00008201599 16 22 12
231.891140341759 97.2593426704407 2769.99998092651 17 23 13
236.414238810539 96.0264578461647 2734.99989509583 19 22 13
248.681381344795 97.9182571172714 2789.00003433228 19 22 13
-110.169351100922 91.3022682070732 2818.00007820129 10 11 3
-102.368876338005 91.2068113684654 2815.00005722046 14 15 7
-93.5079827904701 90.0743827223778 2779.99997138977 13 14 6
-84.0342342853546 88.0993753671646 2719.00010108948 21 24 15
-75.9638622403145 87.355449795723 2696.00009918213 20 23 12
-69.3928748369217 88.3610993623734 2726.99999809265 18 21 10
-61.4483579993248 87.6493230462074 2704.99992370605 18 21 10
-53.8435578346252 87.293840944767 2694.00000572205 18 21 10
-46.0397563874722 86.4521786570549 2667.99998283386 18 21 10
-38.6682562530041 86.2584561109543 2661.99994087219 16 19 10
-31.6124558448792 86.842305958271 2680.0000667572 18 21 12
-24.50355514884 87.5880494713783 2703.00006866455 19 22 13
-17.1549264341593 87.7504050731659 2707.99994468689 20 23 14
-9.77531913667917 87.8802463412285 2711.99989318848 19 22 13
-2.3598438128829 87.491512298584 2700.00004768372 18 21 12
5.00310678035021 87.3294547200203 2694.9999332428 17 20 11
12.329556979239 87.1024876832962 2687.99996376038 16 19 10
19.59577947855 86.7781862616539 2677.99997329712 15 18 9
27.0283613353968 87.1666595339775 2690.00005722046 14 17 8
34.5774739980698 87.6846089959145 2706.00008964539 14 17 8
41.7795740067959 87.2951373457909 2694.00000572205 17 20 13
48.7700663506985 86.6463184356689 2674.00002479553 15 18 11
55.7979270815849 86.2242132425308 2661.00001335144 15 18 11
62.7782791852951 85.8343988656998 2648.9999294281 18 21 14
70.2478513121605 86.1249417066574 2657.99999237061 18 21 14
78.2328099012375 86.9337618350983 2683.00008773804 15 17 12
86.1626043915749 87.5480398535728 2701.99990272522 14 17 10
95.234327018261 89.1342014074326 2750.99992752075 13 16 9
102.257572114468 88.7113809585571 2737.99991607666 12 15 8
110.572084784508 89.3900543451309 2759.0000629425 13 16 9
118.572697043419 89.7445678710938 2769.99998092651 15 18 11
126.723930239677 90.1637524366379 2782.99999237061 12 15 8
134.125128388405 90.0320336222649 2779.00004386902 12 15 8
142.931714653969 90.8073112368584 2802.99997329712 12 15 8
150.310799479485 90.6429588794708 2798.00009727478 12 15 8
156.758800148964 89.9601727724075 2776.99995040894 14 17 10
162.618190050125 89.0181660652161 2747.99990653992 14 17 10
168.813943862915 88.3352383971214 2726.99999809265 15 18 11
178.772404789925 89.5957425236702 2766.00003242493 16 19 12
188.134536147118 90.4673561453819 2792.99998283386 16 19 12
193.858563899994 89.5897671580315 2766.00003242493 16 19 12
197.759881615639 87.9671946167946 2716.00008010864 18 21 14
205.844536423683 88.2554650306702 2724.99990463257 18 24 14
217.577695846558 90.0333747267723 2779.99997138977 16 22 10
226.127251982689 90.4184803366661 2792.00005531311 17 23 13
233.987867832184 90.5120074748993 2795.00007629395 19 25 15
242.555499076843 90.8644646406174 2805.99999427795 21 24 15
-108.880922198296 82.6311260461807 2785.00008583069 6 8 3
-102.006815373898 83.2261145114899 2805.0000667572 16 19 12
-94.3503752350807 83.2275897264481 2805.0000667572 10 13 6
-85.7972502708435 82.3684707283974 2776.00002288818 19 22 15
-76.7258405685425 80.7970762252808 2723.00004959106 19 22 15
-67.9689347743988 79.2552083730698 2671.0000038147 19 22 13
-61.335738748312 80.1166892051697 2700.00004768372 19 22 13
-53.9243519306183 80.0582095980644 2697.99995422363 18 21 12
-46.2303012609482 79.4951692223549 2678.99990081787 18 21 12
-38.9593876898289 79.5848369598389 2681.99992179871 19 20 12
-31.5775647759438 79.4370025396347 2677.00004577637 19 20 12
-24.5311390608549 80.297976732254 2706.00008964539 19 20 12
-17.1171892434359 80.1795944571495 2701.99990272522 19 20 12
-9.75024234503508 80.2688151597977 2704.99992370605 18 19 11
-2.36162869259715 80.1798775792122 2701.99990272522 19 20 12
4.99947275966406 79.9127966165543 2693.00007820129 19 20 12
12.3159913346171 79.6752721071243 2684.99994277954 17 18 10
19.6107234805822 79.5266628265381 2680.0000667572 16 17 9
27.0689781755209 79.9417421221733 2694.00000572205 15 16 8
34.8207987844944 80.8611661195755 2724.99990463257 15 16 8
41.9508256018162 80.267108976841 2704.99992370605 13 16 7
49.0626581013203 79.8213258385658 2690.00005722046 15 18 11
56.2810972332954 79.6424821019173 2684.00001525879 15 18 11
63.5139420628548 79.522892832756 2680.0000667572 18 20 15
70.1960995793343 78.8097530603409 2655.99989891052 17 19 16
79.0213346481323 80.4109200835228 2710.00003814697 9 11 8
86.8336334824562 80.7954147458076 2723.00004959106 8 10 7
95.0280949473381 81.4468041062355 2744.99988555908 8 10 5
102.48327255249 81.4156606793404 2743.99995803833 8 11 4
109.812341630459 81.2953859567642 2740.00000953674 9 12 5
118.403322994709 82.0650905370712 2766.00003242493 13 16 7
126.407161355019 82.3599472641945 2776.00002288818 13 16 9
134.030669927597 82.3876708745956 2776.99995040894 13 16 9
141.557142138481 82.3559686541557 2776.00002288818 13 16 9
149.399861693382 82.5021341443062 2780.99989891052 13 16 9
155.632227659225 81.7878842353821 2756.99996948242 13 16 9
162.324815988541 81.3702195882797 2743.00003051758 13 16 9
169.62131857872 81.2787711620331 2740.00000953674 13 16 9
179.873898625374 82.5517326593399 2782.99999237061 13 16 9
186.45341694355 82.1040943264961 2767.99988746643 16 19 12
194.492325186729 82.3089405894279 2775.00009536743 15 18 11
199.583232402802 81.2975987792015 2740.9999370575 18 21 14
208.793774247169 81.9767862558365 2763.99993896484 19 22 13
218.755021691322 82.893081009388 2795.00007629395 19 22 13
226.778611540794 83.0381214618683 2799.99995231628 18 21 12
231.563583016396 82.0265114307404 2766.00003242493 19 22 13
244.547322392464 83.8913097977638 2828.9999961853 21 24 17
265.844643115997 85.7817605137825 2892.99988746643 21 24 17
-108.999773859978 75.1096531748772 2788.00010681152 5 7 2
-102.844707667828 76.1887207627296 2828.00006866455 12 15 8
-93.3426097035408 74.762187898159 2775.00009536743 13 16 9
-85.7675671577454 74.7634023427963 2775.00009536743 19 22 15
-76.4733478426933 73.1210485100746 2713.99998664856 19 22 15
-69.0895915031433 73.1489881873131 2714.99991416931 19 22 13
-61.3138973712921 72.7187842130661 2698.99988174438 19 22 13
-54.005078971386 72.800412774086 2701.99990272522 18 21 12
-46.3172532618046 72.316125035286 2684.00001525879 18 21 12
-39.0906892716885 72.5053176283836 2690.99998474121 19 20 12
-31.8021476268768 72.640523314476 2696.00009918213 19 20 12
-24.4317688047886 72.613961994648 2694.9999332428 19 20 12
-17.0287434011698 72.4256411194801 2687.99996376038 18 19 11
-9.7215473651886 72.6683214306831 2697.00002670288 18 19 11
-2.36778147518635 72.9917287826538 2709.00011062622 18 19 11
5.02367923036218 72.9108825325966 2706.00008964539 18 19 11
12.3161692172289 72.3449364304543 2684.99994277954 16 17 9
19.7134520858526 72.587214410305 2694.00000572205 16 17 9
27.2602811455727 73.098823428154 2713.00005912781 14 15 7
34.808523952961 73.394775390625 2723.99997711182 14 15 7
42.2460995614529 73.3942538499832 2723.99997711182 11 14 5
49.7564487159252 73.501393198967 2727.9999256134 14 17 10
56.8690448999405 73.0695724487305 2711.99989318848 14 17 10
64.5576417446136 73.3920559287071 2723.99997711182 17 19 14
72.7343484759331 74.1455107927322 2752.00009346008 14 16 13
87.6640006899834 74.0624964237213 2749.00007247925 5 7 4
95.167949795723 74.0612521767616 2749.00007247925 5 7 2
102.335341274738 73.8174319267273 2740.00000953674 7 10 3
109.853990375996 73.84292781353 2740.9999370575 9 12 5
117.720082402229 74.0838348865509 2750 12 15 6
125.817000865936 74.4324028491974 2763.00001144409 12 15 8
133.936062455177 74.7539028525352 2775.00009536743 12 15 8
140.386283397675 74.1594135761261 2753.00002098084 13 16 9
146.930739283562 73.6725926399231 2734.99989509583 14 17 10
155.18282353878 74.047677218914 2749.00007247925 14 17 10
162.682190537453 74.0455389022827 2749.00007247925 14 17 10
170.490399003029 74.1779804229736 2753.99994850159 13 16 9
178.519114851952 74.3911191821098 2762.00008392334 14 17 10
185.108810663223 74.0116164088249 2747.99990653992 16 19 12
192.672729492188 74.036031961441 2749.00007247925 14 17 10
199.950098991394 73.9526301622391 2746.00005149841 16 19 12
209.929779171944 74.8386159539223 2779.00004386902 17 20 11
218.914568424225 75.3205046057701 2796.99993133545 17 20 11
226.295799016953 75.2367898821831 2793.99991035461 18 21 12
231.399357318878 74.4259506464005 2763.99993896484 19 22 13
253.953605890274 76.6813680529594 2848.00004959106 23 26 19
-101.718664169312 67.7180513739586 2796.99993133545 10 13 6
-92.6374197006226 66.6781589388847 2753.99994850159 19 22 15
