ply
format ascii 1.0
comment KinectMotionCapture
element vertex 756
property float x
property float y
property float z
property uchar red
property uchar green
property uchar blue
end_header
-45.1456801106001 709.985449126181 2902.3747905863 175 175 175
-51.6167974148654 709.364171908627 2898.91562928957 172 172 172
-56.5919842869831 709.112089628286 2894.07269667458 169 169 169
-63.0602593546736 708.491012791684 2890.61559679076 166 166 166
-70.2668519999972 707.685876499945 2887.85767354723 163 163 163
-77.465452487955 706.881387662084 2885.10554726862 164 164 164
-82.4436107306816 706.628725718225 2880.26016323053 164 164 164
-85.9565570375631 706.742800042705 2874.00872692701 148 148 148
-89.4834605955015 706.85565405847 2867.74716653323 202 202 202
-94.4861520476754 706.600716290345 2862.88428079757 176 176 176
-100.951203295981 705.979064205654 2859.42951501548 142 142 142
-108.86567616078 704.991636811984 2857.39254758278 118 118 118
-118.940430652254 703.456678280723 2857.49217690767 144 144 144
-130.433713152484 701.558297807708 2859.03201193776 139 139 139
-136.853652323 700.939434019101 2855.60996298687 190 190 190
-141.117045411613 700.867440284407 2850.04860595374 184 182 185
-143.959286323038 701.158732973863 2843.0492393217 190 188 191
-150.386034099394 700.538809789822 2839.62224930109 202 200 203
-155.38721613029 700.282381218644 2834.76045022591 205 203 206
-158.975871837985 700.388589666682 2828.45409071981 203 201 204
-163.285380816367 700.31194435986 2822.85957420991 199 197 200
-165.490963709295 700.778194661103 2815.08728965102 200 200 202
-168.421741222892 701.061388869258 2808.0236999262 200 200 202
-169.270872923886 701.885564605648 2798.76647548893 203 203 205
-167.360330987233 703.430106286431 2786.57271069063 204 204 206
-161.325470711309 706.053971933685 2769.96370501023 199 199 201
275.589336458768 752.952259871073 2881.89931772765 214 218 219
253.276654789533 748.75081765834 2890.40559692243 169 173 174
220.578263198717 742.134975174921 2907.42747802734 192 193 195
196.058382555356 737.391341799941 2918.0363696413 183 184 186
179.651322555298 734.514954349054 2922.18462632142 196 197 199
165.697934983728 732.200426439892 2924.40904407365 176 177 179
154.975331240088 730.631774324063 2924.03886298521 166 167 169
145.07339784084 729.250806221328 2923.02922289369 167 168 170
140.740030667323 729.168344786638 2917.41738160915 175 175 177
131.655878433055 727.974926615344 2915.76648188463 184 186 185
121.800629689086 726.598039209404 2914.79070516556 192 194 193
109.60891078504 724.668588207583 2915.8240713628 195 197 196
98.2356491816994 722.926612065728 2916.21637321497 185 187 186
87.6738781846256 721.371377530828 2915.96285117955 190 192 191
76.3586368920461 719.634012065483 2916.39723654719 186 188 187
66.6276998969839 718.267195297569 2915.51162707761 179 181 180
56.1431526735716 716.718246621467 2915.31411804287 186 188 187
45.6841789772406 715.171220326725 2915.13515754091 196 198 197
33.7099902614688 713.259142362481 2916.32600953479 191 193 192
22.5383415878047 711.533091268053 2916.86484004285 184 186 185
10.6307529896146 709.62613980891 2918.10399785004 173 173 173
2.57738763181514 708.637348175749 2915.96633737491 171 171 171
-4.70189784417641 707.832297335551 2913.15571797992 184 184 184
-11.2134232586554 707.210614313554 2909.66726192626 167 167 167
-19.2361100130622 706.224128757959 2907.55185270617 156 156 156
-26.4910334049104 705.420951544171 2904.75860891915 167 167 167
-32.9851671785688 704.800568309785 2901.28306149778 169 169 169
-40.9771222324875 703.816303517491 2899.18994159183 169 169 169
-47.4594599043665 703.196775924802 2895.72265527335 165 165 165
-53.9381800596801 702.577421903669 2892.25799224901 163 163 163
-58.9249493878952 702.321414124454 2887.40664338099 161 161 161
-68.3687219866107 700.976546511258 2886.72931668751 152 152 152
-74.8323515832265 700.358126632975 2883.27589233986 165 165 165
-79.817040302836 700.102008200715 2878.42575671191 154 154 154
-81.1301004739902 700.749835312655 2870.06665849157 162 162 162
-83.936505594147 701.034073397249 2863.09293977941 141 141 141
-88.9545190333225 700.77505654608 2858.21892614703 135 135 135
-93.9777496600089 700.515497556908 2853.34112771804 146 146 146
-104.092459611594 698.993761608868 2853.4118594522 126 126 126
-114.181284292863 697.473903194674 2853.50107100428 140 140 140
-126.411356872949 695.416131360543 2855.74102046213 187 187 187
-133.562644041849 694.619209417629 2853.02323094604 175 175 175
-140.705809989115 693.822696050599 2850.31103626932 184 182 185
-145.694402805944 693.564688490198 2845.4583553862 189 187 190
-152.114836075201 692.947756219984 2842.03595803611 198 196 199
-154.975821760055 693.226059561227 2835.02293712417 201 199 202
-159.273306907561 693.144951631617 2829.43711434182 202 200 203
-162.873497922864 693.241592609798 2823.12234418393 198 196 199
-166.487784023711 693.336882625504 2816.79734935484 199 199 201
-168.711175343888 693.787650448964 2809.01207666517 199 199 201
-168.156821774772 694.949146198488 2798.30360950901 203 203 205
-164.851044749625 696.819416775884 2784.65285702483 204 204 206
-160.211979513861 699.040598360512 2769.50033779334 203 203 205
287.063873776344 746.897368378725 2882.77597675958 199 203 202
281.7049265744 746.607087717843 2877.65465460932 199 203 202
260.182092245218 742.642421295523 2885.49937920691 177 181 180
229.878226485948 736.665207485971 2900.55522808135 192 194 193
199.70575196631 730.698507986139 2915.70608404947 161 163 162
181.685299938504 727.490219178029 2921.15315052978 188 190 189
170.123871699531 725.751549894812 2921.409063122 174 176 175
160.186540241213 724.381077255595 2920.37410986065 158 160 159
151.065553441476 723.19518998518 2918.69654611902 163 165 164
141.961651701482 722.010806282773 2917.03137531768 169 169 169
132.084244918175 720.645486929607 2916.03988883451 177 179 178
119.863687698458 718.73537634914 2917.05215300731 193 195 194
110.03553048751 717.374106504396 2916.09638910173 192 194 193
100.229074152573 716.014733673786 2915.15607175603 179 181 180
89.6620754745592 714.475266212346 2914.89883992647 188 190 189
78.3414065073806 712.756399834244 2915.32938435848 177 179 178
66.2733372752817 710.858533352115 2916.45254682355 179 181 180
54.2400246094381 708.963472181092 2917.60062479767 186 188 187
44.5595828247471 707.614079317522 2916.75200311625 190 192 191
34.1300882176823 706.085651245218 2916.59421236186 186 188 187
24.494380229017 704.739762830381 2915.77803691456 180 182 181
12.5812569525725 702.854109749306 2917.01329039586 176 176 176
4.52293182770047 701.872772631397 2914.87207223832 164 164 164
-3.52287546033336 700.892449597874 2912.73993366438 183 183 183
-10.7965760236759 700.093078781715 2909.93339166219 172 172 172
-17.3046324686772 699.474245768986 2906.4474647744 148 148 148
-23.0536794226637 699.035333823537 2902.27763477118 155 155 155
-29.5565809953047 698.416858669143 2898.79544657299 175 175 175
-38.3088915396281 697.26046031059 2897.38558796103 170 170 170
-44.7980119380849 696.642892481644 2893.9133946259 162 162 162
-52.0301398049057 695.846471310829 2891.13700449917 165 165 165
-57.7655417686707 695.40830629887 2886.97706982392 159 159 159
-65.7279756923801 694.434040025412 2884.90510658272 155 155 155
-70.7184748043361 694.174653285635 2880.05103679976 153 153 153
-74.9764942607918 694.0930682725 2874.49382112257 153 153 153
-79.2439016470403 694.010622758254 2868.92950109909 157 157 157
-82.0543550838388 694.283371148987 2861.95308395526 144 144 144
-86.3454451174572 694.198917460465 2856.37158570349 130 130 130
-89.9172041758245 694.291289924569 2850.07740485709 136 136 136
-100.043907905317 692.784802792585 2850.13951928394 123 123 123
-111.594058913915 690.925447834797 2851.63803231359 122 122 122
-123.832290912901 688.891390473338 2853.87218695303 164 164 164
-131.71075179467 687.922144996693 2851.86141747035 182 182 182
-139.576850144758 686.953662047723 2849.85961371307 183 181 184
-145.283283232022 686.515932035745 2845.72068139799 187 185 188
-151.70404607681 685.901452434568 2842.29805755482 198 196 199
-155.987334242664 685.815938443988 2836.72250414987 202 200 203
-160.28010497884 685.729526413451 2831.13977760156 202 200 203
-162.461793037112 686.170091306634 2823.38497929361 200 198 201
-166.780441308589 686.08113482853 2817.78348067958 197 197 199
-169.703747734657 686.342560219306 2810.7251966422 202 202 204
-168.443435690224 687.655184347968 2799.29422271653 199 199 201
-165.831677553431 689.314743429226 2786.37433046302 204 204 206
-160.490013087927 691.670371220989 2770.4964902977 202 202 204
-156.607204082913 693.670302959658 2756.02966074034 196 196 198
285.391758647053 739.679779564524 2875.35149420735 200 204 203
269.514090980204 737.032879323506 2878.64964445638 157 161 160
235.958143714077 730.41197837926 2896.28487615821 169 171 170
204.961856163118 724.344715603364 2912.07335421227 145 147 146
185.322984781912 720.815031773237 2918.8159337708 173 175 174
174.551070586145 719.274795980603 2918.41015041755 167 169 168
164.602341824204 717.917011264173 2917.36670479738 150 152 151
155.46974166485 716.740917555318 2915.68106636687 153 155 154
143.183331675042 714.847069555254 2916.64567483443 162 162 162
130.14069512483 712.776403997833 2918.29651402012 176 178 177
117.137198034289 710.708868942857 2919.97544761499 192 194 193
110.462040414388 710.078988598104 2916.36862403951 187 189 188
102.222714021489 709.091233005397 2914.09616168917 178 180 179
91.6507654298675 707.567664248922 2913.83512761465 182 184 183
78.7652824795915 705.509610398092 2915.59995467953 175 177 176
68.2510714798301 703.990609901213 2915.38109343369 174 176 175
57.7624772011065 702.473624900609 2915.1808125045 180 182 181
44.9804223949846 700.423740779566 2917.02065821964 185 187 186
34.549941864864 698.911333794694 2916.86223389855 182 184 183
24.9135841307666 697.578894845464 2916.04565556112 173 175 174
16.0649816747065 696.42594711897 2914.56571588848 174 174 174
7.23328159942405 695.274308930003 2913.09803574544 162 162 162
-2.34379743813617 693.946463112935 2912.32445306532 178 178 178
-11.1396656881892 692.797518598068 2910.88276182108 177 177 177
-16.1304129709305 692.535632385359 2906.0284994735 153 153 153
-21.8817046088979 692.09621000449 2901.8570396655 151 151 151
-27.6337250318526 691.656848071541 2897.6850518519 166 166 166
-35.6398994264664 690.687412824636 2895.58169915699 164 164 164
-42.1357527554516 690.071778921559 2892.10463477255 164 164 164
-49.3748201485538 689.280142643184 2889.32323827154 163 163 163
-55.8613249928208 688.665116712089 2885.85295388267 157 157 157
-62.3442139710457 688.050294090746 2882.38529174206 147 147 147
-67.3434101085679 687.787275347962 2877.52489890286 147 147 147
-72.3477977103144 687.523686679141 2872.66073977366 155 155 155
-76.6215886768806 687.435137976977 2867.09176124273 155 155 155
-79.4380689006333 687.696226037313 2860.11091609054 144 144 144
-82.2729872104357 687.955790535145 2853.11669705915 142 142 142
-85.8554040883601 688.03890559097 2846.8147432413 129 129 129
-95.2671415983386 686.722442505392 2846.16078334185 121 121 121
-107.556667141304 684.708963734319 2848.35785843122 124 124 124
-119.084817853597 682.872779331725 2849.8724373086 154 154 154
-128.417807481409 681.561809903973 2849.27588573297 169 169 169
-137.011359167871 680.426477199648 2847.98092702983 182 180 183
-143.440455299218 679.814010981008 2844.55227240756 184 182 185
-150.579719507884 679.027890889555 2841.84325330543 193 191 194
-154.864914922798 678.936566241618 2836.2659933858 198 196 199
-160.578379187779 678.497430212418 2832.12195689818 199 197 200
-162.050224615675 679.097563303481 2823.64751027697 197 195 198
-165.663868694597 679.176057574238 2817.32289578951 196 196 198
-166.480816424281 679.9449189424 2808.0887220217 202 202 204
-167.329252530853 680.711159298674 2798.83141390453 199 199 201
-165.416453566666 682.165023839327 2786.63912045309 203 203 205
-164.248973417731 683.442376547006 2775.14067204854 202 202 204
-158.963135468906 685.749510320341 2759.22211641812 201 203 202
290.700449870863 733.087010732223 2871.75596984249 198 202 201
275.616400962004 730.649888884988 2874.39516272854 138 142 141
247.682639291515 725.366867764964 2887.46696801866 151 155 154
211.827699224591 718.31361644402 2907.13882520098 139 141 140
188.961812877187 714.117503181992 2916.47943261698 171 173 172
176.581345091491 712.237483481154 2917.37592662408 168 170 169
165.830191895849 710.715299366425 2916.98528479819 155 157 156
156.695158562842 709.549841687449 2915.29764190474 149 151 150
143.612278552021 707.500201821787 2916.91941424626 157 157 157
129.77773058946 705.276911297845 2919.23044350257 173 175 174
116.774963083879 703.233791310455 2920.9103241333 190 192 191
110.888395721195 702.783171111986 2916.64074334638 183 185 184
101.864568650801 701.626901611935 2915.03376278589 177 179 178
89.7299154171609 699.767094350291 2916.1085553877 177 179 178
77.6294632151129 697.909829136743 2917.2084484002 173 175 174
67.896391003742 696.583226211566 2916.3214947578 169 171 170
58.9598579267872 695.434008984983 2914.77812567427 174 176 175
44.6279813433885 693.057044814978 2917.9628890417 182 184 183
34.9697388335501 691.736294826797 2917.13021069316 180 182 181
24.5637940130474 690.241986824605 2916.98995898353 170 172 171
19.54990604685 689.97529851152 2912.11889713708 173 173 173
11.4731231244454 689.008477448634 2909.96437205488 161 161 161
2.64670426554403 687.86799111192 2908.50057686464 173 173 173
-7.68310267160022 686.379492664503 2908.41554855805 178 178 178
-14.9560311928019 685.590609688119 2905.60961934867 159 159 159
-20.709484427883 685.150922578055 2901.43659121189 142 142 142
-27.2171840163236 684.536987595626 2897.95094782652 158 158 158
-33.7212228942421 683.923319299666 2894.46795951915 170 170 170
-40.9708822715316 683.136052536276 2891.67890679522 152 152 152
-45.9717157501731 682.87020232054 2886.81701819351 161 161 161
-53.2120249922214 682.083513790934 2884.03474651102 166 166 166
-57.474294354892 681.99040203618 2878.47409712387 154 154 154
-64.7073718648561 681.204120126078 2875.69706993791 155 155 155
-68.9801320006904 681.110068885979 2870.12881080674 139 139 139
-73.9984097427504 680.84230802631 2865.25456128542 145 145 145
-77.5546099186559 680.919242537065 2858.97158120868 154 154 154
-78.9303737133347 681.512123384053 2850.5664550028 139 139 139
-81.7919524691571 681.758415738806 2843.5528420191 114 114 114
-89.0345680252516 680.970584470998 2840.76889265215 106 106 106
-103.517718477482 678.464336576428 2845.07837614536 112 112 112
-117.226446062539 676.133563228527 2848.71540196299 141 141 141
-126.564567473462 674.835669812968 2848.11490200383 156 156 156
-135.881722920956 673.539156641659 2847.52990218722 184 182 185
-141.597254827605 673.100241445223 2843.38436794059 181 179 182
-149.455253080817 672.14788834257 2841.38851781726 185 183 186
-153.030835692812 672.221579833017 2835.09147057241 194 192 195
-159.458302568173 671.611127532461 2831.66400723348 198 196 199
-160.224174062232 672.36506836828 2822.46678414346 194 192 195
-164.546963192522 672.264454981453 2816.86222468796 194 194 196
-165.365155669484 673.013918258896 2807.62705032114 199 199 201
-167.616438119637 673.420526661797 2799.82162955698 198 198 200
-167.795064788527 674.334817562475 2789.81559387162 201 201 203
-167.313776807539 675.415635158174 2779.05404573759 202 202 204
-164.096715304638 677.171239665352 2765.3384006718 192 194 193
294.39005647301 726.109712670066 2869.45456754742 197 201 200
280.104031843448 723.877150424629 2871.43826476973 143 147 146
252.961448697878 718.841866796672 2883.84983046719 127 131 130
217.087556512066 711.887938061161 2903.50874641957 154 156 155
191.79990132972 707.222513631588 2914.79649465802 160 162 161
178.612020474894 705.188683259343 2916.34222972511 168 170 169
167.058232587124 703.507538913751 2916.60397234611 156 158 157
157.125201355625 702.178000204911 2915.57204927236 146 148 147
144.83418956723 700.327074160325 2916.53383368311 155 155 155
133.36874376865 698.6531761249 2916.85965407387 167 169 166
119.567222424954 696.459595201785 2919.194775516 188 190 187
114.460734635559 696.182208976205 2914.2565318945 180 182 179
106.21209359139 695.20969977696 2911.97709990365 175 177 174
96.4115036528139 693.891109751603 2911.04153628383 171 173 170
83.5123980142116 691.880703264292 2912.79672931452 171 173 170
71.4300460835893 690.046640764942 2913.90956664935 166 168 165
61.7086156428659 688.734314182186 2913.03141916444 170 172 169
46.5951184582201 686.213624131177 2916.88387770669 181 183 180
34.6180834531045 684.387775244715 2918.07339760899 181 183 180
23.4444691462303 682.737130479917 2918.61089065849 171 173 170
17.6683990674507 682.295402049929 2914.42145674935 172 172 172
11.8916018542068 681.853704329664 2910.23149588048 162 162 162
4.58943132222034 681.067908625003 2907.40408967405 167 167 167
-3.4651556399008 680.110712122227 2905.26570366743 176 176 176
-11.5072729107102 679.154525803514 2903.13636232295 166 166 166
-18.7812606018916 678.370784606378 2900.32969134277 143 143 143
-26.0472046891347 677.587635287052 2897.52885434072 153 153 153
-32.5536434002145 676.976251946173 2894.04413791683 169 169 169
-39.0565127402553 676.365038276526 2890.56200986559 154 154 154
-43.3148613379282 676.266728202934 2885.00447087118 154 154 154
-49.8170981840342 675.655446284718 2881.5228009826 164 164 164
-53.3453085260636 675.726493253394 2875.26008151221 146 146 146
-61.3301876485488 674.774197065343 2873.17225302724 152 152 152
-64.873268356112 674.843919880941 2866.89874700443 142 142 142
-68.4304009552623 674.912384848979 2860.61504809428 138 138 138
-72.0015439025654 674.979714822569 2854.32118703478 154 154 154
-73.3918463708125 675.554838966143 2845.90543149296 159 159 159
-77.7272637173443 675.449628282432 2840.29198876482 128 128 128
-84.2539139266847 674.835562068023 2836.79260700521 97 97 97
-98.0273197176824 672.529858691963 2840.38257871838 96 96 96
-113.921843841074 669.720462866526 2846.13805402557 141 141 141
-124.71102384395 668.097615914034 2846.95437250767 154 154 154
-134.033309424033 666.814149016722 2846.36542535339 182 180 183
-139.037232948407 666.543070222629 2841.50156470482 178 176 179
-146.90248283276 665.598075584402 2839.50049499138 181 179 182
-149.772605707797 665.83101008139 2832.48062053314 191 189 192
-156.918736059937 665.054360358318 2829.76637750934 195 193 196
-158.397655881616 665.620662553057 2821.28633667191 191 189 192
-162.724865942059 665.513965973702 2815.67883605425 193 193 195
-162.843429823114 666.411316137489 2805.71625535743 198 198 200
-165.100733299189 666.803546333109 2797.90639699463 198 198 200
-165.983604870291 667.528084295499 2788.6242091205 200 200 202
-166.201684869123 668.416924465297 2778.58944396133 201 201 203
-162.984981097458 670.136713446955 2764.87335815583 190 192 191
299.702033327795 719.456002471851 2865.86111632654 199 203 202
287.018769237555 717.595185366185 2866.53820409541 163 167 166
262.274001086233 713.147018496713 2876.98556655161 127 131 130
226.370547505663 706.291681519755 2896.62325772773 151 153 152
195.440867381643 700.482979105148 2912.46133058626 157 159 158
178.243773222547 697.611842438304 2917.27193786979 163 165 164
169.084162690196 696.465722274112 2915.56657638836 154 156 155
159.146060129626 695.149225447855 2914.53133753666 143 145 144
149.229517309534 693.834554458363 2913.51144257214 149 149 149
136.960853704705 692.00706612698 2914.48954637473 154 156 153
123.14912099621 689.839751789626 2916.81739842603 183 185 182
116.460872414696 689.216477652862 2913.20082391782 177 179 176
108.207274456666 688.251463430296 2910.91813099487 172 174 171
100.748763878721 687.458439125541 2907.97735393838 158 160 157
88.6174080138522 685.64213399621 2909.05505169708 167 169 166
75.7426669098895 683.658046912617 2910.82804041186 165 167 164
62.9069257805881 681.676989415904 2912.629021909 165 167 164
48.5626149076737 679.358592871901 2915.80536252819 176 178 175
38.894124441172 678.063897401778 2914.96538718844 178 180 177
29.2467328210164 676.770802044258 2914.14100943458 169 171 168
21.9214989630077 675.988395408716 2911.29690129722 170 170 170
15.3688841338617 675.376059733088 2907.77900047315 166 166 166
6.53242802455933 674.256088809176 2906.30803298049 156 156 156
-2.28731333450138 673.137322606904 2904.84918846915 168 168 168
-8.81571216660593 672.526878594908 2901.34855744276 182 182 182
-13.8286441363218 672.25429334668 2896.47815874942 155 155 155
-21.1081154343336 671.475245884343 2893.66753636032 146 146 146
-29.1311612524991 670.528341390052 2891.55206733313 153 153 153
-37.1417789227868 669.582324226711 2889.44561223008 170 170 170
-41.4040984250572 669.477916829019 2883.884869281 157 157 157
-46.4211062592768 669.204702671235 2879.01151272096 150 150 150
-49.9577099306041 669.266645808691 2872.74266263433 175 175 175
-56.4706193877793 668.656829298747 2869.25326336481 159 159 159
-61.5033576049133 668.382101829255 2864.36849584926 146 146 146
-66.5411539555196 668.106924364258 2859.47976482848 148 148 148
-69.3824100693368 668.332548764683 2852.48077947441 139 139 139
-70.7784165070762 668.890631914399 2844.06080268738 138 138 138
-75.1202124823562 668.77922882818 2838.44270458939 136 136 136
-82.3810845850255 668.000453001501 2835.64527205279 98 98 98
-95.4356264356393 665.890446860542 2838.52231819353 101 101 101
-109.893002719099 663.450999871315 2842.85111876851 147 147 147
-120.69444210974 661.846008945387 2843.65864060308 154 154 154
-130.028852338497 660.57501253311 2843.06126167472 180 178 181
-135.760077351112 660.134348069555 2838.90434230029 177 175 178
-142.92043535976 659.362221410077 2836.17980825486 181 179 182
-147.937056254868 659.086828077514 2831.30672115728 189 187 190
-154.37837580602 658.480242164298 2827.86923530205 194 192 195
-157.985889460593 658.534110793508 2821.5489401563 191 189 192
-162.312952780448 658.421720567426 2815.94151707458 194 194 196
-163.836845165325 658.967471983298 2807.42877057258 198 198 200
-165.388022859428 659.510774009568 2798.89623196099 198 198 200
-167.665395951965 659.887308673953 2791.07174520395 196 196 198
-167.179228479763 660.918893965963 2780.3131904689 199 199 201
-163.956307273948 662.60334034001 2766.60143279683 201 203 202
-153.870082387638 665.922162332375 2745.52205914456 191 193 192
300.150237044461 711.747362745061 2866.14698298595 199 203 202
291.509789452583 710.75876572548 2863.58344057911 176 180 179
272.396611803293 707.561805509 2869.47375542426 130 134 133
238.069862092122 701.144340586284 2887.78657753371 141 143 142
201.489488760379 694.229943387583 2908.16858709058 157 159 158
181.875067070049 690.887117491203 2914.92983722407 163 165 164
171.908488748204 689.581686066938 2913.87371725675 154 156 155
161.963049165615 688.278007346583 2912.83322456744 142 142 142
151.245749722148 686.807227100803 2912.46738441971 146 146 146
136.598122390617 684.494657784527 2915.42357950399 152 152 150
122.787012711262 682.354457867764 2917.75202054229 182 184 181
116.887719794572 681.902209319349 2913.47320648178 177 179 176
110.203230706218 681.281778855604 2909.85937171416 171 173 170
101.957325351393 680.325423362831 2907.58229918162 154 156 153
90.6031229088335 678.69838498679 2907.98899960862 166 168 165
77.7225607450429 676.738142065216 2909.75788928829 164 166 163
65.6568910873405 674.948566050588 2910.88304529159 162 164 161
52.0781515241877 672.826832241811 2913.38002992063 171 173 170
41.6286009061366 671.377533533556 2913.20839541871 173 175 172
31.9737759729102 670.097248481289 2912.37869398429 164 166 163
23.8745334448565 669.152565209762 2910.20799958692 170 170 170
15.0228037132516 668.042021223119 2908.7260076688 167 167 167
7.71322993923862 667.265971811696 2905.89357853814 153 153 153
0.411834750439599 666.490604470417 2903.06678721625 165 165 165
-5.36512038392245 666.04826664672 2898.87670862474 186 186 186
-11.8988542757696 665.439839931809 2895.37222031769 160 160 160
-18.4292052244255 664.831548271864 2891.87047953946 152 152 152
-26.4593325138676 663.891986154937 2889.7499141932 152 152 152
-35.2264922929189 662.787815327081 2888.32926111981 170 170 170
-40.2403533532345 662.511928646133 2883.45817218646 170 170 170
-46.004576611852 662.070233911562 2879.27732646076 152 152 152
-48.7977151539782 662.288842767267 2872.31289254916 164 164 164
-53.8316413450988 662.011121483597 2867.42724868166 170 170 170
-58.1321986103427 661.897701762961 2861.83874071298 147 147 147
-63.1788751133167 661.618798202297 2856.94384788384 143 143 143
-66.7624666702791 661.668182328067 2850.64087166228 147 147 147
-69.6281395115737 661.880626735914 2843.62411934213 133 133 133
-73.9718153621038 661.763355466106 2838.00433428193 129 129 129
-80.507930850084 661.153491553606 2834.49840670235 95 95 95
-90.6672046785184 659.724960287071 2834.53730523122 106 106 106
-106.586042897024 656.989757754765 2840.27523605861 144 144 144
-117.39752698122 655.402802270331 2841.07556763352 150 150 150
-126.741450235981 654.144526940711 2840.47106246736 173 171 174
-132.481666908352 653.702924949085 2836.30762009812 171 169 172
-140.365756453402 652.772355686892 2834.29296617996 176 174 177
-146.813332879224 652.167931855202 2830.85125001114 184 182 185
-153.257172627352 651.563621146256 2827.41194873569 188 186 189
-158.282077324922 651.284121463936 2822.53283573345 185 183 186
-162.606615204371 651.166219933964 2816.92692100452 194 194 196
-165.534271985352 651.371402558362 2809.86519842132 198 198 200
-167.078101259751 651.898631364141 2801.33790542196 198 198 200
-169.348227984669 652.26180288427 2793.51860402449 195 195 197
-168.854256548359 653.269107213469 2782.7655835617 198 198 200
-164.928442923487 655.079759386228 2768.32897023272 202 204 203
-154.834347588247 658.336069760072 2747.25498540318 182 184 183
303.842871764367 704.708534889303 2863.84746417754 196 200 201
299.237808140197 704.564184015424 2858.03835085542 173 177 176
281.716017163958 701.743484215884 2862.6138339595 145 149 148
248.96893004073 695.753187560052 2879.60358314669 133 135 134
209.144881698558 688.272027713183 2902.57175369432 147 147 147
187.907919045619 684.640242381108 2910.62569335619 159 159 159
177.127377009856 683.180429379868 2910.21376837787 159 159 159
167.168241894732 681.889113398967 2909.16341012447 141 140 138
154.849899970185 680.100934349205 2910.10540568514 147 146 144
139.400270399373 677.651213144907 2913.71484863546 150 150 150
127.159686800848 675.869273642923 2914.71324447066 177 177 177
116.527434188776 674.421543840965 2914.40917334104 177 177 177
107.49060175733 673.307027205214 2912.79297640326 176 176 176
96.9052910334014 671.863100219707 2912.52295371216 145 145 145
88.6870187822852 670.916869500113 2910.26596429019 159 159 159
79.7029986921443 669.806690996803 2908.68807411919 167 167 167
67.6315663849061 668.038255890866 2909.80945421476 150 150 150
54.0469053603649 665.943046582145 2912.30228060189 167 167 167
44.3637889953532 664.673991224152 2911.4518325084 166 166 166
35.471073832043 663.570921077478 2909.94046170966 169 169 169
26.595349535782 662.469217022146 2908.44112039554 160 160 158
18.5014952277642 661.532886312046 2906.27437434123 168 168 166
10.4199711260482 660.597464870443 2904.11657132224 141 141 139
1.59023901158939 659.499247719496 2902.65058838409 153 153 151
-5.70571074956949 658.729459486691 2899.82777282818 189 189 187
-11.4811568673843 658.286945191087 2895.63878726111 177 177 175
-17.2574696046726 657.844360689642 2891.44917310748 139 139 137
-22.2827736360764 657.564649425383 2886.56976954791 146 146 144
-31.811438230384 656.307310200184 2885.83164066071 157 157 155
-37.5814290490182 655.864968997485 2881.64661063319 159 159 157
-44.0974629822348 655.260037338243 2878.15497110703 166 166 164
-47.6376531853355 655.304692811204 2871.88343350156 158 158 158
-51.1918537365899 655.348213289717 2865.60173374674 134 134 134
-56.2375981598697 655.06645779096 2860.70750215644 180 180 180
-61.2885854939469 654.784187942234 2855.80946726293 171 171 171
-64.8761874867907 654.824793428122 2849.50353932527 135 135 135
-67.0135511681278 655.18726893641 2841.78018268893 146 146 146
-71.3637149053956 655.063687283725 2836.15595693486 125 125 123
-78.6341903268411 654.294558776877 2833.35161161311 113 113 111
-89.5243677426492 652.720824226353 2834.09496367918 95 95 93
-102.554561249887 650.666619750237 2836.98994310009 143 143 141
-114.820547574942 648.77623824745 2839.20470578281 140 140 138
-124.891067646809 647.370191441696 2839.30805769214 158 158 158
-132.785912577843 646.446935775972 2837.28564400996 161 161 161
-140.668417399435 645.524410949566 2835.2721796383 174 174 174
-146.401706347942 645.082593511236 2831.11375823265 184 184 184
-152.13580551778 644.640561076404 2826.95474839127 180 180 180
-157.162741938734 644.357929124602 2822.07385220681 186 186 186
-162.900764283881 643.915130790204 2817.91199449249 190 190 190
-166.529226849467 643.949976617586 2811.57641667984 198 198 198
-168.769270407152 644.301784388449 2803.77886565268 198 198 198
-171.032012482127 644.651623480262 2795.96455553715 196 196 196
-171.924029030116 645.316991146278 2786.6754385649 198 198 198
-167.290541755973 647.24874001972 2771.51740971625 198 200 199
-157.876657789729 650.284315238946 2751.18424371101 198 200 199
302.923096884845 697.496602203259 2855.73365562533 171 175 174
288.618068359795 695.371174430186 2857.70411917546 141 145 144
255.848438394125 689.468995866485 2874.67797291058 124 126 125
214.3954601091 681.77207251484 2898.93427775326 144 144 144
192.342275826511 678.026587459027 2907.63098165445 157 157 157
180.751853777713 676.418200623594 2907.86653592144 157 157 157
169.191431343369 674.812154475773 2908.12384940523 141 140 138
153.692433271766 672.391024123527 2911.69764889405 146 145 143
139.037181699615 670.13740174248 2914.64861558145 150 150 150
127.586914578922 668.54030927546 2914.98582835508 175 175 175
118.528074305749 667.434654516573 2913.35401682735 176 176 176
111.056283909956 666.656087790422 2910.40368617797 177 177 177
100.461414058244 665.227547110967 2910.12681180581 144 144 144
90.6726454081506 663.963475072133 2909.20009383465 149 149 149
78.5701600910325 662.21420097262 2910.2987655179 174 174 174
68.8304550332859 660.954043888123 2909.40763462191 152 152 152
56.0162967463311 659.04768204069 2911.22464033026 167 167 167
44.0123896315612 657.306045770428 2912.39510662029 168 168 168
33.5821507910699 655.890453704101 2912.23764236885 163 163 163
24.7123900011745 654.799807414581 2910.74268013753 155 155 153
18.1551693767079 654.194556236688 2907.22118188149 166 166 164
12.3645208262446 653.750601271144 2903.02116844928 138 138 136
4.29055479429419 652.823648429181 2900.86888733148 144 144 142
-3.01246452285242 652.05846568189 2898.04126470828 186 186 184
-8.79453821806453 651.615115759529 2893.84747043629 182 182 180
-13.8231066353429 651.332261982102 2888.96539005928 142 142 140
-19.6089805260864 650.888544457707 2884.76883908247 141 141 139
-28.3951342739539 649.804193320481 2883.33451726637 157 157 155
-34.1739706652417 649.360896552488 2879.14307005433 156 156 154
-39.9536222294301 648.917474002584 2874.95103126894 163 163 161
-44.2477205329201 648.793206691465 2869.36744507131 161 161 161
-49.2924830804566 648.50857341674 2864.47391068719 158 158 158
-54.3423535575145 648.223515984382 2859.57637683048 135 135 135
-57.9242903859769 648.256156533822 2853.27451534741 169 169 169
-62.2548664931704 648.128635394715 2847.66446913013 157 157 157
-65.8626990126891 648.159058616752 2841.34382407677 139 139 139
-68.0244654078557 648.505487564595 2833.60269611341 123 123 121
-73.8485156802624 648.057751298395 2829.37844990709 111 111 109
-83.301905085734 646.818279734577 2828.69498011396 94 94 92
-99.9686560528392 643.999047761039 2835.12534403215 144 144 142
-112.963999328222 641.974372027755 2838.04573669878 136 136 134
-123.759203568728 640.426175250813 2838.85836067733 155 155 155
-132.373666259301 639.353044532298 2837.54855820636 158 158 158
-140.971404296493 638.280940106242 2836.25088499192 180 180 180
-143.852819356734 638.468122076992 2829.22259284208 189 189 189
-149.593716263835 638.025270102463 2825.05865102475 179 179 179
-154.627298573918 637.739082696858 2820.17291908436 188 188 188
-163.195634592354 636.668414619556 2818.8968617732 191 191 191
-166.821534078959 636.694984463162 2812.56310007171 197 197 197
-170.46155272387 636.720201394132 2806.21909623827 196 196 196
-172.017901550843 637.212899696207 2797.68255264426 193 193 193
-171.510488735004 638.171466585179 2786.9390292596 196 196 196
-166.179888736282 640.218009561066 2771.05160265066 198 200 199
-158.150210313662 642.881711503733 2752.1834806304 200 202 201
307.418905236066 690.568684467219 2852.78189967525 191 195 194
296.329635952023 689.116521469224 2852.14650495189 132 136 135
266.754664661835 683.948868280686 2866.49951446028 135 137 136
220.45047779433 675.40030631431 2894.64556968335 143 143 143
195.97741589057 671.223849956644 2905.29127406422 156 156 156
183.579030226083 669.47235137775 2906.17543000341 157 157 157
172.807200902167 668.04560583764 2905.77028302608 139 138 136
156.503814722095 665.495364603479 2909.99534706571 143 142 140
142.632076285459 663.431534541794 2912.28022385235 146 146 146
128.803384900904 661.37110215568 2914.59632357561 170 170 170
119.742025066164 660.275897196841 2912.9624440172 175 175 175
110.697328087258 659.182052473532 2911.34094508547 177 177 177
102.452750765658 658.249602118238 2909.06466187977 152 152 152
91.8782284106108 656.838721155407 2908.80262729212 139 139 139
80.5508496955234 655.27037344961 2909.22907009144 180 180 180
70.8060223099682 654.023213885946 2908.33429174571 173 173 173
59.5342615808967 652.45919262584 2908.80107512433 158 158 158
48.2924539712766 650.897478414826 2909.28958384414 174 174 174
37.8503450177399 649.497085438973 2909.12359168081 167 167 167
27.4338560862875 648.098648483 2908.97618192588 159 159 157
20.1045398880764 647.336642236247 2906.12921774497 158 158 156
13.5461856210051 646.733609715922 2902.60720340218 149 149 147
5.46956750619776 645.814358081184 2900.45303874105 138 138 136
-2.59472205283062 644.89604545314 2898.30781606937 166 166 164
-7.62008894858601 644.610404100086 2893.428042424 192 192 190
-12.6508386879836 644.324247419321 2888.5446585072 162 162 160
-16.9344790928903 644.195320525242 2882.96833538471 145 145 143
-24.9779532793248 643.278395455442 2880.8382092491 149 149 147
-31.513513255655 642.676821192077 2877.33272636047 157 157 155
-36.5540792830124 642.38967969269 2872.44192694171 160 160 158
-40.8567194628879 642.258984988063 2866.85211599959 155 155 155
-45.1688455141321 642.127451719874 2861.25512982236 168 168 168
-51.707717180802 641.525329967114 2857.74694896857 153 153 153
-55.2957811977797 641.548990524194 2851.44060027035 153 153 153
-58.8981831262911 641.571410293194 2845.12414590626 133 133 133
-62.5144538195879 641.592666307292 2838.79733740694 156 156 156
-65.4145005335149 641.76865004987 2831.75518757546 138 138 136
-71.2452987471346 641.320068406099 2827.52604536055 118 118 116
-79.9803842411293 640.248915913346 2826.12910534228 102 102 100
-93.0404129283573 638.246482095299 2829.00271883309 132 132 130
-108.221551960178 635.781509605267 2834.04175568343 133 133 131
-120.469369623657 633.94098209862 2836.26964725996 155 155 155
-130.527526693897 632.56792964691 2836.38212849592 162 162 162
-138.41567435041 631.660809670878 2834.36465154141 178 178 178
-141.303162692608 631.83629767271 2827.33189750761 186 186 186
-147.050833264209 631.392628108646 2823.16304117508 179 179 179
-151.382881535825 631.257121037727 2817.55159282705 183 183 183
-160.666752815606 630.042315450792 2816.99113527896 191 191 191
-165.002748335293 629.906040530144 2811.37682159725 198 198 198
-169.348571907189 629.768740810779 2805.75567263697 198 198 198
-170.906403717488 630.244590706412 2797.2179686562 194 194 194
-171.794396909796 630.871450829233 2787.93157325205 195 195 195
-165.764143373778 633.02752718264 2771.31656412557 197 199 198
-157.731572425056 635.636499142201 2752.45026174106 201 203 202
307.869082105816 682.816651346558 2853.06897691935 197 201 200
300.81511412834 682.176057086032 2849.18719688633 142 146 145
276.859885051024 678.198608172659 2858.97426071692 135 137 136
230.521590515658 669.783588619169 2887.09626698232 141 141 141
198.012645171755 664.081580631202 2904.26011046647 155 155 155
182.414724118558 661.717497428971 2907.76248752988 156 156 156
172.442865520221 660.465377805188 2906.70280981221 138 137 135
158.521919493005 658.42462532817 2908.95213185882 142 141 139
145.436069796305 656.545253733394 2910.57261385404 144 144 144
130.020002648558 654.195753366058 2914.20689455939 168 168 168
123.318363632545 653.583701680696 2910.58066988337 174 174 174
115.049765419192 652.657172035356 2908.28729788719 176 176 176
108.359913804506 652.046224620496 2904.6696237433 158 158 158
95.4264529511617 650.179048861982 2906.40063743752 138 138 138
83.3105622540717 648.471764067945 2907.48980395886 173 173 173
73.5584941375511 647.237430410832 2906.58984161847 180 180 180
62.2790959912396 645.691639608449 2907.05118081121 155 155 155
51.8016684028266 644.304576003203 2906.85965293162 173 173 173
39.0401151372668 642.450818854038 2908.71535407282 168 168 168
29.3882980080005 641.224297567471 2907.88781090673 162 162 160
19.7574834340277 639.999368592857 2907.07579548359 155 155 153
13.2013484511089 639.398954997345 2903.55510873559 154 154 152
6.64882438266279 638.798833926174 2900.03704109825 137 137 135
-0.659243549455235 638.043577864795 2897.20580890693 152 152 150
-5.68900811206308 637.754483931669 2892.32312428804 187 187 185
-9.96929679783598 637.620063286054 2886.74920307135 166 166 164
-15.0117701288637 637.329909929046 2881.85730022882 145 145 143
-23.8101725202955 636.265835313299 2880.41420181418 152 152 150
-31.8440117772414 635.357427604307 2878.29110338668 150 150 148
-36.1365660185582 635.22180420855 2872.70828451485 151 151 149
-39.6952373793045 635.239571380177 2866.42321332924 166 166 166
-43.2679606316373 635.256080704245 2860.1279492563 156 156 156
-49.0723160827407 634.809880194397 2855.91798802516 160 160 160
-51.1927764334006 635.131914748723 2848.20697460959 154 154 154
-54.0708039625244 635.298580299586 2841.18103423364 152 152 152
-57.6999422180184 635.310310275886 2834.8448495126 121 121 121
-62.0734524767239 635.167680461259 2829.20330840719 129 129 127
-66.4568903797371 635.024077523658 2823.55486008851 115 115 113
-72.3018908385305 634.573897261027 2819.31541426566 110 110 108
-83.937943570213 632.902079296027 2820.75260521485 123 123 121
-101.312454301623 630.012625862541 2827.90487439624 135 135 133
-116.459270864279 627.585384007175 2832.96898345006 158 158 158
-127.246655458952 626.075269722502 2833.78717447506 163 163 163
-135.14419887305 625.175364384649 2831.76292287893 141 141 141
-139.465502471284 625.035350808735 2826.1592407476 153 153 153
-145.217704639364 624.590985543835 2821.98709584021 177 177 177
-150.262481544099 624.297897356168 2817.09350822244 172 172 172
-157.431054852186 623.550148182759 2814.36343668492 164 164 164
-163.887607852375 622.954008106153 2810.9149606876 185 185 185
-168.235333721762 622.81080851484 2805.29210835024 192 192 192
-169.794555525379 623.269877281074 2796.75331173392 194 194 194
-169.986550980432 624.027791471763 2786.73708712833 194 194 194
-167.434037714864 625.38457877946 2773.77271340459 197 199 198
-161.470686420909 627.488346768596 2757.10923493991 197 199 198
-150.057441773072 630.786981068268 2734.52167071974 196 198 197
305.080898590663 674.437825380692 2855.94576377489 200 204 203
302.072417798518 674.582212974615 2848.82514220231 195 199 198
284.553106548154 671.913762070192 2853.40319408328 136 138 137
244.611160284649 664.881196623667 2876.28817013073 136 136 136
205.653643896478 658.018783601808 2898.65231115295 151 151 151
186.839946761557 655.062775464598 2904.76094628398 153 153 153
176.856326256516 653.823125840088 2903.69309974916 137 136 134
164.511402745996 652.119153070277 2904.6162522723 141 140 138
149.032868213258 649.797242143104 2908.2053887831 143 143 143
132.026698303938 647.169375637069 2913.15563334115 166 166 166
123.745244457198 646.249660853753 2910.85297654059 170 170 170
115.47630514625 645.331019631218 2908.5593972319 170 170 170
108.786323140232 644.722421533906 2904.94164046431 163 163 163
98.194754437773 643.342451158939 2904.66740518386 138 138 138
87.6287045147763 641.964518217796 2904.41167933124 154 154 154
76.3116709872938 640.434587447324 2904.84581616718 176 176 176
64.2500152190548 638.7531546754 2905.97472416848 155 155 155
52.995144168118 637.228140271154 2906.45394881264 166 166 166
41.7701813921529 635.705369539281 2906.95486596825 163 163 163
32.111032192438 634.491577144026 2906.12207210216 158 158 156
22.4728805964474 633.279466275314 2905.30480284142 155 155 153
15.9100159840464 632.680927129278 2901.77924713584 154 154 152
8.58928746063325 631.929843130731 2898.93885814403 134 134 132
0.51748069220503 631.026723764011 2896.78826304369 142 142 140
-5.2712340649439 630.581909812434 2892.58964710858 175 175 173
-8.79656153525543 630.594043948828 2886.32871908831 175 175 173
-13.840896429802 630.300742235278 2881.4351563346 151 151 149
-21.1416762000953 629.550975589132 2878.6092352923 146 146 144
-28.4344572109299 628.801737444078 2875.7891153984 149 149 147
-33.4814285557605 628.508013045298 2870.89363928462 148 148 146
-39.2775379176813 628.062241585377 2866.68965799273 159 159 159
-42.8497940719494 628.070334999747 2860.3946899009 164 164 164
-45.6969207693554 628.228331769153 2853.39110628823 159 159 159
-48.5625353488604 628.384830813927 2846.374112829 163 163 163
-51.4466312083719 628.539713181281 2839.34371370669 146 146 146
-55.0819447979074 628.542459264897 2833.00300684903 153 153 153
-59.4618287337918 628.393547833171 2827.35681351138 123 123 121
-64.5799615452063 628.09332212267 2822.41001247841 109 109 107
-68.9770940986065 627.94280425721 2816.75130711291 112 112 110
-76.2798408286542 627.191444413824 2813.92395210965 111 111 109
-94.4007489723933 624.193708821644 2821.76963003665 139 139 137
-111.728171880501 621.351175189645 2828.9562718441 150 150 150
-124.6820390859 619.410483759187 2831.90715679605 149 149 149
-131.871723895317 618.667118187878 2829.16180328449 134 134 134
-138.34044833963 618.073307870302 2825.70451574826 153 153 153
-144.095020507077 617.628511633761 2821.5306505948 175 175 175
-149.141964116472 617.332200984277 2816.63547596418 169 169 169
-155.606754112168 616.738082090857 2813.18103903072 155 155 155
-162.772277715267 615.995508842317 2810.45320450651 178 178 178
-167.823931851225 615.698149047304 2805.55431532351 188 188 188
-170.082231568307 615.992438167006 2797.74323867349 192 192 192
-170.968388725335 616.58055380547 2788.45797800204 192 192 192
-171.886175394784 617.165977254678 2779.14948030855 197 199 198
-167.984166635326 618.781638829062 2764.69462265879 194 196 195
-157.235998158958 621.86611116537 2742.85888238512 201 203 202
307.959173824645 667.156860451779 2854.29000303004 198 202 201
302.522436466796 666.828673442491 2849.11209713252 194 198 197
289.0275649609 664.965425295256 2850.43615215773 124 126 125
256.296476423536 659.425787809274 2867.43978173878 136 136 136
214.098125990169 652.059573295067 2892.39246213875 161 161 161
192.065091614015 648.533198452072 2901.10517745058 149 149 149
182.067774373751 647.305841367393 2900.02716964721 141 140 138
168.914095077681 645.469636156085 2901.59869916453 142 141 139
152.630673698115 643.026728974402 2905.83877978226 141 141 141
137.193676468168 640.74055382145 2909.45791410203 159 159 159
127.323039562903 639.523379999339 2908.47208563424 165 165 165
119.044948523047 638.611913440212 2906.17190838305 176 176 176
110.779274077408 637.701542379413 2903.88073773489 165 165 165
100.963757645498 636.488853443895 2902.93459551439 141 141 141
90.3902686483988 635.126448684888 2902.6735555715 152 152 152
78.2888471805419 633.463441222446 2903.77343541931 164 164 164
66.2216201421852 631.803094760887 2904.89841149433 159 159 159
54.1888176029683 630.145437093571 2906.04806176568 160 160 160
42.9606003031799 628.641222010759 2906.54671363553 163 163 163
33.2983570420184 627.440571935001 2905.71203786374 159 159 157
24.4231662439316 626.39199347877 2904.21335238547 152 152 150
17.0919918234334 625.645260957985 2901.36541298102 161 161 159
10.5303913894397 625.049213977106 2897.84078632866 141 141 139
3.21289524997948 624.303499933906 2895.00276776085 141 141 139
-3.33940814586864 623.708116501078 2891.48488409085 150 150 148
-6.86869295496573 623.711386683325 2885.22104241357 187 187 185
-11.9174753124138 623.414658227575 2880.32453271897 175 175 173
-18.4723703140663 622.818915486236 2876.80476851865 145 145 143
-25.7721307440928 622.074309642311 2873.97961255835 157 157 155
-30.8255280221372 621.776987864795 2869.07945992702 144 144 142
-35.884407735923 621.479202435312 2864.17562508955 141 141 141
-40.2069775181431 621.32941814469 2858.57127006085 157 157 157
-43.0599412736083 621.475729723571 2851.5631013754 163 163 163
-45.9315743874515 621.620419746964 2844.54168513716 155 155 155
-49.5567436281363 621.61553388612 2838.20829347718 150 150 150
-53.9291308258913 621.461474854 2832.56780308839 147 147 147
-56.8495091867542 621.602086122754 2825.5107352436 141 141 139
-61.2457201674115 621.44594773899 2819.85296395384 115 115 113
-65.6514809851108 621.288816250193 2814.18797027611 116 116 114
-72.2392639280645 620.68918447062 2810.64434520653 101 101 99
-88.2083841303454 618.177751934483 2816.34725346698 120 120 118
-106.275736289051 615.230208352525 2824.2320095029 134 134 134
-119.96412335058 613.168515644208 2827.88484906958 133 133 133
-128.597969999356 612.136172973874 2826.56120135314 127 127 127
-135.789013720488 611.39768592413 2823.81488744814 162 162 162
-142.972172443885 610.659598671877 2821.07429157133 169 169 169
-149.43860184746 610.068005567911 2817.61867898974 163 163 163
-155.90154826791 609.476395905346 2814.16559121307 158 158 158
-162.361082720837 608.884834033318 2810.71527156357 192 192 192
-166.008711040078 608.875500008772 2804.36557630741 183 183 183
-167.570874737583 609.300873912284 2795.82447637831 194 194 194
-170.555708042872 609.433525754596 2788.72093792972 191 191 191
-173.5588810448 609.564532159034 2781.60380183216 198 200 199
-171.728074374444 610.707658390151 2769.35049646632 189 191 190
-163.036213302141 613.293469223339 2749.72697361747 205 207 206
319.746621992501 661.521233733808 2845.51473948629 198 202 201
309.43348899224 660.281983742547 2844.20802433576 197 201 200
295.920031707791 658.441565186288 2845.51842729282 137 139 138
265.576275640094 653.441774312991 2860.55001519423 132 132 132
222.545708046777 646.045380962748 2886.13458185902 157 157 157
201.286713673042 642.721672113081 2894.17411072443 149 149 149
191.264490797394 641.505720239068 2893.07840054112 139 138 136
176.496480827421 639.391994117279 2895.94833486168 140 139 137
154.645001254425 635.934295416747 2904.79271650607 141 141 141
138.411591183504 633.530509328325 2909.06924954478 158 158 158
126.962280940018 632.02771037559 2909.40763359436 162 162 162
117.900209358664 630.974955481848 2907.77345309359 173 173 173
108.854847128147 629.923594462156 2906.1516870951 167 167 167
100.607807524368 629.022529599252 2903.87407237923 147 147 147
91.5940724008966 627.973720369569 2902.27495199389 143 143 143
77.9352019441246 626.034882958925 2904.71477443438 156 156 156
67.4186111507682 624.692949571902 2904.49508490519 162 162 162
55.3824503851201 623.056587368078 2905.64240859225 155 155 155
45.6916860703687 621.867039255415 2904.78711353367 158 158 158
35.2540609900718 620.53128351007 2904.62440474904 166 166 164
27.139876350156 619.640593046081 2902.44315198011 152 152 150
18.2740270500563 618.603296625217 2900.95158997585 159 159 157
