ply
format ascii 1.0
comment KinectMotionCapture
element vertex 795
property float x
property float y
property float z
property uchar red
property uchar green
property uchar blue
end_header
-32.1206450462341 -186.862722039223 2723.99997711182 21 24 15
-24.8396676033735 -188.029900193214 2740.9999370575 14 17 8
-9.9089490249753 -188.648462295532 2750 14 17 10
-2.40710331127048 -188.991695642471 2755.00011444092 16 19 12
5.19628124311566 -192.078590393066 2799.99995231628 16 19 12
12.829789891839 -191.941097378731 2798.00009727478 16 19 12
20.4450152814388 -191.734731197357 2795.00007629395 16 18 13
28.1944442540407 -192.557081580162 2806.99992179871 15 17 12
36.6607271134853 -196.877717971802 2869.99988555908 14 16 11
130.960673093796 -197.323814034462 2877.00009346008 16 19 12
136.541217565536 -194.095760583878 2829.99992370605 16 19 12
143.648982048035 -193.268060684204 2818.00007820129 15 18 11
152.623996138573 -194.909065961838 2842.00000762939 13 16 9
191.372498869896 -194.880411028862 2842.00000762939 15 18 11
196.387574076653 -192.199736833572 2802.99997329712 16 19 12
204.683184623718 -192.810222506523 2812.00003623962 15 18 11
215.292513370514 -195.47738134861 2851.0000705719 18 21 14
224.314093589783 -196.567177772522 2867.00010299683 18 21 14
234.150677919388 -198.273673653603 2891.99995994568 16 19 12
236.00472509861 -193.329840898514 2819.9999332428 15 18 11
248.958617448807 -197.503790259361 2881.00004196167 15 18 11
256.62824511528 -197.35848903656 2878.99994850159 15 18 11
-80.5831700563431 -204.050675034523 2861.00006103516 19 22 15
-72.5468248128891 -203.411474823952 2851.99999809265 18 21 12
-63.5601505637169 -199.63376224041 2799.00002479553 20 23 14
-54.8425167798996 -195.784345269203 2744.99988555908 19 20 12
-47.6441606879234 -196.998700499535 2762.00008392334 19 20 12
-39.4380167126656 -193.719297647476 2716.00008010864 20 23 14
-32.0605747401714 -193.93453001976 2719.00010108948 19 22 13
-25.4006441682577 -199.926912784576 2802.99997329712 18 21 12
-17.4715127795935 -196.7893242836 2759.0000629425 16 19 10
-9.81852691620588 -194.364711642265 2724.99990463257 17 20 13
-2.42711440660059 -198.145240545273 2778.00011634827 16 19 12
5.19795622676611 -199.785709381104 2801.00011825562 16 19 12
20.2541258186102 -197.502344846725 2769.00005340576 16 18 13
28.0026309192181 -198.856696486473 2788.00010681152 14 16 11
36.4167615771294 -203.349083662033 2851.0000705719 14 16 11
113.656237721443 -202.324122190475 2836.99989318848 9 11 6
124.434188008308 -207.383364439011 2907.99999237061 12 15 8
129.454061388969 -202.81483232975 2844.00010108948 15 18 11
136.777773499489 -202.168375253677 2835.00003814697 15 18 11
144.969388842583 -202.805280685425 2844.00010108948 15 18 11
151.759564876556 -201.516538858414 2825.99997520447 13 16 9
160.313114523888 -202.580720186234 2841.00008010864 14 17 10
174.035221338272 -209.776759147644 2941.99991226196 15 18 11
179.70584332943 -207.061126828194 2904.00004386902 14 17 10
187.559083104134 -206.983521580696 2903.00011634827 14 17 10
193.588063120842 -204.980581998825 2875 17 20 13
200.024172663689 -203.547909855843 2855.00001907349 17 20 13
207.151055335999 -202.899247407913 2845.99995613098 14 17 10
214.983254671097 -202.963352203369 2846.99988365173 14 17 10
221.724778413773 -202.029183506966 2834.00011062622 13 16 9
232.361704111099 -204.58772778511 2869.99988555908 14 17 10
243.026599287987 -207.003355026245 2904.00004386902 14 17 10
248.950377106667 -205.355584621429 2881.00004196167 16 19 12
254.123985767365 -203.208774328232 2851.0000705719 16 19 12
-88.5415598750114 -212.21861243248 2865.9999370575 19 22 15
-72.3916068673134 -210.743516683578 2845.99995613098 13 16 7
-63.6032894253731 -207.413792610168 2801.00011825562 15 18 9
-56.9382794201374 -211.044430732727 2849.99990463257 17 20 11
-48.5221557319164 -208.306461572647 2812.99996376038 17 18 10
-39.9738401174545 -203.865006566048 2753.00002098084 15 18 9
-32.0830009877682 -201.496660709381 2720.99995613098 17 20 11
-24.6566776186228 -201.497688889503 2720.99995613098 20 23 14
-17.4455549567938 -204.016283154488 2755.00011444092 20 23 14
-9.90824773907661 -203.64648103714 2750 18 21 14
-2.421785145998 -205.275908112526 2772.0000743866 16 19 12
5.15508884564042 -205.720186233521 2778.00011634827 16 19 12
12.5950453802943 -203.424170613289 2746.99997901917 16 19 12
20.0120247900486 -202.609017491341 2736.00006103516 15 17 12
130.814954638481 -212.789624929428 2874.00007247925 14 17 10
138.316735625267 -212.266474962234 2867.00010299683 15 18 11
145.321041345596 -211.076781153679 2851.0000705719 14 17 10
152.398601174355 -210.108980536461 2838.00005912781 13 16 9
160.533174872398 -210.621580481529 2845.00002861023 14 17 10
169.119372963905 -211.652100086212 2858.99996757507 15 18 11
179.142594337463 -214.310884475708 2894.99998092651 14 17 10
187.940120697021 -215.340703725815 2908.99991989136 14 17 10
193.985313177109 -213.261261582375 2881.00004196167 16 19 12
203.239843249321 -214.734613895416 2901.00002288818 16 19 12
208.67232978344 -212.210640311241 2867.00010299683 14 17 10
214.447215199471 -210.20470559597 2839.99991416931 15 18 11
223.672941327095 -211.603239178658 2858.99996757507 15 18 11
233.649015426636 -213.593497872353 2885.99991798401 13 16 9
241.09348654747 -213.215172290802 2881.00004196167 13 16 9
247.904926538467 -212.318524718285 2868.99995803833 13 16 9
255.630552768707 -212.235748767853 2868.00003051758 13 15 10
-87.9204273223877 -218.49662065506 2845.99995613098 16 19 12
-80.2956596016884 -218.88367831707 2851.0000705719 14 17 10
-72.821319103241 -219.807848334312 2862.99991607666 12 15 6
-56.3767924904823 -216.664910316467 2822.00002670288 16 17 9
-48.8825775682926 -217.588230967522 2834.00011062622 16 17 9
-40.5240915715694 -214.288428425789 2790.99988937378 14 17 8
-32.2940349578857 -210.297346115112 2739.00008201599 16 19 10
-24.7644931077957 -209.83774960041 2733.00004005432 19 22 13
-17.311928793788 -209.915339946747 2733.99996757507 18 21 12
-10.0267743691802 -213.678047060966 2782.99999237061 18 21 14
-2.43741995655 -214.215740561485 2789.99996185303 15 18 11
5.20870881155133 -215.520948171616 2806.99992179871 17 20 13
12.5533118844032 -210.222795605659 2737.99991607666 15 18 11
20.1502460986376 -211.527451872826 2755.00011444092 12 14 9
37.4358892440796 -225.038394331932 2930.99999427795 12 14 9
122.84205108881 -220.398634672165 2871.00005149841 12 14 9
131.492882966995 -221.775680780411 2888.99993896484 12 15 8
139.180019497871 -221.463546156883 2884.99999046326 11 14 7
153.735443949699 -219.763860106468 2862.99991607666 11 14 7
162.163630127907 -220.602363348007 2874.00007247925 15 18 11
169.882163405418 -220.442682504654 2871.99997901917 16 19 12
177.341639995575 -219.975709915161 2865.9999370575 14 17 10
184.83230471611 -219.585254788399 2861.00006103516 14 17 10
195.661529898643 -223.032012581825 2905.99989891052 16 19 12
203.582793474197 -223.024651408195 2905.99989891052 17 20 13
208.955958485603 -220.33104300499 2871.00005149841 16 19 12
215.798646211624 -219.325616955757 2858.00004005432 17 20 13
224.681928753853 -220.391914248466 2871.99997901917 14 17 10
233.883544802666 -221.688106656075 2888.99993896484 16 19 12
243.093222379684 -222.907200455666 2904.99997138977 13 16 9
255.49978017807 -226.888209581375 2957.00001716614 14 17 10
-79.7574818134308 -225.14496743679 2832.00001716614 14 17 10
-72.1063613891602 -225.386425852776 2835.00003814697 12 15 6
-56.4745031297207 -224.755421280861 2826.99990272522 14 15 7
-48.6909709870815 -224.439471960068 2822.99995422363 16 17 9
-32.5639620423317 -219.592869281769 2762.00008392334 14 17 8
-24.8632114380598 -218.162894248962 2743.99995803833 17 20 11
-17.2416139394045 -216.494098305702 2723.00004959106 17 20 11
-9.87146981060505 -217.846229672432 2740.00000953674 16 19 12
-2.46702809818089 -224.524945020676 2823.99988174438 14 17 10
5.23634115234017 -224.365904927254 2822.00002670288 17 20 13
12.8187397494912 -222.298383712769 2796.0000038147 15 18 11
123.350791633129 -229.178205132484 2882.99989700317 9 11 6
131.624400615692 -229.888692498207 2891.99995994568 11 14 7
138.885289430618 -228.850096464157 2878.99994850159 11 14 7
146.992191672325 -229.242071509361 2884.0000629425 10 13 6
154.910936951637 -229.315727949142 2884.99999046326 10 13 6
163.060262799263 -229.707062244415 2890.00010490417 14 17 10
171.709403395653 -230.733916163445 2903.00011634827 15 18 11
175.540581345558 -225.481554865837 2836.99989318848 13 16 9
182.822734117508 -224.918395280838 2829.99992370605 14 17 10
193.365052342415 -228.249207139015 2871.99997901917 17 20 13
202.524423599243 -229.75167632103 2891.00003242493 18 21 14
208.875373005867 -228.074997663498 2869.99988555908 16 19 12
216.69664978981 -228.066965937614 2869.99988555908 19 22 15
228.115692734718 -231.713935732841 2915.99988937378 15 18 11
236.465439200401 -232.102543115616 2921.0000038147 15 18 11
247.100830078125 -234.636157751083 2953.00006866455 12 15 8
-85.0716903805733 -226.447224617004 2753.99994850159 19 22 15
-63.8003051280975 -231.060892343521 2809.99994277954 13 16 7
-56.2325529754162 -231.474444270134 2815.00005722046 13 14 6
-48.6545413732529 -231.969967484474 2821.00009918213 14 15 7
-40.7241843640804 -230.656057596207 2805.0000667572 12 15 6
-32.5862430036068 -227.286070585251 2763.99993896484 13 16 7
-24.916585534811 -226.136013865471 2750 15 18 9
-17.2472577542067 -223.998844623566 2723.99997711182 15 18 9
-9.95033513754606 -227.124214172363 2762.00008392334 15 18 11
-2.41276971064508 -227.124452590942 2762.00008392334 15 18 11
5.11552765965462 -226.713240146637 2756.99996948242 18 21 14
132.620498538017 -239.579349756241 2914.00003433228 6 9 2
139.072820544243 -237.025260925293 2882.99989700317 7 10 3
145.71225643158 -235.046446323395 2858.99996757507 9 12 5
153.777331113815 -235.451579093933 2864.00008201599 9 12 5
163.561671972275 -238.322645425797 2898.9999294281 13 16 9
171.05208337307 -237.740561366081 2891.99995994568 15 18 11
173.986956477165 -231.157377362251 2812.00003623962 14 17 10
181.200683116913 -230.57496547699 2805.0000667572 14 17 10
191.539824008942 -233.855649828911 2845.00002861023 16 19 12
199.714571237564 -234.34117436409 2851.0000705719 16 19 12
207.557380199432 -234.415397047997 2851.99999809265 13 16 9
217.141374945641 -236.379742622375 2875.99992752075 14 17 10
223.569869995117 -234.891787171364 2858.00004005432 10 13 6
239.046856760979 -242.690488696098 2953.00006866455 12 15 8
250.187397003174 -245.721817016602 2990.00000953674 10 13 6
-78.6809697747231 -237.35423386097 2793.99991035461 18 21 14
-72.0751360058784 -240.755423903465 2834.00011062622 15 18 9
-63.9566257596016 -239.314049482346 2816.99991226196 13 16 7
-56.0904256999493 -238.551944494247 2808.00008773804 12 13 5
-48.9802360534668 -241.272673010826 2839.99991416931 12 13 5
-40.7515540719032 -238.471016287804 2806.99992179871 12 15 6
-32.8560620546341 -236.773416399956 2786.99994087219 13 16 7
-25.096770375967 -235.330358147621 2769.99998092651 14 17 8
-17.4174979329109 -233.717039227486 2750.99992752075 15 18 9
-9.90669801831245 -233.632683753967 2750 14 17 10
-2.37423554062843 -230.914279818535 2717.99993515015 15 18 11
5.08563173934817 -232.868239283562 2740.9999370575 16 19 12
12.7351880073547 -236.011296510696 2778.00011634827 15 18 11
20.6817053258419 -240.25847017765 2828.00006866455 14 16 11
126.036241650581 -250.243753194809 2946.00009918213 0 1 0
134.25350189209 -250.578165054321 2950.00004768372 6 9 2
142.684981226921 -251.252025365829 2957.99994468689 8 11 4
145.604476332664 -242.66728758812 2857.00011253357 10 13 6
153.39532494545 -242.661207914352 2857.00011253357 9 12 5
162.878111004829 -245.202794671059 2887.00008392334 13 16 9
170.572102069855 -244.941189885139 2884.0000629425 15 18 11
176.578566431999 -242.386236786842 2854.00009155273 13 16 9
184.4232827425 -242.463856935501 2855.00001907349 12 15 8
190.051093697548 -239.738702774048 2822.99995422363 13 16 9
199.286356568336 -241.599127650261 2845.00002861023 12 15 8
207.913056015968 -242.609962821007 2857.00011253357 9 12 5
214.414864778519 -241.157904267311 2839.99991416931 11 14 7
226.377084851265 -245.734393596649 2894.00005340576 8 11 4
239.523142576218 -251.244246959686 2959.00011062622 11 14 7
248.922511935234 -252.593040466309 2974.99990463257 10 13 6
259.53134894371 -255.045175552368 3003.99994850159 13 16 9
-87.7209901809692 -248.997509479523 2839.99991416931 16 19 12
-79.4942826032639 -247.510567307472 2822.99995422363 14 17 10
-71.7669352889061 -247.42616713047 2822.00002670288 13 16 7
-64.0674531459808 -247.429043054581 2822.00002670288 15 18 9
-56.647352874279 -248.659119009972 2835.99996566772 16 19 10
-48.3400747179985 -245.767906308174 2802.99997329712 15 16 8
-40.6627357006073 -245.594471693039 2801.00011825562 12 15 6
-32.9843498766422 -245.33300101757 2798.00009727478 12 15 6
-25.1500718295574 -243.405252695084 2776.00002288818 12 15 6
-17.6383499056101 -244.282975792885 2786.00001335144 13 16 7
-9.78380162268877 -238.145783543587 2716.00008010864 13 16 9
-2.40907492116094 -241.828724741936 2757.99989700317 11 14 7
5.06871985271573 -239.548921585083 2732.00011253357 12 15 8
12.8309167921543 -245.423257350922 2799.00002479553 13 16 9
20.7759011536837 -249.105215072632 2841.00008010864 15 18 11
135.021537542343 -260.106533765793 2967.00000762939 12 15 8
154.033228754997 -251.497238874435 2868.99995803833 12 15 8
162.420019507408 -252.367168664932 2878.99994850159 12 15 8
170.860767364502 -253.236770629883 2888.99993896484 14 17 10
177.994251251221 -252.177625894547 2877.00009346008 12 15 8
182.7362626791 -247.962847352028 2828.9999961853 10 13 6
193.880543112755 -252.425104379654 2880.00011444092 10 13 6
208.70503783226 -251.356691122055 2868.00003051758 9 12 5
221.653684973717 -257.307350635529 2936.00010871887 11 14 5
244.059756398201 -255.613625049591 2917.00005531311 11 14 7
258.916139602661 -262.613505125046 2996.99997901917 14 17 10
-87.5936672091484 -256.374001502991 2835.99996566772 17 20 13
-80.420084297657 -258.185684680939 2855.99994659424 17 20 13
-71.1789429187775 -253.036111593246 2799.00002479553 17 20 13
-63.905768096447 -254.48551774025 2815.00005722046 17 20 13
-56.0456961393356 -253.674507141113 2805.99999427795 16 19 12
-48.182774335146 -252.591907978058 2793.99991035461 15 18 11
-40.4287055134773 -251.780211925507 2785.00008583069 14 17 8
-25.6200693547726 -255.670607089996 2828.00006866455 12 15 6
-17.2893926501274 -246.90206348896 2730.99994659424 11 14 5
20.7384377717972 -256.394535303116 2835.99996566772 10 13 4
28.7981387227774 -259.286433458328 2868.00003051758 11 14 5
126.325026154518 -266.930103302002 2953.00006866455 0 1 0
143.502861261368 -254.52908873558 2815.99998474121 13 16 9
153.006613254547 -257.595807313919 2849.99990463257 12 15 8
162.356734275818 -260.119765996933 2878.00002098084 11 14 7
168.547078967094 -257.581949234009 2849.99990463257 11 14 7
178.234189748764 -260.376244783401 2881.00004196167 9 12 5
185.570552945137 -259.64543223381 2872.99990653992 10 13 6
194.276258349419 -260.812163352966 2885.99991798401 11 14 7
200.110360980034 -258.183032274246 2857.00011253357 13 16 9
210.733756422997 -261.698573827744 2895.99990844727 14 17 10
245.471954345703 -265.093713998795 2934.00001525879 12 15 8
247.934147715569 -259.300917387009 2869.99988555908 11 13 8
-87.7750962972641 -264.658957719803 2842.00000762939 14 17 10
-79.5436426997185 -263.079553842545 2825.00004768372 15 18 11
-71.1503550410271 -260.568559169769 2798.00009727478 18 21 14
-62.9494935274124 -258.243381977081 2773.00000190735 18 21 14
-47.9047298431396 -258.714020252228 2778.00011634827 16 19 12
-39.7156216204166 -254.80455160141 2736.00006103516 15 18 9
-32.6867625117302 -258.252024650574 2773.00000190735 14 17 8
-25.4830420017242 -261.978536844254 2812.99996376038 12 15 6
-17.6494624465704 -259.651273488998 2788.00010681152 10 13 4
-10.0494865328074 -259.838134050369 2789.99996185303 10 13 4
5.1480452530086 -258.441388607025 2775.00009536743 10 13 4
21.337116137147 -271.758049726486 2917.99998283386 9 12 3
28.5257585346699 -264.585822820663 2841.00008010864 10 13 4
123.581744730473 -269.0150141716 2888.99993896484 14 17 10
138.470605015755 -267.32724905014 2871.00005149841 14 17 10
152.3557305336 -264.241695404053 2838.00005912781 10 13 6
161.390662193298 -266.376227140427 2861.00006103516 10 13 6
169.545084238052 -266.927540302277 2867.00010299683 9 12 5
177.112907171249 -266.547471284866 2862.99991607666 9 12 5
186.402156949043 -268.680721521378 2885.99991798401 10 13 6
191.709950566292 -265.134781599045 2848.00004959106 12 15 8
202.202886343002 -268.756777048111 2887.00008392334 13 16 9
209.706008434296 -268.282353878021 2881.99996948242 14 17 10
214.91639316082 -265.015006065369 2846.99988365173 12 15 8
240.140780806541 -276.165187358856 2967.00000762939 13 16 9
247.636690735817 -275.503098964691 2960.00003814697 13 16 9
-87.9255160689354 -272.87968993187 2846.99988365173 14 17 10
-78.6671936511993 -267.803519964218 2793.99991035461 15 18 11
-71.1471065878868 -268.190413713455 2798.00009727478 18 21 14
-63.5368153452873 -268.289387226105 2799.00002479553 17 20 13
-55.5213764309883 -266.470938920975 2779.99997138977 15 18 11
-40.483120828867 -267.338067293167 2789.00003433228 14 17 8
-32.5909741222858 -265.03923535347 2765.00010490417 13 16 7
-25.0198878347874 -264.752984046936 2762.00008392334 11 14 5
-10.1462751626968 -270.026713609695 2816.99991226196 10 13 4
-2.4663950316608 -270.697981119156 2823.99988174438 10 13 4
5.26653369888663 -272.135764360428 2838.99998664856 11 14 5
12.8887873142958 -269.5472240448 2812.00003623962 11 14 5
28.4039694815874 -271.174848079681 2828.9999961853 11 14 5
36.5055054426193 -274.049013853073 2858.99996757507 14 17 10
124.902181327343 -279.855102300644 2920.00007629395 19 22 15
145.222589373589 -273.127913475037 2849.99990463257 9 12 5
151.543647050858 -270.533680915833 2822.99995422363 8 11 4
160.988569259644 -273.497313261032 2854.00009155273 9 12 5
171.252369880676 -277.514576911926 2895.99990844727 9 12 5
180.074289441109 -278.94401550293 2911.00001335144 11 14 7
187.168881297112 -277.690023183823 2898.00000190735 12 15 8
194.865047931671 -277.393996715546 2894.99998092651 13 16 9
202.053844928741 -276.426881551743 2884.99999046326 13 16 9
219.888985157013 -279.090762138367 2913.00010681152 11 14 7
227.042734622955 -278.122752904892 2903.00011634827 12 15 8
241.344273090363 -285.680800676346 2982.00011253357 13 16 9
247.207567095757 -283.083349466324 2954.99992370605 14 17 10
250.763386487961 -278.090953826904 2903.00011634827 14 16 11
-86.3155499100685 -275.50807595253 2795.00007629395 16 19 12
-78.7198320031166 -275.610536336899 2796.0000038147 15 18 11
-72.0082893967628 -279.162764549255 2832.00001716614 14 17 10
-64.4190907478333 -279.757440090179 2838.00005912781 13 16 9
-55.6186363101006 -274.535745382309 2785.00008583069 11 14 7
-48.2968762516975 -276.115477085114 2801.00011825562 10 13 6
-41.2214621901512 -279.962092638016 2839.99991416931 10 13 6
-33.049114048481 -276.415050029755 2803.99990081787 11 14 7
-17.5338871777058 -273.065745830536 2769.99998092651 10 13 6
-10.2574499323964 -280.755639076233 2848.00004959106 11 14 7
-2.48811254277825 -280.854523181915 2848.99997711182 10 13 6
5.24031696841121 -278.488546609879 2825.00004768372 11 14 7
12.8835998475552 -277.108013629913 2811.00010871887 12 15 8
20.6844098865986 -278.881639242172 2828.9999961853 11 14 7
28.4729171544313 -279.570519924164 2835.99996566772 11 14 7
36.3250449299812 -280.456185340881 2845.00002861023 14 17 10
121.816754341125 -280.710875988007 2848.00004959106 12 15 8
140.049427747726 -286.218076944351 2904.00004386902 11 14 7
147.355914115906 -285.028666257858 2891.99995994568 8 11 4
155.079498887062 -284.725934267044 2888.99993896484 8 11 4
160.247907042503 -279.988020658493 2841.00008010864 10 13 6
171.835824847221 -286.386102437973 2905.99989891052 11 14 7
180.746480822563 -287.954717874527 2921.99993133545 13 16 9
188.774898648262 -288.044720888138 2923.00009727478 14 17 10
196.942716836929 -288.33144903183 2926.00011825562 14 17 10
204.565852880478 -287.829488515854 2921.0000038147 12 15 8
206.631407141685 -279.838621616364 2839.99991416931 9 12 5
215.576529502869 -281.405448913574 2855.99994659424 11 14 7
228.753015398979 -288.193851709366 2924.99995231628 12 15 8
241.009667515755 -293.405026197433 2977.9999256134 13 16 9
250.542610883713 -295.068740844727 2994.99988555908 14 17 10
250.838577747345 -286.092191934586 2904.00004386902 14 16 11
-80.517865717411 -289.707809686661 2859.99989509583 14 17 10
-73.0981305241585 -291.230976581573 2875 12 15 8
-64.7564753890038 -289.005756378174 2852.9999256134 11 14 7
-57.7527433633804 -292.95939207077 2891.99995994568 10 13 6
-48.4842211008072 -284.857928752899 2812.00003623962 11 14 7
-40.6824722886086 -283.948391675949 2802.99997329712 9 11 6
-10.1813254877925 -286.384582519531 2826.99990272522 8 10 5
-2.49323272146285 -289.221405982971 2855.00001907349 8 10 5
12.8967287018895 -285.067439079285 2813.99989128113 11 13 8
20.8077039569616 -288.308322429657 2845.99995613098 10 12 7
28.7626907229424 -290.231883525848 2865.00000953674 10 12 7
36.8723012506962 -292.560279369354 2888.00001144409 12 14 9
120.39952725172 -285.12367606163 2815.00005722046 7 10 3
145.877927541733 -306.380778551102 3025.00009536743 8 11 4
151.934504508972 -302.018523216248 2982.00011253357 9 12 5
156.199410557747 -294.719070196152 2910.00008583069 10 13 6
163.568124175072 -293.698668479919 2900.00009536743 12 15 8
169.99477148056 -291.158854961395 2875 12 15 8
181.789517402649 -297.63188958168 2938.99989128113 12 15 8
189.088970422745 -296.509176492691 2927.99997329712 12 15 8
196.327775716782 -295.386135578156 2917.00005531311 12 15 8
199.794292449951 -288.89599442482 2852.9999256134 13 16 9
203.12961935997 -282.709777355194 2792.00005531311 13 16 9
227.569431066513 -294.637501239777 2910.00008583069 15 18 11
236.709490418434 -296.145379543304 2924.99995231628 16 19 12
247.436106204987 -299.475222826004 2957.99994468689 16 19 12
258.859783411026 -303.411871194839 2996.99997901917 16 19 12
-87.6350104808807 -295.202732086182 2838.00005912781 14 17 10
-79.4160142540932 -293.43855381012 2821.00009918213 13 16 9
-72.5860744714737 -296.978980302811 2855.00001907349 10 13 6
-66.2285760045052 -303.535759449005 2917.99998283386 9 12 5
-49.0852706134319 -296.155840158463 2846.99988365173 12 15 8
-41.9140979647636 -300.423115491867 2888.00001144409 10 12 7
-25.6684087216854 -294.809103012085 2834.00011062622 8 10 5
-2.54288478754461 -302.925258874893 2911.99994087219 7 9 4
5.37706213071942 -301.572859287262 2898.9999294281 8 10 5
20.3534085303545 -289.608508348465 2783.99991989136 9 11 6
28.7010446190834 -297.409266233444 2858.99996757507 9 11 6
36.5640856325626 -297.927767038345 2864.00008201599 10 12 7
116.521641612053 -302.674889564514 2910.00008583069 10 12 7
123.430252075195 -300.172716379166 2885.99991798401 15 18 11
152.844220399857 -312.009185552597 3000 10 13 6
164.406225085258 -303.153604269028 2914.99996185303 11 14 7
171.169102191925 -301.065534353256 2894.99998092651 12 15 8
179.244890809059 -301.36901140213 2898.00000190735 10 13 6
189.596518874168 -305.31170964241 2936.00010871887 11 14 7
193.02062690258 -298.231333494186 2868.00003051758 13 16 9
198.384270071983 -294.582396745682 2832.99994468689 14 17 10
208.649039268494 -298.211961984634 2868.00003051758 16 19 12
214.952543377876 -296.122252941132 2848.00004959106 17 20 13
228.888064622879 -304.325520992279 2927.00004577637 17 20 13
238.074004650116 -305.873930454254 2941.99991226196 18 21 14
246.755301952362 -306.694149971008 2950.00004768372 18 21 14
255.479246377945 -307.513922452927 2957.99994468689 17 20 13
265.404105186462 -309.684753417969 2979.00009155273 16 18 13
-79.7498375177383 -302.399605512619 2832.99994468689 11 14 7
-64.6592676639557 -304.11484837532 2848.99997711182 10 13 6
-56.3692264258862 -301.342517137527 2822.99995422363 9 12 5
-25.6399493664503 -302.204847335815 2831.00008964539 8 10 5
-17.5692737102509 -296.334773302078 2776.00002288818 7 9 4
-10.327959433198 -306.156396865845 2868.00003051758 7 9 4
-2.49298475682735 -304.768979549408 2855.00001907349 7 9 4
5.35453576594591 -308.184891939163 2887.00008392334 7 9 4
13.1704024970531 -306.796669960022 2874.00007247925 8 10 5
20.5936320126057 -300.711095333099 2816.99991226196 10 12 7
28.4084863960743 -302.09755897522 2829.99992370605 11 13 8
36.6899110376835 -306.792885065079 2874.00007247925 14 16 11
44.2815944552422 -305.082827806473 2858.00004005432 14 16 13
117.23655462265 -312.518119812012 2927.99997329712 8 10 5
124.963700771332 -311.871618032455 2921.99993133545 10 13 6
131.520345807076 -308.556526899338 2891.00003242493 10 13 6
142.198950052261 -314.739942550659 2948.99988174438 10 13 6
149.881809949875 -313.985496759415 2941.99991226196 10 13 6
157.472267746925 -313.124090433121 2934.00001525879 10 13 6
163.157388567925 -308.740496635437 2892.99988746643 12 15 8
169.1505163908 -305.317223072052 2861.00006103516 12 15 8
179.792746901512 -310.217499732971 2907.00006484985 13 16 9
187.520891427994 -309.888243675232 2904.00004386902 13 16 9
194.895550608635 -309.02510881424 2895.99990844727 15 18 11
202.085807919502 -307.948261499405 2885.99991798401 16 19 12
209.002614021301 -306.551039218903 2872.99990653992 17 20 13
217.810034751892 -307.92760848999 2885.99991798401 19 22 15
229.737117886543 -313.464850187302 2937.99996376038 18 21 14
238.952681422234 -315.053820610046 2953.00006866455 19 22 15
-96.0375145077705 -312.838852405548 2858.00004005432 3 5 2
-87.9966616630554 -311.96790933609 2849.99990463257 12 15 8
-80.1116973161697 -311.534434556961 2845.99995613098 12 15 8
-64.5878687500954 -311.541885137558 2845.99995613098 10 13 6
-42.8530983626843 -323.263376951218 2953.00006866455 8 11 4
-25.539007037878 -308.707356452942 2819.9999332428 8 11 4
-17.9417617619038 -310.350596904755 2835.00003814697 8 11 4
-10.1617854088545 -308.928191661835 2822.00002670288 8 11 4
-2.50595388934016 -314.183115959167 2869.99988555908 9 12 5
5.33571373671293 -314.9493932724 2877.00009346008 10 13 6
12.9497712478042 -309.365838766098 2825.99997520447 11 14 7
20.7826364785433 -311.225950717926 2842.99993515015 13 16 9
28.8788080215454 -314.946740865707 2877.00009346008 14 17 10
36.2667627632618 -311.00407242775 2841.00008010864 17 19 14
117.510855197906 -321.254193782806 2934.99994277954 9 11 6
125.385001301765 -320.91960310936 2931.99992179871 18 21 14
133.742704987526 -321.788549423218 2940.00005722046 12 15 8
149.976134300232 -322.211861610413 2944.00000572205 10 13 6
159.611076116562 -325.487345457077 2973.99997711182 10 13 6
167.999088764191 -326.026171445847 2979.00009155273 12 15 8
170.501783490181 -315.62077999115 2884.0000629425 13 16 9
177.742853760719 -314.517617225647 2874.00007247925 12 15 8
183.960169553757 -311.772555112839 2848.99997711182 13 16 9
196.299001574516 -319.204241037369 2917.00005531311 13 16 9
207.973822951317 -312.837213277817 2858.99996757507 14 17 10
219.459548592567 -318.188101053238 2907.99999237061 16 19 12
226.676315069199 -317.192196846008 2898.9999294281 16 19 12
250.53197145462 -317.37545132637 2901.00002288818 19 21 16
-97.410149872303 -325.216829776764 2898.9999294281 7 9 6
-88.3625596761703 -321.070939302444 2861.99998855591 15 18 11
-80.7548984885216 -321.860700845718 2868.99995803833 15 18 11
-71.9139948487282 -317.377299070358 2828.9999961853 14 17 10
-64.1533210873604 -317.156493663788 2826.99990272522 13 16 9
-56.5630346536636 -317.832797765732 2832.99994468689 13 16 9
-48.6122779548168 -316.377103328705 2819.9999332428 12 15 8
-42.0817732810974 -325.354814529419 2900.00009536743 10 13 4
-33.5710644721985 -319.635033607483 2848.99997711182 11 14 5
-25.7097333669662 -318.514704704285 2838.99998664856 12 15 6
-17.8775358945131 -316.945135593414 2825.00004768372 13 16 7
-10.1396469399333 -315.936148166656 2815.99998474121 13 16 7
-2.47089774347842 -317.507177591324 2829.99992370605 14 17 8
5.33172488212585 -322.555840015411 2875 14 17 8
13.1873618811369 -322.891920804977 2878.00002098084 14 17 8
20.8400227129459 -319.861769676209 2851.0000705719 15 18 9
28.3252410590649 -316.606909036636 2822.00002670288 16 19 10
36.2138003110886 -318.288058042526 2836.99989318848 17 20 13
109.726116061211 -329.921007156372 2940.99998474121 0 2 0
117.945149540901 -330.475956201553 2946.00009918213 11 13 8
126.148208975792 -330.918252468109 2950.00004768372 8 11 4
131.688803434372 -324.741899967194 2894.99998092651 15 18 11
139.532595872879 -324.62266087532 2894.00005340576 13 16 9
148.389235138893 -326.746344566345 2913.00010681152 10 13 6
159.119844436646 -332.570999860764 2964.99991416931 9 12 5
166.524276137352 -331.216543912888 2953.00006866455 12 15 8
173.921808600426 -329.973965883255 2941.99991226196 13 16 9
181.567922234535 -329.291820526123 2936.00010871887 10 13 6
181.690916419029 -315.599501132965 2813.99989128113 10 13 6
211.236581206322 -325.662553310394 2904.00004386902 9 12 5
215.977117419243 -320.941686630249 2861.99998855591 11 14 7
226.352170109749 -324.630945920944 2894.99998092651 12 15 8
233.912423253059 -324.170708656311 2891.00003242493 17 20 13
267.057746648788 -336.130052804947 2997.99990653992 16 18 13
-98.3793586492538 -336.437910795212 2927.99997329712 8 10 7
-90.2719646692276 -335.983365774155 2924.00002479553 15 18 11
-80.356553196907 -328.059434890747 2855.00001907349 15 18 11
-71.8847364187241 -324.961006641388 2828.00006866455 15 18 11
-64.286045730114 -325.539231300354 2832.99994468689 15 18 11
-56.4402230083942 -324.853032827377 2826.99990272522 15 18 11
-48.9199608564377 -326.119929552078 2838.00005912781 15 18 11
-41.3540042936802 -327.501267194748 2849.99990463257 12 15 6
-33.6163975298405 -327.848047018051 2852.9999256134 13 16 7
-25.6993006914854 -326.125979423523 2838.00005912781 13 16 7
-17.9272014647722 -325.552552938461 2832.99994468689 14 17 8
-10.1859113201499 -325.093686580658 2828.9999961853 15 18 9
-2.46552703902125 -324.519425630569 2823.99988174438 15 18 9
5.29805989935994 -328.311592340469 2857.00011253357 15 18 9
13.1591642275453 -330.034792423248 2871.99997901917 15 18 9
20.605007186532 -323.943376541138 2819.00000572205 15 18 9
28.1330216675997 -322.103440761566 2802.99997329712 16 19 10
118.3792501688 -339.756339788437 2957.00001716614 7 9 4
126.740172505379 -340.554088354111 2963.99998664856 19 22 15
133.4557980299 -337.100237607956 2934.00001525879 13 16 9
140.344828367233 -334.450393915176 2911.00001335144 12 15 8
149.196401238441 -336.510717868805 2928.99990081787 10 13 6
165.049448609352 -336.264282464981 2927.00004577637 11 14 7
174.090027809143 -338.323146104813 2944.9999332428 12 15 8
182.733356952667 -339.462488889694 2954.99992370605 10 13 6
205.13553917408 -336.560159921646 2930.0000667572 9 12 5
210.134610533714 -331.839799880981 2888.99993896484 9 12 5
-98.0044528841972 -343.110591173172 2917.00005531311 6 8 5
-89.4952863454819 -340.998500585556 2898.9999294281 13 16 9
-80.436609685421 -336.180448532104 2858.00004005432 14 17 10
-72.2874999046326 -334.537863731384 2844.00010108948 15 18 11
-64.532145857811 -334.541618824005 2844.00010108948 15 18 11
-56.8763464689255 -335.133075714111 2848.99997711182 16 19 12
-49.1758361458778 -335.606545209885 2852.9999256134 16 19 12
-41.6129194200039 -337.373554706573 2868.00003051758 13 16 7
-33.6616933345795 -336.081683635712 2857.00011253357 13 16 7
-25.7069487124681 -333.965867757797 2838.99998664856 14 17 8
-18.0021543055773 -334.672898054123 2845.00002861023 14 17 8
-10.2645615115762 -335.379511117935 2851.0000705719 14 17 8
-2.50118575058877 -337.026715278625 2865.00000953674 14 17 8
5.23472344502807 -332.085967063904 2822.99995422363 14 17 8
13.1584443151951 -337.849587202072 2871.99997901917 15 18 9
20.9035463631153 -336.436986923218 2859.99989509583 16 19 10
28.6533683538437 -335.847467184067 2855.00001907349 17 20 11
36.6055518388748 -337.374925613403 2868.00003051758 19 22 15
118.893258273602 -349.330604076386 2970.00002861023 5 7 2
125.621631741524 -345.560163259506 2937.99996376038 23 26 19
134.130850434303 -346.84681892395 2948.99988174438 11 14 7
151.887953281403 -350.712537765503 2982.00011253357 10 13 6
158.888325095177 -348.234325647354 2960.99996566772 10 13 6
189.483568072319 -345.139145851135 2934.99994277954 10 13 6
197.748646140099 -345.599114894867 2938.99989128113 11 14 7
205.12467622757 -344.530045986176 2930.0000667572 11 14 7
213.978305459023 -345.929861068726 2941.99991226196 12 15 8
222.217440605164 -346.271008253098 2944.9999332428 11 14 7
229.455783963203 -345.083266496658 2934.99994277954 11 14 7
238.6614382267 -346.834540367126 2950.00004768372 12 15 8
-96.991166472435 -347.435742616653 2887.00008392334 0 1 0
-88.3481726050377 -344.432264566422 2861.99998855591 13 16 9
-80.7980224490166 -345.520108938217 2871.00005149841 13 16 9
-72.9188919067383 -345.283687114716 2868.99995803833 15 18 11
-64.7100731730461 -343.241602182388 2851.99999809265 16 19 12
-57.1327023208141 -344.448536634445 2861.99998855591 15 18 11
-49.8797595500946 -348.302841186523 2894.00005340576 14 17 10
-41.5815897285938 -344.935476779938 2865.9999370575 16 19 10
-33.7540693581104 -344.817221164703 2865.00000953674 14 17 8
-25.7598459720612 -342.411816120148 2845.00002861023 14 17 8
-17.8935881704092 -340.366989374161 2828.00006866455 15 18 7
-10.2315889671445 -342.052757740021 2842.00000762939 16 19 8
-2.47223884798586 -340.849578380585 2832.00001716614 17 20 9
5.28078712522984 -342.775195837021 2848.00004959106 10 13 2
12.9378056153655 -339.886099100113 2823.99988174438 18 21 12
20.8292994648218 -343.014419078827 2849.99990463257 18 21 14
28.8625229150057 -346.142292022705 2875.99992752075 28 31 24
118.366330862045 -355.845540761948 2957.00001716614 3 5 0
126.085013151169 -354.876041412354 2948.99988174438 19 21 16
133.395805954933 -352.943480014801 2933.00008773804 13 16 9
144.186109304428 -359.915107488632 2990.9999370575 12 15 8
151.472166180611 -357.861310243607 2973.99997711182 11 14 7
155.982121825218 -349.790811538696 2907.00006484985 10 13 6
165.877342224121 -353.993356227875 2941.99991226196 9 12 5
181.909888982773 -353.974252939224 2941.99991226196 11 14 7
190.054297447205 -354.204744100571 2944.00000572205 13 16 9
197.266966104507 -352.750360965729 2931.99992179871 14 17 10
207.003742456436 -355.747103691101 2957.00001716614 14 17 10
220.092877745628 -350.911796092987 2917.00005531311 14 15 9
230.147108435631 -354.147642850876 2944.00000572205 13 14 8
244.339004158974 -351.475745439529 2921.99993133545 11 12 4
253.588765859604 -353.266656398773 2937.00003623962 14 15 9
-96.5825691819191 -353.811532258987 2875 31 33 30
-88.8988077640533 -354.432165622711 2880.00011444092 11 14 7
-81.21557533741 -355.175405740738 2885.99991798401 12 15 8
-73.0418562889099 -353.702962398529 2874.00007247925 15 18 11
-64.8879185318947 -351.983845233917 2859.99989509583 15 18 11
-56.9099001586437 -350.879728794098 2851.0000705719 14 17 10
-49.3598990142345 -352.482706308365 2864.00008201599 13 16 9
-41.8258644640446 -354.823708534241 2882.99989700317 15 18 9
-33.8228456676006 -353.348970413208 2871.00005149841 15 18 9
-25.8941929787397 -351.996868848801 2859.99989509583 14 17 8
-18.006457015872 -350.275039672852 2845.99995613098 15 18 7
-10.0798103958368 -344.614326953888 2799.99995231628 16 19 8
-2.46162316761911 -347.076207399368 2819.9999332428 22 25 14
5.2508213557303 -348.553061485291 2832.00001716614 19 22 11
13.0057903006673 -349.414080381393 2838.99998664856 13 16 7
20.6088740378618 -347.074657678604 2819.9999332428 9 12 5
119.400396943092 -367.087870836258 2983.00004005432 4 6 3
125.180155038834 -360.312700271606 2927.99997329712 11 13 8
132.979020476341 -359.813183546066 2924.00002479553 15 18 11
144.033446907997 -367.680788040161 2987.99991607666 14 17 10
153.144404292107 -370.010405778885 3006.99996948242 11 14 7
155.436903238297 -356.466442346573 2897.0000743866 10 13 6
164.345890283585 -358.672261238098 2914.99996185303 9 12 5
172.76132106781 -359.647154808044 2923.00009727478 9 12 5
181.467041373253 -361.113756895065 2934.99994277954 13 16 9
190.94754755497 -363.933145999908 2957.99994468689 14 17 10
199.879944324493 -365.521728992462 2970.99995613098 15 18 11
205.242350697517 -360.712379217148 2931.99992179871 14 17 10
213.009685277939 -360.331743955612 2928.99990081787 13 16 9
228.102132678032 -358.954250812531 2917.99998283386 12 13 7
263.706654310226 -364.189803600311 2960.99996566772 15 16 10
-89.974008500576 -366.667032241821 2914.99996185303 9 12 5
-82.0269510149956 -366.672039031982 2914.99996185303 10 13 6
-73.0630680918694 -361.644953489304 2875 14 17 10
-64.6346285939217 -358.378380537033 2848.99997711182 16 19 12
-57.0064224302769 -359.262496232986 2855.99994659424 17 20 13
-49.3742860853672 -360.397696495056 2865.00000953674 17 20 13
-41.5188074111938 -360.022962093353 2861.99998855591 15 18 9
-33.8562354445457 -361.534744501114 2874.00007247925 15 18 9
-25.8383806794882 -359.020531177521 2854.00009155273 15 18 9
-17.897866666317 -355.876892805099 2828.9999961853 15 18 7
-10.1476237177849 -354.619741439819 2819.00000572205 16 19 8
-2.47195549309254 -356.25547170639 2832.00001716614 16 19 8
5.24681014940143 -356.003791093826 2829.99992370605 17 20 9
12.8859365358949 -353.864759206772 2812.99996376038 18 21 12
20.3372985124588 -350.089877843857 2782.99999237061 21 24 17
118.392951786518 -372.055530548096 2957.99994468689 0 2 0
125.557750463486 -369.407117366791 2937.00003623962 22 24 19
131.652638316154 -364.11714553833 2894.99998092651 14 17 10
140.795767307281 -367.379397153854 2921.0000038147 13 16 9
150.691255927086 -372.150421142578 2959.00011062622 11 14 7
158.754482865334 -372.141540050507 2959.00011062622 11 14 7
162.363424897194 -362.196981906891 2880.00011444092 14 17 10
170.505747199059 -362.816274166107 2884.99999046326 16 19 12
180.591285228729 -367.333620786667 2921.0000038147 16 19 12
187.967553734779 -366.191327571869 2911.99994087219 16 19 12
194.150507450104 -362.911015748978 2885.99991798401 15 18 11
203.060984611511 -364.786028862 2901.00002288818 14 17 10
213.652297854424 -369.426816701889 2937.99996376038 13 16 9
-90.4008522629738 -376.392424106598 2928.99990081787 10 13 6
-82.6974660158157 -377.682536840439 2938.99989128113 11 14 7
-72.1693783998489 -364.964842796326 2839.99991416931 14 17 10
-64.4266754388809 -364.968836307526 2839.99991416931 16 19 12
-56.943204253912 -366.643100976944 2852.9999256134 17 20 13
-48.906110227108 -364.718526601791 2838.00005912781 17 20 13
-41.4873622357845 -367.548525333405 2859.99989509583 14 17 10
-33.7246730923653 -367.936283349991 2862.99991607666 15 18 9
-25.8187558501959 -366.524368524551 2851.99999809265 15 18 9
-18.2321034371853 -370.381146669388 2881.99996948242 15 18 7
-10.2802095934749 -367.040604352951 2855.99994659424 15 18 7
-2.48402962461114 -365.755766630173 2845.99995613098 22 25 14
5.27431070804596 -365.627229213715 2845.00002861023 19 22 11
12.8073086962104 -359.329402446747 2796.0000038147 15 18 9
20.6576250493526 -363.312363624573 2826.99990272522 19 22 15
118.986397981644 -382.025867700577 2973.00004959106 0 1 0
124.524526298046 -374.308913946152 2913.00010681152 15 17 12
132.00880587101 -373.016446828842 2903.00011634827 14 17 10
140.691235661507 -375.064343214035 2918.99991035461 13 16 9
147.423446178436 -371.972262859344 2894.99998092651 12 15 8
155.043616890907 -371.321052312851 2890.00010490417 12 15 8
162.241339683533 -369.769990444183 2878.00002098084 15 18 11
172.564387321472 -375.156432390213 2920.00007629395 16 19 12
179.035395383835 -372.062832117081 2895.99990844727 16 19 12
188.085913658142 -374.364763498306 2914.00003433228 15 18 11
197.166562080383 -376.537680625916 2930.99999427795 14 17 10
207.319021224976 -380.508482456207 2961.99989318848 13 16 9
209.640800952911 -370.348066091537 2882.99989700317 12 15 8
228.858262300491 -376.103609800339 2927.99997329712 13 14 8
243.796974420547 -374.535471200943 2915.99988937378 17 18 12
252.770006656647 -376.062750816345 2927.99997329712 18 20 15
-79.7663852572441 -372.025430202484 2835.00003814697 9 12 5
-72.038047015667 -372.029989957809 2835.00003814697 12 15 8
-64.6950528025627 -374.264925718308 2851.99999809265 13 16 9
-56.7202717065811 -372.956275939941 2842.00000762939 14 17 10
-49.2822900414467 -375.32165646553 2859.99989509583 14 17 10
-41.6879616677761 -377.161651849747 2874.00007247925 14 17 10
-33.6873196065426 -375.326603651047 2859.99989509583 15 18 9
-26.0344669222832 -377.428144216537 2875.99992752075 16 19 10
-18.1804094463587 -377.167016267776 2874.00007247925 16 19 10
-10.3299850597978 -376.642912626266 2869.99988555908 15 18 7
-2.4629351682961 -370.34410238266 2822.00002670288 12 15 6
5.28511824086308 -374.149829149246 2851.0000705719 23 26 17
13.1271639838815 -376.117706298828 2865.9999370575 17 20 13
20.8098385483027 -373.754531145096 2848.00004959106 14 16 11
125.714048743248 -385.902017354965 2940.99998474121 2 4 0
134.001731872559 -386.681586503983 2947.00002670288 15 18 11
140.92393219471 -383.655548095703 2924.00002479553 15 18 11
163.641110062599 -380.873322486877 2903.00011634827 12 15 8
171.313345432281 -380.33863902092 2898.9999294281 11 14 7
180.384978652 -382.821023464203 2917.99998283386 15 18 11
188.010454177856 -382.154285907745 2913.00010681152 14 17 10
197.356939315796 -384.897917509079 2934.00001525879 13 16 9
207.027092576027 -388.034552335739 2957.99994468689 13 16 9
213.046193122864 -384.349286556244 2930.0000667572 12 15 8
221.703127026558 -385.51726937294 2938.99989128113 15 16 10
229.536965489388 -372.243195772171 2838.00005912781 20 21 15
240.522623062134 -377.344936132431 2877.00009346008 21 22 16
254.741102457047 -387.036383152008 2950.99997520447 21 23 18
-82.659438252449 -393.527954816818 2937.99996376038 4 7 0
-64.7818669676781 -382.553398609161 2855.99994659424 13 16 9
-57.0960193872452 -383.226901292801 2861.00006103516 16 19 12
-49.4688451290131 -384.569615125656 2871.00005149841 16 19 12
-41.5403880178928 -383.634716272354 2864.00008201599 14 17 10
-34.1681838035584 -388.593226671219 2901.00002288818 15 18 9
-25.7341805845499 -380.825847387314 2842.99993515015 16 19 10
-17.9958678781986 -381.095081567764 2845.00002861023 16 19 10
-10.2753732353449 -382.435500621796 2855.00001907349 15 18 7
-2.48809438198805 -381.900072097778 2851.0000705719 8 11 2
5.23474859073758 -378.283232450485 2823.99988174438 16 19 10
13.190490193665 -385.784059762955 2880.00011444092 5 8 1
128.185600042343 -401.664018630981 2999.00007247925 0 1 0
135.948821902275 -400.450646877289 2990.00000953674 12 15 8
143.903478980064 -399.906516075134 2986.00006103516 13 16 9
172.544091939926 -391.02977514267 2920.00007629395 12 15 8
180.188864469528 -390.349686145782 2914.99996185303 15 18 11
188.838347792625 -391.811698675156 2926.00011825562 14 17 10
195.462003350258 -389.122188091278 2905.99989891052 13 16 9
215.869322419167 -397.533506155014 2969.00010108948 13 16 9
225.002333521843 -385.457426309586 2878.99994850159 14 15 9
242.347836494446 -388.107717037201 2898.9999294281 18 20 15
255.071669816971 -395.59018611908 2954.99992370605 17 19 16
-81.2195986509323 -394.543170928955 2887.00008392334 12 15 8
-72.7660804986954 -391.404747962952 2864.00008201599 15 18 11
-64.9593472480774 -391.408950090408 2864.00008201599 15 18 11
-56.7532666027546 -388.679385185242 2844.00010108948 15 18 11
-49.5002605021 -392.646014690399 2872.99990653992 13 16 9
-42.1614795923233 -397.295564413071 2907.00006484985 12 15 8
-33.5536524653435 -389.37109708786 2848.99997711182 11 14 7
-25.2076257020235 -380.626112222672 2785.00008583069 8 11 2
-17.5773072987795 -379.807412624359 2779.00004386902 7 10 1
-10.235152207315 -388.691842556 2844.00010108948 5 8 0
-2.50015803612769 -391.562342643738 2865.00000953674 15 18 9
12.8599358722568 -383.771449327469 2808.00008773804 13 16 9
127.964094281197 -409.131020307541 2993.99995803833 2 4 1
137.031733989716 -411.855846643448 3013.99993896484 4 7 0
145.195886492729 -411.71059012413 3013.00001144409 12 15 8
150.45191347599 -403.776198625565 2954.99992370605 14 17 10
165.932402014732 -402.253985404968 2944.00000572205 24 27 20
176.019832491875 -407.025754451752 2979.00009155273 15 18 11
188.568919897079 -399.215877056122 2921.99993133545 14 17 10
198.813229799271 -403.849393129349 2956.00008964539 16 19 12
202.873751521111 -396.050065755844 2898.9999294281 19 22 15
208.295330405235 -391.392827033997 2865.00000953674 9 12 5
215.265825390816 -389.877527952194 2854.00009155273 10 13 4
223.035335540771 -389.864414930344 2854.00009155273 10 13 6
-72.5582912564278 -398.072183132172 2855.99994659424 17 20 13
-64.8192167282104 -398.355275392532 2858.00004005432 15 18 11
-57.5478933751583 -401.983112096787 2884.0000629425 14 17 10
-49.6522225439548 -401.707708835602 2881.99996948242 8 11 4
-41.6222475469112 -400.037884712219 2869.99988555908 10 12 7
-24.9797850847244 -384.709596633911 2759.99999046326 7 10 1
-2.48865783214569 -397.535890340805 2851.99999809265 4 7 0
129.665687680244 -422.84095287323 3033.99991989136 5 7 4
139.250934123993 -426.874190568924 3062.99996376038 5 7 2
145.909741520882 -421.987682580948 3028.00011634827 5 8 1
153.599172830582 -420.445412397385 3016.99995994568 8 11 4
157.259106636047 -408.59043598175 2931.99992179871 8 11 4
166.091307997704 -410.670757293701 2947.00002670288 0 2 0
177.13850736618 -399.362355470657 2865.9999370575 12 15 8
184.556558728218 -398.515224456787 2859.99989509583 13 16 9
209.155142307281 -400.847911834717 2877.00009346008 14 17 10
215.554550290108 -398.187816143036 2858.00004005432 23 26 17
224.272236227989 -399.846374988556 2869.99988555908 6 9 0
243.238627910614 -405.390828847885 2910.00008583069 14 16 11
-81.7438587546349 -412.931591272354 2905.99989891052 16 19 12
-72.2742676734924 -404.268592596054 2845.00002861023 15 18 11
-64.9965479969978 -407.25702047348 2865.9999370575 15 18 11
-58.1428408622742 -414.081782102585 2914.00003433228 14 17 10
-49.9936230480671 -412.380009889603 2901.99995040894 14 17 10
-41.3730889558792 -405.419886112213 2852.9999256134 10 12 7
-33.7142944335938 -406.843304634094 2862.99991607666 11 14 7
-25.4759564995766 -400.024235248566 2815.00005722046 12 15 8
-17.6826044917107 -397.325605154037 2796.0000038147 13 16 9
-10.0935259833932 -398.605436086655 2805.0000667572 14 17 8
-2.43091210722923 -395.905822515488 2786.00001335144 18 21 14
5.37461834028363 -412.105768918991 2900.00009536743 17 20 11
138.423949480057 -432.637900114059 3045.00007629395 0 1 0
145.418778061867 -428.792774677277 3017.99988746643 6 9 2
157.732009887695 -417.833983898163 2940.99998474121 10 13 6
164.55939412117 -414.840400218964 2920.00007629395 6 9 2
176.262333989143 -405.15872836113 2851.99999809265 7 10 3
209.215059876442 -408.804386854172 2878.00002098084 17 20 13
216.521814465523 -407.796919345856 2871.00005149841 10 13 4
-80.5010199546814 -414.453744888306 2861.99998855591 19 22 15
-72.6506784558296 -414.169102907181 2859.99989509583 14 17 10
-65.2871802449226 -416.925042867661 2878.99994850159 13 16 9
-57.9196438193321 -420.404672622681 2903.00011634827 11 14 7
-48.7673543393612 -409.98113155365 2831.00008964539 11 14 7
-41.0224124789238 -409.69443321228 2828.9999961853 11 13 8
-33.5708223283291 -412.88286447525 2851.0000705719 11 14 7
-26.0263327509165 -416.505336761475 2875.99992752075 11 14 7
-18.1873720139265 -416.506737470627 2875.99992752075 10 13 6
-10.0964736193419 -406.370162963867 2805.99999427795 9 12 3
-2.46914499439299 -409.846246242523 2829.99992370605 10 13 6
5.25381462648511 -410.570293664932 2835.00003814697 10 13 6
148.896649479866 -423.51508140564 2924.99995231628 23 26 19
156.381323933601 -422.202229499817 2915.99988937378 17 20 13
164.718091487885 -423.205614089966 2923.00009727478 13 16 9
170.729354023933 -418.417125940323 2890.00010490417 0 2 0
173.346728086472 -406.100034713745 2805.0000667572 10 13 6
180.339723825455 -404.641151428223 2795.00007629395 14 17 10
199.547901749611 -412.86912560463 2851.99999809265 16 19 12
207.384809851646 -413.001149892807 2852.9999256134 10 13 6
