ply
format ascii 1.0
comment KinectMotionCapture
element vertex 755
property float x
property float y
property float z
property uchar red
property uchar green
property uchar blue
end_header
-53.3524948965278 722.102362671476 2772.97437273121 214 212 213
-57.8712166349415 722.010789729224 2767.22782333831 177 175 176
-63.1151603678346 721.736218220116 2762.18994922701 183 181 182
-64.0848884839713 722.552655591666 2752.8452626784 194 192 193
-67.219254949078 722.821108908432 2745.63371783529 187 185 186
-71.7899620649842 722.724767362978 2739.84975345593 185 183 184
-77.0769755525527 722.445900181908 2734.78063540188 184 182 183
-82.3689924259743 722.16646795287 2729.70759294756 193 191 192
-86.9642655943093 722.067479101234 2723.9058067034 196 194 195
-88.7689665656903 722.691120346625 2715.18989059163 193 191 192
-91.9966905504435 722.950856017128 2707.9109192106 189 187 188
-94.5471098584862 723.389499314004 2699.88851554029 192 190 191
-98.5073329318857 723.465248198692 2693.31264463745 194 192 193
-96.9520305929106 724.981499819217 2680.8615102559 187 187 187
-98.2020061257303 725.773352094429 2671.3135418458 186 186 186
-99.4836755844792 726.562457576734 2661.74258391937 188 188 188
-102.166050506801 726.98933560857 2653.62446321482 186 186 186
-102.141853453775 728.132317988231 2642.53158051217 184 184 184
-103.518500146643 728.913042201482 2632.89172910904 185 185 185
-104.926861537157 729.69095819527 2623.22887282056 187 187 187
-105.015314427449 730.824187363155 2612.054278368 190 190 190
-106.491435009576 731.596076412414 2602.34227146782 183 183 183
-109.341936768804 732.007731570823 2594.10248940135 190 190 190
-110.876956115181 732.774281597076 2584.34775848679 197 197 195
-109.77573773529 734.251466729472 2571.56695659617 211 213 210
186.862514263963 736.18833568779 2916.30443599801 207 211 210
176.085552570607 734.615309843724 2915.89482751797 181 183 182
165.33443842278 733.044497426737 2915.50396768673 157 159 158
153.019993718985 731.105064036174 2916.44802229285 148 147 145
141.53259062645 729.353632057399 2916.75753264793 147 143 142
131.655878433055 727.974926615344 2915.76648188463 150 149 147
124.164887622619 727.152804539397 2912.80201182849 150 149 147
115.110153507608 725.961839666034 2911.17274482988 150 149 147
106.85629697411 724.95704498696 2908.8896629642 149 148 146
97.0520277403999 723.584406977522 2907.95086390411 145 144 142
90.3863703404797 722.95056613676 2904.35061270312 144 143 141
79.8387475260451 721.396597250069 2904.10735339798 143 142 140
70.8668010567801 720.212657331892 2902.53784203631 142 141 139
62.684390833788 719.213680472669 2900.30658259427 142 141 139
56.0555128670792 718.582978894087 2896.73330396732 139 138 136
50.1987778552988 718.135970325045 2892.48536758184 140 139 137
40.510682126027 716.772773536978 2891.63083299603 140 140 140
33.8996566942718 716.14359747017 2888.07020930266 142 142 142
26.5303641223014 715.331673258117 2885.19430702796 145 145 145
22.207511837816 715.251367652261 2879.58980465356 146 146 146
16.3603993292032 714.805258100919 2875.34884837968 152 152 152
12.777821717135 714.906174150791 2869.04716268479 154 154 154
6.92257591562351 714.459345968204 2864.8003067733 162 160 161
4.06980363294718 714.740753824668 2857.79296117984 166 164 165
0.449998423222464 714.838763153209 2851.4639792048 168 166 167
-3.18381713465588 714.935637487302 2845.12483508041 171 169 170
-9.8084932363911 714.305037331382 2841.55460298878 185 183 184
-15.6874167337027 713.856111759929 2837.29057198661 184 182 183
-17.1284519371424 714.494427393979 2828.83835927971 159 157 158
-19.334258430582 714.949457615738 2821.06585579612 170 168 169
-23.0337782249865 715.040840300849 2814.67934792921 172 170 171
-28.2135424336702 714.769605632304 2809.6877213494 172 170 171
-31.9366514376025 714.858947482362 2803.28380834684 175 173 174
-35.6737641875957 714.947035385184 2796.8697373784 178 176 177
-40.8782973817883 714.67341617616 2791.86043763126 185 183 184
-44.6391102498216 714.759375001756 2785.42917515728 212 210 211
-46.9696823363719 715.203889970718 2777.5664676478 188 186 187
-51.4829521082498 715.107322011374 2771.82384520105 161 159 160
-57.441581770143 714.650654859654 2767.50199428653 180 178 179
-62.6855273095352 714.373066141532 2762.4641035829 189 187 188
-65.0810033841869 714.811864726637 2754.5540223557 192 190 191
-68.2106540296259 715.069508470417 2747.3461358353 186 184 185
-73.4857714616894 714.788916530829 2742.28563274953 183 181 182
-76.6457597057051 715.043773999805 2735.05573974346 192 190 191
-80.5288087087133 715.118426355596 2728.53580841709 197 195 196
-84.4258565062119 715.19173554956 2722.00572226246 196 194 195
-86.9366041197568 715.620090593888 2714.0120253381 187 185 186
-92.2621925133602 715.334364426781 2708.91490876933 186 184 185
-94.8098703615388 715.759339375448 2700.8944232089 188 186 187
-98.7676282975323 715.826834213907 2694.32029752841 187 185 186
-96.5173131789183 717.490579274651 2681.13870319727 185 185 185
-98.4555381703787 718.085838903647 2672.32584891533 185 185 185
-97.6732283619757 719.387430778699 2660.54830508715 184 184 184
-99.6748603264883 719.977105657129 2651.6894574494 184 184 184
-98.973601176003 721.271653574466 2639.85312259056 182 182 182
-101.038572846848 721.855838767407 2630.94833084162 183 183 183
-103.1307750793 722.437459518283 2622.02378608804 184 184 184
-104.574403598955 723.192922509917 2612.33525017613 187 187 187
-106.049721092969 723.945549494055 2602.6237278855 180 180 180
-109.571199588959 724.167447976533 2595.13161593742 188 188 188
-113.111094714198 724.387436299948 2587.62614370644 195 195 193
-110.665566693537 726.186433903108 2573.35141734862 214 216 213
172.521521669025 726.300686089896 2919.44454787174 186 188 187
164.171690237116 725.295464862977 2917.09188959345 156 155 153
153.450056381243 723.743320868052 2916.72249521423 152 151 149
142.754225226421 722.193326923487 2916.37181665409 152 148 147
132.87465189443 720.827832055715 2915.37875870453 152 151 149
124.593204343288 719.828618277922 2913.07540931269 151 150 148
117.896036774715 719.194475513533 2909.45260866569 150 149 147
109.635286400477 718.197128027713 2907.16456702924 149 148 146
100.605318033124 717.019062344002 2905.55302410956 148 147 145
93.1514259982627 716.205561601242 2902.61549141631 147 146 144
81.0417009827758 714.304499767546 2903.70844052994 144 143 141
71.2919999707302 712.949874110581 2902.80929037439 144 143 141
64.6548533682205 712.320892432893 2899.23002634853 143 142 140
58.7923010003744 711.873263233594 2894.97786969387 141 140 138
52.1605339404605 711.244856360012 2891.40221384772 139 138 136
42.4671743000125 709.89468585323 2890.54422379806 140 140 140
36.6156007626852 709.447916189735 2886.30003028566 141 141 141
30.7633980324704 709.001155298415 2882.05538070235 145 145 145
26.429927011876 708.914373537882 2876.44314777652 148 148 148
20.5718007314029 708.467162644837 2872.19420180586 152 152 152
14.712905773032 708.019859608402 2867.94469813746 153 153 153
9.60637127147734 707.752028609048 2863.00646905243 155 153 154
5.24564823247387 707.663069003009 2857.37446952565 163 161 162
2.37274537684851 707.931714195405 2850.35276068187 156 154 155
-1.2649859763818 708.019847428461 2844.01073363846 188 186 187
-6.40550296688835 707.74911410898 2839.04785522114 189 187 188
-13.0354256420941 707.120587803959 2835.47353580388 155 153 154
-15.222028206721 707.563343064903 2827.71489148302 166 164 165
-18.1693109489103 707.825873041257 2820.63923209734 166 164 165
-21.8705844937173 707.908679416707 2814.25111498162 174 172 173
-27.0526329176655 707.634252996962 2809.25811083559 172 170 171
-31.5086626419407 707.537184151727 2803.55698038382 179 177 178
-35.2454095364916 707.616937558793 2797.14313241594 185 183 184
-39.7231094619224 707.5178546968 2791.42657704852 204 202 203
-42.7613126949211 707.772541148902 2784.28496772972 223 221 222
-44.3731919885002 708.380019390921 2775.70875029842 165 163 164
-50.3332660161824 707.923235229464 2771.38585173964 169 167 168
-55.5761286744583 707.643035406728 2766.34843833686 185 183 184
-61.5401532512585 707.185542871936 2762.02267235267 187 185 186
-63.9373559446881 707.610231887286 2754.11156247194 186 184 185
-68.4913647112992 707.50397102681 2748.33935836203 181 179 180
-73.7643190517017 707.220567131009 2743.28040910445 184 182 183
-76.2147185655613 707.640438788208 2735.33071131244 205 203 204
-77.9832488273653 708.23409142229 2726.64086422174 200 198 199
-81.184014577349 708.474194159534 2719.38104151871 187 185 186
-85.8041403988596 708.361601665678 2713.56117015076 177 175 176
-91.1319693659354 708.072676924465 2708.46241314105 182 180 181
-92.9854385196251 708.658761507164 2699.71095370126 182 180 181
-95.5598317174187 709.067532418004 2691.67101953712 181 179 180
-94.0081648692386 710.522939166533 2679.21694151943 180 180 180
-96.6415356516648 710.926484156666 2671.13422677523 179 179 179
-96.5495710771691 712.025767787897 2660.09054332937 178 178 178
-99.2375157790946 712.42447347522 2651.96824227424 179 179 179
-98.5349755738538 713.691583273474 2640.13269709984 176 176 176
-99.9188491440486 714.433037908728 2630.48740787095 180 180 180
-100.655980575193 715.345517448687 2620.07649098945 178 178 178
-100.753337009563 716.428388578158 2608.8954815714 186 186 186
-103.586491515124 716.814076031841 2600.66784889076 177 177 177
-108.457652533223 716.677741489971 2594.66587649328 181 181 181
-114.007627282749 716.367285219465 2589.40567772659 202 202 200
-110.888784482238 718.303893324011 2574.38471201705 201 203 200
174.101304502819 718.28810999902 2927.95998961389 203 207 206
168.955544850271 718.012501051214 2922.99328598295 190 192 191
166.196555056136 718.277290576458 2916.05413561875 169 171 170
156.264868159981 716.92091631312 2915.023051155 153 152 150
145.561737416065 715.386551466256 2914.66716013141 152 148 147
133.303012306567 713.495016352441 2915.65214415178 152 151 149
126.5979518111 712.862703182903 2912.02333654388 152 151 149
119.896638414068 712.230842929666 2908.39724758171 150 149 147
112.414977547957 711.420211056464 2905.43989367848 149 148 146
103.378054831213 710.252425495353 2903.82336147336 148 147 145
96.6968065649856 709.622399844836 2900.21182744535 148 147 145
86.9095359936161 708.278183351374 2899.28578951595 146 145 143
76.3683535959876 706.75717710192 2899.04736596867 146 145 143
69.7181525921318 706.129786113534 2895.45835210881 145 144 142
62.3007947907142 705.324621994492 2892.5473460877 144 143 141
54.891483446446 704.520090214685 2889.64247079505 144 143 141
45.1906888424038 703.182759751354 2888.77915601897 142 142 142
40.0970253083779 702.912973894773 2883.84995299422 143 143 143
33.4738367979868 702.287811449895 2880.28082683238 146 146 146
27.6142826569563 701.840186165145 2876.03084367615 148 148 148
22.5117537439985 701.569801601632 2871.09521091645 151 151 151
18.1593459170717 701.475760700716 2865.46950800363 152 152 152
13.7975834511699 701.381130842786 2859.83672625317 155 153 154
7.92392267093378 700.932362762938 2855.57651110465 168 166 167
4.29614143392598 701.012878188434 2849.24165852714 169 167 168
0.654537479300554 701.09236343537 2842.89678034858 172 170 171
-3.00121630848738 701.170612772293 2836.54163839386 164 162 163
-8.1556748858802 700.895762838033 2831.56863257121 157 155 156
-11.8350183310318 700.972071277723 2825.19638013941 168 166 167
-16.2664247140007 700.871481253213 2819.5133763148 166 164 165
-21.4429799896063 700.594711393961 2814.52404792223 170 168 169
-24.4243999040161 700.843184297585 2807.42357057005 170 168 169
-30.3494935908797 700.389622268645 2803.12604632758 179 177 178
-34.8171448547008 700.285846670933 2797.41645720276 181 179 180
-39.2946739667801 700.181072112376 2791.69999683201 220 218 219
-42.3323321223927 700.424630628384 2784.55872628626 211 209 210
-43.9433642928413 701.015538844292 2775.98303902214 168 166 167
-48.4629124478824 700.907051197192 2770.23580486587 184 182 183
-53.7103238116821 700.623506046198 2765.19537154166 181 179 180
-59.6789555042985 700.165371436477 2760.86626250866 185 183 184
-64.2208649206979 700.054594327305 2755.10280660024 183 181 182
-68.0610779846336 700.116406810332 2748.61386292378 184 182 183
-72.6247697133882 700.003457242608 2742.83490002538 191 189 190
-75.076648305715 700.40936802636 2734.88376482622 202 200 201
-76.1417111088705 701.159383926632 2725.46963169061 190 188 189
-80.049264224306 701.215024188708 2718.93184051019 181 179 180
-83.9708642797592 701.269317388633 2712.38385958005 175 173 174
-89.3032240338525 700.977068284291 2707.28180126758 179 177 178
-90.4642991999429 701.71861905853 2697.79802384354 179 177 178
-92.3509294427398 702.285259083027 2689.02242673205 178 176 177
-92.8815603342439 703.193567492716 2678.7614798481 178 178 178
-94.8271938849601 703.755009384542 2669.94308364994 177 177 177
-96.1128765555608 704.485718763563 2660.36892067282 175 175 175
-97.4301165202922 705.213741803816 2650.77157305585 176 176 176
-98.0964508095958 706.110280055278 2640.41219226461 174 174 174
-98.7988810394387 707.003655157742 2630.02662873378 166 166 166
-98.1804742095838 708.236048852613 2618.12991763616 178 178 178
-97.6069739515808 709.464565639091 2606.20063316896 184 184 184
-101.12245333689 709.664983905979 2598.71246682569 166 166 166
-106.000188866889 709.522500836696 2592.70569728073 180 180 180
-111.556912398688 709.208600264525 2587.44058873167 200 200 198
-109.110175669972 710.936152567823 2573.16637670758 182 184 181
179.341389479186 711.984190458451 2924.31589971771 204 208 207
173.383317476977 711.527060660955 2919.9944507192 193 195 194
169.816712187632 711.602475545982 2913.70421453349 172 174 173
159.080565989321 710.081676038469 2913.32416413652 154 153 151
147.577120600618 708.385760823044 2913.6223262921 152 148 147
136.103667776442 706.692405185841 2913.94253813956 152 151 149
129.39196568993 706.062122957412 2910.30892618769 152 151 149
123.470340131483 705.608812013644 2906.01391733732 151 150 148
114.411453214804 704.449881506491 2904.38150766752 150 149 147
106.151548098033 703.468673582239 2902.09416052631 148 147 145
98.6837947185282 702.664515442013 2899.14692124766 148 147 145
90.4466109891242 701.685207947349 2896.8760549511 147 146 144
81.4466475945439 700.53117039025 2895.28638498372 146 145 143
72.4635334836452 699.378527684945 2893.70893648685 146 145 143
63.497323404047 698.227164778972 2892.14374856547 146 145 143
54.5479161131279 697.077163086272 2890.590748239 146 145 143
47.1485227788757 696.278662359715 2887.69309327194 146 146 146
42.050410131425 696.005479499131 2882.76094226045 146 146 146
36.185083478808 695.557296960843 2878.50677166478 148 148 148
28.0388549012009 694.585208488297 2876.30187726461 150 150 150
23.6942170760006 694.486140895262 2870.68148705365 152 152 152
20.8513381859303 694.73490404873 2863.68144251679 152 152 152
15.7298638523971 694.45993776029 2858.73205261006 158 156 157
10.6030033741753 694.184515620532 2853.77905034014 155 153 154
6.21990177719578 694.082342391399 2848.13105566652 159 157 158
2.57428738668919 694.153048998453 2841.78322577186 156 154 155
-1.08542869145412 694.222523595819 2835.42516702252 162 160 161
-6.24396682762196 693.944405366481 2830.44889280907 167 165 166
-9.9274589909768 694.011904450348 2824.07388273881 163 161 162
-15.8391250275725 693.559519826552 2819.78609845037 167 165 166
-20.2797036825027 693.452440981085 2814.09611810589 172 170 171
-23.9964606556486 693.517085526465 2807.69668472928 172 170 171
-29.9216357788561 693.063248053104 2803.39910005669 181 179 180
-33.6598092585898 693.126008263069 2796.98413185288 206 204 205
-37.4121741149192 693.187409709909 2790.55886913491 181 179 180
-39.7288904458224 693.591405710413 2782.70600072183 154 152 153
-44.2363600223685 693.478340388062 2776.96749939806 178 176 177
-48.7534728737988 693.364314621455 2771.22200259369 169 167 168
-53.9987419176542 693.077896087693 2766.18310772867 190 188 189
-57.8170331345507 693.133359325944 2759.71002350679 182 180 181
-61.6494243885604 693.18756081631 2753.22671147609 182 180 181
-65.4958883058736 693.24044303256 2746.73319118906 197 195 196
-68.6470551152123 693.462707959155 2739.50952794159 204 202 203
-71.8167015540341 693.683326470133 2732.27246007692 183 181 182
-74.2997215833494 694.072614909805 2724.29866559005 172 170 171
-78.9143192655022 693.949298163448 2718.48274736783 174 172 173
-82.1372779370004 694.165000350873 2711.2070074258 179 177 178
-86.775544614502 694.039337586845 2705.37362468368 178 176 177
-87.2461400919808 694.930762785873 2695.15611323578 174 172 173
-89.1408782795389 695.480107323892 2686.37455089705 174 172 173
-89.6791543654976 696.365740561385 2676.10765251725 174 174 174
-91.6330341432963 696.909856250791 2667.28348516948 174 174 174
-91.5517668058667 697.958675561533 2656.23149697944 171 171 171
-92.8815770329696 698.666244016878 2646.62522778154 167 167 167
-92.8770322076604 699.708459613706 2635.517588356 167 167 167
-92.9129662163073 700.747186870197 2624.38058729074 165 165 165
-92.9894496266759 701.782390197669 2613.21417324941 177 177 177
-93.7829817825186 702.645921353617 2602.76241682273 170 170 170
-99.3318447128035 702.330337927417 2597.5032925445 173 173 173
-103.541892527401 702.349643469935 2590.74603245859 183 183 183
-109.105572041039 702.032202553277 2585.47615791433 173 173 171
-110.668878280429 702.718843451419 2575.70022199484 195 197 194
194.205505616907 707.747709635163 2912.83762440062 205 209 208
177.812397118973 705.013806278286 2916.9967165324 194 196 195
171.045788236385 704.381196892477 2913.32328968477 174 176 175
160.306351284014 702.87621224185 2912.94122833235 154 153 151
149.592861469272 701.373389342556 2912.57798756342 152 148 147
137.323409421355 699.524289134736 2913.55511586135 152 151 149
129.820571188962 698.722277338717 2910.58245369575 152 151 149
123.899146465236 698.268833305263 2906.28758976064 151 150 148
117.192781120588 697.641731627942 2902.65786263695 150 149 147
108.925841027543 696.667899719576 2900.36545305228 149 148 146
100.671368975288 695.695107733469 2898.08208708387 148 147 145
93.2071236487082 694.896580856113 2895.13741939111 148 147 145
84.2000199247233 693.752688867528 2893.54262463586 147 146 144
73.6629254152055 692.264335186619 2893.3073298776 147 146 144
63.1517270445796 690.778098895293 2893.09052403105 148 147 145
55.7417433766632 689.983937945524 2890.18521388694 149 148 146
49.1067679443784 689.362798878713 2886.60726903605 149 149 149
43.2399652856788 688.914198048395 2882.35202633335 149 149 149
36.6099516958136 688.29350117644 2878.77797514475 150 150 150
29.2234618420442 687.501173385435 2875.88941097619 151 151 151
24.876879280249 687.396282942981 2870.26787596731 152 152 152
20.5209021865684 687.290650952204 2864.63923242867 153 153 153
16.1552943371048 687.184268634711 2859.00360354907 154 152 153
11.0286005617262 686.905842937075 2854.05070691199 160 158 159
7.39515593322126 686.969021936907 2847.71166100871 161 159 160
3.00057228170525 686.860242870862 2842.05530928885 162 160 161
0.0863286217578363 687.092042230269 2835.00315050533 161 159 160
-4.3319393276513 686.981284728145 2829.32961951131 167 165 166
-7.27886599517658 687.210387014009 2822.25404893392 160 158 159
-11.7206285135842 687.097626215677 2816.56318160132 163 161 162
-16.1720616806855 686.983962499321 2810.86529923565 169 167 168
-21.3670989960852 686.699582006048 2805.86282874567 170 168 169
-25.8358003497321 686.584320629025 2800.1527146876 204 202 203
-31.0434447430938 686.298699360108 2795.14080429596 216 214 215
-35.5293465687303 686.181835449676 2789.41821313153 164 162 163
-39.2997305585716 686.233293523989 2782.97983759398 171 169 170
-43.8070243701967 686.114447290483 2777.2414344045 181 179 180
-48.3239921315617 685.994757615346 2771.4960140902 189 187 188
-52.8507895956587 685.874072879688 2765.74375745145 182 180 181
-55.9548038421915 686.089373931089 2758.55424082965 183 181 182
-58.3632100785771 686.471413921224 2750.63449875879 186 184 185
-62.9301104304743 686.347002453893 2744.85315180421 200 198 199
-66.796970082758 686.389629278762 2738.34479426805 201 199 200
-70.6779488933482 686.430903190995 2731.82619459994 172 170 171
-73.8677009366848 686.638561112427 2724.57419162852 172 170 171
-77.0761173868295 686.844508263781 2717.30894424192 177 175 176
-81.0038124929933 686.881400196925 2710.75645673859 181 179 180
-84.247039124091 687.084109128701 2703.4659583067 178 176 177
-85.4195522505359 687.786019308346 2693.97368847368 173 171 172
-87.3179689944354 688.318427189745 2685.18937368345 172 170 171
-87.1676796907703 689.348343085278 2674.1873252402 174 174 174
-87.0581054449588 690.374761862082 2663.15603834604 174 174 174
-84.9261926320124 691.896601978485 2649.88759840315 170 170 170
-86.2750133055978 692.583333123346 2640.26744258181 166 166 166
-87.6555279051123 693.267317475301 2630.62429724413 166 166 166
-87.02482435138 694.445892391504 2618.73622770136 166 166 166
-88.475410778293 695.123692321547 2609.04225447527 167 167 167
-91.3106655036906 695.467926657703 2600.81288933224 162 162 162
-96.1920030736585 695.314099177201 2594.80345112995 177 177 177
-99.0663654509509 695.654538047352 2586.54571679067 172 172 172
-103.973408297996 695.498020356205 2580.51733618099 182 182 180
-105.551526867777 696.16408478074 2570.73085274022 198 200 197
189.024676582452 699.104264603639 2917.68399547452 204 208 207
181.443103660571 698.300534437283 2914.65424814834 195 197 196
170.679376699892 696.809712855194 2914.25465018925 174 176 175
161.532421838865 695.66473742915 2912.55846887237 155 154 152
150.815919037394 694.177861018247 2912.19312469717 154 150 149
140.916321792037 692.864592681198 2911.18552104613 153 152 150
131.03790978094 691.553110686582 2910.19357854871 153 152 150
125.11432841167 691.099312709342 2905.89714942242 151 150 148
119.974767553528 690.816488622476 2900.93460840671 150 149 147
112.483180551178 690.020884732565 2897.97013495519 149 148 146
102.659442499514 688.714090427196 2897.01755604482 149 148 146
93.6347105261723 687.579444983206 2895.410323508 147 146 144
83.0757238293582 686.105527878426 2895.15893728305 148 147 145
73.3156004248099 684.803718195855 2894.25279371309 149 148 146
63.5768972757313 683.503633434485 2893.3618924035 151 150 148
57.7050558420016 683.05432568812 2889.10299340458 151 150 148
51.0653242989778 682.435320921912 2885.5219060352 152 152 152
45.9591051832366 682.155616094725 2880.58355095977 152 152 152
39.3223088667938 681.536878986513 2877.00459275452 152 152 152
32.6892683492384 680.918346165796 2873.42806376577 151 151 151
27.5760709853947 680.638116252974 2868.48494182673 151 151 151
22.4579101286082 680.357473883492 2863.53792517953 151 151 151
16.5806299009299 679.907695662254 2859.27508109975 152 150 151
11.4540032362949 679.626318082484 2854.32221816081 153 151 152
7.82107385138087 679.681085072944 2847.98350316012 151 149 150
4.92117676688419 679.902825186081 2840.94198804027 159 157 158
2.00288479029487 680.123134851628 2833.88713082507 162 160 161
-3.16220189723793 679.838492221548 2828.90637085664 161 159 160
-6.11058603045245 680.056293984619 2821.82939201486 165 163 164
-10.5544792654675 679.937575782783 2816.13724438193 171 169 170
-15.0078600223744 679.818048755581 2810.43792046801 174 172 173
-19.471097855823 679.697584194089 2804.73174067718 193 191 192
-23.9438248616863 679.576340545428 2799.01838355951 191 189 190
-27.6966616452889 679.620975492642 2792.59269380576 152 150 151
-32.9185237423451 679.331076239245 2787.57074950548 168 166 167
-37.4203332620553 679.207088247827 2781.83629595222 170 168 169
-42.6548909233457 678.915891664974 2776.80514179526 181 179 180
-49.3362816636762 678.291918469708 2773.19353514161 176 174 175
-52.4212936255801 678.497706312273 2766.01774549518 183 181 182
-54.8083086127529 678.867708282755 2758.11344942244 186 184 185
-55.7899563381308 679.566918568659 2748.75952831642 195 193 194
-60.3633540320687 679.436275209811 2742.97343973418 193 191 192
-64.2365093822097 679.469908391186 2736.46047275771 178 176 177
-68.8313630278099 679.337128167793 2730.65852499755 169 167 168
-72.7305469519242 679.368324153413 2724.12667700745 175 173 174
-75.9407276594222 679.562926414897 2716.86009320894 180 178 179
-79.1694295398366 679.755759407652 2709.58007405522 178 176 177
-80.3203489634225 680.440241153372 2700.10336967977 172 170 171
-82.1994422557546 680.957784900671 2691.33298758219 172 170 171
-84.8002737364557 681.308762651895 2683.27359500881 171 169 170
-83.9633300411093 682.477309962325 2671.53498255427 173 173 173
-81.7915364598498 683.969502253838 2658.29559733637 169 169 169
-78.9857346093583 685.620784618315 2644.28129295962 165 165 165
-79.6656908688806 686.45028167983 2633.91140325759 162 162 162
-81.7484733086324 686.950189202094 2624.99327321915 160 160 160
-81.134175578967 688.09977367715 2613.09316390209 150 150 150
-84.6383037213418 688.268292653236 2605.61335921791 150 150 150
-89.514342013969 688.109607145654 2599.60773796799 158 158 158
-94.3998753960191 687.949813480575 2593.59493343506 157 157 157
-97.9505572416333 688.113635058381 2586.08135718464 161 161 161
-100.849551506724 688.437799699087 2577.80568423205 203 203 201
-103.103530095566 688.921926621954 2568.76337051978 186 188 185
184.643624063057 690.667791389529 2921.87615333611 204 208 207
182.675177249039 691.056616736705 2914.27538160889 195 197 196
170.312786264915 689.243102959607 2915.18561121786 174 176 175
161.167506657366 688.108897646882 2913.49069888072 154 153 151
151.245749722148 686.807227100803 2912.46738441971 152 151 149
142.928058184921 685.844986024481 2910.13794826289 153 152 150
133.044475700489 684.546497650373 2909.14232339426 153 152 150
126.329897308721 683.923599745579 2905.50666375038 151 150 148
121.188336156902 683.63769652405 2900.54295155969 151 150 148
115.259126712625 683.183352994245 2896.24243975839 149 148 146
103.867651380094 681.553444457975 2896.62210573409 149 148 146
94.0620547451285 680.261453038842 2895.68304738039 146 145 143
83.5021784163117 678.803564822142 2895.4310974317 148 147 145
74.5149419680153 677.682591332948 2893.85111545232 150 149 147
65.5447926778212 676.562991735744 2892.28323280053 151 150 148
60.4377851591771 676.280156591023 2887.34458481636 151 150 148
54.5586853046389 675.830051728271 2883.08041999573 152 152 152
50.2086380197588 675.713429305621 2877.45601943333 152 152 152
44.3236146149619 675.262874441144 2873.18755822536 151 151 151
37.6772867732083 674.645864054944 2869.60140468317 151 151 151
31.0342937291193 674.028984823385 2866.01796374831 150 150 150
25.1512459414238 673.578560134019 2861.7509353667 150 150 150
19.2673364858251 673.127976024219 2857.48328153615 150 148 149
14.1344670147783 672.843095158372 2852.52558083175 153 151 152
10.4953573442526 672.888967470738 2846.18234055683 155 153 154
8.33681725056579 673.264494534189 2838.44399327298 155 153 154
4.66521595188052 673.307615174687 2832.07718518564 158 156 157
-0.506399562011151 673.019486318008 2827.09167467321 164 162 163
-4.20168680911281 673.060658260623 2820.70768626584 166 164 165
-9.38803275569344 672.77120622861 2815.71119616923 168 166 167
-12.3707421394996 672.974946040882 2808.60955747124 186 184 185
-16.8403553006502 672.848229600488 2802.8987244023 214 212 213
-22.0513352514646 672.55648322033 2797.88436496898 152 150 151
-27.9975502500187 672.100074997103 2793.57151502039 160 158 159
-33.9446028437136 671.643509303606 2789.25805708358 174 172 173
-37.7165014571741 671.677817689184 2782.8184966965 180 178 179
-41.5025034087944 671.710923803272 2776.36870640886 178 176 177
-46.0236889615817 671.579312498221 2770.62046261916 184 182 183
-49.8356522204548 671.610076481631 2764.1518405625 183 181 182
-53.6618101569708 671.639541178311 2757.67292189994 187 185 186
-55.3589972266364 672.156347710188 2749.03440377111 197 195 196
-59.2199943684382 672.182661451718 2742.53021346492 189 187 188
-63.095065824067 672.207685657329 2736.01581385653 170 168 169
-66.9842580885254 672.2313866885 2729.49117107033 172 170 171
-70.1820822445467 672.415967234554 2722.23349403772 177 175 176
-72.6951583019972 672.760891000864 2714.23798105583 182 180 181
-75.2309793717427 673.103812449604 2706.22567510998 176 174 175
-78.4887614935932 673.282968165512 2698.92450579054 171 169 170
-81.0682564727006 673.622022949545 2690.88052011032 173 171 172
-82.2818038539885 674.281655929415 2681.35828952788 173 171 172
-79.3731746538187 675.905750757848 2667.41838918112 173 173 173
-75.8327142400512 677.68599156443 2652.70227104601 167 167 167
-73.7305908388568 679.139401490472 2639.4118895104 162 162 162
-75.7965488906744 679.624252784988 2630.50617404408 160 160 160
-77.2062414264618 680.267129534551 2620.8416687796 158 158 158
-77.2851005104993 681.227938587491 2609.67315574006 152 152 152
-82.1579093355807 681.064127401051 2603.66955516049 153 153 153
-87.0405412613011 680.899202201303 2597.65912243996 159 159 159
-92.6072652364978 680.573349260155 2592.38670381496 156 156 156
-96.1620688197304 680.725605093991 2584.87008104621 172 172 172
-99.7352989353508 680.876129197945 2577.34009171933 187 187 185
-99.9867444717331 681.821373612404 2566.04638823934 178 180 177
191.493411616111 684.600082960168 2916.92979991095 204 206 205
186.30771970154 684.306781050523 2911.93405891274 196 198 197
176.329283181938 683.013811824881 2910.86970028531 179 181 180
166.372501043345 681.722705974851 2909.82075434214 153 155 152
155.643426127362 680.267162358391 2909.44645507961 152 152 150
148.897037587955 679.644047357581 2905.78773448121 151 151 149
137.419256698734 678.025966410498 2906.10489562608 151 151 149
129.906493980625 677.238952859573 2903.12511495805 150 150 148
121.617149029551 676.287143690103 2900.81657516317 150 150 148
117.253426452726 676.163349419052 2895.18222476296 149 149 147
107.41718871049 674.882318086929 2894.2210095317 149 149 147
96.8240187121121 673.437963515895 2893.94528731902 147 147 145
84.7044713161811 671.665859168062 2895.03147469751 147 147 145
75.7146688113139 670.555301840395 2893.44939081186 147 147 145
68.2849488734569 669.775165040329 2890.52984445955 148 148 146
63.9411436898114 669.653253147419 2884.90994213734 148 148 146
58.0531982626193 669.202192719372 2880.6393601322 147 146 144
53.6946119545645 669.079183364641 2875.00903157562 147 146 144
47.0379419183331 668.463784641772 2871.41538891933 148 147 145
40.384882796574 667.848678443245 2867.82436537369 148 147 145
34.4938079101724 667.397364494102 2863.55151347265 147 146 144
30.8708607792854 667.436092402578 2857.21995357982 146 145 143
24.971556308933 666.984052021541 2852.94113219822 149 148 146
19.0714350151562 666.531915596789 2848.66171819741 152 151 149
16.1692081025411 666.731152652891 2841.61840015301 151 150 148
13.2485447543993 666.928836408292 2834.56170927527 153 152 150
8.81898743684406 666.800067251923 2828.87960866776 159 158 156
2.15021398956727 666.183250297541 2825.2774792839 164 162 163
-3.7739652126505 665.728896066735 2820.98061395821 166 164 165
-8.96023744639463 665.436373199802 2815.98416174323 187 185 186
-11.9424208740084 665.628893911228 2808.88284749514 195 193 194
-16.4118134257578 665.496459936397 2803.17214539023 159 157 158
-21.6227229647821 665.201702197712 2798.1578217468 162 160 161
-28.299065443181 664.583585013522 2794.55019882482 163 161 162
-32.7885467506628 664.449214547988 2788.82462966643 174 172 173
-36.5622701301276 664.475010973043 2782.38370335277 171 169 170
-39.6268697610664 664.660257614716 2775.22260699545 183 181 182
-44.8733147277354 664.361914542684 2770.18279927876 182 180 181
-49.4060267317031 664.223534086183 2764.4258709545 181 179 180
-53.9484783016075 664.084185384776 2758.6618773067 199 199 199
-55.6428348262605 664.584503312489 2750.02562205934 195 195 195
-58.0766522501812 664.92248481096 2742.08723571138 166 166 166
-61.2435696574769 665.098725645885 2734.85192139823 167 167 167
-64.4289891164953 665.273288376835 2727.60318605299 175 175 175
-66.9271813755639 665.605696332839 2719.61810478212 180 180 180
-70.8553627661992 665.617366853414 2713.06513700937 177 177 177
-72.6937787906754 666.105197455161 2704.32409222842 171 171 171
-76.6567528915934 666.113750659108 2697.74588668766 171 171 171
-77.8464163564769 666.756080994076 2688.24088242463 171 171 171
-79.7625336237471 667.237079234271 2679.44347574729 171 171 171
-76.858710664427 668.824908542571 2665.49990756196 169 169 169
-73.322887172705 670.566268817864 2650.78023108554 169 169 169
-70.5377106103351 672.144337085291 2636.75060415342 159 159 159
-71.2400593823175 672.927760294887 2626.36454274511 151 151 151
-71.2948304457812 673.865846550457 2615.2133765303 152 152 152
-74.1159848692508 674.170040166121 2606.99432465992 133 133 133
-78.9975779488725 673.999811822748 2600.98432368261 159 159 159
-85.9199087090863 673.356678261723 2597.1979574156 168 168 168
-92.1638599403622 672.870564036476 2592.66912165114 197 197 197
-97.0635175385901 672.697837107246 2586.64630713996 193 193 193
-99.2911612748444 673.15099937325 2577.62292728226 177 177 175
-97.5369305050824 674.541246112541 2564.08003101974 172 174 171
-89.8428992672218 677.334455637422 2543.73421054442 187 189 184
202.357855952644 679.309163602901 2908.72250830895 204 206 205
192.342275826511 678.026587459027 2907.63098165445 196 198 197
179.953794529509 676.254353598978 2908.52221245271 179 181 180
168.395352216001 674.648448349499 2908.78125655905 154 156 153
159.248547213067 673.535627236205 2907.08534674543 153 153 151
152.49345012603 672.914315986155 2903.42032227135 152 152 150
141.795203576736 671.477550000845 2903.06846626215 151 151 149
133.484237205443 670.531905310721 2900.74428386263 150 150 148
123.615818146931 669.261609317402 2899.759499608 150 150 148
119.247987585875 669.131757205933 2894.12243503522 149 149 147
109.406817244724 667.863698534514 2893.1574152898 149 149 147
97.2515092353268 666.110364669561 2894.21806858964 146 146 144
85.1307734626943 664.359671823432 2895.30350294197 145 145 143
76.1404282160498 663.259764670548 2893.72107955646 145 145 143
71.0258084407292 662.970308594716 2888.77687974865 144 144 142
65.1365330945559 662.518811837416 2884.50533144676 145 145 143
60.0138215697701 662.228759983451 2879.55526273934 145 144 142
54.120832415979 661.777081853948 2875.28102130037 145 144 142
48.9901225795704 661.486401561072 2870.32485678597 145 144 142
42.3323139491649 660.873310710361 2866.73069490531 145 144 142
37.1956291159261 660.58223599183 2861.77019699036 145 144 142
33.5663700191984 660.611919553484 2855.43431008441 145 144 142
29.1689969889379 660.48011189278 2849.77552516298 145 144 142
24.0098874462698 660.187111393444 2844.79905582016 150 149 147
19.5955206957485 660.053897179971 2839.12794466378 151 150 148
15.9190246834635 660.079773538196 2832.7575009484 158 157 155
10.7375340731588 659.78484043515 2827.76479730299 160 159 157
4.80758731092434 659.329839736216 2823.46374767547 157 155 156
-1.86430605404997 658.715119556029 2819.85907274025 187 185 186
-6.31625180112216 658.578542792137 2814.16099721233 208 206 207
-9.30432043232177 658.759374412713 2807.05506297 163 161 162
-15.2488338322236 658.302805318877 2802.74344573174 147 145 146
-19.7298413214257 658.163545638783 2797.02428913725 167 165 166
-28.6008858156526 657.071630350499 2795.52838989354 168 166 167
-32.3601317489 657.090145860305 2789.09792171033 174 172 173
-35.4078956438928 657.265703778536 2781.948980862 176 174 175
-37.7505853593634 657.597774638796 2774.07662499611 179 177 178
-41.5587995593425 657.611964709996 2767.61063676212 180 178 179
-47.538354930128 657.151541180862 2763.27359732786 188 186 187
-51.3682197622334 657.163708462236 2756.79190384276 195 195 195
-54.4976262310839 657.331995239514 2749.58374172053 179 179 179
-57.6455604749435 657.49863170085 2742.36214005963 165 165 165
-61.5222461462908 657.506557893471 2735.84648366701 171 171 171
-63.9970380109782 657.826981463734 2727.87859961516 178 178 178
-66.4946022617698 658.145460242657 2719.89390304686 180 180 180
-68.3114992616625 658.618514960482 2711.1683830233 176 176 176
-72.2600971589848 658.619868663121 2704.60056263243 169 169 169
-76.2228175156603 658.619928929516 2698.02249801788 171 171 171
-76.7146220413961 659.398990413368 2687.78904253391 171 171 171
-75.158147012071 660.642726006165 2675.33737791321 170 170 170
-70.1878279589141 662.661097852352 2659.18863326572 166 166 166
-68.0506419455453 664.051331325221 2645.92334936476 165 165 165
-67.3437230367251 665.126271402839 2634.09000502852 154 154 154
-68.0539017804869 665.886955085778 2623.69815232638 148 148 148
-66.7486440229046 667.109701609472 2611.06397415336 144 144 144
-69.5825117004518 667.398974872741 2602.83563059926 143 143 143
-75.8361392170759 666.912494967174 2598.29977843681 167 167 167
-84.1220771090914 665.962037196157 2595.99371533684 170 170 170
-90.3707317472362 665.475273095332 2591.46146668062 176 176 176
-93.9290268054762 665.60495127931 2583.94190402986 180 180 180
-94.8238633244989 666.348853436728 2573.41610396391 169 169 169
-92.4130279487081 667.858867673975 2559.11476440972 178 180 177
-86.7298602523789 670.132363215915 2541.01399795003 181 183 180
196.777841681118 671.385140482082 2904.63730014083 195 197 196
185.175498913762 669.794607237288 2904.8643032565 179 181 180
173.603197304295 668.206537533219 2905.11309632695 154 156 153
162.854907841692 666.781758728215 2904.72502385936 152 152 150
154.507544325176 665.840991903206 2902.37448109986 154 154 152
143.014535096478 664.259405510088 2902.68078774856 154 154 152
134.700966438377 663.321436189317 2900.35475777306 152 152 150
125.61480010393 662.224430730705 2898.70288633372 151 151 149
122.026037291737 662.248482756194 2892.3960330468 150 150 148
111.396710473052 660.833430867779 2892.09424840732 150 150 148
100.014480799324 659.260878597878 2892.4809072792 146 146 144
87.1094694031673 657.37169182989 2894.23243310197 144 144 142
78.1141553273716 656.282016545535 2892.6464595326 142 142 140
72.9955090903718 655.989206860358 2887.69902939307 140 140 138
68.6413185363683 655.854963310581 2882.071830509 140 140 138
62.7425700751765 655.402490021964 2877.79340999755 143 142 140
56.0775890502487 654.79131700917 2874.19376393224 143 142 140
49.41626708532 654.180440421042 2870.59677189906 144 143 141
45.0413208579112 654.044605045968 2864.95451872148 145 144 142
39.139300151454 653.591836797084 2860.67372459557 147 146 144
35.5062651922196 653.612780235447 2854.33476173883 148 147 145
31.104832771089 653.47481869683 2848.67300290773 153 152 150
26.6936313118538 653.336076115555 2843.0044528133 152 151 149
22.2728925346769 653.196550546787 2837.32869047055 158 157 155
17.0946001448482 652.898889344507 2832.33829146506 155 154 152
12.6567281624017 652.757856307407 2826.65010126055 164 163 161
6.72227222592703 652.302191595996 2822.34577947304 208 206 207
1.52814986108529 652.003068757754 2817.34389757736 187 185 186
-2.93214968400135 651.860069478423 2811.63943919466 160 158 159
-5.92859642816346 652.029000899534 2804.52766567961 150 148 149
-13.3513770252978 651.258895658164 2801.61320061531 161 159 160
-18.568784871801 650.957487743045 2796.59413252565 165 163 164
-25.9823515176567 650.187800343501 2793.68634896772 173 171 172
-28.2917596894414 650.508826302472 2785.83806365852 176 174 175
-32.0759433051143 650.516669087062 2779.38975803469 178 176 177
-35.8741143988646 650.523308627743 2772.93101201781 180 178 179
-41.1290892404212 650.218230057006 2767.88469221912 178 176 177
-44.9511256605077 650.222667392932 2761.40863456326 198 196 197
-47.353320892801 650.535589485436 2753.49333936306 185 185 185
-51.2080108482962 650.53714254557 2746.9935958531 167 167 167
-55.0767975398583 650.537374381426 2740.48362662606 169 169 169
-60.3806599399921 650.227479446291 2735.40213727404 177 177 177
-63.5651976464913 650.379620062608 2728.15392755759 183 183 183
-67.4742059391458 650.376085677783 2721.6147817569 179 179 179
-69.2859626114508 650.832768807399 2712.89290514119 174 174 174
-70.4235234956354 651.440815143577 2703.42549749562 167 167 167
-71.592876247325 652.046136624395 2693.9350294449 170 170 170
-72.0966574143589 652.802142168644 2683.69248057816 171 171 171
-69.8567652245898 654.16780701695 2670.5015261314 168 168 168
-66.9781335736097 655.682002944201 2656.53961773847 169 169 169
-64.1575649795114 657.191395142207 2642.53529938763 162 162 162
-62.7718582923271 658.390637659256 2629.95932130811 147 147 147
-60.0633401580759 659.890803160855 2615.87372845261 144 144 144
-61.5168348821555 660.472000712487 2606.17715762975 139 139 139
-66.4108793232816 660.289631806814 2600.15836337744 140 140 140
-72.6735707179507 659.802208522689 2595.61593583796 161 161 161
-81.6463624977981 658.707128793843 2594.04626178699 159 159 159
-89.2520369448844 657.916252242947 2590.99881337991 169 169 169
-92.8123565571384 658.034574808501 2583.47802004531 167 167 167
-92.3669479559155 659.05884606196 2571.4548446586 171 171 171
-91.2980408057662 660.230373480213 2558.64936592843 177 179 176
-87.613240413386 662.00158656462 2542.80250609076 179 181 178
200.414513069076 664.557334657532 2902.29828118696 197 199 198
188.003770468474 662.826412904666 2903.17387802215 181 183 182
175.627829278607 661.098359839624 2904.07442319614 156 158 155
167.256440366602 660.163503001339 2901.70649384997 154 154 152
158.10589857512 659.071827196154 2900.00798226373 154 154 152
148.182467326313 657.823850189491 2898.98372602543 153 153 151
137.492887441697 656.420018088969 2898.63831948303 151 151 149
129.970248831235 655.647906745643 2895.65116057547 150 150 148
124.804836864239 655.348212194778 2890.67008856406 149 149 147
114.168069320928 653.948718226697 2890.36298878844 148 148 146
102.778208832053 652.39427746173 2890.74420765791 146 146 144
90.6418928781498 650.685547097455 2891.81856015258 144 144 142
82.411510659016 649.762322477198 2889.55290848679 142 142 140
77.2819140120173 649.465618982398 2884.59781491547 139 139 137
70.6074557615621 648.856157576973 2880.99130727675 139 139 137
66.2396664003881 648.715106837806 2875.35421584739 143 142 140
58.8003643949051 647.949806432695 2872.42750392202 143 142 140
52.8955677531546 647.496514583019 2868.14469480923 146 145 143
47.7510410414332 647.198691202195 2863.17877244293 147 146 144
43.3604195949666 647.055899938742 2857.52482625456 150 149 147
37.4465732447948 646.60184508985 2853.23545295026 150 149 147
32.2864008875494 646.302724365346 2848.25818215033 152 151 149
27.1208860274079 646.003140966619 2843.27703611249 154 153 151
23.4506218696682 646.012584802953 2836.9110267675 156 155 153
17.5222952697425 645.557147788991 2832.61114942019 160 159 157
13.8304668677902 645.56475506533 2826.22949839183 182 181 179
9.38102149132414 645.417019176078 2820.53288443574 190 188 189
7.14579403998128 645.730413497297 2812.73863013515 159 157 158
0.452832772364964 645.118855702979 2809.11869864579 139 137 138
-5.49978751206415 644.661092166749 2804.80119850384 162 160 161
-12.9229001447144 643.896097994906 2801.88651862849 166 164 165
-17.4077542201658 643.745015655625 2796.16421920041 173 171 172
-24.0934141533704 643.133481784576 2792.54958072537 171 169 170
-28.5912722352433 642.98108748696 2786.81814224721 180 178 179
-32.3727511885663 642.980625527322 2780.37146074865 168 166 167
-36.8920527030006 642.826304482701 2774.62417323223 196 194 195
-39.2565129304252 643.128542453937 2766.73617882518 202 200 201
-43.0825805581097 643.124139723425 2760.25715408423 199 197 198
-44.7712433840854 643.574932844443 2751.62448099062 164 164 164
-50.7771346381107 643.111509529739 2747.26833491806 163 163 163
-53.2200260960036 643.406905387719 2739.32315490457 179 179 179
-57.8177699200708 643.245254226631 2733.51926023239 183 183 183
-59.5916496425124 643.688695750055 2724.82477435462 179 179 179
-63.5114037931608 643.675747465318 2718.27779096889 172 172 172
-63.9255820387641 644.417245583222 2708.10041816616 169 169 169
-66.4810686923558 644.702773176964 2700.0735655077 167 167 167
-66.2613153726745 645.589494588833 2689.12114770381 169 169 169
-66.7796815026294 646.322134119462 2678.86820200975 168 168 168
-62.4681029394107 648.104991026785 2663.47576602249 166 166 166
-58.2237758716526 649.882350427527 2648.03484462202 163 163 163
-52.6649578640239 651.954481841475 2631.07795109943 159 159 159
-52.6901392727392 652.820823114418 2619.94787165434 147 147 147
-50.0107649428823 654.282751481816 2605.84095815445 132 132 132
-55.5989250568925 653.944567805542 2600.55323203437 132 132 132
-61.8742579532616 653.456180162612 2596.00163551586 134 134 134
-70.1895510369854 652.519654355237 2593.6743627791 151 151 151
-77.814821366762 651.732865981747 2590.61272960589 150 150 150
-86.1074912850484 650.797396233475 2588.3018622337 155 155 155
-90.3493226573868 650.755010448223 2581.52124908975 163 163 163
-91.9218266467812 651.305537099188 2571.73825055652 178 178 178
-92.8574128455726 652.001599063864 2561.18266785806 170 172 169
-92.496224007649 652.990967984109 2549.0982629804 182 184 179
208.477145827697 657.859570375122 2905.63905698386 201 203 202
203.251275610275 657.55117394108 2900.6138189427 196 198 197
193.228658879455 656.308335315476 2899.51768705868 180 182 181
179.245547512993 654.289730188604 2901.72205630488 155 157 154
170.070878273939 653.206674446378 2900.00609787932 153 153 151
158.537218217354 651.659552974052 2900.28311044698 155 155 153
150.192780119075 650.734914995386 2897.93477008137 155 155 153
141.073325546071 649.656481616419 2896.25886135875 153 153 151
132.756181009634 648.734144336372 2893.93031833209 152 152 150
124.451363378454 647.812775801217 2891.61071624901 150 150 148
113.815922547873 646.42946039795 2891.30466018338 149 149 147
103.984820468058 645.202285954448 2890.34744069916 146 146 144
95.7284339352884 644.284900622198 2888.06296752859 145 145 143
87.4846088811494 643.368522551429 2885.78731106692 144 144 142
82.3421281983201 643.067817987189 2880.82285731686 141 141 139
75.6543443812796 642.459696686775 2877.20669647844 139 139 137
69.7380093184492 642.005171377235 2872.91551667025 141 140 138
63.0550910527759 641.397484471029 2869.30317965116 143 142 140
55.612425494143 640.637019676801 2866.37405390765 147 146 144
51.2228060913249 640.488465054546 2860.72109940658 149 148 146
45.3053603803433 640.033909513935 2856.42911431272 151 150 148
39.3871044480298 639.579138976822 2852.13654078312 151 150 148
32.7133392317589 638.972003979872 2848.53054732339 150 149 147
26.7955182597057 638.517238807484 2844.23828913294 153 152 150
23.1278478558039 638.518289657418 2837.87411754333 156 155 153
19.4461671037485 638.518205512904 2831.49978380438 182 181 179
16.4962100951356 638.668588806089 2824.42161774084 189 188 186
12.0403959930604 638.514482085147 2818.72035469012 150 148 149
7.57476635787713 638.359560683028 2813.01226650048 145 143 144
0.142249321800847 637.599230978431 2810.09049832181 145 143 144
-5.07117145842351 637.292301524634 2805.07458705092 165 163 164
-11.0247780410568 636.834010008636 2800.75636924603 171 169 170
-16.2466110841979 636.526160092465 2795.73435508391 174 172 173
-22.9347156950439 635.916847799779 2792.1179556626 172 170 171
-29.6194626381496 635.307598412273 2788.50399060492 177 175 176
-32.6700299074589 635.449144098429 2781.35284525205 173 171 172
-36.46304416839 635.439114668934 2774.89775310171 189 187 188
-38.1050302817669 635.877140087417 2766.29885228227 194 192 193
-41.9331265739742 635.864069877166 2759.81860749363 175 173 174
-44.3404736484454 636.148604149111 2751.89913934616 165 165 165
-49.6314307435215 635.834049153259 2746.82698172106 170 170 170
-52.7887496813411 635.966219479578 2739.59810784043 182 182 182
-55.9648085453048 636.096732661725 2732.35593507067 183 183 183
-57.0338284526053 636.671886436344 2722.93804763467 178 178 178
-59.5473180195634 636.947145287165 2714.94188202438 168 168 168
-61.3795963049479 637.368828888381 2706.20495157389 167 167 167
-61.8353234135753 638.084636411663 2695.99703450871 168 168 168
