ply
format ascii 1.0
comment KinectMotionCapture
element vertex 790
property float x
property float y
property float z
property uchar red
property uchar green
property uchar blue
end_header
203.179543370442 374.046136140714 2908.53998877131 184 184 186
199.840973095053 374.631433208499 2914.60288823433 194 194 196
193.176050740503 375.27152971124 2918.29249219706 161 161 163
184.833027316681 375.940791235244 2920.81034611563 185 185 187
177.312836421822 376.597264168412 2923.92991463509 171 171 171
172.300550564552 377.210773653217 2928.81651215264 197 197 197
168.972040442703 377.79427175936 2934.86968762022 144 144 144
163.965304420326 378.406934177227 2939.7508992658 150 150 150
157.268607762859 379.050240256566 2943.47158120702 173 173 173
149.717831699133 379.709920279157 2946.62104724489 200 200 200
138.759537473434 380.434442066729 2947.47667049256 154 154 154
131.179511761643 381.09757359691 2950.65467173202 183 183 183
121.882442795295 381.794674529833 2952.69854516551 194 194 196
111.712158713834 382.51060769708 2954.19017924507 187 187 189
96.3776059910333 383.330223374501 2952.29221476537 241 241 241
93.0218501816991 383.916301184484 2958.37206432429 234 234 234
169.181809634535 356.403177675195 2713.93508946026 154 154 156
178.949992230121 356.93673617063 2731.07924627659 136 137 139
186.402452989233 357.481144992018 2746.27061748259 163 164 166
193.119202919638 358.024587794773 2760.77579387673 141 142 144
200.695686756081 358.553302567791 2775.84632790704 170 171 173
204.321788733232 359.111393072959 2787.75008552805 160 161 163
207.186860916345 359.671709417376 2798.99231868883 166 167 169
209.285078993803 360.23492687924 2809.5787112111 171 172 174
215.461447314676 360.752468020995 2823.20707562628 180 181 183
219.26172296807 361.288365291461 2834.94115636241 182 183 185
218.231452258852 361.870781465255 2842.96337182331 184 185 187
218.849899740094 362.432778631198 2852.18522230443 186 187 189
217.863830486912 363.009370187316 2860.16406810002 186 187 189
217.716297348936 363.573951962968 2868.7292573374 182 183 185
215.132490127222 364.164299784614 2875.45882874917 194 195 197
213.383119104792 364.743108754424 2882.77840743481 191 192 194
212.474368076631 365.309586268874 2890.68230778292 183 184 186
208.281836807005 365.91485248852 2896.17300454545 175 175 177
206.577728257021 366.487631075941 2903.44852821472 198 198 200
204.890177956902 367.058279710544 2910.7082619452 180 180 182
201.555192844649 367.648887310042 2916.76647855197 197 197 199
195.727851879067 368.272229462544 2921.04407525909 170 170 170
186.554848838846 368.941955117682 2922.968795448 189 189 189
180.713756266416 369.566736034599 2927.25983505525 178 178 178
175.709098199517 370.179726181425 2932.13893482213 205 205 205
172.38823063957 370.768069250614 2938.18380502934 144 144 142
167.389186183297 371.380204290558 2943.05745678231 176 176 174
159.854932648729 372.030312344853 2946.19193043721 185 185 183
152.30996613757 372.681623518004 2949.33686441579 191 191 189
143.055828263175 373.360575038119 2951.34078911561 151 151 149
137.187765557 373.987989374188 2955.65822124617 196 196 194
126.198349682003 374.697711937749 2956.54693607049 224 224 224
112.617645679327 375.452359233243 2955.75113266097 226 226 224
96.4283931998864 376.253930295448 2953.28765534294 206 206 204
87.0604439042779 376.946462958852 2955.40258917942 193 193 191
161.309455443948 349.02447204123 2708.67257847141 152 152 154
176.621885711792 349.585281191605 2730.22656650525 138 139 141
183.271297938474 350.178078378617 2744.79131567817 160 161 163
193.973482708469 350.741813915879 2762.42078153433 160 161 163
199.949967186871 351.322971782453 2776.23823103576 159 160 162
205.179074198275 351.901833376268 2789.38126748058 140 141 143
206.436681822159 352.49933394069 2799.38042226446 169 170 172
209.339111368351 353.082213878154 2810.58222412226 173 174 176
215.515046240426 353.63796249375 2824.20537191056 180 181 183
220.935843726352 354.192452066523 2837.16165905454 180 181 183
220.721489408119 354.782352282478 2845.78946065728 182 183 185
219.716861073006 355.375288602055 2853.78432014669 184 185 187
218.732681576623 355.965575013854 2861.75960313415 183 184 186
218.58682535561 356.546515627719 2870.32070933904 185 186 188
216.824829907039 357.138208637309 2877.65092001101 196 197 199
214.25718803939 357.734862648165 2884.36350693522 188 189 191
210.877928004943 358.337302500712 2890.4639403924 182 183 185
207.507510433888 358.938467160271 2896.55611946767 187 187 189
206.629057946726 359.514818867857 2904.42813567325 183 183 185
204.941342092918 360.096633481338 2911.68638347418 187 187 189
200.774529650301 360.701428969028 2917.15161063527 188 188 190
195.778835163833 361.314114677686 2922.0218544301 181 181 181
189.948455041964 361.935422242243 2926.30276977555 185 185 185
185.790021440519 362.538837115323 2931.75988067773 186 186 186
180.796881214349 363.150847005927 2936.62768793993 192 192 192
176.645975033976 363.753106537083 2942.07749476075 157 157 155
169.126416060188 364.393843583128 2945.19876153049 176 176 174
162.441499099965 365.025803812526 2948.90976081187 201 201 199
154.055155924127 365.679002857929 2951.4730059119 134 134 132
144.804921086661 366.34443022757 2953.47505370189 150 150 148
136.387372473666 367.001327338854 2956.06873968979 233 233 231
127.101978103701 367.670951250923 2958.10508116817 248 248 246
112.668505631378 368.409993543394 2956.74148655016 186 186 184
94.7656421892526 369.199813254675 2953.14723061699 175 175 173
151.059418819651 341.593416346021 2701.52848849286 154 154 156
172.70462633951 342.218932261624 2728.1203216939 138 139 141
184.921364427298 342.844280435965 2747.07086387285 156 157 159
195.626879506313 343.46193590846 2764.68905334004 162 163 165
201.606778607625 344.08078665388 2778.49754107941 146 147 149
205.234031993076 344.698880208747 2790.39128691041 162 163 165
208.100369441439 345.313701148523 2801.6242078887 171 172 174
210.199838012616 345.926058904721 2812.20209573819 175 176 178
214.760542053889 346.525381192084 2824.58893281387 181 182 184
219.368464922878 347.118645896194 2836.92943836178 181 182 184
219.149962806108 347.725624506094 2845.55883461062 183 184 186
219.769823372966 348.325920689421 2854.77362129879 184 185 187
218.785453416912 348.930103528118 2862.74703952969 182 183 185
219.457462888928 349.523648606858 2871.91103939445 187 188 190
217.697172506826 350.126286516139 2879.23793925881 192 193 195
215.131302186394 350.731252932953 2885.94753844048 185 186 188
212.577954379519 351.334508008099 2892.64495551662 182 183 185
209.211203612566 351.941063064766 2898.73269670287 198 198 200
209.164267933831 352.525629957826 2907.1946995425 182 182 184
204.992831569683 353.134238611843 2912.66429258369 198 198 200
200.825884427899 353.7421616861 2918.12919124712 160 160 160
196.663679025824 354.349369051071 2923.58948707444 182 182 182
193.341979895697 354.949728655844 2929.63340700442 161 161 161
190.028869903855 355.548931752226 2935.66896872456 190 190 190
185.045355639678 356.160185145775 2940.52732907414 145 145 143
180.062650009194 356.771248144959 2945.38491457872 188 188 186
171.707353588137 357.410492106604 2947.91905450558 205 205 203
164.182806156017 358.04407414199 2951.04633239565 212 212 210
156.647502960898 358.678894174552 2954.18410794193 144 145 140
147.403294163239 359.330560944184 2956.18254343798 219 220 215
140.693598505486 359.960306539029 2959.91813781233 51 52 47
133.124071963022 360.599116639764 2963.0893079181 54 55 50
124.688889820349 361.247710802123 2965.70173143387 86 87 82
103.385842542902 362.029269826362 2959.8171541262 89 90 85
89.7394694670135 362.738799479594 2959.09322944497 102 103 98
136.845456556499 334.082212138332 2691.24692107185 159 160 162
168.787580807415 334.824765609913 2726.0176381412 130 131 133
186.571449190664 335.520399990274 2749.34859027692 150 151 153
195.68293531309 336.189821307687 2765.70820445737 152 153 155
200.861776442246 336.846018181734 2778.88972554568 129 130 132
204.486693106784 337.494480418906 2790.78130329711 168 169 171
210.568860291555 338.1384440561 2804.48452564337 172 173 175
213.480292686555 338.774912112396 2815.66946723866 180 181 183
214.814690631179 339.406486905989 2825.58733194268 182 183 185
218.61195354209 340.032897831791 2837.31102649791 182 183 185
219.203490718451 340.656150630236 2846.55054575385 185 186 188
221.451674611759 341.27409984022 2856.97993067561 187 188 190
221.287083620674 341.890645945464 2865.55437830806 184 185 187
221.964635288655 342.502804633013 2874.71012360704 191 192 194
221.850216020431 343.112863631121 2883.23570876862 189 190 192
218.47169930066 343.726929831305 2889.33368573423 185 186 188
215.925969149704 344.337760317516 2896.02241872299 184 185 187
214.218513000663 344.944646865117 2903.296225466 202 202 204
214.183114690699 345.544434429506 2911.7448597613 189 189 189
208.363614677201 346.160183596845 2916.01579252698 188 188 188
201.709183267257 346.779188250246 2919.69809619275 163 163 163
196.715245838207 347.392463275262 2924.56650810289 179 179 179
195.064657432267 347.991784404972 2931.78530034379 167 167 167
190.080181685552 348.603689728111 2936.64451910484 199 199 199
184.256969526343 349.219300735631 2940.91882066406 162 162 160
177.589657948918 349.839370639246 2944.61409492502 122 122 120
175.131925395465 350.438193613257 2951.21721970367 93 93 91
169.305505749025 351.053928873582 2955.49468798061 23 23 21
159.240215451904 351.69430889435 2956.89289056028 46 47 42
147.454504832888 352.347517906868 2957.16378119726 19 20 14
137.340663311334 352.993650025757 2958.60934570292 79 80 74
134.881318337067 353.592322458073 2965.21409388928 68 69 63
132.434516461799 354.189354664632 2971.80662901755 93 94 88
118.860959265568 354.86352256028 2971.01562354373 96 97 91
106.967008750358 355.529697085773 2971.39174385857 111 112 106
34.7545907026792 325.238032846684 2601.2183071504 190 192 189
165.666030129086 327.406914252959 2724.54576418795 128 130 129
188.221886521513 328.206472018236 2751.624833447 144 148 149
195.739275155103 328.916830593981 2766.72720301262 132 136 139
200.917707202935 329.608563530564 2779.90387811022 129 133 136
203.739751439544 330.283779857685 2791.17185649068 162 166 169
213.037572121596 330.978535227151 2807.34235549507 181 185 188
215.954494330207 331.641687482906 2818.51790171126 177 180 185
216.48586236369 332.291955786184 2827.81317693573 185 189 192
217.045292661339 332.938583199726 2837.08112403896 185 189 192
219.257366037882 333.585836879036 2847.54203604991 184 188 191
222.319380593139 334.230417837148 2858.57624825071 193 197 200
222.97258476305 334.864972946574 2867.75286079382 207 211 214
223.653765624311 335.495956922904 2876.90221988077 197 201 202
225.18316313396 336.124487286782 2886.62689709948 192 196 197
223.456299457158 336.74528989838 2893.91791901627 188 192 193
220.922035033833 337.36318120066 2900.59422278246 198 202 203
218.400228944451 337.979413478752 2907.25840044193 197 201 200
215.063177289713 338.593767638208 2913.31549726673 204 206 203
209.245273594419 339.207058302363 2917.58487038854 179 184 180
203.424562393011 339.82057192171 2921.85733629474 193 195 192
199.267954556002 340.433339062476 2927.31125192476 108 110 107
197.62283643563 341.043143464092 2934.52272482623 59 61 58
193.481724996646 341.653796577683 2939.96190259822 14 16 13
183.469146095693 342.272317532183 2941.31099274273 22 24 21
176.799650726407 342.887648682913 2945.00879808491 10 12 9
180.242966255824 343.483379257658 2955.67159284703 18 20 17
188.797267150412 344.062591043055 2969.76367664744 36 37 32
165.221996489008 344.716453565192 2961.90359628376 26 26 18
154.298729386039 345.344492842746 2962.73835931161 11 11 1
145.902552132707 345.967722378459 2965.31579927641 17 17 7
137.491749651462 346.592721945503 2967.90750069886 92 89 82
132.485891276481 347.206939591318 2972.78761096559 85 85 77
119.769297323379 347.851205199742 2972.56695718581 99 99 89
101.007321211505 348.524793313682 2968.42608249534 101 101 93
38.7711117136607 317.378441757371 2605.47637097256 186 188 185
110.799362210957 318.786953649066 2672.61032440932 167 169 166
160.16051983112 319.945697432074 2721.19654097988 127 131 130
185.888769904722 320.868857658861 2750.77508313996 151 155 156
194.198449168161 321.630072325496 2766.50008920763 133 137 140
198.572007103665 322.351509519963 2779.05471660293 144 148 151
202.992847104108 323.066940127946 2791.56294213765 172 176 179
213.092876695008 323.816713325766 2808.34595138544 166 169 174
218.428809987764 324.523898312689 2821.36394161223 194 197 202
220.582599343863 325.203340237026 2831.87797310853 177 181 184
220.341192996027 325.863049689769 2840.52232000186 188 192 195
223.372918506494 326.538899051976 2851.58198821542 190 194 197
226.444291801769 327.209691212104 2862.60303304482 198 202 205
227.106949476578 327.862396332113 2871.76757555418 203 207 208
227.797584246618 328.511486041491 2880.90487075052 196 200 201
227.696275556823 329.153135918799 2889.41276779576 206 210 211
226.796967836805 329.788048691779 2897.29683825596 194 198 199
222.622572845602 330.406745441909 2902.76787824137 212 216 215
220.104494092531 331.031043567668 2909.42716247201 215 220 216
215.943241641589 331.647845912169 2914.88509387099 153 158 154
211.786751919679 332.26395938576 2920.33839762444 67 72 68
205.140167774095 332.872069708249 2924.01485686005 13 18 14
202.654429941186 333.491846776649 2930.6423564472 8 10 7
201.017071649909 334.111981905283 2937.84493468871 33 35 32
197.720832696369 334.726540691973 2943.8611358121 18 20 17
183.521067951466 335.320718418516 2942.2868768855 19 21 18
178.534290220211 335.933577342681 2947.14824060941 8 10 7
182.824486069538 336.557242589686 2958.38285128003 15 17 14
176.17044676011 337.165570385911 2962.06668146102 31 32 27
168.662180291781 337.774161073617 2965.18148582363 29 26 19
154.350477869909 338.381637797298 2963.71607923705 20 17 8
143.401229626826 338.994393676549 2964.57923864269 14 11 2
135.837524424338 339.609575258002 2967.74812035664 74 71 62
125.698586216278 340.227265626299 2969.22314776331 94 94 84
108.682534431416 340.852907428275 2966.18944948601 102 102 92
83.0257589874925 341.494060235614 2957.56405615454 102 102 92
77.0728125954805 342.120337517112 2961.96594709611 150 149 144
41.2060631468334 309.524612799556 2608.47028648941 190 192 187
106.895392270617 311.118321039837 2670.53556039137 195 197 194
160.218905922327 312.513557253193 2722.23702980088 141 145 144
183.556042357127 313.514196486899 2749.92746599291 158 162 163
194.255341232104 314.350083158331 2767.51957376671 119 123 124
201.030355438769 315.131211039515 2781.93176312242 143 147 148
206.259331123249 315.887423192609 2795.04871764161 183 187 190
213.148506878422 316.654113265735 2809.34933895176 181 185 188
218.484052483058 317.396816876034 2822.36246452157 187 191 194
223.870895572753 318.132994654432 2835.32561544551 184 188 189
222.826767591624 318.800598647002 2843.34900065985 193 197 198
226.676182825249 319.510671990582 2855.00854191885 203 207 208
227.312451774705 320.18607508822 2864.19593407141 207 211 210
230.425156979216 320.879018239939 2875.17266179706 166 170 169
230.305307491796 321.539664172869 2883.69616251969 76 80 79
228.569458447331 322.184110882342 2890.99261245206 0 1 0
230.137974328942 322.851656271803 2900.67267814539 1 6 2
221.027668494812 323.436037136521 2902.54775300458 11 16 12
219.331299455194 324.075197177732 2909.80578007577 14 19 13
211.856979067752 324.672948140615 2912.88847758485 17 22 16
211.839302609956 325.320241789087 2921.31249244049 24 29 23
205.192678799337 325.923388988353 2924.9897246115 37 42 36
205.207532165612 326.566403124846 2933.38173153897 41 43 38
206.082159012903 327.21102031178 2942.33698091955 44 46 41
205.310001971057 327.843247122724 2950.09552370271 16 18 13
190.288336998606 328.401828219924 2947.92543785855 14 16 11
182.792977889686 329.001435368784 2951.02875278558 25 27 22
179.503339261594 329.620751080182 2957.03803445882 27 29 24
174.531822226907 330.232010479607 2961.88448049451 25 26 20
155.159990099617 330.788224726798 2956.9496403312 25 25 17
125.534424988509 331.316511784843 2945.1967730446 25 22 15
134.943413552866 331.984930340554 2959.84386395035 9 6 0
136.742741883709 332.622493620933 2969.29916081219 26 26 16
123.186236106076 333.215139873888 2968.50327189082 90 90 80
100.167024923017 333.789935148507 2961.51927382546 89 89 79
71.0565161884067 334.361970268957 2950.66572915826 98 98 88
76.2649318093862 335.009707004697 2962.40188558404 77 78 72
46.8045621778801 301.737579362798 2613.98085523978 190 192 187
119.640466584691 303.686928510369 2681.64977021257 126 128 125
166.635499170695 305.179655574829 2728.28515554151 142 144 141
185.207259511504 306.203236584691 2752.20249610728 150 154 153
195.909931078029 307.093052590572 2769.78328401643 135 139 140
202.688145721501 307.914684924918 2784.1859709086 172 176 177
207.920602509638 308.705957463125 2797.29428673079 186 190 191
210.791004456619 309.457162138942 2808.50301414525 179 183 184
215.313944179282 310.225193298538 2820.90241664993 189 193 194
220.692661324163 310.99787997273 2833.86824075833 189 193 192
222.071200109871 311.711751959094 2843.72977162349 212 216 215
223.481815906729 312.421537606197 2853.56039134354 136 140 139
223.295765938891 313.107245119577 2862.14558818922 7 12 8
230.479105258562 313.877526653692 2876.15390775692 11 16 12
233.631144335315 314.5928431969 2887.08826958848 7 12 8
231.08299644299 315.238268850425 2893.77429027954 12 17 13
231.834993216825 315.918129547914 2902.8461041604 15 20 14
220.257116038923 316.462610980183 2902.92668300689 13 18 12
223.513494366132 317.164538027682 2913.75941338195 28 33 27
217.704240391241 317.770030553129 2918.02134976503 39 44 37
215.210837508393 318.408097719942 2924.65409543351 37 42 35
206.908597896057 318.989661439407 2927.14441212159 27 32 25
206.093838456202 319.641249313627 2934.94239815905 29 32 25
203.628265204814 320.275572237894 2941.54806198952 23 26 19
201.174961949638 320.90821395002 2948.14145217279 20 23 16
190.340711365038 321.470457336408 2948.89788292796 17 20 13
187.893231316797 322.102263449623 2955.48595192381 26 29 22
187.987992059094 322.751613771958 2963.79801100213 25 28 21
179.655061927393 323.336294666504 2966.31834311251 17 18 12
145.894375586589 323.744956325254 2951.60450848651 23 23 15
123.88929093859 324.249235128938 2945.04079940161 18 18 10
139.251054953621 325.002627930729 2963.6835158802 13 13 3
132.53053114364 325.608956936886 2967.43332373136 20 20 10
121.529070553935 326.191188877986 2968.35284219377 71 71 61
95.9362211453922 326.696084564053 2959.68410810718 74 74 64
69.3925550524299 327.207729294282 2950.54130437838 80 81 73
78.0395840845838 327.905808206377 2964.523739258 67 68 62
62.6839339314076 294.189976201282 2627.6681502057 111 112 107
173.84690992732 297.903310428828 2734.95275607625 143 145 142
183.671861175994 298.842893862764 2751.98086831426 127 129 126
195.168627424435 299.802282265613 2770.17973501322 206 211 207
202.74516038789 300.679452383271 2785.19871871193 209 213 212
211.187139913368 301.562771632834 2800.7743016596 200 204 203
210.847253073457 302.284960650075 2809.50720668503 92 94 91
214.563503689511 303.072163065591 2821.28792057666 0 1 0
219.131449423034 303.867217012389 2833.63829964911 15 17 12
222.936816802068 304.643096390685 2845.33219281767 14 16 11
212.978027272174 305.19374463605 2846.63790087834 9 11 6
211.952443244937 305.886518121838 2854.63881379024 12 14 9
225.636819167714 306.800644856909 2873.50619787593 19 22 15
232.048963924921 307.593685278394 2886.85971413118 12 14 9
236.876497173403 308.355838892073 2898.95751946073 18 21 14
240.929425557048 309.100256950346 2910.40989301945 13 16 9
231.020746100647 309.643911587524 2911.6672125306 23 26 19
224.39251547949 310.235214863229 2915.32759267732 13 18 11
218.585320205714 310.838208745579 2919.5881918801 27 33 23
215.263917997663 311.473807314751 2925.62627081654 14 20 10
211.119797997512 312.097694909455 2931.06648008372 16 22 12
209.48088014398 312.751740367935 2938.26525721967 21 24 15
204.516472077692 313.363489336359 2943.10457158656 28 31 22
195.365766615299 313.925940751408 2945.02300503691 14 17 8
199.626370953392 314.643796362713 2956.27341706291 17 20 11
193.834766860425 315.244159625394 2960.51858495512 12 15 6
187.197273260941 315.835718334186 2964.18846346534 16 19 10
174.636600712324 316.36600693413 2963.82982317804 19 20 14
144.25315114011 316.719305286028 2951.43850030155 24 24 16
143.55858577847 318.046696821894 2967.5190421048 20 20 10
128.319121889472 318.567797217343 2965.57111127777 24 24 14
113.888623377966 319.102135906746 2964.23448073385 53 53 43
100.27337734236 319.648953194457 2963.50369525804 61 61 51
80.6094415561054 320.150059348714 2958.86706329823 67 68 60
83.2569137495383 320.839988012365 2968.88931050359 68 69 63
182.159739195836 289.143157211967 2723.74167475099 26 28 23
177.879384882697 290.603682711983 2739.11255289586 144 146 143
182.136822952414 291.471006821843 2751.76058917008 147 149 146
195.226365523401 292.522658192903 2771.19832548622 213 218 214
204.403578363008 293.477635275612 2787.45046704748 99 104 100
212.046528942474 294.390025102415 2802.39829161403 0 2 0
208.490517040072 295.062187757292 2808.66393728922 3 5 0
217.03860110537 295.978362403639 2824.12930084704 21 23 18
224.037092756227 296.853898850119 2838.30562025235 26 28 23
243.248270156686 297.959933022821 2861.57548584211 29 31 26
239.68815039009 299.327995644842 2876.24482640823 28 31 24
240.380799735878 300.054198485278 2885.36872381398 42 45 38
226.377242750679 300.508502768098 2883.61996307341 48 51 44
232.010756614156 301.319845601341 2896.32705691024 34 37 30
240.161215493478 302.168005325459 2910.7804114138 27 30 23
231.898147877308 302.724507680354 2913.23553378935 21 24 17
222.794535879918 303.268756699947 2915.10989303888 17 23 13
216.983364591567 303.869996264498 2919.37469977033 15 21 11
218.636037445483 304.592741540754 2928.96303782693 10 16 6
221.983625404532 305.337907978078 2939.69880492631 26 32 22
218.702583516307 305.974138463806 2945.69671207153 15 18 9
207.911311377534 306.494417803987 2946.41666686237 24 27 18
196.256427119685 307.005309341432 2946.5786794494 16 19 10
198.000452819026 307.716300560382 2956.0777021826 23 26 17
207.347775695388 308.531571033146 2970.76432337891 11 14 5
179.661229322623 308.819377029503 2959.9556812945 13 16 7
163.70278583611 309.281733892285 2957.31314294503 13 14 6
154.47152588331 309.840720386187 2959.312418151 25 25 17
140.208028907579 311.019503826935 2966.2168355508 16 17 9
128.37241405496 311.552103146458 2966.55510788942 28 30 19
116.506531324274 312.088324859966 2966.92256344817 37 39 28
96.9001508209288 312.537034619625 2962.23652240585 46 48 37
81.5220397714298 313.0431643916 2960.42814506839 58 59 51
80.7288663883545 313.719023980696 2968.20110848352 65 68 61
140.997459421691 279.833260869068 2682.3886947694 28 29 23
212.269509091104 282.542001328853 2748.6644842747 36 37 32
199.096411173452 282.985181391543 2747.50995671821 29 30 25
189.858566928286 283.535325348279 2749.51673930496 27 29 24
183.788832817072 284.168585918988 2754.03357005105 23 25 20
188.895953711086 285.082230449811 2767.24825974184 14 16 11
210.865144856586 286.404529389752 2793.41538818656 29 31 26
218.523151925898 287.358658038368 2808.34209245647 23 25 20
199.699116877539 287.668229138676 2802.89973544525 17 20 13
228.383947363951 289.109650167517 2833.71681662406 30 33 26
248.341516505515 290.323718047617 2857.64644616416 23 26 19
254.646604272189 291.206943662662 2871.09294226138 7 10 3
250.448908985376 291.844971119043 2876.58426271482 13 16 9
242.883568772473 293.136648063258 2888.15691388941 13 16 7
227.250102770921 293.525706691263 2885.20250154042 14 17 8
236.164858024853 294.441858683665 2900.30375853577 17 20 11
238.571541310779 295.212590446139 2910.55317002308 31 34 25
232.775867161401 295.809869705686 2914.80283535579 25 28 19
222.848517356953 296.324151103951 2916.08269830844 25 31 21
208.760495602145 296.759045858069 2914.42101889457 15 21 11
220.348861989234 297.700298990545 2931.11469636908 20 26 16
228.689357245051 298.568079572621 2945.37644198729 35 41 31
227.09079450818 299.239622687972 2952.5325597498 24 27 18
213.812667128166 299.692711644546 2951.48086347187 20 23 14
199.659260183026 300.135171099329 2949.88299445912 20 23 14
198.053684538994 300.807332943338 2957.04598469428 20 23 14
195.623232069879 301.462658641373 2963.61366886797 18 21 12
188.1462644849 302.029371909881 2966.70358244101 18 21 12
176.433031334158 302.526021919702 2966.92564123281 21 22 14
164.689487518941 303.026329201827 2967.17692057726 18 19 11
154.613978625518 303.55784367116 2968.60136065508 22 23 15
139.410767274843 304.010790720972 2966.6275035563 24 25 17
136.954660280479 304.668849344523 2973.22025912761 25 26 18
125.10814436046 305.1816514038 2973.57194457174 29 32 23
112.375082098702 305.685214833084 2973.38843978653 31 34 25
90.162920099945 306.054424186475 2967.05066261986 41 44 35
73.8983405132205 306.519506580284 2964.71171911113 51 54 47
76.5597314275501 307.257184897836 2974.71308744289 49 51 46
146.580458975943 272.441813046601 2687.85618734831 51 52 46
195.722116055042 274.748577094833 2736.49069430713 13 14 8
208.667954817587 275.943594401751 2756.04994120667 20 21 15
221.704036105311 277.127249946682 2775.52125520813 23 24 18
223.67795839988 277.978160063511 2786.18855443148 28 31 24
200.134065971076 278.097583742462 2776.95905768689 18 21 14
212.523846263419 279.2391487702 2795.6614697732 15 18 11
200.926748443003 279.7028465514 2795.77273694819 24 27 20
192.517134258492 280.258098357305 2798.37356706306 32 35 28
234.890849770608 282.185415748075 2839.61471539354 18 21 14
264.562374996989 283.739928284524 2870.85218855182 17 20 13
261.993693151422 284.422660465717 2877.5530858735 11 14 7
248.067576196433 284.809267034537 2875.73776957272 24 27 18
255.265621701516 285.741449347149 2889.70721897456 19 22 13
245.386493128484 286.234660573155 2890.94264953582 20 23 14
245.300262049944 286.974212712512 2899.42076653663 9 12 3
232.939840797735 287.409630717112 2898.87763342629 24 27 16
246.022313017382 288.463883958901 2916.90475899076 20 23 12
240.244173409371 289.056757826407 2921.13800122169 18 21 10
231.159996062142 289.572477836032 2922.99727815153 26 32 22
218.746922834151 290.013929028313 2922.50553752898 29 35 25
220.40276731471 290.780337221925 2932.08393491133 27 33 23
233.732175772654 291.803550384758 2949.87077469289 40 46 36
225.477337492152 292.337816008013 2952.3210117957 38 41 32
218.043314424387 292.891891756522 2955.37014864824 26 29 20
206.411670890146 293.357674274039 2955.51541210462 25 28 19
191.393011871611 293.756367451653 2953.36631051047 23 26 17
166.233874756623 293.951368026408 2944.31235822505 20 23 14
187.356570321793 295.103573217591 2967.09448112317 20 23 14
194.233381753394 295.952464029304 2979.97832183843 21 22 14
179.142535635282 296.359769340711 2977.89929238966 19 22 15
163.157302138631 296.756126685592 2975.29311161622 20 23 14
147.973641852977 297.174765846704 2973.30491071183 21 24 15
144.683741403178 297.823066554394 2979.30983056611 22 25 16
144.821689127757 298.533297658983 2987.57000617957 27 30 21
124.42306448354 298.867857174058 2982.27063731924 30 33 24
95.3691699148243 299.057962356134 2971.4169851845 35 40 33
69.6503958958186 299.321437108069 2962.90897800624 37 42 36
67.1269517762987 299.996196055276 2969.56613203771 34 39 33
133.232147817683 264.448472005976 2678.20352235653 196 195 190
155.453647261131 266.049301222875 2705.49618543801 16 17 11
201.592903228092 268.417231789195 2751.43510558729 11 12 6
232.092785797367 270.23548429079 2784.64484564247 16 17 11
228.515624175797 270.92837411123 2790.92876767742 12 13 5
169.356297196512 270.673913167605 2763.27457574103 21 24 15
200.182368652661 272.451060823585 2796.16681852981 7 10 3
182.92291395647 272.724536177348 2792.01030151314 10 13 6
249.460859631999 275.548322433571 2851.63383448109 6 9 2
281.591028414013 277.287819243963 2884.65356344344 10 13 6
240.174246116828 276.823243392837 2862.08405553975 22 25 18
252.183617058138 277.946514031808 2879.74967647807 29 32 23
252.064491172074 278.707079873001 2888.25769053506 20 23 14
249.521521531842 279.394723062422 2894.93232941187 27 30 21
245.355131515692 280.03468442816 2900.39193959582 17 20 11
251.852165228147 280.9700048304 2913.64046878659 25 28 17
245.255002104083 281.537813904062 2917.27347088224 27 30 19
240.298586442548 282.150973024759 2922.10464025317 51 54 43
240.297258371023 282.8962463135 2930.49793957152 69 75 65
236.181765427268 283.529349028342 2935.90802191579 16 22 12
241.196536523534 284.399103975141 2947.80399386456 26 32 22
235.448780578173 284.985536424324 2952.00767886615 31 37 27
232.198655130288 285.635502784919 2957.97319321477 29 32 23
220.603275986051 286.075781370755 2958.08655290776 21 24 15
206.465541125278 286.457854783358 2956.48170847222 19 22 13
193.964894666192 286.885741230051 2956.0789342262 17 20 11
185.636008543632 287.41844556538 2958.60259484648 16 19 10
189.939793922692 288.251375059471 2969.79311959084 16 19 10
199.357254962238 289.196807768538 2984.39085463259 16 17 9
198.677301736723 289.900908977374 2992.0468768165 18 21 14
166.607083730822 289.892705610816 2978.55015109035 18 21 12
141.220607337778 290.051190618375 2969.72734705362 18 21 12
144.737770894741 290.856901799325 2980.28577459082 18 21 12
150.85864473809 291.713111215212 2992.50228150181 23 26 17
128.760508397301 291.961448121998 2986.06914006599 26 29 20
108.303140373737 292.255176673373 2980.83413904833 30 35 28
81.7530905614272 292.433081278028 2971.74700109202 34 39 33
74.0817128376694 293.008057121883 2975.02874560175 38 43 37
219.811806766093 263.428213351255 2785.09329149529 14 15 7
200.251414389585 263.56587389116 2778.99030934232 7 10 1
210.671746984782 265.58023630199 2805.1873881465 5 8 0
243.306259632401 267.509244608754 2839.09519579605 43 44 38
260.805138585453 268.89932821153 2861.18959803936 37 38 32
222.646390301305 268.418343056288 2841.05521459898 23 24 18
245.901588083352 269.984299218475 2867.32655417161 26 27 21
251.427253866137 270.951603505255 2880.11769171212 22 23 17
249.67784411778 271.676660046755 2887.41569352595 24 25 17
246.31299013064 272.347635302424 2893.49202990453 20 21 13
255.225497284957 273.403163422964 2908.57491956517 26 27 19
257.645978872917 274.246485895999 2918.79990025926 29 30 22
246.131506512803 274.656263173328 2918.83708855767 36 37 29
242.824499941129 275.319636256781 2924.85710519529 73 76 67
245.305825192283 276.155111512825 2935.02282704764 62 65 58
251.960953385608 277.108637977963 2948.11133739171 21 26 19
245.39831973542 277.666831095029 2951.71147244354 19 24 17
240.491838855978 278.273872049492 2956.49396009998 28 33 26
235.58627303774 278.880694450503 2961.27557138922 30 33 26
208.12666123412 278.851313043988 2950.28846008256 24 27 20
205.682516353947 279.534178491793 2956.86567065986 22 25 18
206.607693489113 280.307726984088 2965.75166686669 21 24 17
200.831621911621 280.895032949105 2969.98367844631 24 27 20
185.778197284318 281.234067034252 2967.8775793614 25 28 21
184.199993358279 281.936390469384 2975.00893120597 25 26 20
183.485216596158 282.658785343473 2982.69716772278 24 27 20
174.301330613832 283.159787386403 2984.65763211028 25 28 21
141.275189298197 283.057049218697 2970.70687740445 25 28 21
126.883646265891 283.440796169446 2969.35415872901 22 28 18
131.254210490052 284.295232104182 2980.47485460849 23 29 19
139.95144105607 285.248936584697 2994.36965727549 24 30 20
101.489164551416 285.057037294389 2977.32811155788 29 34 27
83.529496156669 285.374411668867 2973.86042883885 28 35 28
77.5868753677789 285.981709633991 2978.25453359656 33 40 33
88.9289840842049 286.988801215279 2993.76610836669 52 58 56
269.437902288177 255.642348619723 2797.89608504827 11 12 6
215.481696754141 256.884799083635 2791.77717783679 23 24 16
201.492557734341 257.192165175153 2790.03615508594 17 18 10
223.567987987489 258.870112645826 2816.04522182874 19 22 13
250.602292105971 260.712041365703 2845.60794875092 77 78 72
251.18646540934 261.548982023287 2854.82319746934 30 31 25
224.320136465085 261.375136216986 2843.2682992882 26 27 21
200.590339181595 261.331610438478 2834.24749267114 29 30 24
221.436449334167 262.901639768122 2858.65942406517 27 28 22
248.919710784593 264.687250384594 2887.78465351101 28 29 21
238.209138037401 265.106367384947 2888.4394243627 21 22 14
249.555463458966 266.295949729812 2905.33674914485 30 31 23
255.24147819362 267.278450263671 2917.96641180709 30 31 23
249.473669915301 267.863356521222 2922.19023464219 20 21 13
239.58464599967 268.310035720737 2923.44236883813 30 33 24
243.709159655296 269.226168771196 2934.7982777627 26 29 22
239.601240651141 269.864655819453 2940.20004327085 20 25 18
218.078019946263 269.935904777123 2933.2221756313 11 16 9
223.916652429229 270.898900059092 2945.70316948107 31 36 29
234.807098584089 272.014454895026 2961.64722102997 32 35 28
222.382227125652 272.385479253531 2961.17726743794 24 27 20
204.062418507496 272.57851370317 2956.66833951148 22 25 18
218.411097119983 273.784408015895 2974.83293808554 21 24 17
198.36246019236 273.931994036069 2969.21366084975 24 27 20
189.205051432562 274.41689145346 2971.1502132205 26 29 22
164.818733333215 274.452946238848 2962.76957950615 25 26 20
178.457684413682 275.616770423348 2980.22825664007 23 26 19
165.86668498354 276.007882804368 2979.92030157881 23 28 21
135.37442247322 275.891958809412 2967.70638241635 23 28 21
110.736282673981 275.958948899988 2959.57123914801 22 28 18
134.728006640695 277.397028899678 2983.71318805466 21 27 17
122.873332857458 277.826460254336 2984.08529653129 21 27 17
101.544469223993 278.002288027185 2978.31588206121 26 33 25
78.4221300827137 278.140802434915 2971.49911154645 29 36 29
76.7800522823321 278.861925255448 2978.69111255152 33 40 33
87.2555626514813 279.898349974933 2993.64198754845 27 33 31
268.293458489173 247.625040852348 2788.88120117764 8 4 1
288.472763034512 249.366258065014 2813.92997890251 14 16 11
193.846138917209 246.124471866861 2748.25251054388 8 18 9
216.339096574581 249.702276919777 2793.40425009718 15 14 9
217.559727423747 250.612610081376 2803.39388684372 26 25 20
222.021469859736 251.651016322397 2815.81375999779 29 34 27
241.812460293962 253.306769407792 2839.8438616183 36 39 32
255.274724257372 254.686799389999 2858.8629458666 30 33 26
219.528583335089 254.083580829244 2840.6019394901 28 31 24
218.470896689175 254.878129152187 2848.62002634242 27 30 23
236.110525070691 256.402459499046 2870.55448287046 26 29 22
234.323878651969 257.154574241954 2877.88546205807 25 28 21
243.161046901661 258.312271243619 2893.02840169069 25 28 21
247.975386655406 259.30594688827 2905.10475165849 24 27 20
253.657122709194 260.324530277999 2917.73333008374 23 26 19
248.707326530275 260.938299643981 2922.55783601659 25 28 21
240.463660927415 261.430276634736 2925.00322872676 26 29 22
236.333476372193 262.07475492612 2930.42621875315 25 28 19
228.897794220607 262.598877273761 2933.48143020001 15 18 9
221.451334912818 263.124255057737 2936.54715796937 15 18 9
215.657167195342 263.709743995293 2940.79740783936 23 26 17
231.528101306897 265.054708501985 2960.26398616327 24 27 18
223.272365948064 265.547646873409 2962.72122222789 18 21 12
221.699969527606 266.272088600446 2969.84353805969 17 20 11
209.234394884764 266.624199703095 2969.41679870244 21 24 15
193.370381896609 266.867479871487 2966.71286891192 24 27 18
177.456901815058 267.116819246522 2964.05716512831 24 27 18
167.409021418492 267.566540103261 2965.46625876054 18 21 12
175.124685058165 268.596902232283 2978.90753261094 18 21 12
168.468250685194 269.156143867849 2982.60065819654 22 25 16
133.728402132113 268.82379311884 2967.55175811455 24 27 18
123.583458976673 269.285322754607 2969.05549116881 22 28 18
135.637834518846 270.440205038018 2985.25484036822 18 23 16
132.351333701084 271.11154676101 2991.25297888564 17 22 15
101.600160320512 270.947077263317 2979.30333704885 15 20 13
76.757187871054 270.977721878793 2971.37696747551 25 32 25
75.9737501978455 271.736237282635 2979.12804669349 29 36 29
79.5320841813436 272.619049274503 2989.63419592235 19 25 23
236.359360072432 243.394305428471 2809.88158360045 27 24 19
243.230766711541 244.57261191665 2824.13901317915 29 28 23
251.766232581544 245.814972896668 2839.56903443576 27 32 25
238.653274558576 246.09001399775 2838.37963793992 33 36 29
255.331975474442 247.674719293403 2859.84247693769 27 30 23
247.871949327712 248.195247111049 2862.92239360157 25 28 21
223.389254009568 247.986438294951 2853.25674530585 24 27 20
258.092502978602 250.310953516197 2887.8856300929 24 27 20
242.520542112909 250.484629206512 2884.90197573892 22 25 18
248.112837222072 251.55007573525 2897.61244399287 24 27 20
252.938651154649 252.575211186815 2909.67308802774 26 29 22
246.334674089548 253.124154193556 2913.31564486401 26 29 22
238.080451774527 253.607186707604 2915.77284253516 26 29 22
228.164167564804 254.025737731667 2917.05586609617 27 30 23
230.60978110356 254.939912542414 2927.24541844703 24 27 18
228.953350946319 255.686432236171 2934.44791790786 16 19 10
238.096985286527 256.851784846368 2949.2854006866 17 20 11
230.678572272209 257.365961001972 2952.32493366772 24 27 18
224.916017983809 257.945207302567 2956.54437575233 24 27 18
224.997842750269 258.746352526833 2964.84684522567 18 21 12
219.243067457898 259.324516670226 2969.05906043659 18 21 12
226.072935966299 260.370649740817 2981.96036384881 22 25 16
201.836739464544 260.265109412208 2973.45158486486 24 27 18
178.355397717104 260.201124722936 2965.60399136345 24 27 18
175.069475393139 260.878601690877 2971.60098648344 17 20 11
171.792226837885 261.554955708038 2977.58953439452 21 24 15
163.430259228274 262.050272209991 2980.15157132592 23 26 17
143.993609574613 262.160730452249 2975.34697846733 24 27 18
126.197616178661 262.33817705647 2971.73744531827 23 29 19
141.675918885348 263.663881783357 2990.1795118587 23 28 21
138.403051481755 264.339477095845 2996.16382135763 23 28 21
118.826655105108 264.467049693698 2991.49513172453 24 29 22
108.650689148628 264.916629336442 2993.03177492457 22 29 21
88.1034989111504 265.029264419994 2987.91239638661 23 30 22
71.8093079101605 265.290701182551 2985.63295618535 16 23 16
78.8544417127035 266.309593446945 2998.32452415754 48 55 48
259.572494139303 237.376757657868 2828.81340004317 41 40 35
266.499797430637 238.589059788104 2843.01029887886 13 18 11
262.254300229892 239.255447878306 2848.54489565018 23 30 22
261.230265385589 240.074027704952 2856.52567607829 20 23 16
240.878077415581 239.978526588532 2849.82651052781 18 21 14
267.324499333822 242.080586512874 2878.51765656919 17 20 13
257.470022767982 242.476397103829 2879.74266525222 20 23 16
226.480969028479 241.906376750615 2865.25536373226 22 25 18
231.182251146378 242.979981637169 2877.43216809671 20 23 16
254.69673398996 244.893334368559 2903.39468870908 22 25 18
256.266289867967 245.803315213381 2913.0375519742 23 26 19
229.995474917672 245.47546348264 2902.33097091984 23 26 19
225.811147259378 246.133196678849 2907.80610462081 23 26 19
228.220503922282 247.07670744772 2918.02698690158 23 26 19
236.445050032966 248.264593267479 2932.35656032061 21 24 15
242.249841518261 249.338647289672 2944.85474434803 18 21 12
230.687205452317 249.669509250541 2944.95176140962 19 22 13
220.757144156451 250.07366912118 2946.25059282702 22 25 16
213.304745850003 250.584360519972 2949.32438875115 20 23 14
213.359250295749 251.405579113833 2957.65102087157 16 19 10
225.996051674424 252.735559336461 2974.66304252427 19 22 13
223.610330562044 253.445408881444 2981.17824919871 25 28 19
209.461980621355 253.682653219195 2979.60568921046 26 29 20
199.486919225821 254.092014316806 2980.94843765298 24 27 18
184.419715688015 254.30511794323 2978.8746336967 17 20 11
176.929077913301 254.820114057366 2981.98576574305 17 20 11
161.788404166848 255.042260342181 2979.98392013108 17 20 11
153.408203451671 255.529542834259 2982.56558807099 18 21 12
150.129417146352 256.211808981122 2988.55445133843 19 25 15
125.493558520298 256.093894840069 2980.44437159608 21 26 19
129.893076923106 257.065450501452 2991.51934314568 22 27 20
130.901818420568 257.905625087547 3000.31251139788 27 32 25
109.567201658979 257.92999433467 2994.57119537302 24 29 22
82.9858105578021 257.777305111949 2985.56404140318 28 33 26
59.7659459061455 257.759537027178 2978.86721364606 31 38 31
77.1785586331566 259.186385766846 2998.20768917847 26 33 26
35.2170842737696 212.545032820282 2596.15969141031 181 168 160
46.0661342443602 214.157220424917 2614.90560435324 26 8 4
68.0661713225033 216.355546682533 2642.3295351936 30 17 11
246.391653456281 228.711917116155 2810.59155013651 32 33 27
265.757745552012 231.519710241085 2843.37510482188 6 11 5
266.323693919458 232.436462963833 2852.59665498271 15 22 15
241.182564618732 232.040096939856 2842.19531507884 18 23 16
248.191891325884 233.282822620831 2856.30660470458 17 20 13
256.068352085161 234.558536647918 2870.96885105252 17 20 13
247.806915551065 235.022355516872 2873.43605231821 22 25 18
214.359024902194 234.249255388793 2857.16902366244 23 26 19
206.008135641318 234.723982640137 2859.72344055402 26 29 22
256.385163168215 238.042503369902 2905.56442204065 26 29 22
248.144733339344 238.503320196922 2908.011207038 22 25 18
230.052559513888 238.497945381361 2903.30555920008 20 23 16
223.402986592697 239.042628216253 2906.99436088901 21 24 17
234.042796244043 240.396730862439 2923.15204092881 23 26 19
230.72234605196 241.090912881632 2929.18051589098 21 24 15
229.893236114412 241.898056336947 2936.96976113785 19 22 13
224.10757095049 242.475867179666 2941.21236482354 20 23 14
210.005275045901 242.678499402662 2939.59918815209 22 25 16
201.694422686312 243.147412771695 2942.11470709811 20 23 14
207.568427738058 244.248137362173 2954.54021913252 14 17 8
228.563108292601 246.005268165424 2977.35971724533 18 21 12
212.756950673406 246.137646517149 2974.61472745825 23 26 17
196.060404003512 246.239761793945 2971.34147071241 21 24 15
181.839533140915 246.456752586212 2969.84391853685 19 22 13
168.421808551868 246.714739431978 2968.95968035789 17 20 11
163.43510384817 247.33355974354 2973.8200904739 19 22 13
155.902827289689 247.846080171714 2976.97293635338 19 22 13
153.464331581351 248.570749975539 2983.53835855397 19 22 13
125.457785388238 248.246759077494 2973.13756649345 19 22 13
111.876289971634 248.524816892227 2972.41298868678 18 23 16
133.375492769806 250.218891816082 2994.74114622688 18 23 16
118.939069925436 250.46224383497 2993.45340633589 20 25 18
101.019574448515 250.574988523818 2989.97607549376 26 31 24
63.2088476688528 249.919597488198 2973.77294446283 27 32 25
38.2164148232427 249.784231432627 2966.01952757697 36 41 35
64.2421795104924 251.620039916414 2990.91667851867 20 27 20
32.9238145188842 204.458886682144 2595.38100525035 139 121 111
37.4571383330364 205.764537460495 2609.10754557154 104 81 73
42.0419726218997 207.063591329595 2622.78391025018 37 20 12
197.869097609912 218.859500685195 2773.79346085417 19 22 15
221.3682153133 221.109421635791 2801.13840395981 24 23 19
255.412211982551 223.915116851966 2836.35115567496 13 19 15
235.093944634492 223.713795182974 2829.63394667691 13 20 13
250.087649775714 225.441032465773 2849.91512658682 24 29 22
254.69927685474 226.591955395782 2862.16953215715 26 29 22
305.419324409162 230.196042732537 2909.04493022559 28 31 24
243.814675997635 227.803215875576 2871.38216862458 28 31 24
228.221130496625 227.87564323995 2868.4349125909 26 29 22
242.692543601788 229.523646122057 2887.82919986362 21 24 17
254.810673403779 231.033325912706 2905.33004838366 21 24 17
242.47731570762 231.274573639186 2904.78840120241 19 22 15
244.04553129008 232.228782238338 2914.42639640004 16 19 12
248.110439931032 233.303301190532 2925.8180846182 18 21 14
239.864941199314 233.75414264453 2928.27137746678 20 23 16
237.383609677455 234.493500173453 2934.87716542408 18 21 12
231.60472432927 235.068311321608 2939.11348000607 17 20 11
224.164177154842 235.562434790634 2942.1779563137 17 20 11
217.544308010523 236.098110024714 2945.83859303256 19 22 13
206.751061021452 236.434493423262 2946.5876886188 19 22 13
190.084787802364 236.495691783303 2943.29007954922 21 24 15
202.666482540562 237.94688762138 2960.33924513751 24 27 18
196.030696336678 238.484236049785 2964.01510259244 25 28 19
183.500750291558 238.749065371471 2963.66518519834 22 25 16
174.309026067331 239.173277371507 2965.64512045272 20 23 14
166.788552499264 239.676835546441 2968.78757040535 23 26 17
161.797846403815 240.296683645348 2973.651802056 21 24 15
149.169030284198 240.57358644243 2973.39827965306 20 23 14
135.655546847334 240.816829138667 2972.61131060441 20 23 14
113.577704224925 240.688715855498 2966.21365637992 19 22 13
122.188700123223 241.915098433458 2980.15378964303 16 21 14
130.005971146972 243.096547819341 2993.47183522842 16 21 14
123.28823851343 243.643637209014 2997.22762698956 27 32 25
67.5784442219185 242.956580822765 2977.54822358597 24 29 22
46.9173075731324 242.939298685805 2972.56119722734 41 46 40
52.1732227634644 244.008233971619 2984.18827075881 39 46 39
33.2180561294697 195.446203633751 2586.50184869187 161 149 135
32.2044263251735 196.452967619038 2595.86173038468 120 100 89
32.0036304877931 197.50484304894 2605.82469779836 92 67 60
67.4067248742172 200.71435010928 2643.87922797015 42 25 15
211.912469446027 211.430988872509 2776.53313184435 10 21 7
217.043958501379 212.697091835356 2789.67153038838 20 23 16
195.88132776002 212.403743409674 2782.38947891859 8 7 3
217.057277847656 214.601131393228 2807.79806036383 26 27 22
261.627166184433 218.132974598968 2850.87229419444 23 30 23
263.817489646156 219.178975354863 2861.29586954856 31 34 27
275.716943489869 220.773494493093 2879.00098946728 31 34 27
294.971403665264 222.770280409131 2902.09622190304 31 34 27
259.263155232905 221.651130072092 2883.8741800571 29 32 25
242.894848313585 221.638898961147 2880.29187673284 26 29 22
259.842276724623 223.483281075453 2901.44948523499 20 23 16
250.788929044195 223.878201446114 2903.29600198383 22 25 18
243.352635103517 224.364638757233 2906.35739077825 23 26 19
249.020970506773 225.562680410418 2918.97275239461 23 26 19
247.345905185569 226.356883352347 2926.18704712747 25 28 21
239.098335509237 226.797598292958 2928.64355530694 26 29 22
238.266036029571 227.633161404419 2936.4317674035 30 33 24
232.489251495775 228.205512827049 2940.6666972341 27 30 21
228.368170909288 228.864558610776 2946.07849381595 26 29 20
220.095282374584 229.30817225595 2948.56005341079 30 33 24
214.307469513508 229.881661652658 2952.80542849934 33 36 27
199.329568356951 229.98831857112 2950.65901657729 28 31 22
191.840284053407 230.480640080303 2953.77215590348 29 32 23
191.052931628186 231.310115044186 2961.5162968941 21 24 15
175.147492587496 231.385595716736 2958.87830447834 15 18 9
176.894933466888 232.338792709929 2968.3384758216 13 16 7
187.968088364522 233.741880901477 2984.0585975836 22 25 16
162.701693930184 233.371609191472 2975.19470039868 29 32 23
134.797229073847 232.890395335994 2964.71611538814 23 26 17
116.146795525401 232.867976743641 2960.56734677051 20 23 14
98.2881464245695 232.893428122018 2957.04249649062 20 23 14
115.409625706864 234.568514781104 2976.63538238129 24 27 20
116.358992561611 235.474310376145 2985.47781177496 26 29 22
127.637337090582 236.851610532173 3000.99765081818 21 26 19
111.458560286334 236.9607185426 2998.62645457845 26 31 24
77.9840911100225 236.293857993468 2985.20393526539 24 29 23
78.9525883005235 237.197221496704 2994.02806525695 38 43 37
73.8856909262267 237.826733685766 2998.96652762551 36 41 35
83.5771883083822 239.108629502494 3013.24241142768 51 58 51
43.4871288028775 188.137902842225 2595.80584388601 120 107 91
40.1386025074943 189.004510574759 2603.25396154839 119 95 83
43.1113728858388 190.277249779803 2615.70086233928 64 39 32
