ply
format ascii 1.0
comment KinectMotionCapture
element vertex 798
property float x
property float y
property float z
property uchar red
property uchar green
property uchar blue
end_header
-17.0608423650265 57.8551553189754 2693.00007820129 17 20 11
-9.71097312867641 57.8767843544483 2694.00000572205 18 21 12
-2.35123280435801 57.7909201383591 2690.00005722046 17 20 11
4.9551110714674 57.339746505022 2668.99991035461 17 20 11
12.2614279389381 57.4255920946598 2673.00009727478 17 20 11
19.7944324463606 58.1128783524036 2704.99992370605 17 20 11
27.4820160120726 58.7571263313293 2734.99989509583 16 19 10
34.9882878363132 58.8212348520756 2737.99991607666 16 19 10
42.3557050526142 58.6704276502132 2730.99994659424 16 19 10
49.5205633342266 58.3261959254742 2714.99991416931 18 21 12
56.6817261278629 58.067824691534 2703.00006866455 17 20 11
63.9904215931892 58.0027140676975 2700.00004768372 14 17 8
72.0489546656609 58.5605129599571 2726.0000705719 14 17 10
78.7911266088486 58.0441206693649 2701.99990272522 13 16 9
85.9121829271317 57.8713677823544 2694.00000572205 14 17 10
94.2701548337936 58.4933459758759 2723.00004959106 15 18 11
103.645078837872 59.6092790365219 2775.00009536743 15 17 12
111.980862915516 60.0162409245968 2793.99991035461 13 15 10
119.17844414711 59.8001815378666 2783.99991989136 6 8 3
127.277255058289 60.03512814641 2795.00007629395 9 12 5
134.856373071671 60.0122287869453 2793.99991035461 10 13 6
142.684489488602 60.0966513156891 2798.00009727478 11 14 7
150.641232728958 60.2239333093166 2803.99990081787 11 14 7
158.065631985664 60.1363591849804 2799.99995231628 9 12 5
166.059374809265 60.2634884417057 2805.99999427795 9 12 5
174.828052520752 60.6482289731503 2823.99988174438 10 13 6
180.785655975342 60.0664876401424 2796.99993133545 10 13 6
184.709072113037 58.8834099471569 2742.00010299683 11 14 7
196.111768484116 60.0839406251907 2798.00009727478 12 15 8
206.217125058174 60.8119033277035 2832.00001716614 12 15 8
211.067914962769 59.9937215447426 2793.99991035461 17 20 11
217.589199542999 59.6908591687679 2779.99997138977 15 18 9
225.329235196114 59.7314722836018 2782.00006484985 17 20 11
236.930400133133 60.7596039772034 2829.99992370605 17 20 11
244.642913341522 60.7570856809616 2829.99992370605 17 20 13
256.545543670654 61.7634877562523 2877.00009346008 19 22 15
-93.7158614397049 52.2409081459045 2786.00001335144 6 9 2
-86.2032622098923 52.29801684618 2789.00003433228 13 16 9
-78.2794281840324 52.0925335586071 2778.00011634827 12 15 8
-70.8479285240173 52.205752581358 2783.99991989136 12 15 6
-63.0653351545334 52.0563796162605 2776.00002288818 15 18 9
-54.9463853240013 51.5506267547607 2749.00007247925 17 20 11
-46.8883663415909 50.9510301053524 2717.00000762939 17 20 11
-39.3680669367313 50.8201755583286 2710.00003814697 15 18 9
-32.2043336927891 51.1955730617046 2730.00001907349 15 18 9
-24.5867427438498 50.8582890033722 2711.99989318848 15 18 9
-17.2257348895073 50.9897619485855 2719.00010108948 17 20 11
-9.77595616132021 50.8586168289185 2711.99989318848 18 21 12
-2.34950869344175 50.4086017608643 2687.99996376038 18 21 12
4.9570188857615 50.0710308551788 2670.00007629395 18 21 12
12.1789835393429 49.7896485030651 2654.99997138977 17 20 11
19.794637337327 50.727155059576 2704.99992370605 17 20 11
27.4822954088449 51.2895174324512 2734.99989509583 17 20 11
35.0269824266434 51.4017343521118 2740.9999370575 16 19 10
42.2010459005833 51.026314496994 2720.99995613098 16 19 10
49.5028309524059 50.8946105837822 2713.99998664856 17 20 11
56.9129772484303 50.8941002190113 2713.99998664856 17 20 11
64.5598843693733 51.0810352861881 2723.99997711182 14 17 8
71.1774826049805 50.4990741610527 2693.00007820129 14 17 10
78.6169841885567 50.5546182394028 2696.00009918213 15 18 11
85.9449580311775 50.5350865423679 2694.9999332428 15 18 11
94.5134609937668 51.1905178427696 2730.00001907349 15 18 11
102.45094448328 51.4333471655846 2743.00003051758 15 17 12
112.182401120663 52.4823591113091 2799.00002479553 12 14 9
120.078660547733 52.5937639176846 2805.0000667572 5 7 2
126.276716589928 51.9925951957703 2773.00000190735 10 13 6
135.436937212944 52.6100918650627 2805.99999427795 10 13 6
142.991870641708 52.571278065443 2803.99990081787 10 13 6
151.394918560982 52.8323762118816 2818.00007820129 10 13 6
158.405944705009 52.6059381663799 2805.99999427795 9 12 5
166.652843356133 52.7918860316277 2815.99998474121 9 12 5
174.891725182533 52.959006279707 2825.00004768372 11 14 7
181.369200348854 52.6011697947979 2805.99999427795 11 14 7
187.54018843174 52.1870404481888 2783.99991989136 11 14 7
192.819461226463 51.5666864812374 2750.99992752075 12 15 8
203.816190361977 52.4645783007145 2799.00002479553 13 16 9
211.447760462761 52.4626597762108 2799.00002479553 16 19 10
223.148554563522 53.4352883696556 2851.0000705719 14 17 8
231.082156300545 53.470678627491 2852.9999256134 15 18 9
236.430406570435 52.925031632185 2823.99988174438 16 19 10
254.497051239014 53.4827560186386 2854.00009155273 18 21 14
-94.5576578378677 45.0350753962994 2811.00010871887 4 7 0
-86.6367444396019 44.9076481163502 2802.99997329712 13 16 9
-69.5506855845451 43.7874086201191 2733.00004005432 13 16 7
-63.1794705986977 44.5570014417171 2780.99989891052 14 17 8
-55.0468116998672 44.1248901188374 2753.99994850159 16 19 10
-46.7507168650627 43.4043072164059 2709.00011062622 18 21 12
-39.7897064685822 43.8853353261948 2739.00008201599 17 20 11
-32.3697738349438 43.9657382667065 2743.99995803833 16 19 10
-24.7320178896189 43.7096133828163 2727.9999256134 16 19 10
-17.2575656324625 43.6456948518753 2723.99997711182 17 20 11
-9.82290599495173 43.6618290841579 2724.99990463257 18 21 12
-2.36438889987767 43.3414243161678 2704.99992370605 19 22 13
4.97934129089117 42.9728887975216 2681.99992179871 19 22 13
12.2662503272295 42.8446382284164 2674.00002479553 20 23 14
19.641138613224 43.0047325789928 2684.00001525879 20 23 14
27.3117199540138 43.5493104159832 2717.99993515015 19 22 13
34.7589366137981 43.5811020433903 2720.00002861023 19 22 13
42.0618318021297 43.4526018798351 2711.99989318848 17 20 11
49.448549747467 43.4362068772316 2710.99996566772 17 20 11
57.3748275637627 43.8363254070282 2736.00006103516 17 20 11
64.1575530171394 43.3711968362331 2707.00001716614 17 20 11
71.4688524603844 43.3225780725479 2703.9999961853 17 20 13
78.4135386347771 43.0816411972046 2688.99989128113 17 20 13
86.0095024108887 43.20914670825 2697.00002670288 15 18 11
95.3451842069626 44.1216044127941 2753.99994850159 15 18 11
105.402529239655 45.2102012932301 2822.00002670288 12 14 9
112.463943660259 44.9529886245728 2805.99999427795 8 10 5
120.464980602264 45.0802035629749 2813.99989128113 8 10 5
128.554731607437 45.2233776450157 2822.99995422363 10 13 6
134.714126586914 44.7096936404705 2790.99988937378 11 14 7
151.557415723801 45.1879501342773 2821.00009918213 11 14 7
158.350884914398 44.9304170906544 2805.0000667572 10 13 6
166.121676564217 44.9611470103264 2806.99992179871 11 14 7
172.354966402054 44.5913933217525 2783.99991989136 13 16 9
180.78900873661 44.7982028126717 2796.99993133545 13 16 9
186.800822615623 44.4123484194279 2773.00000190735 15 18 11
195.414483547211 44.6510650217533 2788.00010681152 16 19 12
203.817948698997 44.8256470263004 2799.00002479553 16 19 12
211.147397756577 44.7599515318871 2795.00007629395 14 17 8
221.898108720779 45.3987941145897 2835.00003814697 14 17 8
230.760142207146 45.6212013959885 2848.99997711182 14 17 8
236.516132950783 45.235063880682 2825.00004768372 15 18 9
245.511844754219 45.4733595252037 2839.99991416931 17 20 13
245.849460363388 44.1424958407879 2756.99996948242 18 21 14
-94.3565368652344 37.2805371880531 2805.0000667572 19 22 15
-86.1119329929352 37.0286144316196 2786.00001335144 13 16 9
-76.7308697104454 36.1918322741985 2723.00004959106 13 16 9
-69.2967176437378 36.1923240125179 2723.00004959106 13 16 7
-62.7710223197937 36.724429577589 2763.00001144409 14 17 8
-55.4669760167599 36.8843302130699 2775.00009536743 16 19 10
-47.0789633691311 36.2599641084671 2727.9999256134 18 21 12
-39.6156720817089 36.2469665706158 2726.99999809265 17 20 11
-32.134085893631 36.2073369324207 2723.99997711182 16 19 10
-24.7775353491306 36.3271646201611 2733.00004005432 15 18 9
-17.3020418733358 36.3007187843323 2730.99994659424 16 19 10
-9.84821375459433 36.3141037523746 2732.00011253357 17 20 11
-2.38975510001183 36.3407246768475 2733.99996757507 18 21 12
5.02950698137283 36.0084138810635 2709.00011062622 18 21 12
12.3580871149898 35.808976739645 2694.00000572205 19 22 13
19.6778737008572 35.7424020767212 2688.99989128113 19 22 13
27.1009057760239 35.8485840260983 2697.00002670288 18 21 12
34.6825234591961 36.074336618185 2713.99998664856 18 21 12
42.1086773276329 36.0873676836491 2714.99991416931 16 19 10
49.7225224971771 36.233264952898 2726.0000705719 16 19 10
57.4381686747074 36.4056974649429 2739.00008201599 16 19 10
64.2291307449341 36.0198244452477 2710.00003814697 16 19 10
71.5486779808998 35.9794907271862 2707.00001716614 16 19 12
79.2889595031738 36.138478666544 2719.00010108948 15 18 11
87.4452367424965 36.4436060190201 2742.00010299683 14 17 10
95.9344506263733 36.8284173309803 2770.99990844727 14 17 10
105.14185577631 37.4125242233276 2815.00005722046 11 13 8
112.54495382309 37.3187623918056 2808.00008773804 6 8 3
120.765551924706 37.490751594305 2821.00009918213 5 7 2
128.828927874565 37.5962257385254 2828.9999961853 10 13 6
137.6111805439 37.8876999020576 2851.0000705719 11 14 7
144.37110722065 37.6209765672684 2831.00008964539 12 15 8
150.913834571838 37.3276323080063 2809.00001525879 11 14 7
157.731056213379 37.1272787451744 2793.99991035461 11 14 7
164.880082011223 37.0199009776115 2786.00001335144 12 15 8
173.161044716835 37.1649377048016 2796.99993133545 13 16 9
178.980514407158 36.7917343974113 2769.00005340576 14 17 10
186.60007417202 36.8038080632687 2769.99998092651 15 18 11
198.499947786331 37.626288831234 2832.00001716614 15 18 11
205.421447753906 37.4788157641888 2821.00009918213 16 19 12
212.055429816246 37.2914485633373 2806.99992179871 14 17 8
221.430093050003 37.5822968780994 2828.9999961853 14 17 8
230.5998057127 37.8199368715286 2846.99988365173 15 18 9
240.369081497192 38.1372198462486 2871.00005149841 16 19 10
255.384832620621 36.9103886187077 2779.00004386902 16 19 12
-86.8851840496063 29.6858195215464 2811.00010871887 12 15 8
-76.6467899084091 28.7252347916365 2720.00002861023 12 15 8
-69.7806626558304 28.9579685777426 2742.00010299683 14 17 8
-62.3624660074711 28.9900060743093 2744.99988555908 15 18 9
-54.627813398838 28.8635920733213 2733.00004005432 17 20 11
-47.2345687448978 28.9061088114977 2736.99998855591 17 20 11
-39.7030785679817 28.8640987128019 2733.00004005432 15 21 11
-32.1342796087265 28.7692416459322 2723.99997711182 14 20 10
-24.7867535799742 28.8750100880861 2733.99996757507 14 20 10
-17.3211544752121 28.8751218467951 2733.99996757507 15 21 11
-9.83385369181633 28.8118273019791 2727.9999256134 16 22 12
-2.37403623759747 28.6851227283478 2716.00008010864 15 21 11
5.04253432154655 28.6851152777672 2716.00008010864 15 21 11
12.3673379421234 28.4738373011351 2696.00009918213 16 22 12
19.6194499731064 28.3153261989355 2680.99999427795 16 22 12
26.9503388553858 28.3257607370615 2681.99992179871 15 21 11
34.452710300684 28.4734573215246 2696.00009918213 15 21 11
41.9848561286926 28.5894256085157 2707.00001716614 16 19 10
49.4857057929039 28.6525450646877 2713.00005912781 15 18 9
57.4385188519955 28.9268493652344 2739.00008201599 15 18 9
65.2249604463577 29.0638096630573 2752.00009346008 14 17 8
72.4213346838951 28.9367083460093 2740.00000953674 14 17 10
79.2019590735435 28.68284098804 2716.00008010864 14 17 10
86.6803750395775 28.7035182118416 2717.99993515015 12 15 8
94.9310213327408 28.9564821869135 2742.00010299683 11 14 7
103.76051813364 29.3361190706491 2778.00011634827 8 10 5
113.14682662487 29.8107378184795 2822.99995422363 4 6 1
120.252549648285 29.6622775495052 2809.00001525879 7 9 4
128.966316580772 29.9044828861952 2832.00001716614 10 13 6
137.612000107765 30.1044024527073 2851.0000705719 11 14 7
144.728943705559 29.9663823097944 2838.00005912781 12 15 8
149.517863988876 29.3848626315594 2782.99999237061 11 14 7
156.998082995415 29.3629337102175 2780.99989891052 11 14 7
164.999440312386 29.4359903782606 2788.00010681152 12 15 8
173.471629619598 29.5829046517611 2802.00004577637 14 17 10
181.243866682053 29.6030845493078 2803.99990081787 14 17 10
189.430505037308 29.6865683048964 2812.00003623962 14 17 10
204.257562756538 29.610613361001 2805.0000667572 14 17 10
221.66620194912 29.8934001475573 2832.00001716614 15 18 9
232.788100838661 30.3355474025011 2874.00007247925 16 19 10
239.114627242088 30.1443357020617 2855.99994659424 17 20 11
247.330486774445 30.1958546042442 2861.00006103516 18 21 12
260.120451450348 30.7855755090714 2917.00005531311 19 22 15
262.921988964081 30.1932319998741 2861.00006103516 24 27 20
-77.3516222834587 21.494148299098 2744.99988555908 12 15 8
-47.3556034266949 21.4873142540455 2743.99995803833 17 20 11
-39.6742112934589 21.3856920599937 2730.99994659424 17 23 13
-32.2877876460552 21.4328188449144 2736.99998855591 16 22 12
-24.7143395245075 21.3467963039875 2726.0000705719 15 21 11
-17.3022281378508 21.3860329240561 2730.99994659424 16 22 12
-9.76540986448526 21.213810890913 2709.00011062622 17 23 13
-2.36093578860164 21.1511850357056 2700.99997520447 16 22 12
5.02956146374345 21.2138295173645 2709.00011062622 16 22 12
12.459141202271 21.2686099112034 2716.00008010864 16 22 12
19.692724570632 21.0727751255035 2690.99998474121 16 22 12
26.8097836524248 20.8925697952509 2667.99998283386 16 22 12
34.2100635170937 20.9629256278276 2677.00004577637 16 22 12
41.8144501745701 21.1115572601557 2696.00009918213 17 20 11
49.6136136353016 21.2993081659079 2720.00002861023 16 19 10
65.4148757457733 21.612074226141 2759.99999046326 15 18 9
72.6595595479012 21.5256623923779 2749.00007247925 14 17 10
79.9605324864388 21.4705467224121 2742.00010299683 14 17 10
87.956428527832 21.5954929590225 2757.99989700317 12 15 8
95.79698741436 21.6655973345041 2766.99995994568 11 14 7
105.329729616642 22.0801830291748 2819.9999332428 7 9 4
112.987034022808 22.0719203352928 2819.00000572205 4 6 1
120.724022388458 22.079287096858 2819.9999332428 8 10 5
128.238290548325 22.0474768429995 2815.99998474121 9 12 5
136.550739407539 22.148733958602 2828.9999961853 10 13 6
141.975775361061 21.7958763241768 2783.99991989136 11 14 7
149.088770151138 21.7248424887657 2775.00009536743 10 13 6
155.700385570526 21.5911567211151 2757.99989700317 10 13 6
164.822638034821 21.801894530654 2785.00008583069 10 13 6
174.463003873825 22.0595616847277 2818.00007820129 14 17 10
182.602107524872 22.1136603504419 2825.00004768372 14 17 10
189.364016056061 22.0033470541239 2811.00010871887 14 17 10
197.590813040733 22.0652129501104 2819.00000572205 14 17 10
204.040020704269 21.9313707202673 2802.00004577637 14 17 10
212.284311652184 21.9931807368994 2809.99994277954 15 18 9
221.510633826256 22.148871794343 2829.99992370605 15 18 9
240.622758865356 22.4914494901896 2874.00007247925 16 19 10
250.357300043106 22.6626731455326 2895.99990844727 17 20 11
257.000535726547 22.5521493703127 2881.99996948242 19 22 15
-87.2876942157745 14.4016211852431 2823.99988174438 9 12 5
-78.2254338264465 14.1570474952459 2776.00002288818 12 15 8
-62.9309341311455 14.1268158331513 2769.99998092651 16 19 10
-55.4677620530128 14.1524709761143 2775.00009536743 16 19 10
-47.666396945715 14.0863042324781 2762.00008392334 16 19 10
-39.645291864872 13.9181166887283 2729.00009155273 17 23 13
-32.2053171694279 13.9233097434044 2730.00001907349 16 22 12
-24.6600229293108 13.8723831623793 2720.00002861023 16 22 12
-17.1248931437731 13.7857347726822 2703.00006866455 17 23 13
-9.70055442303419 13.7245673686266 2690.99998474121 18 24 14
-2.34958040527999 13.7092834338546 2687.99996376038 16 22 12
5.00729866325855 13.7551818042994 2697.00002670288 16 22 12
12.3766111209989 13.7602584436536 2697.99995422363 17 23 13
19.7952389717102 13.7959169223905 2704.99992370605 17 23 13
26.9907508045435 13.6989541351795 2686.00010871887 16 22 12
34.2612937092781 13.6733725667 2680.99999427795 16 22 12
41.8766252696514 13.7701751664281 2700.00004768372 18 21 12
49.7961863875389 13.9230573549867 2730.00001907349 17 20 11
57.0824705064297 13.8821173459291 2721.99988365173 17 20 11
64.3722414970398 13.8513604179025 2716.00008010864 15 18 9
72.3954886198044 13.9684798195958 2739.00008201599 15 18 11
80.1649168133736 14.0192797407508 2749.00007247925 15 18 11
87.66970038414 14.0190627425909 2749.00007247925 12 15 8
96.8359485268593 14.2636056989431 2796.99993133545 10 13 6
105.068624019623 14.3449380993843 2812.99996376038 6 8 3
118.969209492207 14.1709791496396 2779.00004386902 9 11 6
128.14761698246 14.3491327762604 2813.99989128113 8 11 4
136.261567473412 14.3946846947074 2822.99995422363 10 13 6
144.067123532295 14.4045222550631 2825.00004768372 11 14 7
149.572759866714 14.1950901597738 2783.99991989136 10 13 6
157.112240791321 14.189600944519 2782.99999237061 9 12 5
164.941519498825 14.2095806077123 2786.99994087219 10 13 6
174.27784204483 14.3519062548876 2815.00005722046 13 16 9
183.184444904327 14.4483186304569 2834.00011062622 13 16 9
191.789776086807 14.5141175016761 2846.99988365173 13 16 9
198.292389512062 14.4218606874347 2828.9999961853 14 17 10
205.642700195313 14.3958600237966 2823.99988174438 14 17 10
214.551359415054 14.4768934696913 2839.99991416931 14 17 8
223.624736070633 14.5629970356822 2857.00011253357 15 18 9
231.574922800064 14.5726194605231 2858.99996757507 15 18 9
237.525716423988 14.4598986953497 2836.99989318848 16 19 10
251.741290092468 14.8415481671691 2911.99994087219 17 20 11
256.287932395935 14.6472472697496 2874.00007247925 19 22 15
-88.7715071439743 6.80449837818742 2871.99997901917 0 2 0
-77.2956684231758 6.49896264076233 2743.00003051758 12 15 8
-71.1556002497673 6.6246259957552 2796.0000038147 13 16 9
-63.180960714817 6.58916682004929 2780.99989891052 16 19 10
-55.3479343652725 6.56080665066838 2769.00005340576 16 19 10
-47.2350381314754 6.48504728451371 2736.99998855591 16 19 10
-39.8342236876488 6.49694819003344 2742.00010299683 19 22 13
-31.9812409579754 6.42353901639581 2710.99996566772 18 21 12
-24.6600713580847 6.44489843398333 2720.00002861023 15 21 11
-17.2072872519493 6.43544597551227 2716.00008010864 16 22 12
-9.78708826005459 6.43309252336621 2714.99991416931 17 23 13
-2.37318547442555 6.43309997394681 2714.99991416931 16 22 12
5.02587482333183 6.4141433686018 2707.00001716614 16 22 12
12.3812202364206 6.39517651870847 2698.99988174438 17 23 13
19.7733230888844 6.40226481482387 2701.99990272522 17 23 13
27.2018257528543 6.41408422961831 2707.00001716614 16 22 12
34.6447378396988 6.4235245808959 2710.99996566772 16 22 12
49.6685951948166 6.45185494795442 2723.00004959106 17 20 11
56.9567568600178 6.43520476296544 2716.00008010864 16 19 10
64.206451177597 6.41854619607329 2709.00011062622 15 18 9
79.0860876441002 6.42548082396388 2711.99989318848 14 17 10
104.882076382637 6.65259454399347 2808.00008773804 5 7 2
111.745119094849 6.6050817258656 2788.00010681152 3 5 2
119.012244045734 6.58599054440856 2779.99997138977 9 11 6
128.830954432487 6.70192437246442 2828.9999961853 9 12 5
136.551439762115 6.70176511630416 2828.9999961853 11 14 7
142.792448401451 6.63289986550808 2799.99995231628 12 15 8
151.077374815941 6.66115107014775 2812.00003623962 11 14 7
161.459520459175 6.7746676504612 2859.99989509583 10 13 6
168.729528784752 6.75315270200372 2851.0000705719 11 14 7
182.667687535286 6.69352104887366 2825.99997520447 12 15 8
191.049098968506 6.71698478981853 2835.99996566772 13 16 9
198.362857103348 6.7025450989604 2829.99992370605 14 17 10
204.987689852715 6.66678277775645 2815.00005722046 15 18 11
211.983174085617 6.64522452279925 2805.99999427795 16 19 10
221.433490514755 6.69943867251277 2828.9999961853 16 19 10
231.575340032578 6.77021685987711 2858.99996757507 17 20 11
243.303120136261 6.8812370300293 2905.99989891052 18 21 12
247.851505875587 6.78860442712903 2867.00010299683 19 22 13
255.03996014595 6.77173957228661 2859.99989509583 20 23 16
264.94625210762 6.82589644566178 2882.99989700317 16 19 12
-87.4424502253532 -1.02190673351288 2828.9999961853 6 11 5
-77.8311192989349 -0.997719704173505 2762.00008392334 10 15 9
-70.2903717756271 -0.997733324766159 2762.00008392334 16 19 12
-62.8856495022774 -0.999912968836725 2767.99988746643 17 20 13
-55.2280284464359 -0.998117728158832 2763.00001144409 18 21 14
-47.6837754249573 -0.998127274215221 2763.00001144409 17 20 13
-39.2386168241501 -0.975737755652517 2700.99997520447 19 20 12
-31.7807085812092 -0.973215559497476 2694.00000572205 19 20 12
-24.4243629276752 -0.973220798186958 2694.00000572205 19 20 12
-17.2896571457386 -0.985868624411523 2729.00009155273 19 20 12
-9.84116736799479 -0.986232422292233 2730.00001907349 18 21 12
-2.38542421720922 -0.985872349701822 2729.00009155273 18 24 14
5.0574392080307 -0.98406570032239 2723.99997711182 18 24 14
12.3904021456838 -0.97575515974313 2700.99997520447 18 24 14
19.7806525975466 -0.976474781055003 2703.00006866455 17 23 13
27.3324698209763 -0.982611672952771 2720.00002861023 16 24 13
35.1048111915588 -0.99235970992595 2746.99997901917 17 23 13
41.9852994382381 -0.977902673184872 2707.00001716614 19 22 11
49.7780628502369 -0.985841499641538 2729.00009155273 17 20 9
57.2294108569622 -0.985831720754504 2729.00009155273 16 19 8
64.3012970685959 -0.980040640570223 2713.00005912781 14 17 8
71.1005181074142 -0.971719739027321 2690.00005722046 12 15 8
87.3828902840614 -0.989752006717026 2740.00000953674 10 12 7
105.703845620155 -1.02222617715597 2829.99992370605 6 8 5
112.707115709782 -1.0157044744119 2812.00003623962 7 9 8
120.596282184124 -1.01748900488019 2816.99991226196 7 9 6
129.240870475769 -1.02505122777075 2838.00005912781 10 12 7
136.454969644547 -1.02105387486517 2826.99990272522 10 13 6
142.690539360046 -1.01055449340492 2798.00009727478 11 14 7
151.668429374695 -1.0195568902418 2822.99995422363 11 14 7
160.838603973389 -1.02891854476184 2848.99997711182 11 14 7
170.386716723442 -1.03972293436527 2878.99994850159 11 14 7
173.968687653542 -1.01477350108325 2809.99994277954 13 16 9
181.698203086853 -1.01510260719806 2811.00010871887 12 15 8
190.577670931816 -1.02156901266426 2828.9999961853 12 15 8
198.573231697083 -1.02297845296562 2832.99994468689 13 16 9
202.730372548103 -1.00524921435863 2783.99991989136 14 17 10
209.79243516922 -1.00268481764942 2776.99995040894 17 20 11
218.459248542786 -1.00770161952823 2790.99988937378 16 19 10
239.954262971878 -1.03469821624458 2865.9999370575 16 19 10
248.110979795456 -1.03609927464277 2869.99988555908 16 19 10
254.059135913849 -1.02847395464778 2848.99997711182 17 20 13
268.162876367569 -1.05333607643843 2917.99998283386 18 21 14
-87.7514779567719 -8.77734739333391 2838.99998664856 0 5 0
-78.7046030163765 -8.63525830209255 2792.99998283386 9 14 7
-69.1705569624901 -8.40349216014147 2717.99993515015 16 19 12
-62.7038404345512 -8.53345263749361 2759.99999046326 18 21 14
-55.0081133842468 -8.50881170481443 2752.00009346008 18 21 14
-46.9243824481964 -8.4068588912487 2719.00010108948 18 21 14
-39.572712033987 -8.42238683253527 2723.99997711182 18 19 11
-31.7688845098019 -8.32659378647804 2693.00007820129 18 19 11
-24.3699420243502 -8.31117853522301 2687.99996376038 18 21 12
-17.2199513763189 -8.40396992862225 2717.99993515015 18 21 12
-9.86999552696943 -8.46583116799593 2737.99991607666 19 22 13
-2.38629640080035 -8.44110455363989 2730.00001907349 20 23 14
5.06486184895039 -8.43491870909929 2727.9999256134 20 23 14
12.4500272795558 -8.39161686599255 2713.99998664856 18 24 14
19.7733156383038 -8.35448782891035 2701.99990272522 17 23 13
27.4429824203253 -8.44411738216877 2730.99994659424 17 23 13
35.066444426775 -8.48426297307014 2743.99995803833 17 23 13
42.1558655798435 -8.40381160378456 2717.99993515015 17 20 9
49.5773740112782 -8.40373989194632 2717.99993515015 14 17 6
57.2083853185177 -8.43457411974669 2727.9999256134 12 15 4
64.3723383545876 -8.39737616479397 2716.00008010864 13 16 7
88.5627940297127 -8.58561228960752 2776.99995040894 7 9 4
96.9745963811874 -8.65966640412807 2801.00011825562 5 7 4
106.114611029625 -8.78317002207041 2841.00008010864 6 8 7
114.791221916676 -8.854104205966 2864.00008201599 7 9 8
121.409557759762 -8.76735616475344 2835.99996566772 7 9 8
128.922000527382 -8.75170435756445 2831.00008964539 9 11 6
135.923892259598 -8.70512705296278 2815.99998474121 9 12 5
142.741411924362 -8.65235738456249 2799.00002479553 10 13 6
150.432601571083 -8.65522120147944 2799.99995231628 10 13 6
158.919021487236 -8.70134774595499 2815.00005722046 10 13 6
166.539698839188 -8.69800336658955 2813.99989128113 10 13 6
172.358870506287 -8.60501360148191 2783.99991989136 13 16 9
182.538345456123 -8.72837379574776 2823.99988174438 14 17 10
190.375372767448 -8.73426627367735 2825.99997520447 15 18 11
199.063703417778 -8.77723656594753 2839.99991416931 16 19 12
206.58965408802 -8.76765418797731 2836.99989318848 16 19 12
213.418498635292 -8.73024854809046 2825.00004768372 15 18 9
219.085231423378 -8.64956993609667 2799.00002479553 15 18 9
228.011310100555 -8.69867298752069 2815.00005722046 16 19 10
238.614469766617 -8.80647078156471 2849.99990463257 16 19 10
246.986925601959 -8.82773380726576 2857.00011253357 18 21 14
252.007931470871 -8.73157382011414 2825.99997520447 19 22 15
262.005388736725 -8.80842935293913 2851.0000705719 24 27 20
-86.8858173489571 -16.3661185652018 2811.00010871887 8 13 6
-77.8872221708298 -16.0927176475525 2763.99993896484 10 15 8
-70.8754807710648 -16.2152089178562 2785.00008583069 17 20 13
-62.7945736050606 -16.0931348800659 2763.99993896484 18 21 14
-54.9879930913448 -16.0176176577806 2750.99992752075 18 21 14
-46.8379817903042 -15.8023368567228 2713.99998664856 18 21 14
-39.5290367305279 -15.8432237803936 2720.99995613098 18 19 11
-32.1109183132648 -15.8491525799036 2721.99988365173 18 19 11
-24.6146731078625 -15.808479860425 2714.99991416931 19 20 12
-17.2705966979265 -15.8725921064615 2726.0000705719 19 22 13
-9.78345796465874 -15.8027596771717 2713.99998664856 20 23 14
-2.36968300305307 -15.7853104174137 2710.99996566772 20 23 14
5.04442770034075 -15.8202424645424 2717.00000762939 20 23 14
12.4499993398786 -15.8027485013008 2713.99998664856 18 24 14
19.817179068923 -15.7677624374628 2707.99994468689 17 23 13
27.2519960999489 -15.7909840345383 2711.99989318848 17 23 13
34.9257923662663 -15.9131661057472 2733.00004005432 17 23 13
42.4194373190403 -15.924695879221 2734.99989509583 15 18 7
49.7779101133347 -15.8896259963512 2729.00009155273 14 17 6
56.4323402941227 -15.6682133674622 2690.99998474121 12 15 4
63.6137574911118 -15.6272761523724 2684.00001525879 12 15 6
72.3954364657402 -15.9473046660423 2739.00008201599 11 14 7
90.1571661233902 -16.4591781795025 2826.99990272522 6 8 3
99.2593839764595 -16.6917815804482 2867.00010299683 4 6 3
106.599926948547 -16.615791246295 2854.00009155273 6 8 7
113.748863339424 -16.522316262126 2838.00005912781 7 9 8
120.767153799534 -16.4230018854141 2821.00009918213 8 10 7
127.783209085464 -16.3353085517883 2805.99999427795 8 10 5
136.213198304176 -16.4280645549297 2822.00002670288 9 12 5
143.251061439514 -16.3519773632288 2809.00001525879 10 13 6
157.620221376419 -16.2521377205849 2792.00005531311 10 13 6
167.131140828133 -16.4379291236401 2823.99988174438 9 12 5
175.454005599022 -16.4956394582987 2834.00011062622 12 15 8
181.180536746979 -16.3146834820509 2802.99997329712 13 16 9
190.374985337257 -16.448013484478 2825.99997520447 16 19 12
199.694097042084 -16.5813136845827 2848.99997711182 16 19 12
208.628177642822 -16.6738424450159 2865.00000953674 16 19 12
215.911060571671 -16.6324935853481 2858.00004005432 14 17 8
222.059115767479 -16.5096540004015 2836.99989318848 14 17 8
229.711785912514 -16.5031868964434 2835.99996566772 15 18 9
240.539625287056 -16.7178213596344 2872.99990653992 16 19 10
246.986389160156 -16.6240260004997 2857.00011253357 19 22 15
251.65069103241 -16.4196696132421 2822.00002670288 20 23 16
260.442525148392 -16.4887644350529 2834.00011062622 25 28 21
-80.1694467663765 -24.3325419723988 2845.00002861023 12 17 10
-62.703475356102 -23.6061718314886 2759.99999046326 19 22 15
-54.6679794788361 -23.3926046639681 2734.99989509583 17 20 11
-47.2347363829613 -23.4099309891462 2736.99998855591 16 19 10
-39.6015346050262 -23.3160406351089 2726.0000705719 18 19 11
-32.2995483875275 -23.4188325703144 2737.99991607666 18 21 12
-24.6871132403612 -23.2906583696604 2723.00004959106 18 21 12
-17.2832030802965 -23.3335196971893 2727.9999256134 20 23 14
-9.81225911527872 -23.2822559773922 2721.99988365173 20 23 14
-2.36442964524031 -23.1368746608496 2704.99992370605 21 24 15
5.01841632649302 -23.1197644025087 2703.00006866455 21 24 15
12.4086663126945 -23.1368318200111 2704.99992370605 18 24 14
19.7512451559305 -23.0854414403439 2698.99988174438 17 23 13
27.1011665463448 -23.0682324618101 2697.00002670288 16 22 12
34.682858735323 -23.2135020196438 2713.99998664856 16 22 12
42.4347929656506 -23.4015062451363 2736.00006103516 15 18 7
49.8689264059067 -23.3841966837645 2733.99996757507 14 17 6
57.1661032736301 -23.3155395835638 2726.0000705719 18 21 10
64.9407804012299 -23.4350133687258 2740.00000953674 9 12 3
71.8401074409485 -23.2465527951717 2717.99993515015 20 23 16
80.4561823606491 -23.5968828201294 2759.0000629425 8 10 5
89.1044214367867 -23.8958559930325 2793.99991035461 6 8 3
99.3282496929169 -24.5368853211403 2868.99995803833 5 7 4
106.861002743244 -24.4680177420378 2861.00006103516 6 8 7
114.309564232826 -24.3905689567328 2851.99999809265 7 9 8
119.482398033142 -23.8683894276619 2790.99988937378 8 10 7
126.689836382866 -23.790892213583 2782.00006484985 9 11 6
136.067911982536 -24.1067335009575 2819.00000572205 9 12 5
144.933447241783 -24.3028122931719 2842.00000762939 10 13 6
150.001928210258 -23.8746181130409 2792.00005531311 10 13 6
158.127725124359 -23.9509120583534 2801.00011825562 10 13 6
166.716292500496 -24.0870267152786 2816.99991226196 10 13 6
174.772351980209 -24.1375993937254 2822.99995422363 11 14 7
182.020172476768 -24.0769870579243 2815.99998474121 12 15 8
190.037459135056 -24.1189450025558 2821.00009918213 13 16 9
201.025143265724 -24.5199464261532 2868.00003051758 14 17 10
209.209963679314 -24.5618224143982 2872.99990653992 14 17 10
216.439113020897 -24.492533877492 2865.00000953674 14 17 8
224.171683192253 -24.4830548763275 2864.00008201599 14 17 8
233.43688249588 -24.635961279273 2881.99996948242 15 18 9
243.614017963409 -24.0869019180536 2818.00007820129 19 22 15
252.987384796143 -24.2482628673315 2836.99989318848 20 23 16
261.084944009781 -24.2813862860203 2841.00008010864 28 31 24
272.136479616165 -24.5794076472521 2875.99992752075 29 32 25
-88.9559611678123 -32.4725210666656 2878.00002098084 0 2 0
-80.422654747963 -32.2022140026093 2854.00009155273 13 16 9
-73.1398090720177 -32.4283242225647 2874.00007247925 16 19 10
-64.8159831762314 -32.1917682886124 2852.9999256134 20 23 14
-55.3473010659218 -31.2442928552628 2769.00005340576 18 21 12
-47.0619238913059 -30.7706762105227 2726.99999809265 16 19 10
-40.0080904364586 -31.0755874961615 2753.99994850159 17 20 11
-32.2875902056694 -30.8839716017246 2736.99998855591 18 21 12
-24.6144589036703 -30.6358877569437 2714.99991416931 19 22 13
-17.2577723860741 -30.7375639677048 2723.99997711182 20 23 14
-9.81581583619118 -30.7263620197773 2723.00004959106 20 23 14
-2.37665488384664 -30.6812580674887 2719.00010108948 21 24 15
5.01839071512222 -30.5007062852383 2703.00006866455 21 24 15
12.3764928430319 -30.4442346096039 2697.99995422363 20 23 14
19.7218731045723 -30.4102916270494 2694.9999332428 17 23 13
27.0306915044785 -30.3537379950285 2690.00005722046 16 22 12
34.606009721756 -30.5566713213921 2707.99994468689 16 22 12
42.2019325196743 -30.7031385600567 2720.99995613098 17 20 9
49.8321987688541 -30.8269970118999 2732.00011253357 12 15 6
57.480376213789 -30.9282373636961 2740.9999370575 19 22 13
63.8028085231781 -30.3749963641167 2691.99991226196 7 10 1
72.8441327810287 -31.0967396944761 2756.00004196167 28 31 24
89.7418037056923 -31.7502282559872 2813.99989128113 7 9 4
100.262522697449 -32.6748751103878 2895.99990844727 6 8 5
106.823116540909 -32.2681069374084 2859.99989509583 6 8 5
114.228837192059 -32.1546494960785 2849.99990463257 8 10 7
122.564099729061 -32.3006398975849 2862.99991607666 8 10 9
126.916870474815 -31.4425006508827 2786.99994087219 9 11 6
135.005339980125 -31.5545722842216 2796.99993133545 10 13 6
144.320756196976 -31.9260656833649 2829.99992370605 11 14 7
151.021972298622 -31.7108891904354 2811.00010871887 11 14 7
157.562404870987 -31.4843952655792 2790.99988937378 11 14 7
167.544022202492 -31.9347009062767 2831.00008964539 10 13 6
174.6476739645 -31.8209305405617 2821.00009918213 11 14 7
181.566819548607 -31.6845700144768 2809.00001525879 11 14 7
192.529022693634 -32.236211001873 2858.00004005432 12 15 8
200.253143906593 -32.2238318622112 2857.00011253357 13 16 9
208.917677402496 -32.3580354452133 2868.99995803833 13 16 9
215.833678841591 -32.2215110063553 2857.00011253357 14 17 8
224.718481302261 -32.3781743645668 2871.00005149841 14 17 8
236.837670207024 -32.9745970666409 2924.00002479553 15 18 9
246.552079916 -32.1599990129471 2851.99999809265 19 22 15
253.967106342316 -32.1135222911835 2848.00004959106 19 22 15
266.96515083313 -32.7548012137413 2904.99997138977 20 23 16
276.866376399994 -32.9900942742825 2926.00011825562 32 35 28
-89.1099274158478 -40.4005609452724 2882.99989700317 0 2 0
-80.4784893989563 -40.0228016078472 2855.99994659424 15 18 9
-64.4747912883759 -39.7715903818607 2838.00005912781 17 20 11
-55.3069673478603 -38.777019828558 2766.99995994568 19 22 13
-47.4585443735123 -38.5391488671303 2750 20 23 14
-39.2814762890339 -37.8948003053665 2703.9999961853 16 22 12
-32.334566116333 -38.4135842323303 2740.9999370575 16 22 12
-24.804687127471 -38.343720138073 2736.00006103516 16 22 12
-17.2386541962624 -38.1336510181427 2720.99995613098 20 23 14
-9.82656609266996 -38.2038243114948 2726.0000705719 20 23 14
-2.38275830633938 -38.2038690149784 2726.0000705719 19 22 13
5.02764154225588 -37.9515923559666 2707.99994468689 19 22 13
12.4039361253381 -37.8954745829105 2703.9999961853 20 23 14
19.7729710489511 -37.8673300147057 2701.99990272522 20 23 14
27.181239798665 -37.9092022776604 2704.99992370605 17 20 11
34.6185639500618 -37.965040653944 2709.00011062622 17 20 11
42.4808375537395 -38.385197520256 2739.00008201599 19 22 13
49.8318672180176 -38.2867678999901 2732.00011253357 13 16 7
56.7040927708149 -37.8939881920815 2703.9999961853 19 22 13
107.121244072914 -40.1887185871601 2868.00003051758 8 10 7
113.747134804726 -39.7675521671772 2838.00005912781 11 13 10
122.991405427456 -40.2571447193623 2872.99990653992 1 3 0
131.105616688728 -40.340319275856 2878.99994850159 6 8 3
137.031719088554 -39.7788994014263 2838.99998664856 7 10 3
144.013851881027 -39.5677350461483 2823.99988174438 11 14 7
153.384909033775 -40.0010347366333 2855.00001907349 12 15 8
160.1582467556 -39.7477336227894 2836.99989318848 12 15 8
168.785750865936 -39.956733584404 2851.99999809265 11 14 7
176.751479506493 -39.9975553154945 2855.00001907349 12 15 8
183.634057641029 -39.8001633584499 2841.00008010864 12 15 8
191.180542111397 -39.7568345069885 2838.00005912781 12 15 8
199.831336736679 -39.9375818669796 2851.0000705719 12 15 8
207.3143273592 -39.880134165287 2846.99988365173 12 15 8
214.245870709419 -39.7245921194553 2835.99996566772 15 18 9
223.464757204056 -39.9892143905163 2855.00001907349 15 18 9
233.920276165009 -40.4498539865017 2888.00001144409 15 18 9
246.81530892849 -41.2885546684265 2947.99995422363 16 19 10
259.137570858002 -40.6968854367733 2905.99989891052 19 22 15
269.904255867004 -41.1292165517807 2937.00003623962 16 19 12
275.53990483284 -40.7772772014141 2911.99994087219 20 23 16
-88.4292423725128 -47.9036532342434 2861.00006103516 31 34 25
-71.1537823081017 -46.8166582286358 2796.0000038147 19 22 13
-63.0657523870468 -46.4823432266712 2776.00002288818 18 21 12
-47.734297811985 -46.3158451020718 2766.00003242493 20 23 14
-39.5136028528214 -45.5459579825401 2720.00002861023 16 22 12
-32.0983827114105 -45.5630049109459 2720.99995613098 17 23 13
-24.5869066566229 -45.4125478863716 2711.99989318848 20 23 14
-17.2955375164747 -45.7141362130642 2730.00001907349 20 23 14
-9.83730331063271 -45.6975065171719 2729.00009155273 20 23 14
-2.38536158576608 -45.6975623965263 2729.00009155273 20 23 14
5.07030263543129 -45.7310378551483 2730.99994659424 20 23 14
12.4680595472455 -45.5132760107517 2717.99993515015 20 23 14
19.8386777192354 -45.3959256410599 2710.99996566772 20 23 14
27.2212214767933 -45.3622303903103 2709.00011062622 17 20 11
34.7588583827019 -45.5461591482162 2720.00002861023 16 19 10
42.4805022776127 -45.8639897406101 2739.00008201599 14 17 8
50.3969229757786 -46.2654642760754 2763.00001144409 14 17 8
59.1362081468105 -47.2194366157055 2819.9999332428 20 23 14
94.3327844142914 -49.5275035500526 2957.99994468689 7 9 4
101.230479776859 -48.9574000239372 2924.00002479553 7 9 4
106.186635792255 -47.6003177464008 2842.99993515015 2 4 1
113.425612449646 -47.3817326128483 2829.99992370605 11 13 10
130.558148026466 -47.9991398751736 2867.00010299683 6 9 2
136.644512414932 -47.3953038454056 2831.00008964539 7 10 3
144.930675625801 -47.5782714784145 2842.00000762939 10 13 6
152.63158082962 -47.5602820515633 2841.00008010864 11 14 7
160.778015851974 -47.676146030426 2848.00004959106 11 14 7
169.790551066399 -48.0263009667397 2868.99995803833 10 13 6
182.210654020309 -47.1863932907581 2819.00000572205 13 16 9
190.976977348328 -47.452662140131 2835.00003814697 13 16 9
201.301723718643 -48.0703264474869 2871.99997901917 13 16 9
206.730231642723 -47.5163049995899 2838.99998664856 12 15 8
214.093178510666 -47.4308878183365 2834.00011062622 12 15 6
223.071709275246 -47.6968586444855 2849.99990463257 14 17 8
232.865571975708 -48.1133684515953 2875 16 19 10
245.390191674232 -49.04855042696 2930.99999427795 16 19 10
253.032267093658 -48.9795804023743 2927.00004577637 17 20 11
259.581506252289 -48.7097576260567 2911.00001335144 20 23 16
267.237216234207 -48.6574172973633 2907.99999237061 27 30 23
279.417365789413 -49.4081377983093 2953.00006866455 26 29 22
-76.6448751091957 -52.9698170721531 2720.00002861023 16 19 8
-63.6103972792625 -54.5291639864445 2799.99995231628 18 21 12
-55.4459355771542 -54.0234111249447 2773.9999294281 17 23 13
-47.3541878163815 -53.4396693110466 2743.99995803833 17 23 13
-39.8037731647491 -53.3622056245804 2740.00000953674 18 24 14
-32.5581468641758 -53.7520758807659 2759.99999046326 18 24 14
-24.7498657554388 -53.1680919229984 2730.00001907349 18 24 14
-17.2130186110735 -52.9151186347008 2717.00000762939 19 25 15
-9.79035161435604 -52.8957806527615 2716.00008010864 21 24 15
-2.37659900449216 -52.954263985157 2719.00010108948 21 24 15
5.04797743633389 -52.9542528092861 2719.00010108948 21 24 15
12.4954665079713 -53.0515387654305 2723.99997711182 20 23 14
19.8311749845743 -52.7787245810032 2710.00003814697 19 22 13
27.1707288920879 -52.6616387069225 2703.9999961853 17 18 10
34.7968749701977 -53.031362593174 2723.00004959106 16 17 9
42.6351986825466 -53.5373352468014 2749.00007247925 12 15 8
50.3234900534153 -53.7316240370274 2759.0000629425 16 19 12
98.8753587007523 -55.6162148714066 2855.99994659424 11 13 8
106.0736104846 -55.3036294877529 2839.99991416931 11 13 8
114.346399903297 -55.5556938052177 2852.9999256134 6 8 3
122.004717588425 -55.4961077868938 2849.99990463257 8 10 5
128.872036933899 -55.1054365932941 2829.99992370605 7 10 3
137.17420399189 -55.3377978503704 2842.00000762939 8 11 4
144.776374101639 -55.2779957652092 2838.99998664856 10 13 6
153.167426586151 -55.510189384222 2851.0000705719 10 13 6
160.494282841682 -55.3528964519501 2842.99993515015 10 13 6
169.433921575546 -55.7406805455685 2862.99991607666 9 12 5
175.510376691818 -55.1938712596893 2835.00003814697 11 14 7
183.178529143333 -55.1726631820202 2834.00011062622 12 15 8
191.648885607719 -55.3849935531616 2845.00002861023 13 16 9
205.272018909454 -54.8750273883343 2819.00000572205 13 16 9
213.260263204575 -54.9508817493916 2822.99995422363 10 13 4
224.713400006294 -55.8831058442593 2871.00005149841 11 14 5
234.726428985596 -56.4064495265484 2898.00000190735 13 16 7
242.206603288651 -56.306853890419 2892.99988746643 14 17 8
248.275458812714 -55.8958016335964 2871.99997901917 19 22 15
257.260769605637 -56.1464168131351 2884.99999046326 21 24 17
263.74277472496 -55.8520331978798 2869.99988555908 24 27 20
276.954799890518 -56.9587275385857 2927.00004577637 28 31 24
-86.8511870503426 -62.3933933675289 2809.99994277954 14 17 6
-80.1944807171822 -63.1936863064766 2845.99995613098 18 21 10
-72.5265592336655 -63.2833763957024 2849.99990463257 20 23 12
-63.5188519954681 -62.085073441267 2796.0000038147 16 22 12
-55.2454777061939 -61.3751858472824 2763.99993896484 16 22 12
-47.4572293460369 -61.064887791872 2750 16 22 12
-39.8324057459831 -60.8877427875996 2742.00010299683 19 25 15
-32.3808565735817 -60.9547682106495 2744.99988555908 19 25 15
-24.9309167265892 -61.0661245882511 2750 19 25 15
-17.2508470714092 -60.4668036103249 2723.00004959106 19 25 15
-9.75780375301838 -60.1116567850113 2707.00001716614 21 24 15
-2.37045506946743 -60.2227598428726 2711.99989318848 21 24 15
5.04049751907587 -60.2893605828285 2714.99991416931 21 24 15
12.4448770657182 -60.2448508143425 2713.00005912781 20 23 14
19.8236480355263 -60.1558461785316 2709.00011062622 20 21 13
27.2307265549898 -60.177780687809 2710.00003814697 17 18 10
34.8220653831959 -60.5105198919773 2724.99990463257 16 17 9
42.5416938960552 -60.909777879715 2743.00003051758 18 21 14
50.6147965788841 -61.6198293864727 2775.00009536743 18 21 14
106.445997953415 -63.2789731025696 2849.99990463257 6 8 3
114.385284483433 -63.3665546774864 2854.00009155273 9 11 6
122.131869196892 -63.3430182933807 2852.9999256134 10 12 7
128.961771726608 -62.8753677010536 2832.00001716614 10 13 6
136.690109968185 -62.8738850355148 2832.00001716614 10 13 6
144.468873739243 -62.8945156931877 2832.99994468689 11 14 7
152.145072817802 -62.870666384697 2832.00001716614 11 14 7
160.549059510231 -63.1353259086609 2844.00010108948 11 14 7
168.781161308289 -63.3110851049423 2851.99999809265 11 14 7
175.508558750153 -62.9318058490753 2835.00003814697 10 13 6
183.693706989288 -63.0851984024048 2842.00000762939 10 13 6
190.367013216019 -62.7279877662659 2825.99997520447 12 15 8
196.742013096809 -62.3041242361069 2806.99992179871 12 15 8
205.051466822624 -62.5016838312149 2815.99998474121 12 15 8
215.071082115173 -63.187412917614 2846.99988365173 13 16 7
225.88512301445 -64.0505775809288 2885.99991798401 13 16 7
235.12901365757 -64.4253492355347 2903.00011634827 14 17 8
245.134353637695 -64.9775415658951 2927.99997329712 14 17 8
249.828979372978 -64.1315951943398 2890.00010490417 16 19 10
253.156274557114 -62.9971697926521 2838.99998664856 21 24 17
265.394300222397 -64.0816688537598 2888.00001144409 19 22 15
276.28967165947 -64.7887885570526 2920.00007629395 29 32 25
-80.3344175219536 -71.0882246494293 2851.0000705719 17 20 9
-71.5841203927994 -70.1416656374931 2812.99996376038 19 22 11
-63.2454827427864 -69.4194138050079 2783.99991989136 16 22 12
-55.4646700620651 -69.1957473754883 2775.00009536743 18 24 14
-47.0079854130745 -67.9246857762337 2723.99997711182 17 23 13
-39.9481356143951 -68.5735568404198 2750 18 26 15
-32.5456149876118 -68.7984526157379 2759.0000629425 19 25 15
-24.758368730545 -68.100593984127 2730.99994659424 18 24 14
-17.244303599 -67.876435816288 2721.99988365173 18 24 14
-9.811757132411 -67.8766146302223 2721.99988365173 18 24 14
-2.36518238671124 -67.4777179956436 2706.00008964539 20 23 14
5.05157560110092 -67.8517371416092 2720.99995613098 21 24 15
12.4309649690986 -67.5773248076439 2710.00003814697 20 23 14
19.8380425572395 -67.6020607352257 2710.99996566772 20 21 13
27.5117494165897 -68.2750344276428 2737.99991607666 17 18 10
34.9877625703812 -68.2746395468712 2737.99991607666 16 17 9
42.8358502686024 -68.8726082444191 2762.00008392334 14 17 10
50.6141856312752 -69.1961795091629 2775.00009536743 14 17 10
114.584311842918 -71.2823271751404 2858.99996757507 10 12 7
122.130416333675 -71.131244301796 2852.9999256134 9 11 6
129.142373800278 -70.7058236002922 2835.99996566772 10 13 6
137.219399213791 -70.8786696195602 2842.99993515015 10 13 6
144.977107644081 -70.8769038319588 2842.99993515015 11 14 7
152.734234929085 -70.8750486373901 2842.99993515015 11 14 7
159.813314676285 -70.5739408731461 2831.00008964539 12 15 8
166.944652795792 -70.3226253390312 2821.00009918213 12 15 8
174.763590097427 -70.3703463077545 2822.99995422363 10 13 6
183.174505829811 -70.6423297524452 2834.00011062622 11 14 7
196.879893541336 -70.014476776123 2809.00001525879 12 15 8
206.359773874283 -70.6351175904274 2834.00011062622 12 15 8
218.014746904373 -71.9285383820534 2885.99991798401 14 17 8
226.117327809334 -72.0005854964256 2888.99993896484 15 18 9
235.126286745071 -72.3466798663139 2903.00011634827 15 18 9
243.289694190025 -72.4185258150101 2905.99989891052 15 18 9
251.727908849716 -72.565034031868 2911.99994087219 16 19 10
254.401743412018 -71.0917562246323 2852.9999256134 20 23 16
273.258745670319 -71.9575062394142 2888.00001144409 28 31 24
-71.7867538332939 -78.0425667762756 2821.00009918213 18 21 10
-63.4945258498192 -77.3242264986038 2795.00007629395 17 23 13
-55.9436194598675 -77.4357318878174 2799.00002479553 19 25 15
-47.7839037775993 -76.6064897179604 2769.00005340576 19 25 15
-40.1509739458561 -76.4687806367874 2763.99993896484 19 25 15
-32.2384797036648 -75.6116360425949 2733.00004005432 18 24 14
-24.5495308190584 -74.9203860759735 2707.99994468689 18 24 14
-17.1363782137632 -74.8376771807671 2704.99992370605 18 24 14
-9.81883425265551 -75.3635317087173 2723.99997711182 18 24 14
-2.40885280072689 -76.2489512562752 2756.00004196167 19 22 13
5.11091528460383 -76.1659294366837 2753.00002098084 19 22 13
12.5959310680628 -75.9721398353577 2746.00005149841 21 22 14
20.1158411800861 -76.0549008846283 2749.00007247925 21 22 14
27.1195061504841 -74.6712535619736 2698.99988174438 18 19 11
35.268422216177 -76.3584524393082 2759.99999046326 17 20 11
42.8507886826992 -76.4409005641937 2763.00001144409 17 20 13
51.6166538000107 -78.2938450574875 2829.99992370605 15 18 11
106.032468378544 -78.5350874066353 2838.99998664856 2 4 0
114.262163639069 -78.8654983043671 2851.0000705719 1 3 0
122.385643422604 -79.085148870945 2858.99996757507 19 21 16
129.504963755608 -78.668475151062 2844.00010108948 8 11 4
136.734932661057 -78.3623456954956 2832.99994468689 8 11 4
143.649354577065 -77.9178291559219 2816.99991226196 9 12 5
151.496604084969 -77.9987722635269 2819.9999332428 10 13 6
159.585401415825 -78.1902298331261 2826.99990272522 12 15 8
167.060807347298 -78.0773460865021 2822.99995422363 13 16 9
174.327969551086 -77.8813883662224 2815.99998474121 13 16 9
183.042824268341 -78.3214345574379 2832.00001716614 14 17 10
188.947752118111 -77.57218927145 2805.0000667572 14 17 10
195.755928754807 -77.2376954555511 2792.99998283386 13 16 9
206.138640642166 -78.2857909798622 2831.00008964539 13 16 9
218.087494373322 -79.8314437270164 2887.00008392334 11 14 7
225.331723690033 -79.607218503952 2878.99994850159 13 16 7
232.693448662758 -79.438216984272 2872.99990653992 16 19 10
243.45400929451 -80.4027318954468 2907.99999237061 17 20 11
249.304234981537 -79.7358527779579 2884.0000629425 18 21 14
253.328502178192 -78.5436555743217 2841.00008010864 19 22 15
259.874254465103 -78.1808272004128 2828.00006866455 22 25 18
268.997460603714 -78.5919651389122 2842.99993515015 22 25 18
-81.2619999051094 -87.6573398709297 2884.0000629425 18 21 12
-71.8620270490646 -85.834838449955 2823.99988174438 18 21 12
-63.9933571219444 -85.6231302022934 2816.99991226196 18 21 12
-56.3225448131561 -85.6544598937035 2818.00007820129 19 22 13
-48.5079698264599 -85.442490875721 2811.00010871887 24 27 18
