ply
format ascii 1.0
comment KinectMotionCapture
element vertex 795
property float x
property float y
property float z
property uchar red
property uchar green
property uchar blue
end_header
115.311272442341 271.1281478405 2696.00009918213 12 17 10
123.345255851746 272.630929946899 2710.99996566772 8 11 4
130.158513784409 271.418124437332 2698.99988174438 15 18 11
136.752963066101 269.903361797333 2684.00001525879 14 17 10
143.640860915184 269.092261791229 2676.00011825562 15 18 11
151.27420425415 269.688576459885 2681.99992179871 20 23 16
159.412756562233 271.089017391205 2696.00009918213 24 27 20
166.513606905937 270.679086446762 2691.99991226196 24 27 20
175.981491804123 273.989111185074 2724.99990463257 25 28 21
183.744087815285 274.483412504196 2730.00001907349 19 22 15
190.692856907845 273.770838975906 2723.00004959106 21 24 17
198.766842484474 274.666577577591 2732.00011253357 20 23 16
207.49294757843 276.366204023361 2749.00007247925 19 20 14
217.6403850317 279.774397611618 2782.99999237061 22 23 17
225.787192583084 280.467808246613 2789.99996185303 17 20 13
233.218491077423 280.256181955338 2788.00010681152 38 43 36
243.056491017342 282.858699560165 2813.99989128113 25 30 23
302.049040794373 287.897735834122 2865.00000953674 220 217 212
310.708403587341 288.687884807587 2872.99990653992 113 99 88
317.636340856552 287.870019674301 2865.00000953674 128 109 95
325.20118355751 287.654757499695 2862.99991607666 151 118 99
332.521498203278 287.238389253616 2858.99996757507 139 103 81
340.413987636566 287.323981523514 2859.99989509583 136 98 75
348.797827959061 287.811189889908 2865.00000953674 164 133 115
357.456564903259 288.498967885971 2871.99997901917 170 144 129
-142.234653234482 264.058202505112 2698.99988174438 219 205 194
-134.975895285606 264.260351657867 2700.99997520447 122 105 89
-127.422228455544 263.875097036362 2697.00002670288 132 111 92
-119.800820946693 263.293772935867 2690.99998474121 143 116 95
-112.044528126717 262.320786714554 2680.99999427795 142 110 87
-104.459524154663 261.640906333923 2674.00002479553 142 110 85
-97.0576554536819 261.352062225342 2671.0000038147 136 105 76
-89.8734256625175 261.649966239929 2674.00002479553 137 108 78
-82.5489610433578 261.556178331375 2673.00009727478 138 112 85
-75.3985494375229 262.04913854599 2677.99997329712 134 110 86
-68.245992064476 262.63964176178 2684.00001525879 110 93 75
-61.264730989933 264.11047577858 2698.99988174438 104 90 77
-53.9817065000534 264.504641294479 2703.00006866455 24 14 2
-46.5386994183064 264.115542173386 2698.99988174438 23 19 10
-38.9867052435875 262.845426797867 2686.00010871887 18 20 9
-31.4111970365047 260.792106389999 2664.99996185303 16 19 10
-24.095082655549 260.304093360901 2660.00008583069 17 20 11
-16.9897265732288 262.653678655624 2684.00001525879 18 21 12
-9.71012376248837 263.828635215759 2696.00009918213 15 18 9
-2.3073626216501 258.544474840164 2641.99995994568 14 15 7
12.0633440092206 257.565438747406 2631.99996948242 17 18 12
19.3027667701244 258.347570896149 2640.00010490417 14 15 9
26.7263241112232 260.499387979507 2661.99994087219 8 9 3
33.9633859694004 260.302245616913 2660.00008583069 16 17 11
41.4528399705887 261.768311262131 2674.99995231628 15 16 10
49.0057393908501 263.136148452759 2688.99989128113 14 15 9
56.3834123313427 263.329416513443 2690.99998474121 12 13 7
64.0085861086845 264.500856399536 2703.00006866455 11 12 6
71.4612975716591 264.791220426559 2706.00008964539 11 12 6
78.7261426448822 264.396280050278 2701.99990272522 11 12 6
86.0325843095779 264.196753501892 2700.00004768372 12 15 8
93.6045199632645 264.779627323151 2706.00008964539 13 16 9
101.134181022644 265.166461467743 2710.00003814697 12 15 8
108.965575695038 266.237825155258 2720.99995613098 11 14 7
116.043873131275 265.449851751328 2713.00005912781 11 14 7
124.443076550961 267.596751451492 2734.99989509583 13 14 8
132.961794734001 269.743293523788 2756.99996948242 15 16 10
137.472733855247 263.964533805847 2697.99995422363 15 16 10
143.486544489861 261.512130498886 2673.00009727478 9 10 4
152.240186929703 264.048963785172 2698.99988174438 12 13 7
158.533215522766 262.280851602554 2680.99999427795 17 18 12
166.830658912659 263.838589191437 2697.00002670288 18 19 13
174.245938658714 263.928592205048 2697.99995422363 21 22 16
183.685287833214 266.952872276306 2729.00009155273 14 15 9
191.822201013565 267.922461032867 2739.00008201599 16 17 11
198.703229427338 267.131000757217 2730.99994659424 19 20 14
207.577973604202 268.980234861374 2750 22 23 17
216.477259993553 270.731151103973 2767.99988746643 30 31 25
225.797548890114 272.872865200043 2789.99996185303 24 27 20
233.814716339111 273.351520299912 2795.00007629395 33 38 31
238.748639822006 270.309120416641 2763.99993896484 31 36 29
301.746129989624 279.807895421982 2861.99998855591 219 218 213
310.18140912056 280.381143093109 2868.00003051758 86 73 65
317.872077226639 280.269682407379 2867.00010299683 126 108 96
325.442671775818 280.060231685638 2865.00000953674 130 99 79
333.466529846191 280.241519212723 2867.00010299683 122 86 64
341.381043195724 280.324697494507 2868.00003051758 114 76 53
349.178165197372 280.309945344925 2868.00003051758 139 106 87
356.725126504898 280.099391937256 2865.9999370575 152 124 110
366.803824901581 281.843185424805 2884.0000629425 169 156 147
-142.135784029961 256.517767906189 2697.00002670288 201 184 174
-134.832158684731 256.61912560463 2697.99995422363 140 121 106
-127.191811800003 256.054371595383 2691.99991226196 139 116 98
-119.628243148327 255.584388971329 2687.00003623962 141 111 85
-111.840724945068 254.543364048004 2676.00011825562 138 108 80
-104.386202991009 254.167765378952 2671.99993133545 141 112 82
-97.0257967710495 253.982126712799 2670.00007629395 151 120 89
-89.8439809679985 254.271775484085 2673.00009727478 143 114 82
-82.491010427475 254.085451364517 2671.0000038147 134 109 79
-75.3175765275955 254.469573497772 2674.99995231628 138 117 90
-68.1728795170784 255.043625831604 2680.99999427795 100 85 64
-61.2221769988537 256.56870007515 2697.00002670288 105 93 77
-53.9442673325539 256.951868534088 2700.99997520447 50 42 29
-46.8857437372208 258.666574954987 2719.00010108948 28 26 14
-39.2643101513386 257.336676120758 2704.99992370605 18 20 9
-31.4008742570877 253.43781709671 2664.00003433228 15 18 9
-24.0327939391136 252.392619848251 2653.00011634827 16 19 10
-16.8449208140373 253.154635429382 2661.00001335144 18 21 12
-9.60251968353987 253.630876541138 2665.99988937378 15 18 9
-2.33367132022977 254.201978445053 2671.99993133545 14 15 7
12.0684886351228 250.491231679916 2632.99989700317 13 14 8
19.4060336798429 252.488374710083 2654.00004386902 12 13 7
26.6070850193501 252.106785774231 2650.00009536743 14 15 9
34.0671166777611 253.817796707153 2667.99998283386 18 19 13
41.4547622203827 254.481971263885 2674.99995231628 17 18 12
48.6981905996799 254.194527864456 2671.99993133545 14 15 9
55.9669695794582 254.096984863281 2671.0000038147 13 14 8
63.1353333592415 253.618597984314 2665.99988937378 13 14 8
70.8571970462799 255.232781171799 2683.00008773804 14 15 9
78.3510059118271 255.800098180771 2688.99989128113 14 15 9
85.9728381037712 256.652474403381 2697.99995422363 11 14 7
93.5050621628761 257.124036550522 2703.00006866455 12 15 8
100.952230393887 257.309794425964 2704.99992370605 11 14 7
108.570128679276 257.875800132751 2710.99996566772 11 14 7
117.24691092968 260.724276304245 2740.9999370575 13 16 9
124.812826514244 260.909020900726 2743.00003051758 11 12 7
132.437393069267 261.188566684723 2746.00005149841 8 9 4
139.160573482513 259.755671024323 2730.99994659424 14 15 10
146.875098347664 260.224759578705 2736.00006103516 17 18 13
151.908695697784 256.128281354904 2693.00007820129 12 13 8
160.787552595139 258.594036102295 2719.00010108948 12 13 8
168.199181556702 258.586645126343 2719.00010108948 15 16 11
174.770548939705 257.342636585236 2706.00008964539 12 13 8
183.289736509323 258.951306343079 2723.00004959106 16 17 12
191.410630941391 259.893894195557 2733.00004005432 21 22 17
200.895041227341 262.547791004181 2760.99991798401 24 25 20
208.040207624435 262.063264846802 2756.00004196167 28 29 23
217.112630605698 263.955563306808 2776.00002288818 25 26 18
224.998280405998 264.326125383377 2779.99997138977 22 25 18
228.889271616936 260.132670402527 2736.00006103516 11 16 9
242.387294769287 266.777604818344 2805.99999427795 28 33 26
310.735553503037 273.050963878632 2872.99990653992 73 64 57
318.218350410461 272.752463817596 2869.99988555908 79 62 52
325.683772563934 272.453784942627 2867.00010299683 112 83 65
333.945989608765 272.819995880127 2871.00005149841 116 81 59
342.109769582748 273.090869188309 2874.00007247925 85 49 27
349.558174610138 272.791385650635 2871.00005149841 117 84 65
356.366723775864 272.016584873199 2862.99991607666 127 100 83
364.91134762764 272.571682929993 2868.99995803833 150 136 125
-142.669171094894 250.095874071121 2707.00001716614 185 171 158
-134.988114237785 249.547645449638 2700.99997520447 145 122 104
-127.292022109032 248.906686902046 2694.00000572205 145 118 99
-119.455523788929 247.895836830139 2683.00008773804 140 112 88
-111.845746636391 247.254192829132 2676.00011825562 141 111 87
-104.469045996666 247.07418680191 2674.00002479553 139 109 83
-97.1391871571541 246.986269950867 2673.00009727478 140 110 82
-89.8480340838432 246.990442276001 2673.00009727478 142 112 84
-82.4638605117798 246.717050671577 2670.00007629395 141 115 90
-75.3491446375847 247.27500975132 2676.00011825562 133 109 85
-68.0996775627136 247.463017702103 2677.99997329712 107 90 72
-60.9979368746281 248.297557234764 2687.00003623962 100 84 68
-53.7869371473789 248.854577541351 2693.00007820129 93 84 69
-46.7154271900654 250.335365533829 2709.00011062622 26 22 11
-39.2951257526875 250.152468681335 2707.00001716614 18 20 9
-31.7323505878448 248.767912387848 2691.99991226196 14 17 8
-24.0338854491711 245.165154337883 2653.00011634827 15 18 9
-16.788711771369 245.073661208153 2651.99995040894 17 20 11
-9.56693664193153 245.443895459175 2655.99989891052 15 18 9
-2.33377749100327 246.922731399536 2671.99993133545 13 14 6
4.90507856011391 244.335174560547 2644.00005340576 15 16 8
12.1469628065825 244.88927423954 2650.00009536743 10 11 5
19.4288529455662 245.535433292389 2657.00006484985 12 13 7
26.7890263348818 246.550887823105 2667.99998283386 19 20 14
33.9792780578136 245.902672410011 2661.00001335144 20 21 15
41.3016676902771 246.270596981049 2664.99996185303 18 19 13
48.6639514565468 246.730670332909 2670.00007629395 15 16 10
55.5085018277168 244.787737727165 2648.9999294281 13 14 8
70.6755295395851 247.277110815048 2676.00011825562 13 14 8
78.5002410411835 248.937040567398 2694.00000572205 14 15 9
86.0085934400558 249.395415186882 2698.99988174438 13 16 9
93.5438796877861 249.853402376175 2703.9999961853 12 15 8
100.695535540581 249.294698238373 2697.99995422363 7 10 3
107.81405121088 248.735636472702 2691.99991226196 8 11 4
116.011649370193 250.578641891479 2711.99989318848 11 14 7
123.726323246956 251.220107078552 2719.00010108948 9 10 5
131.092816591263 251.122057437897 2717.99993515015 18 19 14
139.574468135834 253.056287765503 2739.00008201599 21 22 17
146.344795823097 251.848965883255 2726.0000705719 16 17 12
154.566779732704 253.135740756989 2740.00000953674 10 11 6
162.391409277916 253.683090209961 2746.00005149841 15 16 11
167.464271187782 250.072985887527 2707.00001716614 14 15 10
175.230383872986 250.619769096375 2713.00005912781 14 15 10
183.02857875824 251.166254281998 2719.00010108948 13 14 9
192.819863557816 254.298716783524 2753.00002098084 17 18 13
200.685560703278 254.75201010704 2757.99989700317 23 24 19
209.257170557976 256.036311388016 2772.0000743866 26 27 19
215.792492032051 254.826426506042 2759.0000629425 18 19 11
226.303100585938 258.234232664108 2796.0000038147 27 30 23
232.329338788986 256.469577550888 2776.99995040894 17 22 15
236.60996556282 252.950191497803 2739.00008201599 31 36 29
312.154710292816 266.431212425232 2885.99991798401 139 132 124
318.896979093552 265.494972467422 2875.99992752075 76 63 54
325.810968875885 264.74317908287 2868.00003051758 119 92 75
333.959847688675 265.006572008133 2871.00005149841 87 54 35
342.600047588348 265.638828277588 2878.00002098084 70 35 15
349.937856197357 265.25554060936 2874.00007247925 110 77 60
356.630265712738 264.410585165024 2865.00000953674 116 87 73
364.67182636261 264.580637216568 2867.00010299683 140 123 113
-142.622664570808 242.632299661636 2706.00008964539 151 138 122
-135.093957185745 242.369249463081 2703.00006866455 136 110 93
-127.439334988594 241.83689057827 2697.00002670288 148 121 100
-119.594320654869 240.855842828751 2686.00010871887 140 112 90
-111.976020038128 240.233108401299 2678.99990081787 139 109 85
-104.551762342453 239.968806505203 2676.00011825562 139 109 85
-97.2161367535591 239.883482456207 2674.99995231628 141 111 85
-89.8519828915596 239.708200097084 2673.00009727478 140 110 84
-82.529254257679 239.622235298157 2671.99993133545 139 111 89
-75.3243044018745 239.894717931747 2674.99995231628 132 107 85
-68.0772513151169 240.077197551727 2677.00004577637 101 83 63
-60.8871206641197 240.528389811516 2681.99992179871 96 80 64
-53.5895749926567 240.620583295822 2683.00008773804 60 48 34
-46.5277880430222 241.968020796776 2697.99995422363 25 17 6
-39.4129976630211 243.494510650635 2714.99991416931 21 18 9
-31.9341570138931 242.957964539528 2709.00011062622 20 21 13
-24.2704972624779 240.268617868423 2678.99990081787 20 21 13
-16.7831238359213 237.758293747902 2651.00002288818 20 21 13
-9.58537124097347 238.655731081963 2661.00001335144 19 20 12
-2.3225259501487 238.476634025574 2658.99991989136 17 20 11
4.90715121850371 237.220957875252 2644.99998092651 17 20 11
12.1245784685016 237.220570445061 2644.99998092651 17 20 11
19.3492714315653 237.309575080872 2645.99990844727 17 20 11
26.6395956277847 237.936407327652 2653.00011634827 15 18 9
34.0829379856586 239.37001824379 2668.99991035461 14 17 8
41.4429791271687 239.816799759865 2674.00002479553 16 19 12
49.4680888950825 243.4022128582 2713.99998664856 15 18 11
55.9510216116905 239.453852176666 2670.00007629395 14 17 10
62.9515126347542 238.375067710876 2657.99999237061 13 16 9
70.4673454165459 239.268958568573 2667.99998283386 13 16 9
78.1831592321396 240.610957145691 2683.00008773804 13 16 9
86.1398503184319 242.400974035263 2703.00006866455 14 17 10
93.3750122785568 242.038354277611 2698.99988174438 16 19 12
101.147837936878 243.020594120026 2710.00003814697 14 17 10
107.09785670042 239.78778719902 2674.00002479553 13 16 9
114.56223577261 240.141689777374 2677.99997329712 13 16 9
121.456407010555 239.329561591148 2668.99991035461 11 13 8
130.567982792854 242.73157119751 2707.00001716614 1 3 0
138.306528329849 243.353471159935 2713.99998664856 9 11 6
146.243795752525 244.244009256363 2723.99997711182 13 15 10
154.7991335392 246.030807495117 2743.99995803833 6 8 3
159.323155879974 241.541102528572 2694.00000572205 9 11 6
168.708831071854 244.492799043655 2726.99999809265 10 12 7
173.881500959396 241.347566246986 2691.99991226196 12 14 9
183.103740215302 243.850260972977 2720.00002861023 18 20 15
191.357240080833 244.918122887611 2732.00011253357 19 21 16
201.421827077866 248.137101531029 2767.99988746643 18 20 15
208.36016535759 247.411325573921 2759.99999046326 15 16 8
215.879857540131 247.402399778366 2759.99999046326 14 16 5
223.641633987427 247.662127017975 2763.00001144409 18 21 12
235.267490148544 252.044558525085 2812.00003623962 23 28 22
246.468290686607 255.709379911423 2852.9999256134 28 33 27
319.464445114136 258.114278316498 2881.00004196167 61 52 45
326.392203569412 257.384598255157 2872.99990653992 97 77 68
334.089696407318 257.281810045242 2871.99997901917 152 125 114
342.970997095108 258.074551820755 2881.00004196167 255 233 223
350.438922643662 257.792055606842 2878.00002098084 96 64 53
357.640385627747 257.330238819122 2872.99990653992 111 81 71
365.831106901169 257.584720849991 2875.99992752075 121 101 94
-142.892241477966 235.694840550423 2710.99996566772 135 122 106
-135.199636220932 235.178992152214 2704.99992370605 143 117 100
-127.397492527962 234.402000904083 2696.00009918213 151 123 102
-119.421295821667 233.189925551414 2681.99992179871 144 113 92
-111.938998103142 232.84700512886 2677.99997329712 140 110 86
-104.556225240231 232.677668333054 2676.00011825562 140 110 86
-97.1839427947998 232.5080037117 2674.00002479553 143 111 86
-89.7885784506798 232.251077890396 2671.0000038147 140 108 83
-82.4710130691528 232.167750597 2670.00007629395 136 108 86
-75.3838494420052 232.779771089554 2677.00004577637 131 104 83
-68.1818947196007 233.130633831024 2680.99999427795 87 66 47
-60.9805472195148 233.568146824837 2686.00010871887 86 69 53
-53.5119734704494 232.961848378181 2678.99990081787 63 51 37
-46.2538525462151 233.224868774414 2681.99992179871 22 14 1
-38.9936938881874 233.574539422989 2686.00010871887 18 15 6
-31.9473147392273 235.663071274757 2710.00003814697 18 19 11
-24.235300719738 232.620611786842 2674.99995231628 20 21 13
-16.8344955891371 231.2301248312 2658.99991989136 20 21 13
-9.57497768104076 231.143727898598 2657.99999237061 19 20 12
-2.33747530728579 232.709288597107 2676.00011825562 16 19 10
4.90550696849823 229.926452040672 2644.00005340576 16 19 10
12.0930122211576 229.40431535244 2638.00001144409 16 19 10
19.2916039377451 229.403674602509 2638.00001144409 16 19 10
26.5202391892672 229.663580656052 2641.00003242493 14 17 8
33.9439287781715 231.140613555908 2657.99999237061 14 17 8
41.4602607488632 232.617318630219 2674.99995231628 15 18 11
48.8869212567806 233.224123716354 2681.99992179871 14 17 10
56.4982891082764 234.439328312874 2696.00009918213 14 17 10
62.6699924468994 230.088904500008 2645.99990844727 13 16 9
70.0477510690689 230.607852339745 2651.99995040894 13 16 9
78.332208096981 233.735099434853 2687.99996376038 13 16 9
86.047925055027 234.775111079216 2700.00004768372 14 17 10
93.3444052934647 234.597414731979 2697.99995422363 16 19 12
100.330986082554 233.723789453506 2687.99996376038 16 19 12
107.102423906326 232.502147555351 2674.00002479553 16 19 12
114.182077348232 232.062757015228 2668.99991035461 16 19 12
122.371718287468 233.796715736389 2688.99989128113 19 21 16
131.152361631393 236.39976978302 2719.00010108948 7 9 4
138.31239938736 235.959425568581 2713.99998664856 8 10 5
145.927831530571 236.301243305206 2717.99993515015 10 12 7
153.508082032204 236.555829644203 2720.99995613098 12 14 9
161.22242808342 236.983954906464 2726.0000705719 13 15 10
164.32324051857 230.891868472099 2655.99989891052 10 12 7
174.340948462486 234.622865915298 2698.99988174438 13 15 10
182.236239314079 235.310956835747 2707.00001716614 18 20 15
191.155090928078 237.215653061867 2729.00009155273 17 19 14
199.68369603157 238.511428236961 2743.99995803833 14 16 11
217.062130570412 241.188853979111 2775.00009536743 10 13 2
225.107833743095 241.701290011406 2780.99989891052 15 18 9
238.357469439507 239.770516753197 2759.0000629425 29 35 31
320.142507553101 250.792324542999 2887.00008392334 59 52 44
326.859593391418 249.911025166512 2877.00009346008 99 81 71
334.21915769577 249.550685286522 2872.99990653992 146 122 110
342.508256435394 249.884992837906 2877.00009346008 252 224 213
350.452601909637 249.958485364914 2878.00002098084 80 50 39
358.650177717209 250.205427408218 2881.00004196167 110 83 72
367.626160383224 250.973165035248 2890.00010490417 125 108 100
-142.898097634315 228.308171033859 2710.99996566772 130 117 100
-135.005280375481 227.471649646759 2700.99997520447 151 124 107
-127.213716506958 226.719006896019 2691.99991226196 143 115 94
-119.559817016125 226.134493947029 2684.99994277954 145 113 92
-112.11084574461 225.886568427086 2681.99992179871 143 111 88
-104.79498654604 225.890964269638 2681.99992179871 139 107 84
-97.3333716392517 225.558221340179 2677.99997329712 138 104 79
-89.8595601320267 225.140914320946 2673.00009727478 140 106 81
-82.5053304433823 224.975973367691 2671.0000038147 137 107 83
-75.4151493310928 225.568830966949 2677.99997329712 126 98 76
-68.3373361825943 226.329877972603 2687.00003623962 58 35 17
-61.142023652792 226.837933063507 2693.00007820129 76 57 40
-53.6340624094009 226.166397333145 2684.99994277954 78 62 49
-46.35925963521 226.421162486076 2687.99996376038 19 9 0
-38.9662869274616 226.086020469666 2684.00001525879 20 17 8
-31.7364484071732 226.76132619381 2691.99991226196 15 16 8
-24.4447030127048 227.267906069756 2697.99995422363 14 15 7
-16.8098751455545 223.646610975266 2654.99997138977 15 16 8
-9.57898143678904 223.984107375145 2658.99991989136 15 16 8
-2.33669974841177 225.332126021385 2674.99995231628 16 19 10
4.95951948687434 225.163623690605 2673.00009727478 16 19 10
12.0293386280537 221.035689115524 2624.00007247925 17 20 11
19.3362906575203 222.719743847847 2644.00005340576 17 20 11
26.4912229031324 222.213372588158 2638.00001144409 18 21 12
33.5111394524574 221.032872796059 2624.00007247925 18 21 12
41.0124994814396 222.884476184845 2645.99990844727 14 17 10
48.9436499774456 226.167768239975 2684.99994277954 14 17 10
55.8300167322159 224.396720528603 2664.00003433228 14 17 10
62.6726076006889 222.878068685532 2645.99990844727 14 17 10
70.2884048223495 224.138841032982 2661.00001335144 14 17 10
78.1606212258339 225.904613733292 2681.99992179871 14 17 10
86.0196202993393 227.333128452301 2698.99988174438 16 19 12
93.0714979767799 226.571440696716 2690.00005722046 17 20 13
100.447133183479 226.651698350906 2690.99998474121 17 20 13
107.587523758411 226.226314902306 2686.00010871887 16 19 12
114.914119243622 226.221784949303 2686.00010871887 17 20 13
122.831881046295 227.311804890633 2698.99988174438 17 20 13
130.530670285225 227.896198630333 2706.00008964539 13 16 9
138.318076729774 228.564471006393 2713.99998664856 9 12 5
145.289540290833 227.885007858276 2706.00008964539 10 13 6
153.345137834549 228.889524936676 2717.99993515015 15 18 11
161.643043160439 230.14634847641 2733.00004005432 12 15 8
168.660938739777 229.55022752285 2726.0000705719 13 16 9
174.864828586578 227.943390607834 2707.00001716614 13 16 9
181.772381067276 227.346792817116 2700.00004768372 16 19 12
187.94059753418 225.907996296883 2683.00008773804 17 20 13
222.526535391808 231.432154774666 2749.00007247925 17 20 11
230.600908398628 232.012525200844 2756.00004196167 17 22 16
239.490136504173 233.350202441216 2772.0000743866 21 27 23
243.207588791847 229.721024632454 2729.00009155273 22 28 24
320.487529039383 243.184313178062 2890.00010490417 43 36 26
327.781081199646 242.75130033493 2884.99999046326 73 55 45
335.627973079681 242.738753557205 2884.99999046326 95 73 60
342.640370130539 242.137044668198 2878.00002098084 248 222 209
350.22234916687 241.955786943436 2875.99992752075 80 52 40
358.663737773895 242.363199591637 2881.00004196167 112 88 76
368.784874677658 243.863895535469 2898.9999294281 107 93 82
-143.378242850304 221.65410220623 2720.00002861023 124 111 94
-135.360568761826 220.681682229042 2707.99994468689 141 115 98
-127.502366900444 219.871908426285 2697.99995422363 148 119 101
-119.787268340588 219.224840402603 2690.00005722046 144 112 91
-112.324357032776 218.984946608543 2687.00003623962 143 111 90
-104.994595050812 218.989238142967 2687.00003623962 139 107 84
-97.5190326571465 218.667268753052 2683.00008773804 134 100 75
-90.0648906826973 218.345001339912 2678.99990081787 138 104 79
-82.6013460755348 217.940926551819 2674.00002479553 132 100 77
-75.4745304584503 218.433082103729 2680.0000667572 122 94 72
-68.390965461731 219.169497489929 2688.99989128113 58 35 17
-61.2126179039478 219.742655754089 2696.00009918213 85 64 47
-53.7960454821587 219.5003926754 2693.00007820129 88 70 56
-46.464629471302 219.583928585052 2694.00000572205 27 15 3
-39.0694960951805 219.341084361076 2690.99998474121 22 19 10
-31.5844714641571 218.364402651787 2678.99990081787 16 17 9
-24.0198448300362 216.083243489265 2651.00002288818 14 15 7
-16.7788993567228 216.00253880024 2650.00009536743 13 14 6
-9.64782014489174 218.285366892815 2677.99997329712 15 16 8
-2.32980633154511 217.38900244236 2667.00005531311 16 19 10
4.95415460318327 217.633470892906 2670.00007629395 16 19 10
12.2453002259135 217.714637517929 2671.0000038147 16 19 10
19.5272285491228 217.632487416267 2670.00007629395 16 19 10
26.602765545249 215.919822454453 2648.9999294281 18 21 12
33.6402133107185 214.695990085602 2634.0000629425 18 21 12
40.8436618745327 214.776024222374 2634.99999046326 15 18 11
48.5263653099537 216.974973678589 2661.99994087219 15 18 11
56.1047345399857 218.195497989655 2677.00004577637 15 18 11
62.7935826778412 216.073930263519 2651.00002288818 15 18 11
70.6610679626465 218.027427792549 2674.99995231628 15 18 11
78.0472010374069 218.268945813179 2677.99997329712 15 18 11
92.0026302337646 216.71362221241 2658.99991989136 18 21 14
99.891260266304 218.095362186432 2676.00011825562 17 20 13
107.47168213129 218.66175532341 2683.00008773804 16 19 12
115.432135760784 219.879806041718 2697.99995422363 16 19 12
121.744520962238 218.000680208206 2674.99995231628 19 22 15
129.185199737549 218.24024617672 2677.99997329712 18 21 14
136.335909366608 217.990502715111 2674.99995231628 16 19 12
145.510107278824 220.837146043777 2710.00003814697 17 20 13
152.787044644356 220.66830098629 2707.99994468689 18 21 14
160.111650824547 220.580697059631 2707.00001716614 16 19 12
169.038876891136 222.611352801323 2732.00011253357 15 18 11
175.840765237808 221.789821982384 2721.99988365173 14 17 10
181.644901633263 219.827339053154 2697.99995422363 15 18 11
187.87793815136 218.516528606415 2681.99992179871 18 21 14
193.295255303383 216.390833258629 2655.99989891052 20 23 14
210.574939846992 227.218687534332 2789.00003433228 18 21 12
217.235788702965 226.232826709747 2776.99995040894 17 20 9
223.911389708519 225.328251719475 2766.00003242493 17 20 11
229.522094130516 223.445951938629 2743.00003051758 17 22 15
235.611438751221 222.133696079254 2726.99999809265 20 26 22
247.049257159233 225.79000890255 2772.0000743866 21 27 23
320.166856050491 235.070616006851 2887.00008392334 45 35 25
328.474998474121 235.384345054626 2891.00003242493 79 61 49
336.338490247726 235.37215590477 2891.00003242493 70 48 35
343.248307704926 234.708428382874 2882.99989700317 85 62 48
350.357055664063 234.20737683773 2877.00009346008 90 67 53
359.050363302231 234.764352440834 2884.0000629425 111 89 76
370.197743177414 236.867606639862 2910.00008583069 106 94 82
-143.700078129768 214.713796973228 2726.0000705719 111 98 82
-135.715737938881 213.852688670158 2714.99991416931 107 84 68
-127.932667732239 213.227584958076 2707.00001716614 117 90 73
-120.326317846775 212.838470935822 2701.99990272522 120 91 73
-112.66316473484 212.291523814201 2694.9999332428 122 89 70
-105.272233486176 212.216973304749 2694.00000572205 121 89 68
-97.8499799966812 212.063327431679 2691.99991226196 116 81 59
-90.4046148061752 211.830601096153 2688.99989128113 112 77 55
-82.9134956002235 211.440071463585 2684.00001525879 112 81 60
-75.5619779229164 211.364358663559 2683.00008773804 115 87 66
-68.3936476707459 211.839780211449 2688.99989128113 69 43 26
-61.146903783083 212.157443165779 2693.00007820129 91 68 52
-53.8780726492405 212.474793195724 2697.00002670288 79 61 47
-46.6906800866127 213.264554738998 2707.00001716614 18 6 0
-39.1871891915798 212.635949254036 2698.99988174438 22 19 10
-31.64466843009 211.455568671227 2684.00001525879 19 20 12
-24.0570344030857 209.171906113625 2654.99997138977 19 20 12
-16.7985558509827 209.015160799026 2653.00011634827 17 18 10
-9.62658412754536 210.512563586235 2671.99993133545 17 18 10
-2.32989806681871 210.118874907494 2667.00005531311 16 19 10
4.94878320023417 210.11883020401 2667.00005531311 15 18 9
12.2687071561813 210.827559232712 2676.00011825562 12 15 6
19.6011364459991 211.14207804203 2680.0000667572 11 14 5
26.7845895141363 210.116982460022 2667.00005531311 11 14 5
33.7820276618004 208.382546901703 2644.99998092651 11 14 5
41.0467870533466 208.617463707924 2648.00000190735 15 18 11
48.4553575515747 209.403544664383 2657.99999237061 16 19 12
55.7296760380268 209.480300545692 2658.99991989136 16 19 12
63.0566105246544 209.714353084564 2661.99994087219 16 19 12
70.7430839538574 210.972249507904 2677.99997329712 16 19 12
77.8171122074127 210.339173674583 2670.00007629395 15 18 11
84.2734351754189 208.287790417671 2644.00005340576 17 20 13
91.3141965866089 207.890525460243 2638.99993896484 19 22 15
99.260538816452 209.462344646454 2658.99991989136 18 21 14
107.075303792953 210.561245679855 2673.00009727478 18 21 14
114.580914378166 210.950836539268 2677.99997329712 19 22 15
122.067861258984 211.261406540871 2681.99992179871 26 29 22
127.887710928917 208.814784884453 2651.00002288818 17 20 13
136.035397648811 210.22754907608 2668.99991035461 17 20 13
145.462051033974 213.372811675072 2709.00011062622 19 22 15
151.833757758141 211.949408054352 2690.99998474121 13 16 9
159.585475921631 212.494820356369 2697.99995422363 12 15 8
167.993471026421 213.827505707741 2714.99991416931 17 20 13
176.170527935028 214.766085147858 2726.99999809265 15 18 11
183.200418949127 214.286759495735 2720.99995613098 16 19 12
188.235402107239 211.602225899696 2687.00003623962 18 21 14
196.432158350945 212.539985775948 2698.99988174438 21 24 15
211.186990141869 220.249488949776 2796.99993133545 18 21 12
216.305255889893 217.721715569496 2765.00010490417 18 21 10
222.786501049995 216.689899563789 2752.00009346008 20 23 14
236.138701438904 215.176895260811 2733.00004005432 21 27 23
246.969357132912 218.159750103951 2770.99990844727 22 28 24
322.063863277435 228.546395897865 2904.00004386902 65 51 42
329.395920038223 228.141263127327 2898.9999294281 75 55 44
337.746769189835 228.444173932076 2903.00011634827 85 63 50
344.570398330688 227.723881602287 2894.00005340576 91 68 54
351.465612649918 227.082103490829 2885.99991798401 100 76 64
360.059171915054 227.541700005531 2891.99995994568 106 87 73
-143.863618373871 207.511827349663 2729.00009155273 102 90 74
-136.220723390579 207.212805747986 2724.99990463257 106 83 67
-128.268331289291 206.381246447563 2713.99998664856 108 81 64
-120.687134563923 206.081703305244 2710.00003814697 117 88 70
-112.83465474844 205.249533057213 2698.99988174438 116 85 65
-105.54976016283 205.405697226524 2700.99997520447 117 86 65
-98.0717837810516 205.181330442429 2697.99995422363 125 93 72
-90.6770080327988 205.108776688576 2697.00002670288 106 74 53
-83.1020027399063 204.579666256905 2690.00005722046 115 84 63
-75.6493434309959 204.27842438221 2686.00010871887 119 91 70
-68.3708265423775 204.433232545853 2687.99996376038 67 44 26
-61.1946433782578 204.9680352211 2694.9999332428 82 61 44
-53.9999902248383 205.57864010334 2703.00006866455 84 65 50
-46.7442087829113 206.112906336784 2710.00003814697 21 9 0
-39.2758026719093 205.734238028526 2704.99992370605 14 11 2
-31.4808115363121 203.073590993881 2670.00007629395 18 19 11
-24.1213832050562 202.466160058975 2661.99994087219 19 20 12
-16.8878491967916 202.847227454185 2667.00005531311 17 18 10
-9.60173085331917 202.695578336716 2664.99996185303 17 18 10
-2.33173440210521 203.00005376339 2668.99991035461 17 20 11
4.91557084023952 201.478838920593 2648.9999294281 17 20 11
12.23708037287 202.999666333199 2668.99991035461 15 18 9
19.4994881749153 202.770918607712 2665.99988937378 13 16 7
26.8458724021912 203.302457928658 2673.00009727478 10 13 4
33.8344089686871 201.475903391838 2648.9999294281 9 12 3
41.3118787109852 202.691435813904 2664.99996185303 15 18 11
48.8765090703964 203.906640410423 2680.99999427795 15 18 11
56.1090782284737 203.600451350212 2677.00004577637 15 18 11
63.2485300302505 203.06584239006 2670.00007629395 15 18 11
71.1420401930809 204.812556505203 2693.00007820129 16 19 12
77.9949426651001 203.516885638237 2676.00011825562 15 18 11
84.2447504401207 201.00411772728 2642.99988746643 17 20 13
91.2830606102943 200.620591640472 2638.00001144409 19 22 15
99.5629578828812 202.822461724281 2667.00005531311 19 22 15
107.119411230087 203.350961208344 2674.00002479553 19 22 15
114.456877112389 203.422874212265 2674.99995231628 20 23 16
121.981434524059 203.798726201057 2680.0000667572 18 21 14
129.532769322395 204.174295067787 2684.99994277954 18 21 14
135.989531874657 202.876672148705 2667.99998283386 15 18 11
143.749162554741 203.55586707592 2677.00004577637 17 20 13
150.710955262184 203.094229102135 2671.0000038147 18 21 14
158.290088176727 203.468710184097 2676.00011825562 18 21 14
167.257204651833 205.515667796135 2703.00006866455 17 20 13
178.115218877792 209.614992141724 2756.99996948242 16 19 12
183.207228779793 206.87136054039 2720.99995613098 15 18 11
191.044613718987 207.32070505619 2726.99999809265 17 20 13
197.385564446449 206.173285841942 2711.99989318848 19 22 15
206.060260534286 207.458347082138 2729.00009155273 22 25 16
215.609133243561 209.503218531609 2756.00004196167 23 26 17
222.227945923805 208.659157156944 2744.99988555908 21 27 17
227.86545753479 206.978768110275 2723.00004959106 21 26 19
235.715255141258 207.350507378578 2727.9999256134 22 27 21
321.964293718338 220.561161637306 2903.00011634827 58 39 32
329.066604375839 220.018073916435 2895.99990844727 60 37 29
337.176859378815 220.158562064171 2898.00000190735 63 39 29
344.463258981705 219.76700425148 2892.99988746643 83 56 47
352.330297231674 219.755098223686 2892.99988746643 85 61 51
362.561702728271 221.186175942421 2911.99994087219 84 64 53
-144.396021962166 200.805872678757 2739.00008201599 108 100 87
-136.375650763512 200.004413723946 2727.9999256134 101 83 69
-128.367528319359 199.129402637482 2716.00008010864 90 68 54
-120.780602097511 198.8405585289 2711.99989318848 113 90 74
-113.089621067047 198.331519961357 2704.99992370605 100 73 56
-105.749025940895 198.40881228447 2706.00008964539 111 84 65
-98.2934832572937 198.265805840492 2703.9999961853 114 86 65
-90.8820852637291 198.195889592171 2703.00006866455 97 69 48
-83.3213180303574 197.759091854095 2697.00002670288 122 95 74
-75.849287211895 197.468668222427 2693.00007820129 111 86 66
-68.5005187988281 197.471275925636 2693.00007820129 82 61 44
-61.3104291260242 197.986900806427 2700.00004768372 71 54 38
-54.1218556463718 198.648974299431 2709.00011062622 57 41 26
-46.6769374907017 198.430806398392 2706.00008964539 24 14 4
-39.0449278056622 197.18573987484 2688.99989128113 16 13 4
-31.4701795578003 195.72040438652 2668.99991035461 13 14 6
-24.2400765419006 196.161389350891 2674.99995231628 13 14 6
-16.780823469162 194.328874349594 2650.00009536743 16 17 9
-9.56965796649456 194.769307971001 2655.99989891052 17 18 10
-2.32221023179591 194.91620361805 2657.99999237061 16 19 10
4.94173262268305 195.282831788063 2663.00010681152 17 20 11
12.1366614475846 194.109186530113 2647.0000743866 18 21 12
19.3904917687178 194.40196454525 2651.00002288818 18 21 12
26.8468670547009 196.014419198036 2673.00009727478 13 16 7
34.0017080307007 195.20665705204 2661.99994087219 10 13 4
40.894839912653 193.44536960125 2638.00001144409 14 17 10
48.896536231041 196.670234203339 2681.99992179871 14 17 10
56.8657219409943 198.941543698311 2713.00005912781 15 18 11
63.7720227241516 197.399482131004 2691.99991226196 15 18 11
71.1710751056671 197.543695569038 2694.00000572205 15 18 11
78.5807520151138 197.687640786171 2696.00009918213 15 18 11
85.2997526526451 196.21816277504 2676.00011825562 16 19 12
92.2553166747093 195.481702685356 2665.99988937378 19 22 15
100.238591432571 196.871384978294 2684.99994277954 19 22 15
108.004674315453 197.674185037613 2696.00009918213 19 22 15
115.701951086521 198.256745934486 2703.9999961853 21 24 17
122.122436761856 196.712777018547 2683.00008773804 20 23 16
129.7787129879 197.221487760544 2690.00005722046 19 22 15
143.80806684494 196.331933140755 2677.99997329712 17 20 13
150.603547692299 195.666879415512 2668.99991035461 18 21 14
158.65071117878 196.614399552345 2681.99992179871 16 19 12
166.953817009926 197.781533002853 2697.99995422363 17 20 13
175.795763731003 199.461504817009 2720.99995613098 16 19 12
183.819800615311 200.114890933037 2730.00001907349 15 18 11
191.051468253136 199.88839328289 2726.99999809265 17 20 13
197.392597794533 198.782071471214 2711.99989318848 19 22 15
204.104334115982 198.115408420563 2703.00006866455 21 24 15
214.208528399467 200.67335665226 2737.99991607666 22 25 16
223.288282752037 202.131524682045 2757.99989700317 21 27 17
230.300381779671 201.683938503265 2752.00009346008 21 26 19
248.166441917419 210.46981215477 2871.99997901917 21 26 19
316.023588180542 213.983103632927 2921.0000038147 99 82 75
321.420699357986 212.287530303001 2898.00000190735 58 39 33
328.96414399147 212.056919932365 2894.99998092651 57 34 28
337.420970201492 212.412089109421 2900.00009536743 65 42 34
345.546513795853 212.547227740288 2901.99995040894 88 63 56
354.899734258652 213.414564728737 2914.00003433228 75 52 44
-144.875571131706 193.97409260273 2747.99990653992 107 101 89
-136.330455541611 192.496582865715 2726.99999809265 100 84 71
-128.419294953346 191.795244812965 2717.00000762939 89 70 56
-120.918475091457 191.658392548561 2714.99991416931 112 90 76
-113.260850310326 191.23886525631 2709.00011062622 98 75 59
-105.830907821655 191.172078251839 2707.99994468689 104 81 63
-98.3696654438972 191.034436225891 2706.00008964539 114 89 69
-90.9861773252487 191.037744283676 2706.00008964539 101 76 56
-83.4787338972092 190.758362412453 2701.99990272522 120 95 75
-76.0491415858269 190.619975328445 2700.00004768372 112 89 71
-68.6301365494728 190.481275320053 2697.99995422363 84 65 50
-61.4715777337551 191.118970513344 2707.00001716614 69 53 38
-54.1637390851974 191.403418779373 2710.99996566772 50 36 23
-46.6786026954651 191.052138805389 2706.00008964539 27 19 8
-38.8575531542301 188.935548067093 2676.00011825562 14 15 7
-31.5184704959393 188.724964857101 2673.00009727478 11 12 4
-24.0415781736374 187.313854694366 2653.00011634827 12 13 5
-16.8067496269941 187.38517165184 2654.00004386902 16 17 9
-9.55919083207846 187.31501698494 2653.00011634827 17 18 10
-2.34326161444187 189.362764358521 2681.99992179871 16 19 10
4.906649235636 186.679735779762 2644.00005340576 18 21 12
12.0362192392349 185.337960720062 2625 20 23 14
19.2741490900517 186.043441295624 2634.99999046326 20 23 14
26.7072040587664 187.7371519804 2658.99991989136 15 18 9
33.8751822710037 187.241852283478 2651.99995040894 13 16 7
41.1753505468369 187.5229626894 2655.99989891052 11 14 7
48.8618202507496 189.21585381031 2680.0000667572 13 16 9
56.7839071154594 191.261515021324 2709.00011062622 14 17 10
64.4613057374954 192.106604576111 2720.99995613098 14 17 10
71.886919438839 192.104205489159 2720.99995613098 13 16 9
79.3996900320053 192.313373088837 2723.99997711182 12 15 8
87.3110368847847 193.369477987289 2739.00008201599 14 17 10
93.4351831674576 190.612986683846 2700.00004768372 16 19 12
100.540809333324 190.115436911583 2693.00007820129 18 21 14
108.449175953865 191.100165247917 2707.00001716614 19 22 15
115.834407508373 191.096276044846 2707.00001716614 21 24 17
122.627437114716 190.174430608749 2694.00000572205 22 25 16
130.313977599144 190.664187073708 2700.99997520447 21 24 15
138.038218021393 191.153690218925 2707.99994468689 18 21 12
143.329784274101 188.395902514458 2668.99991035461 19 22 13
150.890961289406 188.74379992485 2674.00002479553 19 22 13
159.12951529026 189.867809414864 2690.00005722046 17 20 11
169.620588421822 193.461880087852 2740.9999370575 17 20 11
176.318749785423 192.609012126923 2729.00009155273 16 19 10
182.816118001938 191.614776849747 2714.99991416931 15 18 9
191.688627004623 193.090513348579 2736.00006103516 16 19 10
198.709607124329 192.660450935364 2730.00001907349 18 21 12
203.884795308113 190.536543726921 2700.00004768372 16 19 10
214.52884376049 193.493321537971 2742.00010299683 18 21 12
224.024593830109 195.250049233437 2766.99995994568 20 26 16
233.572036027908 196.93586230278 2790.99988937378 20 25 18
314.952105283737 205.320298671722 2911.00001335144 53 40 34
322.207689285278 204.88677918911 2904.99997138977 63 50 44
329.656720161438 204.594150185585 2901.00002288818 63 48 41
338.246434926987 205.006554722786 2907.00006484985 64 47 39
348.653703927994 206.476494669914 2927.99997329712 62 45 38
-136.835038661957 185.739889740944 2736.99998855591 112 104 93
-128.943592309952 185.133531689644 2727.9999256134 59 45 36
-121.056199073792 184.459045529366 2717.99993515015 72 56 43
-113.557383418083 184.327244758606 2716.00008010864 103 85 71
-105.912677943707 183.923706412315 2710.00003814697 90 71 56
-98.5547974705696 183.994993567467 2710.99996566772 110 89 72
-91.09016507864 183.862462639809 2709.00011062622 106 85 68
-83.6669653654099 183.797478675842 2707.99994468689 61 40 23
-76.2207433581352 183.664426207542 2706.00008964539 95 76 59
-68.78512352705 183.531135320663 2703.9999961853 94 77 61
-61.5645200014114 184.008449316025 2710.99996566772 71 57 44
-54.3454177677631 184.621274471283 2720.00002861023 42 30 18
-46.8527115881443 184.351474046707 2716.00008010864 21 14 4
-39.2073951661587 183.266878128052 2700.00004768372 20 20 10
-31.5313413739204 181.503280997276 2674.00002479553 12 13 5
-24.2780242115259 181.843623518944 2678.99990081787 12 13 5
-16.9149860739708 181.301310658455 2671.0000038147 16 17 9
-9.6928421407938 182.591423392296 2690.00005722046 17 18 10
-2.33285780996084 181.234061717987 2670.00007629395 16 19 10
4.92723239585757 180.21585047245 2654.99997138977 18 21 12
12.0595628395677 178.518638014793 2630.00011444092 21 24 15
19.2455537617207 178.585976362228 2631.00004196167 20 23 14
26.667945086956 180.214270949364 2654.99997138977 16 19 10
34.0424105525017 180.892005562782 2664.99996185303 14 17 8
41.5333397686481 181.841000914574 2678.99990081787 12 15 8
56.6181540489197 183.330968022346 2700.99997520447 14 17 10
64.3450617790222 184.347063302994 2716.00008010864 14 17 10
72.2592622041702 185.634359717369 2734.99989509583 13 16 9
79.5772969722748 185.292437672615 2730.00001907349 13 16 9
87.1227532625198 185.493275523186 2733.00004005432 14 17 10
93.9574763178825 184.268534183502 2714.99991416931 16 19 12
100.730925798416 183.111503720284 2697.99995422363 17 20 13
107.771769165993 182.565048336983 2690.00005722046 18 21 14
115.538790822029 183.239981532097 2700.00004768372 20 23 16
122.540555894375 182.693094015121 2691.99991226196 20 23 14
130.31841814518 183.299660682678 2700.99997520447 21 24 15
137.940943241119 183.634534478188 2706.00008964539 19 22 13
144.730925559998 182.883352041245 2694.9999332428 20 23 14
151.798933744431 182.539135217667 2690.00005722046 20 23 14
162.684351205826 186.605393886566 2750 18 21 12
174.329534173012 191.146150231361 2816.99991226196 17 20 11
175.613939762115 184.422895312309 2717.99993515015 16 19 10
181.812167167664 183.19571018219 2700.00004768372 16 19 10
190.013468265533 184.003785252571 2711.99989318848 16 19 10
199.007362127304 185.490071773529 2733.99996757507 18 21 12
206.987679004669 185.958370566368 2740.9999370575 15 18 9
214.301228523254 185.815826058388 2739.00008201599 17 20 11
235.671997070313 191.02481007576 2815.99998474121 19 24 17
238.590985536575 187.286272644997 2760.99991798401 19 24 18
325.323671102524 198.87101650238 2933.00008773804 53 46 38
333.644539117813 199.064150452614 2936.00010871887 50 41 34
-129.467755556107 178.41112613678 2739.00008201599 83 70 61
-121.639184653759 177.894040942192 2730.99994659424 69 55 44
-114.021025598049 177.637249231339 2726.99999809265 101 85 72
-106.267914175987 177.119687199593 2719.00010108948 82 64 50
-98.7761542201042 176.992699503899 2717.00000762939 102 83 66
-91.2612900137901 176.800340414047 2713.99998664856 102 83 66
-83.8860124349594 176.868304610252 2714.99991416931 48 29 14
-76.4204412698746 176.740616559982 2713.00005912781 71 54 38
-68.9909085631371 176.67780816555 2711.99989318848 67 54 38
-61.7482326924801 177.135974168777 2719.00010108948 49 37 25
-54.6469204127789 178.180187940598 2734.99989509583 30 20 10
-47.0267757773399 177.595540881157 2726.0000705719 23 19 8
-39.2813012003899 176.228776574135 2704.99992370605 21 21 11
-32.0158638060093 176.881432533264 2714.99991416931 17 18 10
-24.7047729790211 177.599012851715 2726.0000705719 15 16 8
-17.1182043850422 176.101237535477 2703.00006866455 13 14 6
-9.58866439759731 173.365354537964 2661.00001335144 14 15 7
-2.32332362793386 173.235237598419 2658.99991989136 18 21 12
4.94224298745394 173.495799303055 2663.00010681152 18 21 12
12.1883563697338 173.169761896133 2657.99999237061 18 21 12
19.4071251899004 172.843515872955 2653.00011634827 18 21 12
26.7391428351402 173.429116606712 2661.99994087219 15 18 9
34.3501195311546 175.187155604362 2688.99989128113 14 17 8
41.8913029134274 176.032856106758 2701.99990272522 13 16 9
49.2115430533886 175.83592236042 2698.99988174438 11 14 7
56.7248351871967 176.290258765221 2706.00008964539 11 14 7
64.5841062068939 177.591249346733 2726.0000705719 12 15 8
70.4121738672256 173.615112900734 2664.99996185303 13 16 9
78.7637159228325 176.023095846176 2701.99990272522 12 15 8
86.2967595458031 176.34616792202 2707.00001716614 14 17 10
93.1645780801773 175.366103649139 2691.99991226196 16 19 12
100.622214376926 175.558403134346 2694.9999332428 16 19 12
108.576618134975 176.532179117203 2710.00003814697 16 19 12
116.098903119564 176.723971962929 2713.00005912781 18 21 14
122.225925326347 174.896255135536 2684.99994277954 18 21 12
129.743650555611 175.152763724327 2688.99989128113 19 22 13
137.588575482368 175.79984664917 2698.99988174438 17 20 11
145.111560821533 175.990745425224 2701.99990272522 18 21 12
153.722569346428 177.418902516365 2723.99997711182 17 20 11
162.216335535049 178.586229681969 2742.00010299683 15 18 9
170.374423265457 179.297357797623 2753.00002098084 15 18 9
175.102710723877 176.49145424366 2710.00003814697 15 18 9
180.336534976959 174.401804804802 2677.99997329712 16 19 10
189.739316701889 176.349669694901 2707.99994468689 16 19 10
199.596077203751 178.557649254799 2742.00010299683 17 20 11
206.994280219078 178.486153483391 2740.9999370575 14 20 10
215.481668710709 179.326042532921 2753.99994850159 15 21 11
224.201053380966 180.295899510384 2769.00005340576 17 22 15
243.783578276634 183.667078614235 2821.00009918213 18 23 16
248.883187770844 181.771397590637 2792.00005531311 21 26 20
-122.489303350449 171.631902456284 2750 117 107 97
-114.693649113178 171.198666095734 2743.00003051758 78 66 54
-106.779374182224 170.515552163124 2732.00011253357 50 38 26
-99.1791784763336 170.269042253494 2727.9999256134 99 85 72
-91.6677042841911 170.147180557251 2726.0000705719 100 84 69
-84.3521505594254 170.399576425552 2730.00001907349 44 28 13
-76.9580826163292 170.526921749115 2732.00011253357 50 36 23
-69.3746954202652 170.217096805573 2726.99999809265 66 56 44
-62.0908476412296 170.656055212021 2733.99996757507 62 54 43
-54.7086037695408 170.907571911812 2737.99991607666 53 44 35
-46.9247624278069 169.785588979721 2720.00002861023 22 18 9
-39.2389856278896 168.663322925568 2701.99990272522 21 21 13
-31.9697149097919 169.226229190826 2710.99996566772 19 20 12
-24.7418116778135 170.4131513834 2730.00001907349 16 17 9
-17.1124152839184 168.665960431099 2701.99990272522 11 12 4
-9.57455486059189 165.85735976696 2657.00006484985 13 14 6
-2.32252408750355 165.919974446297 2657.99999237061 18 21 12
4.95168007910252 166.544154286385 2667.99998283386 18 21 12
12.2437728568912 166.668742895126 2670.00007629395 17 20 11
19.5247866213322 166.605815291405 2668.99991035461 16 19 10
26.8705803900957 166.979640722275 2674.99995231628 15 18 9
34.4150885939598 168.164700269699 2694.00000572205 14 17 8
41.9081449508667 168.725311756134 2703.00006866455 13 16 9
49.2678061127663 168.661445379257 2701.99990272522 10 13 6
56.7895323038101 169.096767902374 2709.00011062622 9 12 5
64.0412345528603 168.720364570618 2703.00006866455 11 14 7
71.2334960699081 168.281316757202 2696.00009918213 13 16 9
78.0957415699959 167.217880487442 2678.99990081787 13 16 9
85.8850479125977 168.151617050171 2694.00000572205 14 17 10
93.132920563221 167.961582541466 2690.99998474121 16 19 12
