ply
format ascii 1.0
comment KinectMotionCapture
element vertex 757
property float x
property float y
property float z
property uchar red
property uchar green
property uchar blue
end_header
93.22025134052 585.072265643397 2885.94480876871 160 160 158
83.431555556225 583.954919959242 2885.01859234041 144 144 142
74.435355967001 582.970949363223 2883.43251225854 138 138 136
61.6098348490035 581.330403621059 2885.24292169617 140 140 138
47.289272038701 579.430125865138 2888.43830116983 150 150 148
33.7807591092405 577.664687776339 2890.98799929241 155 155 153
24.890606881034 576.688840607092 2889.47913082948 151 151 149
20.5796010334964 576.499655690512 2883.88266469486 168 168 166
14.7425074339713 576.048174297667 2879.64894413255 179 179 177
8.14860007645635 575.466089004402 2876.10096822057 160 160 158
0.804245276250004 574.753806424001 2873.24364857333 157 157 155
-6.53206877322887 574.042075259982 2870.39186615391 160 160 158
-13.1113221828294 573.46094848304 2866.8548125336 157 157 155
-18.1925064383894 573.139718517448 2861.93439542957 156 156 154
-21.0441780689041 573.20707419183 2854.92705798288 152 152 152
-22.428693722145 573.531982083406 2846.5142300321 167 167 167
-26.8031244612401 573.337191451131 2840.872051923 197 197 197
-27.495196925154 573.787488509185 2831.72678930929 180 180 180
-30.4274653693823 573.848244840622 2824.66069760831 150 150 150
-33.3784513175144 573.907375716247 2817.58132343308 159 159 159
-40.7388853533357 573.192894381212 2814.71233646767 161 161 161
-43.7138843654292 573.249870827501 2807.61554379729 152 152 152
-46.7072329773 573.305380265098 2800.50514720273 148 148 148
-46.8185981152898 573.871835407135 2790.54640345688 146 146 146
-48.4120181725844 574.179401505508 2781.98204840577 149 149 149
-50.0329227233034 574.484621565768 2773.39775737567 144 144 144
-52.3998885222512 574.659910053837 2765.5073036022 121 121 119
-55.5062021217196 574.705770603565 2758.31526188083 110 110 108
-60.0594369253948 574.495379229021 2752.5430913916 118 118 116
-74.5903662357485 572.504146107425 2756.82084209928 129 129 127
-96.1670275631321 569.247154213377 2768.33553523277 139 139 137
-117.647798585024 565.99743303942 2779.92007259977 141 141 141
-131.273355996938 564.147782809247 2783.61953275726 152 152 152
-142.038818678767 562.807424538786 2784.45476976943 159 159 159
-149.970227750247 561.974307147513 2782.40601205262 173 173 173
-157.190790935527 561.267960617144 2779.63846165615 174 174 174
-160.920550109188 561.191751311725 2773.22888925439 184 186 185
-165.358924180193 560.988405030891 2767.54031392332 183 185 184
-170.498966777985 560.658493663277 2762.5771851779 189 191 190
-175.644432112328 560.327914376642 2757.61041646891 201 203 202
-178.044197927012 560.497637764226 2749.69586259869 195 197 196
-175.66844620338 561.540799259986 2736.60205656137 196 198 197
-169.246502009278 563.32888164958 2719.03409176085 192 194 191
333.543722108814 607.115385267136 2867.59222518001 198 202 203
332.185635763133 607.42418249183 2859.19847479461 205 207 206
325.921849820813 606.937745925812 2854.6552587921 158 160 159
319.657574170614 606.451419047533 2850.1116883455 143 143 143
309.348875798762 605.305668918515 2848.80866154698 128 128 128
299.061635924766 604.161826040205 2847.52090565508 126 126 126
292.817704375391 603.677535595774 2842.99209339626 124 124 122
280.155311916634 602.142201289841 2843.68625456779 112 112 110
249.9272301659 597.722872455684 2858.80463740484 108 108 106
213.447490465093 592.265434735346 2879.26668373837 144 143 141
193.045893795117 589.438463148088 2886.69523793997 137 136 134
182.243971010211 588.18621101072 2886.26915941403 139 139 137
162.764012948848 585.500078938196 2893.13121138544 140 140 138
142.56874011318 582.689363445514 2900.709122001 140 140 138
128.746606293578 580.92641892871 2903.03148227775 137 137 135
118.106180109115 579.686951097963 2902.72254083901 156 156 154
111.403608691966 579.098761634072 2899.09605558938 160 160 158
106.265465787209 578.770348398622 2894.13431156032 163 163 161
101.900038229934 578.571059540651 2888.49863726546 163 163 161
95.1974540564349 577.983008044514 2884.8718489903 163 163 161
85.403596051421 576.878507289883 2883.94195542013 148 148 146
74.859278240591 575.646646077787 2883.70272352152 140 140 138
62.8017110596617 574.159054744442 2884.83557727212 140 140 138
48.4771982945631 572.288119802375 2888.02824196638 148 148 146
36.4947966311626 570.806338508674 2889.21531975673 157 157 155
26.834815751891 569.712185830216 2888.38282346415 151 151 149
21.7590871571387 569.388600233056 2883.46664383036 163 163 161
16.6782522833873 569.064560740066 2878.54646576986 176 176 174
10.8358824822479 568.612293453158 2874.30891639569 164 164 162
2.73067387354731 567.776846379164 2872.13445036201 155 155 153
-3.8588702839577 567.197275689484 2868.58994464082 156 156 154
-10.4447565841519 566.617931224847 2865.0477972473 158 158 156
-14.0377468682937 566.547365037587 2858.73740011585 157 157 155
-19.880432231316 566.094683851848 2854.49961988766 158 158 158
-21.2662798292105 566.402636085169 2846.08574049803 164 164 164
-25.6426499054951 566.201833451064 2840.44212607004 189 189 189
-24.8586277071143 566.885433944736 2829.89772997092 195 195 195
-29.2697600560754 566.681745076673 2824.22860653324 171 171 171
-30.7540121581571 566.981635831993 2815.74335078549 145 145 145
-38.1214688071267 566.271693683174 2812.86929596982 155 155 155
-41.1025104263216 566.316859157919 2805.7680630597 160 160 160
-44.829602786794 566.234861640684 2799.36039456929 157 157 157
-45.6695191394378 566.653376620212 2790.107795783 144 144 144
-45.8179091115025 567.194537536333 2780.12178934752 142 142 142
-46.7236354470286 567.607631557591 2770.82145604196 136 136 136
-49.0987772669196 567.768158156396 2762.92500052453 125 125 123
-52.2132580309036 567.802055135267 2755.72668317645 114 114 112
-56.0609414933229 567.709701314129 2749.231837643 128 128 126
-69.1805539805102 565.998769867144 2752.06373408262 135 135 133
-94.3260169653484 562.178986193111 2767.16424818134 142 142 140
-116.522516726883 558.864421750289 2779.46464669582 144 144 144
-132.26872967517 556.67256386456 2785.33046941335 156 156 156
-141.624310215656 555.598709709804 2784.71874223861 165 165 165
-148.855290510938 554.896975478063 2781.94336914197 173 173 173
-156.777340769737 554.072214077895 2779.90173262997 164 164 164
-160.506841247585 553.987422620335 2773.49230429203 164 166 165
-164.94508439815 553.778232051627 2767.80379426551 170 172 171
-170.085080656914 553.445307375324 2762.84068384924 180 182 181
-173.850366745342 553.356989574155 2756.40529589686 196 198 197
-177.629749569838 553.267350548707 2749.9596822274 199 201 200
-175.937931705715 554.155103907594 2737.60432739581 194 196 195
-171.561589193302 555.527420335234 2722.25676070899 191 193 190
343.803682957068 600.907984858868 2860.17683059201 198 202 203
334.26516688659 599.901180504922 2858.19779253881 204 206 205
327.997167245281 599.413984375587 2853.65151808864 170 172 171
321.728722740572 598.926961310708 2849.10492202411 137 137 137
312.224120004555 597.923342035303 2847.15019012683 126 126 126
304.349884585894 597.179205334751 2843.90829288665 125 125 125
298.092877259643 596.693497143677 2839.36999453695 120 120 118
287.021054330496 595.435869377607 2838.74823240788 115 115 113
256.770886932244 591.096421155064 2853.85100949876 111 111 109
221.065377708114 585.868898883168 2873.64073444262 147 146 144
199.049963870571 582.832705294027 2882.3684116466 138 137 135
185.851281555692 581.211237494368 2883.90811072548 138 138 136
170.316873763181 579.20938835798 2887.45836469395 139 139 137
151.677485862419 576.701032207636 2893.69562775433 139 139 137
137.042719934034 574.835522260772 2896.66341078807 136 136 134
124.024946321999 573.228332107173 2898.33462124254 153 153 151
113.393842308678 572.005630818725 2898.03252257045 157 157 155
106.690556599624 571.419762883455 2894.40523679736 161 161 159
100.76908699982 570.961027886893 2890.11031353085 162 162 160
94.8467491300189 570.502252422687 2885.81476063191 162 162 160
86.6020241917305 569.664046335639 2883.53914225854 148 148 146
77.5980152505009 568.700532661778 2881.94750462908 142 142 140
66.3021982520764 567.359946118386 2882.39798084555 141 141 139
54.2688717849482 565.895676967131 2883.54852533836 146 146 144
41.5047219230145 564.308286368093 2885.40369335052 156 156 154
32.5937034498711 563.351917624408 2883.87950268637 155 155 153
23.6993964259238 562.396813078755 2882.3674329118 153 153 151
18.6141190408406 562.069257628975 2877.44431104803 157 157 155
10.4984073274501 561.240935485696 2875.26226717879 175 175 173
4.65727252440873 560.788200681162 2871.02561071304 165 165 163
-1.93669148000364 560.210621456914 2867.47761656064 155 155 153
-7.02783271615637 559.882411738355 2862.55024055209 159 159 157
-12.1241283768336 559.553744223642 2857.61883119535 160 160 158
-17.9712200209508 559.100287873288 2853.3778528336 154 154 154
-20.8468655096177 559.142998748022 2846.35301139473 164 164 164
-25.2229602288825 558.936363527018 2840.70956703572 168 168 168
-25.9149469192974 559.347554848262 2831.56387404576 185 185 185
-28.8485015729638 559.385395203364 2824.4970283472 196 196 196
-28.8633393256175 559.915310357336 2814.60807428073 158 158 158
-34.0390503468417 559.57976123414 2809.61906017762 144 144 144
-37.030538238271 559.612729119448 2802.51019275863 155 155 155
-41.4961107330793 559.398397122126 2796.80184506489 156 156 156
-41.6181664744439 559.919496577277 2786.83482725999 160 160 160
-41.0531822256033 560.560080920428 2776.13142799146 157 157 157
-41.2500915040144 561.074977403127 2766.11041031785 142 142 142
-45.0776531772255 560.97593892263 2759.62982316268 121 121 119
-48.9194352513653 560.875628943437 2753.138920895 116 116 114
-54.2045478061564 560.530271533274 2748.07084408158 127 127 125
-63.0563896664449 559.575978411595 2746.58956232042 132 132 130
-89.6441324256778 555.58501603728 2763.11403771246 140 140 138
-113.273450743801 552.089136112061 2776.84520481416 148 148 148
-129.736430427279 549.81323284739 2783.42603895158 163 163 163
-139.099607838608 548.75208613216 2782.80886900873 166 166 166
-147.740264860059 547.81325838271 2781.48075797931 173 173 173
-155.665109987771 546.996156750597 2779.43713420542 178 178 178
-160.790149649064 546.66169550999 2774.48485836285 206 208 207
-166.615273199894 546.206284831738 2770.25979524169 189 191 190
-171.056434418321 545.990853613563 2764.56913823538 178 180 179
-174.816987578038 545.89437586683 2758.1371399523 190 192 191
-177.903694272278 545.916344057365 2750.95919067546 192 194 193
-176.207932887971 546.773907309332 2738.60624718994 195 197 196
-173.194513813591 547.866227965436 2724.7396177183 194 196 193
349.977693819898 593.99905316422 2855.97166236686 198 202 203
340.423520613431 593.00161480675 2853.98132156226 206 208 207
331.700125920548 592.132506956531 2851.35825426792 180 182 181
322.989200471142 591.264509228194 2848.74452629429 131 131 131
315.90890404409 590.650499331207 2844.84408933836 125 125 125
308.025769987278 589.910719966017 2841.59576335623 125 125 125
303.369514768352 589.67619090818 2835.74908338431 119 119 117
292.28389965399 588.433446805387 2835.1171039175 121 121 119
264.416741138473 584.551506908793 2848.24458248567 116 116 114
227.089763256725 579.171586457297 2869.32817152735 149 148 146
201.076271145427 575.561025008646 2881.33012480404 138 137 135
190.252885828876 574.339086723709 2880.88864117651 137 137 135
175.497498480762 572.493736748051 2883.76908528313 137 137 135
157.631813175064 570.152392429891 2889.33303118496 139 139 137
139.831317359812 567.816229213371 2894.94396610591 137 137 135
127.590613662949 566.357205661577 2895.94420498923 153 153 151
115.384380960228 564.900904542547 2896.96915194448 156 156 154
106.334631733852 563.944270409145 2895.34468552943 160 160 158
98.8586825487134 563.237148968631 2892.39170196936 162 162 160
93.7192056641409 562.90236492372 2887.42925311748 162 162 160
87.8004536706109 562.443461748776 2883.13629904989 148 148 146
78.7936025560034 561.490202866741 2881.54265301084 142 142 140
69.0337250995752 560.414872040199 2880.63783489398 140 140 138
57.7601341144027 559.094696250186 2881.10452660628 147 147 145
46.5163020160531 557.776841646163 2881.59280292798 155 155 153
36.0653751621736 556.584120749434 2881.42147038053 154 154 152
26.4008428008866 555.516115245742 2880.58551258509 154 154 152
19.791911330425 554.93983273006 2877.02667476522 154 154 152
13.1863578515854 554.363774483933 2873.47058133655 175 175 173
8.0929715382263 554.032355468039 2868.54126709087 176 176 174
3.74607443310238 553.822469660773 2862.9189722406 163 163 161
-1.36030171705381 553.489919065886 2857.98053013036 159 159 157
-7.21965561566873 553.035200488997 2853.73065620521 161 161 159
-13.8254361701189 552.458784897853 2850.17410187755 156 156 156
-18.1979396453058 552.246605227311 2844.53293832726 158 158 158
-23.3213444570635 551.912406273757 2839.58214342755 168 168 168
-25.4945599440319 552.061679156479 2831.83171713887 176 176 176
-27.6909289254168 552.209086706316 2824.06479141672 189 189 189
-26.9721651272512 552.837245608933 2813.47280728801 177 177 177
-30.6877263242393 552.739185129117 2807.07341662203 154 154 154
-32.9574384128493 552.880531581692 2799.25329221557 148 148 148
-36.7058233051116 552.779602913145 2792.83009242445 150 150 150
-37.5657277155126 553.157426181945 2783.56279775698 150 150 150
-38.4574737894683 553.53255043326 2774.27240671702 147 147 147
-37.9384318040188 554.14435041024 2763.53555712281 139 139 139
-41.7744026266751 554.036057457377 2757.04882712002 117 117 115
-45.624664418026 553.926457417133 2750.55173066839 115 115 113
-50.9185122407703 553.577285674458 2745.47730215246 120 120 118
-58.355005357644 552.870731887632 2742.55292401359 128 128 126
-80.6990470112456 549.670124996638 2754.74694347927 145 145 143
-105.774912137098 546.002740207381 2769.89868248166 157 157 157
-123.674344536863 543.528748118231 2777.90786024311 181 181 181
-134.463251924411 542.24299785594 2778.72608381107 177 177 177
-143.81928827613 541.195562927144 2778.11386555061 175 175 175
-153.154313819939 540.149571619317 2777.51718026244 193 193 193
-160.377069699996 539.458241898806 2774.74782192082 200 202 201
-166.20231953165 539.002492399416 2770.5226655398 177 179 178
-170.643349829636 538.781216893368 2764.83207383805 176 178 177
-175.093931615187 538.558978020483 2759.13425870246 208 210 209
-178.177966576269 538.56984119822 2751.95818997292 190 192 191
-176.478660250758 539.397172898773 2739.60795763919 194 196 195
-172.777285104711 540.570597152239 2725.0051219051 196 198 195
-164.367822228037 542.554523397244 2705.17383391347 188 190 187
358.60773404221 587.424786988368 2849.84321302087 198 202 203
346.583915924595 586.063430405239 2849.76584048538 216 218 217
337.03084022529 585.076715357192 2847.77634960282 173 175 174
326.683778261509 583.967696115742 2846.44540378996 129 129 129
321.213288208548 583.6028402747 2841.24284410856 124 124 124
314.123795624346 582.990614140194 2837.33545522014 123 123 123
307.038290866212 582.378860423611 2833.43095958483 122 122 120
296.745525054599 581.274548853468 2832.13969253371 114 114 112
272.065435253142 577.957075642253 2842.63966889233 113 113 111
236.309347657142 572.927110847976 2862.39343468558 144 143 141
207.083400137875 568.891439719181 2877.00519268634 147 146 144
193.862018289688 567.316565724763 2878.52896687292 137 137 135
181.471335530891 565.867188330506 2879.4202371162 141 141 139
164.377722890693 563.687276756498 2884.30936155255 138 138 136
143.407984174587 560.902022399842 2892.56130539536 132 132 130
128.80182210085 559.098076035345 2895.55043028247 152 152 150
117.375127907731 557.784674942708 2895.90616852712 156 156 154
108.320556387141 556.838154702793 2894.27796307992 163 163 161
100.061201905745 556.014326723457 2891.99181226649 162 162 160
94.9197334279481 555.676214915079 2887.0279028104 161 161 159
89.7732018651096 555.337742325786 2882.06002671146 148 148 146
82.3052127808053 554.636294581066 2879.11313681377 140 140 138
71.7659989605028 553.452761388909 2878.87784969776 141 141 139
60.4847755096598 552.150726842027 2879.33910036178 144 144 142
48.4679490843209 550.730650207194 2880.5015354538 155 155 153
38.7748071831719 549.673690112783 2879.64518841655 154 154 152
29.1028979069567 548.618350123685 2878.80394709137 153 153 151
21.7282894065187 547.923989297147 2875.9247866684 157 157 155
14.3617167052388 547.230269101581 2873.05116033564 153 153 151
10.020535401607 547.014991444092 2867.43298168107 180 180 178
4.91741387006961 546.679567959312 2862.49688436157 189 189 187
0.559043410861104 546.46282768633 2856.86594303583 156 156 154
-5.30471676884869 546.007333944826 2852.61287097712 166 166 164
-10.4239571485574 545.670425422135 2847.66508123858 157 157 157
-16.2918977364392 545.21444366141 2843.40897624085 159 159 159
-20.6782756877688 544.995195493956 2837.75771898338 158 158 158
-24.3354955630335 544.893347818175 2831.40060200369 165 165 165
-25.7963519956574 545.1446503598 2822.93206016714 179 179 179
-27.2845999316997 545.393674140353 2814.44365010282 190 190 190
-29.5327598292861 545.52269689228 2806.63908691761 183 183 183
-31.0736532478142 545.767425929726 2798.11249126581 149 149 149
-33.3700932051397 545.892358226934 2790.27290811598 147 147 147
-34.2375888718385 546.250019933369 2780.99971378551 136 136 136
-37.3080469820781 546.253708469033 2773.83345086392 132 132 132
-38.2328197676776 546.606531345089 2764.519005095 135 135 135
-42.0662657537392 546.489780078944 2758.03406255711 120 120 118
-45.9139545629694 546.371725625744 2751.53878849186 120 120 118
-50.4907580170588 546.136015710494 2745.74969881857 118 118 116
-55.0772831185786 545.899358515466 2739.95326244042 129 129 127
-70.3298236668604 543.920950487314 2744.94300335261 149 149 147
-94.7326834977285 540.440320287621 2759.3485275756 139 139 139
-114.785841073157 537.662624535528 2769.49999556311 135 135 135
-129.121496166068 535.815809365509 2773.92003622378 139 139 139
-139.897177452736 534.549681019508 2774.74794706339 156 156 156
-150.642825149048 533.285716882102 2775.59764085576 161 161 161
-159.267076938737 532.368919371344 2774.28153391644 202 204 203
-166.484706701919 531.682914274692 2771.51621305363 219 221 220
-172.308768030478 531.226663619154 2767.29191570541 221 223 222
-176.752622958485 530.999114802862 2761.59895011651 183 185 184
-179.141263405174 531.113560769515 2753.69247574896 186 188 187
-178.122089715007 531.796725392925 2742.08350714764 197 199 198
-174.412094966041 532.932044322388 2727.48672693668 196 198 195
-169.401437275898 534.289840645524 2711.36387868276 195 197 194
362.331563286047 580.065372170846 2847.56497842944 198 202 203
351.929859907384 578.965020619317 2846.1947602694 211 213 212
339.108424483099 577.50243446018 2846.77370180775 161 163 162
327.944466436062 576.284988414657 2846.08535249379 123 123 123
320.853407347355 575.674845896978 2842.17683856675 138 138 138
316.187653631658 575.427598591934 2836.32320851139 119 119 119
309.097638889821 574.817809525167 2832.41545344398 120 120 118
301.208541453038 574.087882739721 2829.16285438571 118 118 116
280.517067530984 571.433357704167 2836.38214385677 118 118 116
243.136411423289 566.26162734028 2857.42787493074 141 140 138
212.296150430518 562.063144819599 2873.33863123001 144 143 141
197.472149565789 560.271691838389 2876.16990341007 134 134 132
185.07151924555 558.842956610371 2877.05406701041 139 139 137
167.177173812033 556.580571962801 2882.59763652024 140 140 138
143.835524797738 553.488127671115 2892.83368587883 138 138 136
130.013216654647 551.832887130956 2895.15646532664 154 154 152
120.149361804989 550.775838461365 2894.17636438117 157 157 155
111.868487145997 549.958093547435 2891.87464394366 161 161 159
102.821326798608 549.022688606674 2890.25186731526 162 162 160
96.8969431486708 548.562433047527 2885.95482388967 161 161 159
90.9717393742633 548.102140921059 2881.65718575312 147 147 145
82.7291935057755 547.287411450892 2879.38326594765 139 139 137
72.9591315407552 546.237771461142 2878.47090051529 141 141 139
61.6746585176586 544.95420334873 2878.92988903116 146 146 144
50.4196633130074 543.672884267198 2879.41055251553 149 149 147
39.1948093061787 542.393877112825 2879.91278323078 150 150 148
31.8055633946566 541.703487974386 2877.0227374765 159 159 157
23.6652070908256 540.896588919992 2874.82293672988 158 158 156
17.8073338695102 540.44133311251 2870.57413345812 156 156 154
10.4393361924826 539.752466573056 2867.69979319178 160 160 158
5.33638796588054 539.41392057761 2862.7638056886 176 176 174
0.228192324748022 539.074849508967 2857.82371708602 157 157 155
-3.38946958614339 538.967812463429 2851.49525023373 156 156 154
-7.76728829671836 538.743443026328 2845.85046628932 159 159 159
-12.8981538786457 538.402415952028 2840.8939338553 156 156 156
-17.2932053865897 538.17659072234 2835.23665011444 151 151 151
-20.9588086880133 538.065460786157 2828.87340879373 161 161 161
-24.638561822599 537.953094939963 2822.49990369687 175 175 175
-26.8628871203962 538.069968533429 2814.7122627068 191 191 191
-28.3778318886716 538.299932431517 2806.20469747401 189 189 189
-30.6503459067253 538.412812585504 2798.38210322467 158 158 158
-32.2177705013553 538.638454930193 2789.83617787925 150 150 150
-34.5386820897535 538.747275340076 2781.97877311192 168 168 168
-37.6064170202617 538.739803286874 2774.81442775085 160 160 160
-40.6925447445037 538.730771110065 2767.63644668172 145 145 145
-42.3588375906645 538.948085791164 2759.01910192657 120 120 118
-45.4866959325462 538.93546386558 2751.81085125936 118 118 116
-47.9183913423993 539.034891343722 2743.87308935857 128 128 126
-52.511307591768 538.791831628647 2738.07198747092 141 141 139
-62.798617477557 537.64122179378 2738.01947765623 149 149 147
-85.8109573269481 534.45572765749 2750.96414667588 141 141 141
-106.60017467454 531.61710812935 2761.81705174154 136 136 136
-123.073770809619 529.462341684325 2768.3908033685 139 139 139
-134.57018241073 528.100894233548 2769.93108971819 149 149 149
-146.032016823505 526.741998587005 2771.496160258 150 150 150
-154.670264728527 525.834701633921 2770.16995535819 136 138 137
-162.596677884874 525.040623702389 2768.12531150646 138 140 139
-169.124953527518 524.471184285712 2764.62527195612 173 175 174
-174.958951270603 524.013590975447 2760.39376468815 191 193 192
-176.662804622596 524.225283494257 2751.74886856637 208 210 209
-177.021369631303 524.657412413073 2741.6099494929 203 205 204
-173.995750720437 525.642764317936 2727.75162212528 196 198 195
-167.619118507094 527.178622147022 2710.1498266128 195 197 194
358.691424342896 571.612917806562 2851.05912277746 197 201 202
351.564726571772 571.001829832147 2847.12476882004 223 225 224
340.372060681671 569.797979857926 2846.41567744477 229 231 230
330.017083203291 568.714815753555 2845.07912446782 152 152 152
321.302501311862 567.870001132008 2842.46286328834 135 135 135
319.059266393968 567.971283525259 2834.66172981563 132 132 132
310.352133854932 567.127311359594 2832.05087309788 126 126 124
303.263625669656 566.52000422141 2828.14422273694 122 122 120
284.166803775406 564.148923268877 2834.05057745925 118 118 116
252.361773152402 559.904345485409 2850.49675481196 127 126 124
219.103138854801 555.436093213413 2868.35871309658 145 144 142
201.87745276574 553.321476350048 2873.15242540185 137 137 135
189.464656888804 551.913263349733 2874.02787387964 140 140 138
170.767299796434 549.573647343883 2880.223968538 143 143 141
145.838057645971 546.30680607298 2891.77891660863 153 153 151
132.009784847535 544.677996917963 2894.09750603066 150 150 148
122.141004001056 543.633801956289 2893.11360475451 153 153 151
116.198588886081 543.171667440675 2888.80348041781 161 161 159
107.139868724007 542.245870809387 2887.17237250103 164 164 162
101.204531001398 541.784309641484 2882.86738162122 162 162 160
93.7193721831564 541.091597533509 2879.9080892647 151 151 149
84.6975380963215 540.16866959805 2878.30373538155 140 140 138
76.462460608639 539.362281974085 2876.0352718178 141 141 139
65.9358795419269 538.211675373166 2875.80930923415 146 146 144
56.2006260461558 537.177939153148 2874.92225775973 143 143 141
42.6686438372617 535.572206811075 2877.45575144188 143 143 141
35.2701667726385 534.886158428954 2874.55933029153 162 162 160
24.8431272666365 533.743167725957 2874.40556608557 167 167 165
18.9830624584357 533.28731616879 2870.15517106813 158 158 156
10.8578860722335 532.489234321545 2867.96641922864 146 146 144
5.75501816056123 532.147498538392 2863.03047379056 147 147 145
-0.103542582661653 531.691559723908 2858.78116865994 176 176 174
-2.22223778036823 531.803070224562 2851.07007401856 167 167 165
-7.34772748730883 531.459382336077 2846.11771967052 160 160 160
-10.9911434562135 531.341476583788 2839.77052809981 161 161 161
-15.3902057616657 531.109401438691 2834.11001071217 157 157 157
-19.7992247357586 530.876440435047 2828.44256551291 148 148 148
-24.2178275227956 530.642662805389 2822.76787418973 146 146 146
-26.4414667636501 530.745432692918 2814.98065909893 181 181 181
-29.4208906233742 530.734002471697 2807.88031226882 191 191 191
-31.6885719149664 530.833095332692 2800.06144600768 193 193 193
-32.5223830434882 531.154244534176 2790.81277985179 186 186 186
-34.1141498432969 531.361007389074 2782.249112694 164 164 164
-38.629089492852 531.118947448652 2776.50454277172 158 158 158
-42.4321662104601 530.987420341256 2770.0415407221 155 155 155
-44.8105142607378 531.077189497715 2762.14240253945 127 127 125
-47.2117069154088 531.165008012349 2754.22639945814 122 122 120
-48.9209240415411 531.361808002358 2745.57753958841 137 137 135
-49.9446652851852 531.667062923927 2736.19110853109 149 149 147
-56.6861378196559 531.08486283942 2732.53645336872 150 150 148
-79.0115420309028 528.073450984536 2744.74494182427 147 147 147
-100.530081835838 525.179988936044 2756.30360984009 137 137 137
-119.136305369958 522.73412207439 2765.0355987136 136 136 136
-132.048852220646 521.173432936366 2768.01836245903 141 141 141
-144.218314968268 519.725735792225 2770.30504494947 142 142 142
-150.769448026266 519.157282501213 2766.78844056586 134 136 135
-159.402685432309 518.260786878268 2765.46592259456 146 148 147
-165.940006193432 517.693023972259 2761.95904005963 155 157 156
-171.782987343656 517.234344442939 2757.7210150262 170 172 171
-173.494868169505 517.428598634772 2749.07021128873 148 150 149
-174.547727429043 517.72913479162 2739.66264805881 167 169 168
-173.579642531249 518.352509289237 2728.01634125285 186 188 185
-169.928501378074 519.405523307344 2713.37677440072 189 191 188
361.597384418948 564.117206121827 2849.4223436308 197 201 202
350.38274655573 562.927487541117 2848.69710140458 205 207 206
339.193723315191 561.739914132698 2847.99073310773 221 223 222
329.654113698132 560.785924337637 2846.01116983543 210 210 210
323.370464549545 560.295757724951 2841.45353567738 174 174 174
321.123959950656 560.382665338814 2833.64966465502 129 129 129
312.412163119797 559.546052137561 2831.0354639672 123 123 121
306.925420182736 559.17079857174 2825.82106955674 123 123 121
291.021309553079 557.301731176709 2829.10369613739 115 115 113
259.992413861765 553.25711224092 2844.87878094443 118 117 115
223.522716668143 548.421256187423 2865.35125573942 144 143 141
205.489496093967 546.229081796696 2870.79450732484 139 139 137
193.066800801116 544.841514862944 2871.66288408117 139 139 137
173.568341397312 542.430348480154 2878.51291679003 141 141 139
147.841028859796 539.114008944546 2890.72411251615 158 158 156
134.00683955154 537.511635074995 2893.03854683388 147 147 145
123.349460669206 536.366742453859 2892.71779506475 151 151 149
118.18603639805 536.01729297093 2887.73791195793 160 160 158
109.122354008917 535.101609255384 2886.10325804076 166 166 164
103.18270794679 534.639250985318 2881.79513991621 164 164 162
94.9182127646742 533.838336511727 2879.50537856055 154 154 152
87.4385994140074 533.151051898661 2876.54983924613 143 143 141
78.4260619806787 532.239342621852 2874.95257600725 142 142 140
67.1261845412325 530.991956080139 2875.40058079976 143 143 141
57.3879370239494 529.971210566053 2874.51142469574 146 146 144
46.9068984188663 528.840035907733 2874.31857524106 142 142 140
38.7357290729984 528.046323404786 2872.09650425516 155 155 153
28.2988522944563 526.918502307615 2871.93568563745 170 170 168
22.4300481077937 526.461524556622 2867.67894955365 165 165 163
15.0506063359868 525.781832200206 2864.7960652108 146 146 144
10.6895135857652 525.547137836557 2859.16335397422 141 141 139
3.31691673130896 524.867850635245 2856.28543371022 165 165 163
-0.306480104284024 524.743023290442 2849.95271937725 172 172 170
-5.4363172341918 524.395757046192 2844.99719536444 161 161 161
-8.33982667089206 524.379349454278 2837.95185530831 161 161 161
-12.7452062553806 524.140847901422 2832.28672583925 159 159 159
-17.1606387995624 523.901452689371 2826.61459871563 150 150 150
-21.5855588656362 523.661248651955 2820.93529531104 143 143 143
-23.0800156793256 523.859196304615 2812.44212558816 163 163 163
-25.3348831929177 523.945257556053 2804.63248230049 183 183 183
-27.6126243352361 524.029455430094 2796.80595351581 191 191 191
-30.6419398228579 524.002452874273 2789.66936030295 190 190 190
-34.416169305171 523.864838836708 2783.22723939832 171 171 171
-36.7565541420494 523.943733255983 2775.35556647655 157 157 157
-40.5636554651627 523.803247129362 2768.88960152531 147 147 147
-41.5062611595387 524.095717939149 2759.56192260513 123 123 121
-45.3506877846355 523.951998943451 2753.06888337081 120 120 118
-47.0634034041049 524.131667760599 2744.41740059583 128 128 126
-45.9512761873142 524.741170811466 2732.87544287931 138 138 136
-53.4147823994482 524.052532456477 2729.93157311639 150 150 148
-74.3354538093428 521.318151039889 2740.68971231351 140 140 140
-97.9902109549782 518.160709802255 2754.4038580479 137 137 137
-115.901632777348 515.870404210548 2762.40498035234 136 136 136
-128.824794900813 514.335944359657 2765.38047619353 138 138 138
-141.004674955501 512.911689158342 2767.65972569383 138 138 138
-148.26245716756 512.238099081072 2764.86536034844 138 138 138
-155.512167954036 511.564943417559 2762.07655387509 141 143 142
-159.981325284713 511.318044412395 2756.36544249901 159 161 160
-165.151115244986 510.963912106546 2751.38092104888 141 143 142
-166.8820745935 511.139862585112 2742.71619417126 152 154 153
-170.013721077463 511.101478334924 2735.50536138478 172 174 173
-172.479435029533 511.167192277114 2727.54247347401 177 179 176
-169.510637904865 512.075800326754 2713.64256605818 184 186 183
361.229447618258 556.150502312885 2850.35030209562 197 201 202
350.832625233423 555.090205711201 2848.98353068138 178 180 179
342.899736191114 554.371259422799 2845.6995362491 127 129 128
333.351016026955 553.42709586873 2843.7131238416 134 134 134
327.058773587008 552.935785024995 2839.1492544275 134 134 134
323.188998435094 552.782604282846 2832.6377915795 130 130 130
316.083301600338 552.17836594497 2828.71899082083 126 126 124
310.588351793426 551.799270750583 2823.49833313964 126 126 124
297.877933842749 550.410361283234 2824.15842127783 122 122 120
271.620415849694 547.120301916139 2835.98509839129 121 120 118
233.520474692217 542.16137876926 2857.74581339911 148 147 145
212.28081817168 539.560931430518 2865.80272967211 138 138 136
197.462158696499 537.858839830345 2868.63832657245 136 136 134
177.950128035142 535.492651441809 2875.4787490095 141 141 139
148.268306394256 531.68742721388 2890.99623801885 172 172 170
133.646872074174 530.000839677843 2893.97459169724 143 143 141
122.990731866134 528.871969129888 2893.6548190245 147 147 145
117.048415237643 528.408931499595 2889.34476150831 155 155 153
110.32611735662 527.835368995536 2885.70375573545 165 165 163
105.938225672406 527.592947444551 2880.05157823997 164 164 162
99.2164067708612 527.019468551033 2876.41092011307 161 161 159
91.7253508739297 526.336285802962 2873.44740110644 148 148 146
81.9310920328009 525.324400297546 2872.51768607612 141 141 139
68.3166299866929 523.766129001336 2874.99162876362 142 142 140
57.0432635123388 522.539500341887 2875.45895706326 148 148 146
48.0910648655848 521.642910308059 2873.9055112804 144 144 142
40.6789323130186 520.965797217653 2870.99894175741 142 142 140
30.9961629279023 519.962446137488 2870.15038551862 150 150 148
23.6063781521554 519.286994106696 2867.26002478956 166 166 164
16.9791985976797 518.720669655733 2863.68830346074 164 164 162
13.3670119146085 518.588177220823 2857.36367678137 152 152 150
6.73805472454214 518.021549043637 2853.79037079111 142 142 140
1.60935215957281 517.67126803341 2848.83565397826 152 152 150
-3.52460029571233 517.32050655728 2843.87683449721 166 166 166
-6.4319559412358 517.292361374901 2836.82864678901 163 163 163
-10.8415772181347 517.047596982375 2831.1607051811 153 153 153
-15.2609259192955 516.801989393761 2825.48541320778 153 153 153
-18.9526773510615 516.662692863984 2819.10307388001 153 153 153
-21.9233817807951 516.6292215562 2812.00893630834 142 142 142
-24.179545834065 516.701082810656 2804.19798672858 146 146 146
-26.4589547212342 516.770981716986 2796.37047100999 185 185 185
-29.4899755922824 516.732444873341 2789.23258310485 190 190 190
-32.5394149803508 516.692375694124 2782.08104098505 189 189 189
-36.3320991444478 516.544479703112 2775.62578428466 180 180 180
-37.9726400435729 516.713356824992 2767.02656784268 167 167 167
-39.6406446644058 516.879949335314 2758.40743079073 133 133 131
-43.4890958950078 516.727271320392 2751.91142865478 128 128 126
-46.6363593279144 516.678794774479 2744.68922368926 124 124 122
-46.2360292887136 517.155231964873 2733.86563163258 130 130 128
-49.4315960288616 517.102648144981 2726.60838976464 143 143 141
-66.822480861704 514.949121842104 2733.75251662647 136 136 136
-92.6231762428951 511.543388271473 2749.61517265232 142 142 142
-114.075007946781 508.77475363211 2761.22312554667 142 142 142
-129.110736378582 506.953531099456 2766.37083436463 136 136 136
-139.890059076754 505.762160926349 2767.19648413222 135 135 135
-146.452582338773 505.197554048623 2763.67134775245 135 135 135
-152.316105948757 504.736926567844 2759.41842118478 167 169 168
-156.7938500003 504.483536792455 2753.70105223446 168 170 169
-161.281195335458 504.2292094881 2747.97642388296 151 153 152
-164.400429695064 504.180673600922 2740.77453749027 178 180 179
-168.224949313848 504.027260777719 2734.2958801685 165 167 166
-172.063637061727 503.872506010653 2727.80694527039 173 175 172
-171.140017645392 504.436567200712 2716.12810405438 186 188 185
352.098586584865 547.363027719134 2848.62707677288 191 193 192
346.606596843654 546.980359077286 2843.4088412833 133 135 134
337.048725791649 546.045969110722 2841.41584470706 126 128 127
329.937901781801 545.443396089638 2837.49304110787 135 135 135
323.63855361024 544.951151139506 2832.92401586584 131 131 131
318.144223174349 544.568830569621 2827.70408531979 129 129 127
313.448461071963 544.295782060474 2821.82827637929 126 126 124
303.13422055517 543.255986690767 2820.52176864338 116 116 114
284.051261781057 541.015911859801 2826.43883660917 116 115 113
245.912549451251 536.16292966374 2848.17168770152 147 146 144
219.074062052977 532.848662007228 2860.8124161811 140 140 138
201.066397787739 530.739664769237 2866.27432091193 138 138 136
180.752579648741 528.310006014902 2873.76852011175 144 144 142
153.423930296473 524.910738305632 2887.28852581748 176 176 174
136.429935469135 522.927896444799 2892.25086352927 139 139 137
124.98243317136 521.706304156827 2892.59227704151 142 142 140
118.254327027947 521.134571255624 2888.94707000259 152 152 150
111.529737983739 520.563078470819 2885.30441380018 164 164 162
106.362860952185 520.207001495427 2880.32199414411 164 164 162
100.415801023915 519.743161398247 2876.00849404403 162 162 160
94.4679234469592 519.279240126452 2871.6944008018 149 149 147
84.6662901666866 518.279975528334 2870.75940381054 139 139 137
71.8120318874869 516.854838090097 2872.55007215226 144 144 142
57.4641050487523 515.219293844937 2875.72695578516 146 146 144
50.0392765157143 514.546210949285 2872.81149756573 143 143 141
41.8606081162016 513.767364587495 2870.58406565574 140 140 138
35.2133589429866 513.201808603776 2866.9975048474 138 138 136
27.0547273350306 512.424436086021 2864.78460550053 145 145 143
19.6634229430064 511.753800172494 2861.89346204081 176 176 174
14.5392181502975 511.400811303075 2856.94169756619 151 151 149
9.40938978631545 511.047287604321 2851.98614821275 144 144 142
3.52557959506417 510.587944131162 2847.71852197314 138 138 136
-0.866387440343397 510.3387849071 2842.06335604096 166 166 166
-6.75649809344714 509.878811538636 2837.79115927155 170 170 170
-10.4216328042752 509.733098022613 2831.42808246952 157 157 157
-14.8407020221077 509.481583501608 2825.75296317985 148 148 148
-17.0568447460222 509.542612684018 2817.97126552628 148 148 148
-19.2959067684049 509.60172998141 2810.17264902303 148 148 148
-20.8247504216632 509.76310678908 2801.65436630775 149 149 149
-23.8432529741626 509.714247679913 2794.52550091457 153 153 153
-28.3378186437178 509.456258641467 2788.79561984116 175 175 175
-32.1156870698158 509.300994230559 2782.35077158591 187 187 187
-35.1834541895588 509.247920102724 2775.18617190667 182 182 182
-36.825301310051 509.399813778314 2766.58592253245 183 183 183
-38.4948707983888 509.549382375594 2757.96585932219 140 140 138
-41.6271699462083 509.490860972073 2750.75415693008 129 129 127
-44.062840730257 509.533389007583 2742.8132249888 132 132 130
-45.0946213943835 509.779159924423 2733.42066468579 137 137 135
-47.5806021550567 509.817482444746 2725.44294619 143 143 141
-62.8514839846943 508.013563975907 2730.42027493994 138 138 138
-89.3746240723858 504.580868699743 2746.99440992018 141 141 141
-113.657112722683 501.463628486175 2761.48903442273 135 135 135
-127.992711948245 499.779186595774 2765.9099380355 128 128 128
-137.37506471241 498.809437481179 2765.27903594 136 136 136
-143.94448446273 498.246661663596 2761.74890942337 145 145 145
-148.423310309866 497.987493652302 2756.03072698843 153 155 154
-154.298936057799 497.525333133091 2751.76901955755 144 146 145
-158.10143176166 497.365474782073 2745.30629519386 179 181 180
-163.296434609697 497.00292229886 2740.30345373347 169 171 170
-167.809700020626 496.74028182252 2734.55999325802 169 171 170
-171.648080101905 496.576933934538 2728.07123786814 175 177 176
-172.088143407639 496.91301951348 2717.87304693847 184 186 183
-165.081090661613 498.345849498776 2699.49240376141 186 188 185
353.364680507271 539.629975700998 2848.27068921481 200 204 207
347.870748968885 539.24395345781 2843.05102908837 184 188 189
338.310135335601 538.319766607327 2841.05609603722 126 130 129
329.576600801635 537.504483394269 2838.4262452651 119 123 122
323.279637343972 537.01196861799 2833.85894738635 124 126 123
317.787889587691 536.626590877651 2828.64057911767 129 129 127
313.898355958735 536.454722747363 2822.1146982727 122 122 120
305.987651338847 535.748222979643 2818.84684884576 120 120 118
290.092771582791 533.976952638523 2822.13695692206 118 116 117
255.917780635333 529.763085035307 2840.57065937585 124 122 123
225.074639889272 525.986036492549 2856.4817572037 138 138 136
201.50081624761 523.173965557293 2866.55091836639 139 141 138
178.812830256316 520.475269996692 2876.02807426298 149 151 148
153.063176573728 517.360956118238 2888.22380323901 184 186 183
139.213363943951 515.838010966203 2890.52760867669 136 138 135
127.758419734662 514.634520192136 2890.86342459916 142 144 141
121.805226063182 514.169660434968 2886.54547285294 147 149 146
113.512677036135 513.389728567136 2884.23548094742 160 162 159
107.564393383075 512.925281512172 2879.92109066876 166 168 165
99.2899923662334 512.146779605274 2877.62396740915 154 156 153
94.1193431822427 511.787215685307 2872.63879557722 153 155 152
87.4020912548485 511.218587553767 2869.0014727174 144 144 142
78.3824251721721 510.337726023651 2867.3991980184 139 139 137
64.0152364507549 508.73031402733 2870.56226079685 149 149 147
52.7519427960796 507.541781519291 2871.03708406296 145 145 143
43.0421864911184 506.562845131365 2870.16908809527 143 143 141
36.3925988344538 505.999340097477 2866.58084245883 144 144 142
28.2312760759922 505.22950132654 2864.36603039944 145 145 143
20.0821390872545 504.460560123128 2862.16005661094 169 169 167
14.2047047370149 504.001359765351 2857.89705307945 172 172 170
10.5792765534467 503.850394235053 2851.56273378392 147 147 145
5.44202027807605 503.493027690664 2846.60178031422 139 139 137
1.79261974871903 503.34004545324 2840.25007273862 153 153 153
-4.10420652021859 502.879079966384 2835.97300265069 171 171 171
-7.77545851642292 502.724208028821 2829.60544490873 173 173 173
-12.9408222534395 502.364300196984 2824.6238083911 157 157 157
-16.6362321980196 502.207362066932 2818.23902204815 149 149 149
-18.8745608431953 502.25239442781 2810.44086584271 151 151 151
-20.4025184458509 502.396935515761 2801.92314016818 153 153 153
-21.9580111632425 502.539171272569 2793.3854420244 139 139 139
-25.7278229687907 502.375986300295 2786.94639406611 135 135 135
-27.3317389798129 502.514190101034 2778.37386689774 153 153 153
-31.1366887669442 502.348009200844 2771.90933149176 194 194 194
-34.9558830277674 502.180554851796 2765.43446351253 188 188 188
-37.3488793163581 502.212624265994 2757.52411977173 143 143 141
-39.7651661085896 502.242682824448 2749.59717653943 115 115 113
-41.488637056895 502.370847456637 2740.93763611821 139 139 137
-44.6667484298136 502.296975066385 2733.69294018768 141 141 139
-45.0179643417976 502.620218802654 2723.55879710636 138 138 136
-57.4610830876805 501.248850508478 2725.64778162125 140 140 138
-84.0042933286771 497.893704817153 2742.20776012298 143 143 141
-111.829932915884 494.350044556205 2760.30719661819 140 140 138
-126.171973953972 492.697581442614 2764.7235924024 135 135 133
-134.859336301574 491.839567283185 2763.36203302207 148 148 146
-141.435650064409 491.278577918451 2759.82691793738 179 179 177
-147.312661304204 490.816110991549 2755.56420458186 150 150 150
-153.190602303884 490.353404448236 2751.30081600985 149 149 149
-158.378076309862 489.988519502296 2746.30342055336 179 179 181
-164.260064149713 489.525096784998 2742.03709471299 158 158 160
-168.768905883581 489.256910396507 2736.29710744133 179 179 181
-170.547947513436 489.378153559234 2727.5972475885 181 182 184
-170.306345337815 489.789306824662 2716.65825964014 177 179 178
-165.342299625132 490.87769111949 2700.50025674398 186 188 187
356.26448656389 532.101369388268 2846.62928227036 200 204 207
349.949655884047 531.606630498134 2842.04902079536 202 206 207
339.571672946784 530.587679354633 2840.69611592161 120 124 123
330.835690465728 529.77990478272 2838.06452861316 136 140 139
323.728322334044 529.182252230363 2834.14454965397 128 130 127
318.236898096108 528.793659596644 2828.92639962657 128 128 126
315.151539156586 528.717279162902 2821.74892921072 124 124 122
306.437010599243 527.911586125009 2819.13290485279 120 120 118
292.139106246944 526.380155869737 2821.11154158232 121 119 120
261.940379215599 522.779051699544 2836.25534875115 115 113 114
233.462146353562 519.395184248012 2850.17740594889 142 142 142
205.106068217461 516.020948421997 2864.18777002342 138 140 137
178.453053919624 512.862567135347 2876.9637415069 159 161 158
156.643854996898 510.330902441085 2885.84346384179 187 189 186
144.356264921908 509.039605063189 2886.81056335514 135 137 134
132.887190251421 507.853699250241 2887.13622487603 141 143 140
124.575339042034 507.07997038635 2884.81227182604 145 147 144
114.716533247449 506.102645238774 2883.83594038668 158 160 157
107.211022778669 505.433302142749 2880.86201305301 166 168 165
101.264114433979 504.968473616625 2876.54861783251 161 163 160
97.6354893369074 504.808884966553 2870.21193734836 158 160 157
91.6801065543265 504.343384852405 2865.89239542525 145 145 143
84.1862987494832 503.674930058855 2862.92695610185 138 138 136
69.035592371594 501.994569343488 2866.75669733958 149 149 147
57.7580238191429 500.823610095593 2867.22126143968 146 146 144
46.5102622990408 499.654975934014 2867.70744507065 144 144 142
39.0917232822976 498.992305096692 2864.79659899494 142 142 140
30.9232808101729 498.229626373615 2862.57666197023 148 148 146
22.7671195735621 497.46786788781 2860.36563253642 144 144 142
16.8831148693291 497.007672243517 2856.09786097378 160 160 158
10.9981015848284 496.547350085113 2851.82935762896 177 177 175
5.86097542043618 496.186767915143 2846.86848219171 160 160 158
2.95877901602681 496.124826996257 2839.82356886841 137 137 137
-2.19572190652828 495.762732725432 2834.85009043908 138 138 138
-6.61327089770158 495.499512084332 2829.17601390036 151 151 151
-12.5208952490699 495.037044522316 2824.89110844373 185 185 185
-16.9537899067829 494.772441709926 2819.20619497988 176 176 176
-17.717860769777 495.001186113998 2810.00761698228 150 150 150
-19.2471461907784 495.128697198201 2801.48884248357 154 154 154
-20.8039443042753 495.25393463962 2792.95011193048 156 156 156
-23.8465303503417 495.180227681715 2785.80366203959 158 158 158
-25.4538273440961 495.301269598977 2777.22830251933 148 148 148
-29.2627511154213 495.126088972592 2770.76084070201 136 136 136
-33.0859201857006 494.949649766446 2764.28304578852 146 146 146
-36.2031152922995 494.869599923498 2757.08247806945 169 169 167
-39.3389842610103 494.787917801831 2749.8683650014 158 158 156
-41.7774320764779 494.801966619816 2741.92498120091 132 132 130
-45.6664676679583 494.619818092044 2735.39940932169 147 147 145
-46.723780692898 494.824149428701 2725.9881301658 151 151 149
-58.4525211824303 493.574196943847 2727.36056109012 142 142 140
-80.0461656465723 490.974355429284 2738.86627138156 153 153 151
-107.182961073479 487.610473300181 2756.23093969171 140 140 138
-122.242829307911 485.893071599098 2761.36167492455 179 179 177
-132.342990907014 484.852481105163 2761.44539016648 167 167 165
-141.021055328012 484.005570797465 2760.09062729477 143 143 141
-146.202143465462 483.638469898548 2755.09784986641 173 173 173
-150.694850702786 483.366258448708 2749.3695384479 181 181 181
-153.813738583208 483.283940208385 2742.16743763406 159 159 161
-159.709139218619 482.819072442172 2737.89138125249 162 162 164
-164.918254934821 482.448954199114 2732.87827075071 149 149 151
-167.392511343816 482.457712369067 2724.9089017384 172 173 175
-169.207127703937 482.559086824856 2716.18344684251 173 175 174
-164.923492599579 483.50874808272 2700.76653374535 183 185 184
352.028855455124 523.957935114104 2841.04716705131 190 194 195
341.64562181087 522.951772346313 2839.69081508067 128 132 131
332.904927717727 522.15133796939 2837.0558494036 145 149 148
327.40997865708 521.759158939931 2831.83512599119 139 141 138
321.103817473017 521.265062631825 2827.26115247351 130 130 128
318.012639183355 521.176769825214 2820.07940314803 125 125 123
308.489458138078 520.276973845752 2818.11172932335 113 113 111
295.784710872125 518.97410678237 2818.77636408365 115 113 114
267.964689341023 515.756338474105 2831.9410829408 108 106 107
240.262157748802 512.547819314006 2845.19101961075 144 144 144
206.333197467984 508.543803949522 2863.80443236533 137 139 136
177.301683002382 505.154360548184 2878.56041230694 171 173 170
157.859605875992 502.977730639289 2885.45250570544 190 192 189
147.141581170437 501.907772639136 2885.08817004343 135 137 134
134.09634323497 500.540110917227 2886.74068428246 137 139 136
122.653829325625 499.37493714867 2887.08570527782 141 143 140
112.800843441887 498.411256990028 2886.1136619306 159 161 158
107.634596645639 498.045567508618 2881.13165045631 169 171 168
102.463053016236 497.679463860603 2876.1457970968 164 166 163
98.0595715650217 497.411990967804 2870.48189687951 160 162 159
92.1041678705472 496.945996273084 2866.16233729178 144 144 142
82.3037643288838 495.986441446981 2865.22843290211 138 138 136
69.4575432135554 494.634334740757 2867.0252974705 149 149 147
