ply
format ascii 1.0
comment KinectMotionCapture
element vertex 793
property float x
property float y
property float z
property uchar red
property uchar green
property uchar blue
end_header
124.274834990501 -38.2385328412056 2729.00009155273 10 11 3
133.652985095978 -38.7980863451958 2769.00005340576 11 12 4
143.50388944149 -39.4276231527328 2813.99989128113 12 13 5
147.582605481148 -38.4878590703011 2746.99997901917 15 16 8
153.440296649933 -38.0804874002934 2717.99993515015 15 16 8
162.808418273926 -38.5417155921459 2750.99992752075 15 18 9
170.374810695648 -38.5545641183853 2752.00009346008 14 17 8
179.044812917709 -38.8055108487606 2769.99998092651 14 17 8
188.485965132713 -39.1964837908745 2798.00009727478 15 18 9
196.046382188797 -39.1811318695545 2796.99993133545 18 21 12
203.454956412315 -39.1377210617065 2793.99991035461 19 25 15
210.997432470322 -39.1222797334194 2792.99998283386 23 28 22
217.985764145851 -39.0087440609932 2785.00008583069 15 22 15
228.97943854332 -39.5954735577106 2826.99990272522 22 29 22
-106.111027300358 -45.4399101436138 2713.99998664856 22 23 17
-100.412286818027 -46.2277047336102 2760.99991798401 24 25 19
-93.4473797678947 -46.513170003891 2778.00011634827 22 23 15
-86.0802009701729 -46.6311350464821 2785.00008583069 21 22 14
-79.2943611741066 -47.1174083650112 2813.99989128113 21 22 14
-71.0265338420868 -46.7329360544682 2790.99988937378 20 21 13
-62.7249777317047 -46.2311767041683 2760.99991798401 20 21 13
-55.1866069436073 -46.2316833436489 2760.99991798401 20 22 11
-47.5444681942463 -46.1316518485546 2755.00011444092 20 22 11
-39.9058312177658 -45.9980666637421 2746.99997901917 16 19 12
-32.900545746088 -46.7016622424126 2789.00003433228 16 19 12
-25.1671299338341 -46.4842319488525 2776.00002288818 16 19 12
-17.52994582057 -46.3337041437626 2766.99995994568 16 19 12
-9.91660635918379 -46.0658967494965 2750.99992752075 16 19 12
-2.40896176546812 -46.1496822535992 2756.00004196167 14 17 10
5.24110766127706 -47.2715944051743 2822.99995422363 13 16 9
12.9267824813724 -47.1877939999104 2818.00007820129 12 15 8
20.6948649138212 -47.3551005125046 2828.00006866455 12 15 8
28.4873247146606 -47.4721007049084 2835.00003814697 12 15 8
81.7085430026054 -46.9162315130234 2802.00004577637 9 12 5
89.0708118677139 -46.7648133635521 2792.99998283386 9 12 5
98.5300689935684 -47.6514212787151 2845.99995613098 8 11 4
105.364941060543 -47.2319759428501 2821.00009918213 11 14 7
113.505780696869 -47.4152192473412 2832.00001716614 12 15 8
118.795171380043 -46.4599169790745 2775.00009536743 10 13 6
125.139087438583 -46.0068471729755 2747.99990653992 11 12 4
134.665548801422 -46.7088967561722 2789.99996185303 12 13 5
142.992824316025 -46.9421073794365 2803.99990081787 13 14 6
148.441061377525 -46.2545081973076 2763.00001144409 14 15 7
153.947204351425 -45.6505790352821 2726.99999809265 15 16 8
163.813248276711 -46.3355854153633 2767.99988746643 15 16 8
170.744955539703 -46.16679251194 2757.99989700317 15 18 9
178.720280528069 -46.2825074791908 2765.00010490417 15 18 9
187.878236174583 -46.682707965374 2789.00003433228 16 19 10
195.414066314697 -46.664372086525 2788.00010681152 18 21 12
202.943682670593 -46.6459803283215 2786.99994087219 18 24 14
210.391491651535 -46.6108061373234 2785.00008583069 11 16 9
217.671021819115 -46.542089432478 2780.99989891052 23 30 23
224.360913038254 -46.3561825454235 2769.99998092651 23 30 23
-106.813810765743 -53.1998760998249 2732.00011253357 26 27 21
-100.120432674885 -53.6098331212997 2753.00002098084 21 22 16
-92.7401334047318 -53.688682615757 2756.99996948242 20 21 13
-85.8939588069916 -54.1179813444614 2779.00004386902 21 22 14
-78.9273157715797 -54.5472279191017 2801.00011825562 21 22 14
-70.4914778470993 -53.9442673325539 2769.99998092651 21 22 14
-62.7016797661781 -53.7501759827137 2759.99999046326 21 22 14
-55.0861582159996 -53.6728650331497 2756.00004196167 20 22 11
-47.4059581756592 -53.4980967640877 2746.99997901917 20 22 11
-39.8473516106606 -53.4206293523312 2743.00003051758 18 21 14
-32.2868265211582 -53.3041395246983 2736.99998855591 18 21 14
-25.2122264355421 -54.1613399982452 2780.99989891052 18 21 14
-17.5868012011051 -54.0641769766808 2776.00002288818 15 18 11
-10.0030284374952 -54.0448427200317 2775.00009536743 13 16 9
-2.4246727116406 -54.0254190564156 2773.9999294281 11 14 7
5.17793605104089 -54.3175488710403 2789.00003433228 10 13 6
13.0321672186255 -55.3301870822906 2841.00008010864 11 14 7
20.7898039370775 -55.3300231695175 2841.00008010864 12 15 8
28.1253214925528 -54.5118078589439 2799.00002479553 11 14 7
35.9469726681709 -54.784145206213 2812.99996376038 8 11 4
82.0577144622803 -54.8001043498516 2813.99989128113 8 11 4
90.5050709843636 -55.2666299045086 2838.00005912781 9 12 5
97.871370613575 -55.0514832139015 2826.99990272522 9 12 5
107.231460511684 -55.9072978794575 2871.00005149841 9 12 5
113.184094429016 -54.9909844994545 2823.99988174438 11 14 7
120.848886668682 -54.9703575670719 2822.99995422363 11 14 7
127.915754914284 -54.6965263783932 2809.00001525879 12 13 5
134.616076946259 -54.3058104813099 2789.00003433228 12 13 5
142.073601484299 -54.2460381984711 2786.00001335144 13 14 6
148.493409156799 -53.8162589073181 2763.99993896484 14 15 7
155.808731913567 -53.73689904809 2759.99999046326 14 15 7
163.279145956039 -53.7158735096455 2759.0000629425 14 15 7
171.919673681259 -54.0646836161613 2776.99995040894 15 18 9
178.524732589722 -53.7709593772888 2762.00008392334 16 19 10
186.327174305916 -53.8470633327961 2766.00003242493 17 20 11
194.220781326294 -53.9425611495972 2770.99990844727 18 21 12
203.52441072464 -54.4078387320042 2795.00007629395 17 23 13
210.993945598602 -54.3669201433659 2792.99998283386 23 28 21
217.903897166252 -54.1896745562553 2783.99991989136 15 22 14
224.358931183815 -53.9150647819042 2769.99998092651 20 27 19
-109.74495112896 -62.3234659433365 2806.99992179871 24 25 19
-100.010260939598 -61.0590688884258 2750 18 19 13
-92.4364030361176 -61.0157400369644 2747.99990653992 16 17 9
-86.1403048038483 -61.8826970458031 2786.99994087219 20 21 13
-78.3065631985664 -61.7059953510761 2779.00004386902 21 22 14
-70.5670714378357 -61.57361343503 2773.00000190735 21 22 14
-62.7918764948845 -61.3745115697384 2763.99993896484 21 22 14
-55.0855807960033 -61.1975491046906 2756.00004196167 20 22 11
-47.4227145314217 -61.0204748809338 2747.99990653992 19 21 10
-40.0212556123734 -61.1764155328274 2755.00011444092 20 23 16
-32.6167829334736 -61.3988898694515 2765.00010490417 17 20 13
-25.3026131540537 -61.9765631854534 2790.99988937378 15 18 11
-17.7576653659344 -62.2432790696621 2802.99997329712 13 16 9
-10.0533859804273 -61.9325488805771 2789.00003433228 13 16 9
-2.4062916636467 -61.1332096159458 2753.00002098084 13 16 9
12.862304225564 -62.2655935585499 2803.99990081787 10 13 6
28.4164194017649 -62.7980679273605 2828.00006866455 9 12 5
82.6108828186989 -62.9047006368637 2832.99994468689 0 2 0
90.4084369540215 -62.9481375217438 2835.00003814697 10 13 6
98.6666008830071 -63.2801279425621 2849.99990463257 10 13 6
105.474911630154 -62.7016872167587 2823.99988174438 9 12 5
113.864257931709 -63.0779191851616 2841.00008010864 9 12 5
119.905851781368 -62.1885024011135 2801.00011825562 10 13 6
126.867055892944 -61.8540868163109 2786.00001335144 13 14 6
135.097324848175 -62.1412470936775 2799.00002479553 13 14 6
143.092006444931 -62.2950941324234 2805.99999427795 13 14 6
149.834960699081 -61.9160607457161 2789.00003433228 13 14 6
155.807107686996 -61.2705647945404 2759.99999046326 13 14 6
164.401859045029 -61.668373644352 2778.00011634827 13 14 6
171.546444296837 -61.5111216902733 2770.99990844727 15 18 9
178.005799651146 -61.1318200826645 2753.99994850159 16 19 10
183.630749583244 -60.5083145201206 2726.0000705719 18 21 12
194.148689508438 -61.48287281394 2769.99998092651 18 21 12
202.794164419174 -61.8136338889599 2785.00008583069 19 22 13
213.711321353912 -62.7879202365875 2828.9999961853 12 18 8
220.484539866447 -62.5192224979401 2816.99991226196 21 27 17
226.46252810955 -62.0507299900055 2796.0000038147 23 29 19
-119.621627032757 -71.3063180446625 2859.99989509583 64 65 59
-109.274491667747 -69.6871429681778 2795.00007629395 29 30 24
-99.7545048594475 -68.3919414877892 2743.00003051758 22 23 17
-93.3771431446075 -69.2159682512283 2776.00002288818 20 21 13
-85.7683941721916 -69.1921636462212 2775.00009536743 20 21 13
-78.2774537801743 -69.2680105566978 2778.00011634827 20 21 13
-70.3880861401558 -68.9697340130806 2766.00003242493 22 23 15
-62.9274398088455 -69.0703168511391 2769.99998092651 22 23 15
-55.2448071539402 -68.9214542508125 2763.99993896484 20 22 11
-47.7672889828682 -69.0218508243561 2767.99988746643 19 21 10
-40.1369817554951 -68.8977241516113 2763.00001144409 16 19 12
-32.8051298856735 -69.3470388650894 2780.99989891052 14 17 10
-25.5380179733038 -70.2451020479202 2816.99991226196 14 17 10
-18.0235300213099 -70.9436014294624 2845.00002861023 13 16 9
-9.9883833900094 -69.0984949469566 2770.99990844727 12 15 8
-2.43073608726263 -69.347932934761 2780.99989891052 11 14 7
5.1666796207428 -69.3977922201157 2782.99999237061 12 15 8
12.7749955281615 -69.4475471973419 2785.00008583069 10 13 6
20.4088166356087 -69.5470869541168 2789.00003433228 9 12 5
82.5807452201843 -70.6140995025635 2832.00001716614 5 8 1
90.5668064951897 -70.8124786615372 2839.99991416931 9 12 5
97.6268351078033 -70.3126192092896 2819.9999332428 10 13 6
105.398952960968 -70.3612044453621 2822.00002670288 9 12 5
112.700626254082 -70.1104998588562 2812.00003623962 9 12 5
120.075650513172 -69.9345022439957 2805.0000667572 9 12 5
127.047687768936 -69.5589706301689 2789.99996185303 13 14 6
136.254087090492 -70.3800469636917 2822.99995422363 13 14 6
145.538046956062 -71.1511448025703 2854.00009155273 13 14 6
149.295970797539 -69.2795515060425 2779.00004386902 13 14 6
156.256884336472 -69.0034106373787 2767.99988746643 13 14 6
164.518296718597 -69.3005621433258 2779.99997138977 13 14 6
172.163501381874 -69.3233907222748 2780.99989891052 13 16 7
177.357375621796 -68.3989226818085 2743.99995803833 14 17 8
185.110554099083 -68.4963837265968 2747.99990653992 17 20 11
192.674562335014 -68.5189813375473 2749.00007247925 18 21 12
202.354893088341 -69.2642852663994 2779.00004386902 20 23 14
211.593687534332 -69.8100700974464 2801.00011825562 20 26 16
218.212231993675 -69.4834366440773 2788.00010681152 16 22 12
227.269843220711 -69.9293091893196 2805.99999427795 24 30 20
-118.448927998543 -78.3388763666153 2832.00001716614 43 44 38
-108.960270881653 -77.095665037632 2786.99994087219 19 20 14
-100.807815790176 -76.6821950674057 2772.0000743866 18 19 13
-93.6113595962524 -76.9878476858139 2782.99999237061 23 24 16
-85.890881717205 -76.8784433603287 2779.00004386902 20 21 13
-77.4029120802879 -75.9943351149559 2746.99997901917 20 21 13
-69.9545443058014 -76.0506987571716 2749.00007247925 22 23 15
-62.813013792038 -76.4942765235901 2765.00010490417 22 23 15
-55.3639940917492 -76.6334310173988 2769.99998092651 19 20 12
-47.6631075143814 -76.4128267765045 2762.00008392334 19 20 12
-40.325291454792 -76.8007710576057 2776.00002288818 12 15 8
-33.0052189528942 -77.4099379777908 2798.00009727478 14 17 10
-25.5648735910654 -78.0190154910088 2819.9999332428 15 18 11
-17.833236604929 -77.8809860348701 2815.00005722046 13 16 9
-10.1396404206753 -77.8258442878723 2812.99996376038 12 15 8
-2.41934112273157 -76.5809491276741 2767.99988746643 9 12 5
12.8069333732128 -77.2448033094406 2792.00005531311 11 14 7
20.4378124326468 -77.2722214460373 2792.99998283386 13 16 9
28.9783850312233 -79.7895193099976 2884.0000629425 12 15 8
90.5655920505524 -78.5655006766319 2839.99991416931 5 8 1
98.4217748045921 -78.6471739411354 2842.99993515015 9 12 5
104.762621223927 -77.5945484638214 2805.0000667572 11 14 7
113.099902868271 -78.0632868409157 2822.00002670288 11 14 7
119.47475373745 -77.2041454911232 2790.99988937378 12 15 8
129.231736063957 -78.5025060176849 2838.00005912781 12 13 5
137.314110994339 -78.6942690610886 2845.00002861023 12 13 5
145.893082022667 -79.1348740458488 2861.00006103516 13 14 6
149.2939889431 -76.8647491931915 2779.00004386902 14 15 7
158.117696642876 -77.4711146950722 2801.00011825562 14 15 7
165.877237915993 -77.5241926312447 2802.99997329712 14 15 7
172.285050153732 -76.968714594841 2782.99999237061 11 14 5
179.875761270523 -76.966293156147 2782.99999237061 12 15 6
186.859548091888 -76.714888215065 2773.9999294281 14 17 8
193.372935056686 -76.2974619865417 2759.0000629425 17 20 11
200.313448905945 -76.0735422372818 2750.99992752075 22 25 16
206.076428294182 -75.4347667098045 2727.9999256134 23 26 17
216.409251093864 -76.4550119638443 2765.00010490417 17 20 11
227.995857596397 -77.8345242142677 2815.00005722046 24 27 16
-109.662398695946 -85.2503925561905 2805.0000667572 22 24 19
-100.73359310627 -84.1882526874542 2769.99998092651 21 24 17
-93.0045321583748 -84.0377882122993 2765.00010490417 16 19 10
-85.2405726909637 -83.8264003396034 2757.99989700317 23 26 17
-76.528288424015 -82.5510919094086 2716.00008010864 22 25 16
-69.4700181484222 -82.9777345061302 2730.00001907349 19 22 13
-62.5621974468231 -83.7082341313362 2753.99994850159 17 20 13
-55.1832988858223 -83.9219093322754 2760.99991798401 15 18 11
-47.9902736842632 -84.5306143164635 2780.99989891052 15 18 11
-40.3973236680031 -84.5312997698784 2780.99989891052 15 18 11
-33.0165289342403 -85.0789994001389 2799.00002479553 15 17 12
-25.5191698670387 -85.5657979846001 2815.00005722046 14 16 11
-17.8646463900805 -85.718110203743 2819.9999332428 12 14 9
-10.135886259377 -85.4751616716385 2812.00003623962 11 13 8
-2.46475427411497 -85.7184231281281 2819.9999332428 11 13 8
5.25564420968294 -86.052767932415 2831.00008964539 11 14 7
12.9030700773001 -85.5054929852486 2812.99996376038 9 12 5
20.8472851663828 -86.5994989871979 2848.99997711182 12 15 8
28.7066660821438 -86.8422910571098 2857.00011253357 8 11 4
91.1063849925995 -86.8349000811577 2857.00011253357 5 10 3
99.3550270795822 -87.2285515069962 2869.99988555908 9 14 7
104.910477995872 -85.3730067610741 2809.00001525879 2 4 0
112.33676970005 -85.1889848709106 2802.99997329712 18 20 15
121.827363967896 -86.494043469429 2845.99995613098 5 8 1
129.639685153961 -86.5225195884705 2846.99988365173 10 13 4
137.987822294235 -86.8851616978645 2858.99996757507 10 13 4
143.698260188103 -85.6370329856873 2818.00007820129 11 14 5
151.010915637016 -85.4220688343048 2811.00010871887 12 15 6
158.002510666847 -85.0550606846809 2799.00002479553 12 15 6
167.531803250313 -86.0249921679497 2831.00008964539 13 16 7
173.458769917488 -85.1412042975426 2802.00004577637 14 17 8
181.101217865944 -85.1385369896889 2802.00004577637 15 18 9
187.93460726738 -84.7711339592934 2789.99996185303 15 18 9
195.402696728706 -84.707498550415 2788.00010681152 17 20 11
200.164958834648 -83.5196152329445 2749.00007247925 22 25 16
205.695807933807 -82.7266797423363 2723.00004959106 23 24 16
215.936586260796 -83.817221224308 2759.0000629425 24 25 19
231.232300400734 -86.7302715778351 2855.00001907349 28 29 21
-109.426058828831 -92.7081033587456 2799.00002479553 11 13 8
-100.404694676399 -91.4512127637863 2760.99991798401 20 23 16
-92.2294184565544 -90.8235013484955 2742.00010299683 28 31 22
-84.5592692494392 -90.6262397766113 2736.00006103516 20 23 14
-77.0342275500298 -90.5613303184509 2733.99996757507 20 23 14
-69.5452392101288 -90.5294418334961 2733.00004005432 18 21 12
-62.7429261803627 -91.4911776781082 2762.00008392334 17 20 13
-55.2023984491825 -91.4921760559082 2762.00008392334 16 19 12
-47.6616360247135 -91.4930254220963 2762.00008392334 16 19 12
-40.1497334241867 -91.5600135922432 2763.99993896484 16 18 13
-32.7329039573669 -91.9250249862671 2775.00009536743 14 16 11
-25.2286680042744 -92.1905115246773 2782.99999237061 13 15 10
-17.7946742624044 -93.0521562695503 2809.00001525879 11 13 8
-10.1861841976643 -93.6155468225479 2825.99997520447 10 12 7
-2.47869896702468 -93.9469188451767 2835.99996566772 10 12 7
5.25555945932865 -93.7812700867653 2831.00008964539 9 12 5
12.8524051979184 -92.820443212986 2802.00004577637 10 13 6
20.8249967545271 -94.2777320742607 2845.99995613098 10 13 6
28.6961551755667 -94.6085751056671 2855.99994659424 13 16 9
36.6729125380516 -95.0717851519585 2869.99988555908 2 7 0
92.1572297811508 -95.7267284393311 2890.00010490417 7 12 5
100.322738289833 -95.9900915622711 2898.00000190735 4 9 2
105.170235037804 -93.27232837677 2815.99998474121 11 13 8
113.697580993176 -93.9660593867302 2836.99989318848 19 21 16
120.626859366894 -93.3348014950752 2818.00007820129 0 2 0
128.499239683151 -93.4652164578438 2822.00002670288 11 14 7
135.910287499428 -93.2642892003059 2815.99998474121 11 14 5
139.973551034927 -90.9105613827705 2744.99988555908 11 14 5
148.483648896217 -91.5374159812927 2763.99993896484 11 14 5
158.451572060585 -92.9589122533798 2806.99992179871 11 14 5
165.753871202469 -92.757560312748 2801.00011825562 11 14 5
174.322709441185 -93.2514816522598 2815.99998474121 15 18 9
181.033730506897 -92.7518382668495 2801.00011825562 16 19 10
188.133731484413 -92.4839079380035 2792.99998283386 16 19 10
196.24063372612 -92.7125439047813 2799.99995231628 16 19 10
203.65683734417 -92.6099568605423 2796.99993133545 18 21 12
207.807675004005 -91.0835564136505 2750.99992752075 18 19 13
217.028915882111 -91.8084904551506 2773.00000190735 25 26 20
232.605576515198 -95.0824916362762 2871.99997901917 33 34 28
-99.9665781855583 -98.5570996999741 2749.00007247925 19 22 15
-92.4968868494034 -98.5946878790855 2750 28 31 22
-84.8668590188026 -98.4528884291649 2746.00005149841 18 21 12
-77.5682330131531 -98.7053290009499 2753.00002098084 18 21 12
-69.9002742767334 -98.4915420413017 2746.99997901917 18 21 12
-62.7191066741943 -98.9947021007538 2760.99991798401 17 20 13
-55.2613884210587 -99.1392061114311 2765.00010490417 16 19 12
-47.6262904703617 -98.960854113102 2759.99999046326 16 19 12
-40.1054508984089 -98.9975109696388 2760.99991798401 16 18 13
-32.5200073421001 -98.8547578454018 2756.99996948242 14 16 11
-25.3279414027929 -100.181944668293 2793.99991035461 13 15 10
-10.1139172911644 -100.612871348858 2805.99999427795 10 12 7
-2.45767971500754 -100.828126072884 2812.00003623962 13 16 9
5.23133436217904 -101.043239235878 2818.00007820129 9 12 5
12.9255698993802 -101.043075323105 2818.00007820129 11 14 7
28.6956522613764 -102.404855191708 2855.99994659424 14 17 10
106.736972928047 -102.464281022549 2858.00004005432 0 1 0
114.016219973564 -101.996220648289 2845.00002861023 10 12 7
120.410740375519 -100.846886634827 2812.99996376038 19 22 15
127.495273947716 -100.378610193729 2799.99995231628 10 13 6
134.846150875092 -100.161150097847 2793.99991035461 10 13 4
141.194939613342 -99.2624685168266 2769.00005340576 11 14 5
150.038957595825 -100.120194256306 2792.99998283386 12 15 6
156.303852796555 -99.2571488022804 2769.00005340576 12 15 6
165.632665157318 -100.329644978046 2799.00002479553 12 15 6
173.514977097511 -100.469991564751 2802.99997329712 14 17 8
181.289166212082 -100.538529455662 2805.0000667572 16 19 10
187.456950545311 -99.7467339038849 2782.99999237061 16 19 10
195.816814899445 -100.137606263161 2793.99991035461 16 19 10
203.070923686028 -99.9548956751823 2789.00003433228 18 21 12
210.372447967529 -99.8079031705856 2785.00008583069 24 25 19
215.30345082283 -98.5857024788857 2750.99992752075 20 21 15
228.55219244957 -101.126156747341 2822.00002670288 25 26 20
-108.522959053516 -107.09971934557 2776.00002288818 18 20 15
-101.16471350193 -107.3332503438 2782.00006484985 14 17 10
-93.302384018898 -107.026480138302 2773.9999294281 20 23 14
-85.5142623186111 -106.758140027523 2766.99995994568 16 19 10
-77.7639970183373 -106.489643454552 2759.99999046326 17 20 11
-70.1025277376175 -106.298178434372 2755.00011444092 17 20 11
-62.7406463027 -106.569558382034 2762.00008392334 17 20 13
-55.7799711823463 -107.689656317234 2790.99988937378 15 18 11
-48.1603108346462 -107.690677046776 2790.99988937378 14 17 10
-40.0465913116932 -106.379643082619 2756.99996948242 13 16 9
-32.554779201746 -106.49611055851 2759.99999046326 12 15 8
-25.2730771899223 -107.577078044415 2788.00010681152 11 14 7
-17.9523918777704 -109.352447092533 2834.00011062622 10 13 6
-10.2759217843413 -110.00869423151 2851.0000705719 10 13 6
-2.47686076909304 -109.352849423885 2834.00011062622 10 13 6
5.22937858477235 -108.696855604649 2816.99991226196 13 15 10
12.9207372665405 -108.696669340134 2816.99991226196 9 11 6
20.6925328820944 -109.120793640614 2828.00006866455 9 11 6
28.5443998873234 -109.621934592724 2841.00008010864 12 14 9
109.573267400265 -113.196849822998 2934.00001525879 2 4 0
113.2927313447 -109.066538512707 2826.99990272522 12 14 9
119.766429066658 -107.94547945261 2798.00009727478 20 22 17
126.536697149277 -107.210092246532 2779.00004386902 8 11 4
134.071454405785 -107.16900229454 2778.00011634827 9 12 3
141.906172037125 -107.35922306776 2782.99999237061 10 13 4
147.88743853569 -106.199152767658 2753.00002098084 12 15 6
157.429903745651 -107.584930956364 2789.00003433228 13 16 7
166.398867964745 -108.469016849995 2812.00003623962 13 16 7
174.749806523323 -108.890056610107 2822.99995422363 12 15 6
181.221202015877 -108.1537976861 2803.99990081787 14 17 8
186.375796794891 -106.723181903362 2766.99995994568 16 19 10
194.691881537437 -107.143834233284 2778.00011634827 17 20 11
202.848747372627 -107.448607683182 2786.00001335144 19 22 13
211.501643061638 -107.984624803066 2799.99995231628 19 22 15
216.786533594131 -106.823623180389 2769.99998092651 19 22 15
-111.061803996563 -117.360912263393 2841.00008010864 21 23 18
-101.635403931141 -115.462861955166 2795.00007629395 14 17 10
-93.8386470079422 -115.258328616619 2789.99996185303 15 18 9
-85.4198262095451 -114.186093211174 2763.99993896484 16 19 10
-77.3679837584496 -113.444171845913 2746.00005149841 17 20 11
-69.973886013031 -113.610967993736 2750 17 20 11
-63.1482526659966 -114.851757884026 2779.99997138977 17 20 13
-56.1585612595081 -116.092406213284 2809.99994277954 15 18 11
-48.7632676959038 -116.754524409771 2825.99997520447 13 16 9
-40.8010929822922 -116.053126752377 2809.00001525879 13 16 9
-32.8489989042282 -115.062341094017 2785.00008583069 11 14 7
-25.4991836845875 -116.219766438007 2812.99996376038 10 13 6
-17.6606420427561 -115.187346935272 2788.00010681152 10 13 6
-10.2504845708609 -117.501296103001 2844.00010108948 11 14 7
-2.49079382047057 -117.749311029911 2849.99990463257 11 14 7
5.29795698821545 -117.91455745697 2854.00009155273 16 18 13
12.998447753489 -117.088049650192 2834.00011062622 8 10 5
20.7140631973743 -116.963751614094 2831.00008964539 13 15 10
28.5136792808771 -117.252439260483 2838.00005912781 13 15 10
108.712121844292 -120.254077017307 2911.00001335144 34 36 31
113.330535590649 -116.823054850101 2828.00006866455 18 20 15
119.250386953354 -115.085668861866 2786.00001335144 4 6 1
125.896707177162 -114.215657114983 2765.00010490417 9 12 5
133.634433150291 -114.378213882446 2769.00005340576 10 13 6
141.189500689507 -114.3753901124 2769.00005340576 10 13 6
148.69025349617 -114.331088960171 2767.99988746643 11 14 7
157.370328903198 -115.154027938843 2788.00010681152 11 14 7
167.460694909096 -116.885416209698 2829.99992370605 11 14 7
176.170065999031 -117.54272133112 2845.99995613098 13 16 9
180.829852819443 -115.556672215462 2798.00009727478 14 17 10
186.910971999168 -114.603042602539 2775.00009536743 14 17 10
193.566754460335 -114.062309265137 2762.00008392334 16 19 12
202.990412712097 -115.131996572018 2788.00010681152 20 23 16
210.137903690338 -114.880047738552 2782.00006484985 21 27 17
218.973621726036 -115.536421537399 2798.00009727478 17 22 15
228.381603956223 -116.440325975418 2819.9999332428 20 25 18
-109.534844756126 -123.396389186382 2802.00004577637 50 52 47
-102.215021848679 -123.795092105865 2811.00010871887 21 24 17
-93.5675725340843 -122.520096600056 2782.00006484985 22 25 16
-85.3561908006668 -121.641270816326 2762.00008392334 21 24 15
-77.4508491158485 -121.07053399086 2749.00007247925 20 23 14
-70.2522695064545 -121.600665152073 2760.99991798401 17 20 11
-63.4876191616058 -123.099610209465 2795.00007629395 16 19 12
-56.5170794725418 -124.554358422756 2828.00006866455 14 17 10
-49.0382984280586 -125.172138214111 2842.00000762939 12 15 8
-41.1923751235008 -124.908864498138 2835.99996566772 10 13 4
-33.3554595708847 -124.557346105576 2828.00006866455 10 13 6
-25.3445357084274 -123.14859777689 2796.0000038147 9 12 5
-17.6539234817028 -122.752659022808 2786.99994087219 10 13 6
-2.47151334770024 -124.558947980404 2828.00006866455 17 19 14
12.8972651436925 -123.854003846645 2812.00003623962 20 22 17
20.7648333162069 -124.998793005943 2838.00005912781 4 6 1
108.112275600433 -127.493545413017 2894.99998092651 0 1 0
113.68877440691 -124.936863780022 2836.99989318848 6 8 3
122.543632984161 -126.079231500626 2862.99991607666 9 11 6
129.445463418961 -125.19571185112 2842.99993515015 11 14 7
136.092841625214 -124.179974198341 2819.9999332428 11 14 7
141.747355461121 -122.415527701378 2779.99997138977 10 13 6
150.244876742363 -123.160906136036 2796.99993133545 10 13 6
159.794092178345 -124.65462833643 2831.00008964539 9 12 5
164.380222558975 -122.317433357239 2778.00011634827 9 12 5
173.876076936722 -123.678669333458 2809.00001525879 15 18 11
181.407675147057 -123.586758971214 2806.99992179871 14 17 10
187.513247132301 -122.570142149925 2783.99991989136 13 16 9
194.824129343033 -122.389890253544 2779.99997138977 14 17 10
201.093167066574 -121.593184769154 2762.00008392334 19 22 15
210.057973861694 -122.425191104412 2780.99989891052 16 22 12
218.186467885971 -122.728742659092 2788.00010681152 16 21 14
224.732577800751 -122.151754796505 2775.00009536743 23 28 21
-109.688736498356 -131.229504942894 2805.99999427795 47 49 44
-101.449094712734 -130.483686923981 2789.99996185303 29 32 25
-93.632698059082 -130.205363035202 2783.99991989136 27 30 21
-85.6941640377045 -129.693001508713 2773.00000190735 23 26 17
-78.0970677733421 -129.64816391468 2772.0000743866 21 24 15
-70.6577599048615 -129.883766174316 2776.99995040894 15 18 9
-63.3498802781105 -130.44661283493 2789.00003433228 12 15 8
-56.1560615897179 -131.430223584175 2809.99994277954 11 14 7
-48.5885590314865 -131.712093949318 2815.99998474121 10 13 6
-41.1769114434719 -132.601842284203 2835.00003814697 10 13 4
-33.224955201149 -131.760805845261 2816.99991226196 10 13 6
-25.2986289560795 -130.545377731323 2790.99988937378 10 13 6
-17.5711754709482 -129.750728607178 2773.9999294281 10 13 6
-10.0986557081342 -131.060734391212 2802.00004577637 10 13 6
-2.4732043966651 -132.370546460152 2829.99992370605 12 14 9
5.23646455258131 -131.949558854103 2821.00009918213 15 17 12
12.9474177956581 -132.042869925499 2822.99995422363 13 15 10
20.939951762557 -133.866667747498 2861.99998855591 16 18 13
107.101537287235 -134.130731225014 2868.00003051758 2 3 0
113.44575881958 -132.397755980492 2831.00008964539 9 10 5
130.762904882431 -134.309455752373 2871.99997901917 9 12 5
135.028079152107 -130.845785140991 2798.00009727478 9 12 5
142.81490445137 -130.982846021652 2801.00011825562 9 12 5
151.476919651031 -131.867900490761 2819.9999332428 9 12 5
161.145120859146 -133.500918745995 2855.00001907349 9 12 5
167.867571115494 -132.655426859856 2836.99989318848 9 12 5
171.210557222366 -129.331663250923 2766.00003242493 11 14 7
181.080505251884 -131.010875105858 2802.00004577637 12 15 8
187.576398253441 -130.211785435677 2785.00008583069 13 16 9
194.399327039719 -129.693105816841 2773.9999294281 14 17 10
202.326402068138 -129.922345280647 2779.00004386902 18 21 14
210.053309798241 -130.01112639904 2780.99989891052 17 23 13
216.303467750549 -129.211559891701 2763.99993896484 23 28 21
228.695765137672 -132.011324167252 2823.99988174438 19 24 17
-109.256103634834 -138.34148645401 2795.00007629395 15 17 12
-101.264849305153 -137.849122285843 2785.00008583069 23 26 19
-93.3950245380402 -137.455552816391 2776.99995040894 24 27 18
-86.0629305243492 -137.853771448135 2785.00008583069 13 16 7
-78.517772257328 -137.95480132103 2786.99994087219 12 15 6
-70.8595961332321 -137.857675552368 2785.00008583069 10 13 4
-63.0984976887703 -137.51283288002 2778.00011634827 10 13 6
-55.075578391552 -136.425286531448 2756.00004196167 11 14 7
-47.8972159326077 -137.416586279869 2776.00002288818 12 15 8
-40.5513718724251 -138.209715485573 2792.00005531311 10 13 4
-33.4718227386475 -140.487745404243 2838.00005912781 11 14 5
-25.5699399858713 -139.646947383881 2821.00009918213 11 14 5
-17.8304463624954 -139.350473880768 2815.00005722046 12 15 8
-10.2353617548943 -140.588387846947 2839.99991416931 12 15 8
-2.48275720514357 -140.638038516045 2841.00008010864 12 15 8
5.32729038968682 -142.073586583138 2869.99988555908 16 18 13
13.112211599946 -141.528844833374 2858.99996757507 7 9 4
21.0345555096865 -142.320454120636 2875 12 14 11
107.509732246399 -142.500892281532 2878.99994850159 3 4 0
114.845529198647 -141.8546885252 2865.9999370575 11 12 7
122.366696596146 -141.505286097527 2858.99996757507 8 9 4
129.257321357727 -140.512302517891 2838.99998664856 10 13 6
135.169610381126 -138.62831890583 2801.00011825562 10 13 6
141.791746020317 -137.635067105293 2780.99989891052 10 13 6
151.74189209938 -139.809057116508 2825.00004768372 10 13 6
160.633310675621 -140.844494104385 2845.99995613098 10 13 6
169.046998023987 -141.384854912758 2857.00011253357 10 13 6
175.044104456902 -139.945536851883 2828.00006866455 10 13 6
179.00824546814 -137.07110285759 2769.99998092651 12 15 8
186.898469924927 -137.314081192017 2775.00009536743 12 15 8
192.712903022766 -136.072441935539 2750 14 17 10
202.685683965683 -137.74998486042 2783.99991989136 17 20 13
212.540864944458 -139.229312539101 2813.99989128113 16 19 12
-109.018802642822 -145.654007792473 2789.00003433228 13 15 10
-100.898683071136 -144.925594329834 2775.00009536743 19 22 15
-93.6280488967896 -145.398139953613 2783.99991989136 19 22 13
-85.8135223388672 -145.034909248352 2776.99995040894 9 12 3
-78.3185586333275 -145.193740725517 2779.99997138977 10 13 4
-71.0358917713165 -145.822435617447 2792.00005531311 12 15 6
-62.7561807632446 -144.309550523758 2763.00001144409 12 15 8
-55.2540197968483 -144.415557384491 2765.00010490417 12 15 8
-47.7752201259136 -144.625827670097 2769.00005340576 12 15 8
-40.7827161252499 -146.663993597031 2808.00008773804 11 14 5
-26.0224808007479 -149.956300854683 2871.00005149841 13 16 7
-18.1656870990992 -149.800196290016 2868.00003051758 13 16 7
-10.3215938434005 -149.591639637947 2864.00008201599 13 16 9
-2.51764873974025 -150.4797488451 2881.00004196167 13 16 9
5.21764159202576 -146.82349562645 2811.00010871887 12 14 9
12.9926325753331 -147.972330451012 2832.99994468689 17 19 16
116.044737398624 -151.240929961205 2895.99990844727 9 10 5
121.464818716049 -148.208886384964 2838.00005912781 8 9 4
129.618257284164 -148.675605654716 2846.99988365173 9 11 6
135.69700717926 -146.844431757927 2812.00003623962 9 11 6
141.788169741631 -145.222008228302 2780.99989891052 9 11 6
149.965554475784 -145.792663097382 2792.00005531311 9 11 6
160.403519868851 -148.399531841278 2842.00000762939 9 11 6
169.516086578369 -149.596229195595 2865.00000953674 9 11 6
174.915924668312 -147.555440664291 2825.99997520447 10 12 7
178.486809134483 -144.209325313568 2762.00008392334 11 13 8
185.210078954697 -143.578127026558 2750 11 13 8
192.918330430984 -143.72992515564 2753.00002098084 12 14 9
202.535048127174 -145.238921046257 2782.00006484985 15 17 12
211.478233337402 -146.173357963562 2799.99995231628 18 19 14
235.325112938881 -151.695549488068 2905.99989891052 17 18 13
-107.88232088089 -151.66924893856 2759.99999046326 21 24 17
-100.823260843754 -152.386516332626 2773.00000190735 17 20 13
-93.1211039423943 -152.169361710548 2769.00005340576 13 16 7
-85.440419614315 -151.951983571053 2765.00010490417 12 15 6
-77.6121839880943 -151.404663920403 2755.00011444092 13 16 7
-70.4233646392822 -152.121126651764 2767.99988746643 15 18 9
-63.208743929863 -152.947336435318 2782.99999237061 14 17 10
-55.5722527205944 -152.839049696922 2780.99989891052 11 14 7
-48.1017455458641 -153.225213289261 2788.00010681152 10 13 4
-40.6363867223263 -153.77601981163 2798.00009727478 13 16 7
-33.6587652564049 -156.854763627052 2854.00009155273 15 18 9
-26.1849239468575 -158.779188990593 2888.99993896484 15 18 9
-18.3235388249159 -158.999621868134 2892.99988746643 15 18 9
-10.3068985044956 -157.186329364777 2859.99989509583 14 17 10
-2.44942028075457 -154.053777456284 2802.99997329712 12 14 9
5.17481053248048 -153.229355812073 2788.00010681152 16 18 13
108.84840041399 -160.188883543015 2914.99996185303 1 1 0
116.201929748058 -159.361511468887 2900.00009536743 7 8 3
124.286264181137 -159.578025341034 2904.00004386902 12 13 8
144.588500261307 -155.83048760891 2835.99996566772 9 11 6
151.734068989754 -155.222058296204 2825.00004768372 9 11 6
162.713274359703 -158.404603600502 2882.99989700317 9 11 6
169.570788741112 -157.466068863869 2865.9999370575 9 11 6
174.230486154556 -154.659390449524 2815.00005722046 10 12 7
185.609310865402 -151.408270001411 2756.00004196167 11 13 8
198.799505829811 -155.853003263474 2836.99989318848 11 13 8
205.223381519318 -154.858767986298 2819.00000572205 14 16 11
209.962233901024 -152.710855007172 2779.99997138977 19 20 15
216.600477695465 -152.045994997025 2767.99988746643 17 18 13
-108.504697680473 -160.121321678162 2776.00002288818 12 15 8
-100.311420857906 -159.1437458992 2759.0000629425 20 23 16
-93.0512249469757 -159.607976675034 2766.99995994568 17 20 11
-85.0981175899506 -158.86065363884 2753.99994850159 20 23 14
-78.5114541649818 -160.766586661339 2786.99994087219 19 22 13
-71.3118314743042 -161.691695451736 2802.99997329712 16 19 10
-63.4795054793358 -161.232173442841 2795.00007629395 15 18 11
-55.2909374237061 -159.61866080761 2766.99995994568 15 18 11
-47.7725826203823 -159.735530614853 2769.00005340576 15 18 9
-40.5771434307098 -161.178976297379 2793.99991035461 17 20 11
-33.2450494170189 -162.62224316597 2819.00000572205 18 21 12
-25.7038250565529 -163.60379755497 2835.99996566772 19 22 13
-18.1900151073933 -165.681198239326 2871.99997901917 16 19 10
-10.2201187983155 -163.604825735092 2835.99996566772 15 18 11
-2.43536964990199 -160.778269171715 2786.99994087219 18 20 15
5.18023176118732 -161.008968949318 2790.99988937378 15 17 12
116.75962805748 -168.080061674118 2914.00003433228 8 8 6
122.870489954948 -165.596410632133 2871.00005149841 9 10 5
133.662983775139 -169.341847300529 2936.00010871887 8 10 5
139.791205525398 -167.088523507118 2897.0000743866 8 10 5
151.676133275032 -162.869960069656 2823.99988174438 8 10 5
157.234340906143 -160.674005746841 2786.00001335144 8 10 5
172.430828213692 -160.664677619934 2786.00001335144 10 12 7
180.157288908958 -160.775050520897 2788.00010681152 10 12 7
191.867351531982 -164.287433028221 2848.99997711182 10 12 7
199.004262685776 -163.762956857681 2839.99991416931 10 12 7
205.872938036919 -163.065329194069 2828.00006866455 13 15 10
214.034825563431 -163.405448198318 2834.00011062622 15 16 11
221.993803977966 -163.572326302528 2836.99989318848 15 14 10
231.506854295731 -164.834469556808 2858.99996757507 13 14 9
-106.273643672466 -164.25022482872 2719.00010108948 16 21 14
-101.217396557331 -168.179929256439 2783.99991989136 19 24 17
-93.1157544255257 -167.276680469513 2769.00005340576 23 26 17
-85.837185382843 -167.823076248169 2778.00011634827 20 23 12
-79.1852176189423 -169.819161295891 2811.00010871887 19 22 11
-64.5677596330643 -171.756684780121 2842.99993515015 17 20 11
-54.9096502363682 -166.019141674042 2747.99990653992 18 19 11
-48.01269993186 -168.135225772858 2782.99999237061 18 19 11
-40.8373512327671 -169.888615608215 2812.00003623962 19 22 13
-33.26765447855 -170.43349146843 2821.00009918213 16 19 10
-25.5218017846346 -170.132294297218 2815.99998474121 16 19 10
-17.8791414946318 -170.555844902992 2822.99995422363 16 19 8
-10.2198170498013 -171.341687440872 2835.99996566772 16 19 10
-2.47636623680592 -171.221047639847 2834.00011062622 16 19 12
5.27287879958749 -171.643927693367 2841.00008010864 5 8 1
107.983358204365 -174.702987074852 2891.99995994568 15 17 14
116.315461695194 -175.364121794701 2903.00011634827 11 13 10
125.819802284241 -177.595570683479 2940.00005722046 8 10 5
139.497607946396 -174.627780914307 2891.00003242493 8 11 4
146.211639046669 -173.23425412178 2868.00003051758 8 11 4
154.786810278893 -174.075409770012 2881.99996948242 9 12 5
159.035742282867 -170.205146074295 2818.00007820129 9 12 5
164.118185639381 -167.542830109596 2773.9999294281 9 12 5
174.777656793594 -170.557647943497 2823.99988174438 8 11 4
180.475175380707 -168.680176138878 2792.99998283386 7 10 3
190.919026732445 -171.211212873459 2835.00003814697 7 10 3
199.629187583923 -172.050952911377 2848.99997711182 9 12 5
206.303834915161 -171.139180660248 2834.00011062622 12 15 8
226.995319128036 -175.172403454781 2901.00002288818 14 15 10
228.423327207565 -170.335188508034 2821.00009918213 10 12 7
-110.804185271263 -178.990051150322 2835.00003814697 4 9 3
-101.214289665222 -175.773367285728 2783.99991989136 15 20 13
-94.1889584064484 -176.84979736805 2801.00011825562 20 23 14
-86.5451991558075 -176.852613687515 2801.00011825562 17 20 9
-78.5349011421204 -176.034405827522 2788.00010681152 17 20 9
-71.689136326313 -177.930951118469 2818.00007820129 16 19 8
-62.7943649888039 -174.586594104767 2765.00010490417 16 19 10
-55.9070147573948 -176.672145724297 2798.00009727478 18 19 11
-48.5287643969059 -177.62091755867 2812.99996376038 19 20 12
-41.2862747907639 -179.51662838459 2842.99993515015 17 20 11
-33.3491750061512 -178.570657968521 2828.00006866455 15 18 9
-25.5119483917952 -177.750691771507 2815.00005722046 14 17 8
-17.802594229579 -177.498832345009 2811.00010871887 16 19 8
-10.1690525189042 -178.193852305412 2822.00002670288 15 18 9
-2.489396603778 -179.898947477341 2848.99997711182 14 17 8
5.29313134029508 -180.088341236115 2851.99999809265 8 11 4
116.912893950939 -184.228986501694 2917.99998283386 8 10 7
124.574929475784 -183.783292770386 2911.00001335144 13 15 10
133.609473705292 -185.294479131699 2934.99994277954 9 12 5
135.150790214539 -176.830619573593 2801.00011825562 9 12 5
155.319169163704 -182.56638944149 2891.99995994568 9 12 5
162.247657775879 -181.488335132599 2875 10 13 6
167.426258325577 -178.642556071281 2829.99992370605 10 13 6
174.462959170341 -177.94294655323 2819.00000572205 9 12 5
183.894336223602 -179.641723632813 2845.99995613098 9 12 5
191.721394658089 -179.699063301086 2846.99988365173 9 12 5
198.36200773716 -178.683251142502 2831.00008964539 9 12 5
205.78807592392 -178.424581885338 2826.99990272522 11 14 7
216.136857867241 -180.627137422562 2861.99998855591 14 15 10
-102.992437779903 -186.593472957611 2832.99994468689 12 17 10
-94.253197312355 -184.620767831802 2802.99997329712 18 21 12
-86.5733325481415 -184.557855129242 2802.00004577637 18 21 10
-78.5887166857719 -183.770149946213 2789.99996185303 18 21 10
-70.796474814415 -183.311507105827 2782.99999237061 17 20 9
-63.2238313555717 -183.379575610161 2783.99991989136 17 20 11
-55.3657449781895 -182.525217533112 2770.99990844727 18 19 11
-48.854973167181 -186.544984579086 2832.00001716614 18 19 11
-41.0526022315025 -186.217129230499 2826.99990272522 17 20 11
-33.159427344799 -185.230255126953 2812.00003623962 14 17 8
-25.6561301648617 -186.482787132263 2831.00008964539 14 17 8
-17.8970135748386 -186.154156923294 2825.99997520447 16 19 8
-10.1038627326488 -184.705406427383 2803.99990081787 15 18 9
-2.43863882496953 -183.849275112152 2790.99988937378 16 19 12
5.22800488397479 -185.561925172806 2816.99991226196 12 15 8
12.9677848890424 -186.286211013794 2828.00006866455 21 23 18
116.308204829693 -191.199108958244 2903.00011634827 12 14 11
123.757898807526 -190.470725297928 2891.99995994568 13 15 10
129.280686378479 -187.041848897934 2839.99991416931 11 14 7
143.398821353912 -185.254856944084 2812.99996376038 11 14 7
154.454976320267 -189.39895927906 2875.99992752075 11 14 7
159.815952181816 -186.496332287788 2832.00001716614 12 15 8
166.415274143219 -185.239896178246 2812.99996376038 12 15 8
176.809147000313 -188.131809234619 2857.00011253357 10 13 6
185.374677181244 -188.916176557541 2868.99995803833 11 14 7
187.675043940544 -183.510839939117 2786.99994087219 10 13 6
193.661406636238 -181.990340352058 2763.99993896484 9 12 5
207.019165158272 -187.251329421997 2844.00010108948 7 10 3
217.564970254898 -189.68066573143 2881.00004196167 10 11 6
224.477753043175 -188.883617520332 2868.99995803833 11 12 7
-114.470668137074 -200.900167226791 2928.99990081787 7 12 6
-104.915745556355 -197.954475879669 2885.99991798401 11 16 9
-95.7295522093773 -195.282787084579 2846.99988365173 17 20 11
-86.5704566240311 -192.199200391769 2802.00004577637 18 21 10
-78.7269324064255 -191.721841692925 2795.00007629395 18 21 10
-70.7432329654694 -190.764039754868 2780.99989891052 18 21 10
-63.1081834435463 -190.629124641418 2779.00004386902 18 21 12
-55.9033490717411 -191.934481263161 2798.00009727478 17 18 10
-47.4043041467667 -188.506379723549 2747.99990653992 17 18 10
-40.1363968849182 -189.605429768562 2763.99993896484 16 19 10
-32.8871086239815 -191.321641206741 2789.00003433228 14 17 8
-25.5555864423513 -193.449214100838 2819.9999332428 14 17 8
-17.8900826722384 -193.792954087257 2825.00004768372 14 17 8
-10.1215410977602 -192.695826292038 2809.00001525879 13 16 7
-2.44467332959175 -191.941469907761 2798.00009727478 14 17 10
5.22782979533076 -193.244785070419 2816.99991226196 11 14 7
114.701807498932 -196.371838450432 2862.99991607666 13 15 12
123.15471470356 -197.3966807127 2878.00002098084 13 15 10
132.098659873009 -199.038475751877 2901.99995040894 12 15 8
134.514823555946 -191.215202212334 2788.00010681152 13 16 9
144.821420311928 -194.845482707024 2841.00008010864 13 16 9
150.422185659409 -192.09723174572 2801.00011825562 13 16 9
158.907815814018 -193.120732903481 2815.99998474121 13 16 9
167.119726538658 -193.732514977455 2825.00004768372 13 16 9
176.679611206055 -195.784106850624 2855.00001907349 13 16 9
183.624148368835 -194.886639714241 2842.00000762939 13 16 9
189.756408333778 -193.234696984291 2818.00007820129 13 16 9
195.967197418213 -191.78831577301 2796.99993133545 12 15 8
206.575706601143 -194.592967629433 2838.00005912781 9 12 5
216.576263308525 -196.642979979515 2868.00003051758 10 11 5
221.88863158226 -194.441750645638 2835.99996566772 13 14 8
230.750143527985 -195.394173264503 2849.99990463257 21 23 18
-113.997757434845 -208.030894398689 2917.00005531311 9 14 8
-105.421058833599 -206.822335720062 2900.00009536743 12 17 10
-96.163347363472 -203.973114490509 2859.99989509583 17 20 11
-87.5252038240433 -202.050730586052 2832.99994468689 15 18 7
-78.6960422992706 -199.272125959396 2793.99991035461 15 18 7
-70.5881640315056 -197.919651865959 2775.00009536743 17 20 9
-62.9470348358154 -197.708040475845 2772.0000743866 17 20 11
-55.1022440195084 -196.711555123329 2757.99989700317 18 19 11
-47.1784099936485 -195.072919130325 2734.99989509583 17 18 10
-40.0478802621365 -196.714952588081 2757.99989700317 15 18 9
-32.3907323181629 -195.931643247604 2746.99997901917 13 16 7
-17.8451333194971 -200.997576117516 2818.00007820129 12 15 6
-10.2040618658066 -201.996654272079 2832.00001716614 11 14 5
-2.47866217978299 -202.353492379189 2836.99989318848 12 15 8
5.32043585553765 -204.493254423141 2867.00010299683 5 8 1
116.460591554642 -207.316279411316 2907.00006484985 12 14 11
123.107686638832 -205.17261326313 2877.00009346008 13 15 10
130.774080753326 -204.882904887199 2872.99990653992 13 16 9
138.755857944489 -205.092132091522 2875.99992752075 13 16 9
142.930433154106 -199.952870607376 2803.99990081787 13 16 9
149.987429380417 -199.163377285004 2792.99998283386 14 17 10
159.579545259476 -201.653748750687 2828.00006866455 14 17 10
168.47462952137 -203.074187040329 2848.00004959106 14 17 10
175.188437104225 -201.856091618538 2831.00008964539 14 17 10
182.325780391693 -201.208218932152 2822.00002670288 14 17 10
188.403278589249 -199.490666389465 2798.00009727478 13 16 9
195.049837231636 -198.485940694809 2783.99991989136 13 16 9
202.638283371925 -198.479101061821 2783.99991989136 12 15 8
211.736217141151 -199.89787042141 2803.99990081787 12 13 7
222.115948796272 -202.385604381561 2838.99998664856 12 13 7
228.961303830147 -201.593786478043 2828.00006866455 15 18 11
-113.016702234745 -214.132785797119 2891.99995994568 18 23 17
-104.50853407383 -212.87801861763 2875 24 29 22
-95.1848775148392 -209.623649716377 2831.00008964539 5 8 0
-87.3675942420959 -209.404841065407 2828.00006866455 11 14 3
-79.1156962513924 -208.000957965851 2809.00001525879 12 15 4
-70.8145573735237 -206.152483820915 2783.99991989136 13 16 5
-63.1491392850876 -205.932781100273 2780.99989891052 15 18 9
-55.280078202486 -204.898223280907 2766.99995994568 17 18 10
-47.5561991333961 -204.159587621689 2756.99996948242 18 19 11
-40.0609597563744 -204.309329390526 2759.0000629425 15 18 11
-32.4721001088619 -203.940391540527 2753.99994850159 11 14 7
-24.8650945723057 -203.200906515121 2743.99995803833 9 12 3
-10.048764757812 -206.534564495087 2789.00003433228 9 12 3
110.280066728592 -218.726098537445 2953.9999961853 122 124 123
116.816982626915 -215.90830385685 2915.99988937378 14 16 13
123.616777360439 -213.904842734337 2888.99993896484 8 10 5
131.088063120842 -213.233858346939 2880.00011444092 12 15 8
137.15885579586 -210.489556193352 2842.99993515015 13 16 9
143.944799900055 -209.077790379524 2823.99988174438 13 16 9
152.237504720688 -209.886878728867 2835.00003814697 13 16 9
158.727526664734 -208.252534270287 2812.99996376038 13 16 9
167.463079094887 -209.579259157181 2831.00008964539 13 16 9
177.162438631058 -211.941987276077 2862.99991607666 11 14 7
188.935369253159 -207.70950615406 2805.99999427795 10 13 6
195.673525333405 -206.740349531174 2792.99998283386 10 13 6
203.504651784897 -206.955328583717 2796.0000038147 10 13 6
206.443205475807 -202.359035611153 2733.99996757507 9 10 4
233.1632822752 -213.149458169937 2880.00011444092 11 14 7
236.825600266457 -209.440782666206 2829.99992370605 5 7 2
-100.978761911392 -213.269010186195 2778.00011634827 18 23 16
-95.2149629592896 -217.418357729912 2832.00001716614 6 9 0
-87.1790051460266 -216.654062271118 2822.00002670288 12 15 4
-79.0846049785614 -215.582385659218 2808.00008773804 12 15 4
-71.168027818203 -214.817449450493 2798.00009727478 13 16 5
-63.3284449577332 -214.129030704498 2789.00003433228 13 16 7
-55.5976629257202 -213.670611381531 2782.99999237061 16 17 9
-47.8131622076035 -212.828010320663 2772.0000743866 17 18 10
-40.0594659149647 -211.831539869308 2759.0000629425 14 17 10
-32.3647744953632 -210.758000612259 2744.99988555908 11 14 7
-24.7826147824526 -209.991291165352 2734.99989509583 9 12 3
-17.7931673824787 -215.750575065613 2809.99994277954 10 13 4
-10.2429464459419 -218.284830451012 2842.99993515015 10 13 6
116.051554679871 -222.399070858955 2897.0000743866 13 15 12
122.542537748814 -219.861268997192 2864.00008201599 16 18 13
129.626765847206 -218.62830221653 2848.00004959106 12 15 8
139.324754476547 -221.693843603134 2888.00001144409 12 15 8
145.570576190948 -219.232112169266 2855.99994659424 12 15 8
151.21166408062 -216.156139969826 2815.99998474121 12 15 8
158.213913440704 -215.229287743568 2803.99990081787 12 15 8
165.919050574303 -215.300038456917 2805.0000667572 12 15 8
180.621162056923 -224.043652415276 2918.99991035461 9 12 5
188.514724373817 -223.960071802139 2917.99998283386 8 11 4
194.516912102699 -221.727281808853 2888.99993896484 7 10 3
201.200887560844 -220.415279269218 2871.99997901917 8 11 4
208.373695611954 -219.71707046032 2862.99991607666 9 12 5
217.535302042961 -221.090659499168 2881.00004196167 11 12 4
229.269027709961 -217.314213514328 2832.00001716614 10 13 6
238.574460148811 -218.763664364815 2851.0000705719 10 12 7
-121.942542493343 -231.882691383362 2917.00005531311 10 15 11
-93.8665345311165 -221.958234906197 2792.00005531311 11 14 5
-86.4342823624611 -222.438752651215 2798.00009727478 14 17 6
-79.5321762561798 -224.508956074715 2823.99988174438 13 16 5
-71.5213716030121 -223.557889461517 2812.00003623962 11 14 3
