ply
format ascii 1.0
comment KinectMotionCapture
element vertex 794
property float x
property float y
property float z
property uchar red
property uchar green
property uchar blue
end_header
207.222477615513 30.8976388575186 2815.09479289667 13 14 6
187.767165704868 31.5718928398807 2821.99202688359 12 13 5
224.41757482932 27.1797407136389 2780.60642278464 9 11 6
224.352434650804 26.0872001138975 2770.67249088089 8 10 5
214.191182659821 25.9123128918533 2769.48126872255 7 9 4
150.808213522434 30.6386791195132 2814.95673076724 6 8 3
108.523748224315 33.4701595870408 2842.36930021192 13 15 10
92.660892888631 32.8161772667855 2837.04214292262 11 13 8
57.6629997027025 35.0374938810391 2858.61760030051 10 12 7
50.9754125944073 34.6114279211202 2855.00250420665 12 14 9
24.5713823600209 36.0606552497754 2869.21734462651 13 15 10
24.7540330084415 34.9894086410925 2859.4634439166 12 15 8
29.4248797347296 33.4803208436491 2845.55010584521 13 16 9
18.9960559298377 33.4193747025709 2845.40023445492 16 19 12
12.3406056526885 32.996445301135 2841.8087454001 16 19 12
16.1533056190368 31.5513299447336 2828.5086790909 15 18 11
44.5015212711728 27.6851681489312 2792.22351510485 12 15 8
4.28415718409658 30.5553841154387 2819.89943542826 13 16 9
10.2018913756003 28.8800002971112 2804.41878263276 14 17 10
33.7761887080799 25.4281446672207 2772.08581064798 15 18 11
-12.0543634842614 28.9137514185789 2805.5766101858 16 19 12
-27.543438568415 29.3794338914706 2810.40726196527 16 19 12
-3.44493858868145 25.8362389681299 2777.2187963858 16 19 12
-7.99253409815082 25.1839761675732 2771.4484757754 14 17 10
-15.4607195802692 24.8298182461109 2768.50320259616 15 18 11
-27.9991591272239 25.0006513431733 2770.53060410517 16 19 12
-30.3736313913463 24.1239600640832 2762.62938024998 17 20 13
-40.7026650873177 24.0732143625812 2762.55219498353 18 21 14
-40.2235575586072 22.893273415635 2751.77732052838 17 20 13
-34.0520099816808 21.1051535806112 2735.24505481327 22 25 18
-37.9585898228991 20.3721049686683 2728.70397431547 21 24 17
-50.426223973381 20.5499390709855 2730.78303410594 22 25 18
264.891265115153 27.7499257182598 2854.41411062204 28 31 20
248.302790973487 28.1569691445324 2858.44748754405 21 24 15
272.599793314957 23.8224698356597 2819.2231403501 18 21 14
261.578082848305 23.7270654673444 2818.64359270518 20 22 17
193.040340905497 27.8056662361184 2856.67356451055 12 15 8
191.669956382433 26.8582197421812 2848.26453579181 12 15 8
206.756218182088 24.3833334634978 2825.84000833569 13 16 7
191.978572682867 24.665181055677 2828.7150917086 12 15 4
201.445562194069 22.6881601973168 2810.86540099431 11 14 5
192.142828160986 22.4600396842784 2809.06123055902 9 11 6
229.314120431912 16.7125325991055 2756.93014753522 7 9 4
168.965708490621 21.3416950812848 2799.66449150207 6 8 3
88.9142023720448 27.9185468675732 2860.23911009763 13 15 10
72.2095777909537 28.4544372810899 2865.42397635192 11 13 8
72.3997812709065 27.3611642076114 2855.67514480537 12 14 9
57.293734366294 27.7543458590946 2859.54805802626 12 14 9
48.3259181279281 27.5546913000028 2857.98652635651 13 15 10
31.7884155790193 28.1049224258526 2863.29291005405 13 15 10
37.2475352469257 26.4845498312615 2848.71511307496 12 15 8
36.6059139336028 25.4603343129511 2839.5989548801 14 17 10
46.4606565629797 23.3779629087046 2820.79478442575 17 20 13
29.9786324180054 23.9332008039918 2826.14111648552 17 20 13
31.4998853900197 22.6752474829069 2814.88628372545 15 18 11
13.5952619018043 23.3882971195757 2821.67251024453 12 15 8
9.13803344254749 22.736857917986 2815.96770280905 14 17 10
18.7500345809366 20.6346723863013 2796.98746350506 14 17 10
3.14898504201544 21.1259201564403 2801.73707210589 15 18 11
-8.71274252412046 21.2385298926834 2803.01970502955 16 19 12
-1.4456845808648 19.3554520392198 2786.04608054805 16 19 12
-3.7774884067141 18.4675399144749 2778.17543664153 17 20 13
-6.86254682796394 17.6551101509809 2770.99445584282 15 18 11
-25.2501108456267 18.4671731994119 2778.6661266173 15 18 11
-34.130899218014 18.2766599015585 2777.16772960715 15 18 11
-31.4208948430483 16.8430064231249 2764.30368489396 16 19 12
-15.0618661560495 13.9233497071409 2737.85882499587 17 20 13
-28.3192702178172 14.1970873681629 2740.60088612276 17 20 13
-32.2153746085088 13.4561050437048 2734.06735931678 21 24 17
-33.2674128655064 12.3999555397908 2724.65351936879 19 22 15
-59.996976954817 14.1752089357804 2741.1043924717 20 23 16
316.67045657574 15.3328254632547 2812.83882266454 29 32 25
259.917951386707 19.465887309371 2849.53185244762 23 26 19
283.265460411044 16.1978303354937 2820.74051764239 18 21 14
283.364245955279 15.0743993544888 2810.92555700456 20 23 16
223.287283729014 18.5028309833634 2841.49934900131 15 18 11
202.918529820959 19.33373625532 2848.97023948935 12 15 8
202.310081377053 18.2920640852895 2839.87774611707 12 15 8
184.397875387921 18.9054349294041 2845.42293439748 12 15 8
190.037665982226 17.2582215510533 2830.97597367479 12 15 8
174.531511507543 17.6498178358737 2834.55883234922 12 14 9
171.533332434767 16.8313423729849 2827.44080162166 11 13 8
184.042960466683 14.4895227163474 2806.85449573251 9 11 6
186.38283296399 13.130315538403 2794.95725375956 6 9 2
150.848759699417 15.5135350794539 2816.14484282604 7 10 3
112.401744202843 18.2173050579577 2840.16284254825 13 16 9
86.4189452241737 19.7072687413126 2853.44791772635 11 14 7
68.202490016994 20.4367577141036 2860.00817404601 12 15 8
79.0547842583536 18.2385430679051 2840.69152664594 13 16 7
57.8498065954989 19.2823102775987 2850.0273721343 15 18 9
55.7004570292143 18.3942430288681 2842.28899242858 15 18 11
44.4495216538252 18.4373446565259 2842.77901294479 14 17 8
60.3851093989842 15.6772522283307 2818.49836763128 15 18 9
47.6101337385613 15.8751454617052 2820.35473060565 18 21 12
47.622956411026 14.7451687361079 2810.47742049205 17 20 11
24.4191393548276 16.0454915427199 2822.07096851613 15 18 9
-0.175568469625187 17.5116809115323 2835.12714354446 12 15 6
0.612682790690045 16.3058777463941 2824.57653745759 15 18 9
-3.82764098377897 15.6500427346325 2818.88396232323 15 18 9
-20.8402398101366 16.3405037306078 2825.08168551132 15 18 9
-5.37028753645585 13.542181813879 2800.46329746749 16 19 10
-4.72022174140196 12.3252334704045 2789.81216685828 17 20 11
-12.1667800560523 11.9826703842532 2786.88263040442 16 19 12
-20.3357261283641 11.7209475621985 2784.66486574959 15 18 11
2.08155373694607 8.09375984231503 2752.72729564848 15 18 9
-25.7507528060943 9.99581133270633 2769.61444609954 14 17 8
-36.0867738757045 9.97641770928104 2769.53235434128 15 18 9
-33.6701623007893 7.35582810601332 2746.56843439589 9 12 3
-25.3599696406051 5.22931259189499 2727.8791052601 28 31 22
-12.8509290491454 2.60803483462427 2704.82088475406 19 22 13
-38.2211846332881 4.29404322154914 2719.78632982246 20 23 14
237.615912243106 15.0529286761961 2877.80653923925 27 30 23
292.539856960806 6.41038126719015 2803.94668745074 20 23 16
282.257613023435 6.26494403472971 2802.66790481837 18 21 14
220.528600961521 11.1600525256199 2844.40276936328 16 19 12
209.641456060298 11.1078111290266 2843.92098979747 13 16 9
188.543171421652 12.0702680699549 2852.09873085429 12 15 8
181.661669300081 11.6343178533402 2848.34301156324 12 15 8
190.444602357227 9.6334945514511 2831.23234979205 11 14 7
172.594226749961 10.2926196280105 2836.82259199001 11 13 8
183.61908371991 8.04800300367256 2817.63050948237 11 13 8
180.570127278568 7.21379383558968 2810.47558946238 9 11 6
155.823174908125 8.59009294634921 2822.18590722918 6 9 2
138.12918945482 9.26251467955166 2827.88958733747 8 11 4
102.022997729851 11.8453608118407 2849.89848329963 13 16 9
94.4915254802439 11.4990449418912 2846.90707743655 11 14 7
95.3879348223143 10.2763139470554 2836.43479170856 12 15 6
72.5821660090147 11.5279404646192 2847.08131563616 13 16 7
87.9264250451723 8.78215676612978 2823.60740710468 14 17 8
43.1940929442449 12.3692993397377 2854.18943975828 15 18 9
53.1669771175487 10.1807450761651 2835.47037479327 15 18 9
38.9027256198466 10.5657194376491 2838.71815079168 15 18 9
40.4840611207611 9.2569223637971 2827.5066156054 16 19 10
42.020481797207 7.94439707253602 2816.26250182018 16 19 10
29.3015837185462 8.17144766728772 2818.15966431811 14 17 8
8.41854177274959 9.29730508713575 2827.72930368132 11 14 5
-22.0430783870347 11.4912561597778 2846.41729147282 15 18 9
-26.4147941330402 10.835303501017 2840.77445116655 15 18 9
7.63712382897941 5.91667921106856 2798.73780979033 16 19 10
-5.711551315567 6.23550783814833 2801.41393495612 17 20 11
-32.9766294540481 8.1223242086351 2817.47716758481 17 20 11
-34.4774067019005 7.13190343006681 2808.97339672393 15 18 11
-3.14222741445369 2.41780063007377 2768.67377381072 15 18 11
-12.0779173805761 2.24360066662729 2767.13566009387 15 18 9
-27.5301881435044 2.81862362698895 2771.99354594236 15 18 9
-30.6234003510322 1.9831891289907 2764.80653776646 15 18 9
-33.7351596920121 1.14636123559259 2757.60578284285 16 19 8
-18.8835265925769 -1.78246660519157 2732.53850099579 23 26 15
-22.8049790556808 -2.54284762614126 2725.98679504997 20 23 12
-18.8767693476368 -4.22821976739099 2711.53391616342 27 30 21
-17.8621901828708 -5.58185503644421 2699.91130009959 24 27 18
262.911466677689 5.00125746023108 2857.80412698803 23 26 19
327.997322649511 -4.94883768891372 2775.2475844588 19 22 15
322.3828914032 -5.56958708840388 2769.93938258317 19 22 15
231.2315873106 2.47555861730067 2836.06094981934 16 19 12
203.72985771295 4.12577727724026 2849.48135708244 13 16 9
195.247823320288 3.85119678048276 2847.03626841887 12 15 8
183.63613631038 3.90084053429776 2847.26509999058 12 15 8
193.200700295551 1.76637292958703 2829.48505111898 11 14 7
215.172282313056 -1.67423740297934 2800.93102902923 10 13 6
194.929882840145 -0.735096642184491 2808.49377030091 10 12 7
227.574829943805 -5.33409291810336 2770.37924569593 9 11 6
189.527766944118 -2.51465908678025 2793.45243427254 7 10 3
134.670859884638 2.12193625916551 2831.52187961322 8 11 4
120.900731604332 2.43078885531509 2833.89243387608 13 16 9
115.619691902771 1.83821289343425 2828.82605735018 13 16 9
100.37999277646 2.31729246122531 2832.60251831316 13 16 7
101.987679666792 0.982460934931789 2821.40995394181 14 17 8
73.1009061701018 2.95738008068072 2837.53306788377 14 17 8
80.7790633148255 0.958355438515912 2820.85657621634 14 17 8
31.6135360027707 5.19318954353409 2855.63927494388 18 21 12
39.2963068654035 3.19468802351153 2838.96613050874 17 20 11
32.6021363591984 2.77753861611929 2835.34660161035 14 17 8
34.1642577753727 1.43937424114948 2824.12098897283 12 15 6
25.9568410738633 1.18886302636242 2821.87509844987 12 15 6
2.09849772144954 2.7063132020953 2834.23059729269 12 15 6
-11.2439879490132 3.05216949954848 2836.91134624081 13 16 7
-11.9389551334135 1.96526266330718 2827.75619894166 16 19 10
42.7783107055979 -5.4759368779834 2766.1038560101 18 21 12
2.79101278484584 -2.08348743201767 2793.94920142286 18 21 12
-21.5628423609768 -0.460196303781441 2807.18077144936 16 19 10
-28.2243191585092 -0.873442536041463 2803.58496268846 12 15 8
-17.3515051636466 -3.33662126686651 2783.04651729407 13 16 9
-22.6023332239973 -3.92466907372477 2778.00177029061 14 17 10
-30.036890720301 -4.25559568874123 2775.0809924271 17 20 11
-26.6060064181861 -5.87546067119832 2761.50325465323 17 20 11
-20.3468550673944 -7.84475132118062 2745.03357711745 16 19 8
-33.588326596488 -7.488620718203 2747.78760541379 17 20 9
-12.3597337079626 -11.2825638900133 2716.22252273534 22 25 14
-32.0560744600849 -10.1471783789587 2725.41743875176 11 14 5
-35.9876181022569 -10.9166617747343 2718.85807691253 26 29 22
-15.0620354483437 -14.7353807716982 2687.07350463103 12 15 8
289.018681198113 -5.30075452937276 2837.15350532312 22 25 18
284.374164665552 -5.99250794141532 2831.31301904397 25 28 21
296.492580777177 -8.41586706046685 2811.67773890067 21 24 17
328.421682069731 -12.9127527179607 2775.51487285913 20 23 16
219.548803922542 -2.7749239638663 2855.97315989974 18 21 14
231.781996364801 -6.38763042398238 2826.53417730157 12 15 8
212.194433832624 -5.49423624628748 2833.33635550184 12 15 8
202.106940638005 -5.59692216410321 2832.19896838292 13 16 9
214.757309124405 -8.12543125199453 2811.71344815698 12 15 8
239.018538577608 -11.9212846911268 2781.11174213885 11 14 7
271.676078620613 -16.6565520858316 2743.00565618427 9 11 6
253.624190262618 -15.9331573827202 2748.45014302706 9 11 6
166.701661562206 -7.68819988195782 2813.93284751308 7 10 3
149.747173441448 -7.02192668523327 2818.93753724664 9 12 5
145.176071031714 -7.70768334915112 2813.15000632955 13 16 9
116.020042378268 -5.67395259531561 2829.07822935458 13 16 9
107.670719218067 -5.92937763779425 2826.72973739879 14 17 8
100.860816127796 -6.35441943817963 2823.02597702681 14 17 8
92.531508302351 -6.60798404006493 2820.69200403783 14 17 8
37.1447003830863 -1.54404408596873 2860.84984525672 15 18 9
28.9760162168702 -1.78390932625569 2858.63238117616 20 23 14
40.4441317945787 -4.26171248346086 2838.52540852794 18 21 12
36.7583136373901 -5.02201338937119 2832.14422484794 14 17 8
21.0519005225751 -4.39950071637629 2836.81811802664 12 15 6
24.106652091032 -5.93909220372371 2824.20315683736 12 15 6
5.47343608667417 -4.96404352912133 2831.69786927556 14 17 8
-7.87925434649495 -4.59203959869456 2834.37135301633 13 16 7
36.6557576146951 -11.0203735129272 2782.63449802963 17 20 11
40.9629165373859 -12.7533005811541 2768.4563811179 19 22 13
14.9825098834735 -10.8997018267908 2782.98036353281 18 21 12
-2.06014817174216 -10.089480347983 2789.15660827784 16 19 10
-5.99632249308812 -12.06658749367 2772.70689072045 13 15 10
-8.36648794988593 -13.0139055257851 2764.80843122337 14 17 10
19.0140904042422 -17.5926522683513 2727.81819692636 17 20 11
-1.59206801148981 -16.3332406984161 2737.5892315476 17 20 11
-27.8852642948699 -14.3551644959451 2753.12213321686 16 19 8
-30.3101785022486 -15.3063502211885 2745.18396559147 19 22 11
-37.7795262985243 -15.6344299344288 2742.23768744014 19 22 13
-32.3681594759768 -17.5717827213488 2726.38863120799 21 24 15
-32.7321390822017 -18.7977937270976 2716.23768264864 25 28 21
295.054635573103 -13.6573207597769 2832.84092444934 23 26 19
285.827283643428 -16.2687197923536 2811.3172698817 23 26 19
242.198375000014 -12.781563240992 2837.75825030514 17 20 13
233.633556357448 -13.0475454101616 2835.25348760135 17 20 13
240.882273096719 -15.0300199389685 2819.50110035511 14 17 10
222.056231805702 -14.1789377965608 2825.61977612974 12 15 8
222.941021937786 -15.4781262593904 2815.13868011632 11 14 7
223.00215070867 -16.6943235558865 2805.29565692315 10 13 6
229.248965678498 -19.8302712283598 2780.16528177528 9 11 6
168.586371157528 -14.2718250003078 2822.67657509051 9 11 6
118.301061643685 -9.82074201933997 2856.64861514582 8 11 4
107.663160822953 -9.80399152712882 2856.34757291359 11 14 7
123.241159767041 -12.7616300444245 2833.0420343432 13 16 9
101.05766303149 -11.4308351815995 2842.90502095398 13 16 9
71.3059130741756 -9.21303103346807 2859.63765636677 13 16 7
90.5680486236355 -12.6224238585214 2832.82476672031 14 17 8
79.9847200718808 -12.600804325302 2832.56330975313 16 19 10
57.2771993092234 -11.1613196340197 2843.28230180507 16 19 10
27.8511260587879 -8.91575793283167 2860.25116781044 18 21 12
43.1018651733881 -11.9006055582732 2836.70795930906 17 20 11
40.9153384931185 -12.8480723710125 2828.94262272653 13 16 7
49.964156473151 -15.1356537535149 2810.78792301777 13 16 7
20.0100071666198 -12.7816810979692 2828.60956117242 14 17 8
17.0567982226051 -13.6409927493183 2821.52392340757 15 18 9
20.0365947089307 -15.2199038673961 2808.85442651794 17 20 11
35.5720205921592 -18.3325407444741 2784.28220410073 19 22 13
5.12729069138107 -15.8669403525542 2802.9838119588 19 22 13
5.05795293387656 -17.0925418884575 2793.04616316058 17 20 11
4.95219593893692 -18.3210535584673 2783.08239301654 15 18 9
8.47497406858633 -20.005943363894 2769.57094167583 13 16 7
16.3239770473815 -22.2409556312288 2751.7820678465 15 17 12
2.96063891898379 -21.8417944335365 2754.44797040268 15 18 11
15.7883827636276 -24.7240940881377 2731.61916808194 15 18 9
-11.3266855411804 -22.5865980660083 2747.79241578229 15 18 9
-24.5983767293896 -22.1791760306723 2750.52479700403 16 19 10
-38.5466316592495 -21.6761189971803 2754.00224377017 21 24 15
-37.3795635991667 -23.1008332030252 2742.48981013201 22 25 16
-33.3963051716397 -24.8978774024339 2728.07656607304 16 19 10
-28.0495124968483 -26.8847017106238 2712.1804480801 23 26 19
-6.42350654262192 -31.0059676797867 2679.66676403049 11 13 8
277.478516578838 -23.1158386788227 2818.81667481028 24 27 20
269.623326580262 -23.4694405072257 2815.59056213768 16 19 12
267.322714994497 -24.4413243986802 2807.74239929515 19 22 15
233.391153327275 -21.8711170413381 2826.38722598337 15 18 11
230.344953458753 -22.7507276575575 2819.23377981753 13 16 9
227.280079280281 -23.6318706146749 2812.06708296129 10 13 6
221.845974984276 -24.2471224519439 2806.88963178654 8 11 4
194.526541539585 -22.3612135003836 2820.44308876208 8 10 5
175.896235566316 -21.4501733203465 2826.70425542205 8 10 5
194.633362632004 -24.8395366333122 2800.7459140041 9 11 6
117.147746254545 -17.09318080528 2858.24578912949 8 11 4
121.966383248743 -18.8618614547781 2844.43827248834 9 12 5
92.8224654205065 -16.6638099982994 2860.37610722577 13 16 9
100.685829629159 -18.7965825442513 2843.83349312902 12 15 8
86.2534953827554 -18.307469700179 2846.95994983777 13 16 7
80.2710001101401 -18.8133873341572 2842.62054876932 14 17 8
14.1152529937436 -12.1291383608082 2892.27165404516 16 19 10
19.6965427693154 -13.9884019966157 2877.78121075413 17 20 11
28.9973429259813 -16.3101655013347 2859.80929964062 16 19 10
41.2295588355152 -19.0056186012877 2839.02010056057 15 18 9
46.579442775581 -20.8841663848192 2824.36180856294 13 16 7
30.8431042015269 -20.1938790249092 2829.01435142975 12 15 6
24.1446377821246 -20.6042071913566 2825.39174288314 13 16 7
15.2108943812053 -20.737235332183 2823.85524881634 14 17 8
17.4549856264021 -22.2562395110202 2811.88805804338 19 22 13
31.5200573671541 -25.2622711364183 2788.72026328736 19 22 13
7.74088075472168 -23.5417608041468 2801.13418032923 19 22 13
-7.08348470883324 -22.9290337894836 2805.21210800165 16 19 10
7.40809612201643 -27.2956357419763 2771.23068861343 13 16 7
4.30103381902835 -28.1782248617737 2764.03340136029 15 17 12
-6.84005310758118 -28.0304549489456 2764.6035835268 15 18 11
-23.036884634497 -27.222029480352 2770.1582347237 14 17 10
-16.7201166982334 -29.327658306585 2753.72933962357 15 18 9
-20.5884994849006 -30.1184914788052 2747.21565629559 16 19 10
-31.6699118496668 -29.9648911296304 2747.82942183483 14 17 8
-42.7213522110372 -29.8085444813168 2748.46463415249 20 23 14
-35.140878605203 -32.1171981260813 2730.48072464191 15 18 9
-14.0932069467594 -36.2396620683353 2698.78282428025 29 32 25
220.353548779208 -20.7400526944129 2894.75461997708 27 30 23
256.767195913355 -26.0435704003732 2855.66313354769 25 28 21
316.144718219166 -35.2577315210911 2787.49895311911 25 28 21
214.636721835806 -26.1290599189827 2852.29399346327 23 26 19
228.267857836352 -28.9309916662848 2831.2833254471 15 18 11
226.025692532217 -29.9121311682481 2823.47719020291 11 14 7
193.107873960268 -27.3190445871952 2841.62198015382 9 12 5
176.956831393632 -27.8955107911138 2836.08630242499 10 12 7
163.830371697762 -27.5827961437319 2837.68844871413 9 11 6
240.767364164548 -39.2666402100641 2751.36301644276 9 12 5
115.563447688356 -26.7640605073461 2840.99165828831 13 16 9
84.1771742054056 -24.1994174202916 2859.01122278091 15 18 11
69.0251868344824 -23.583229680265 2862.85196234716 16 19 10
28.712476935925 -19.8753571467081 2889.22797072349 18 21 12
32.0203869844349 -21.4939432980714 2876.79612939552 18 21 12
25.3994625596428 -21.8959687668429 2873.22948027341 18 21 12
41.5047279281917 -25.1209231187554 2849.06948327291 15 18 9
42.3768995058915 -26.4707211918263 2838.57898345246 14 17 8
39.4435411341556 -27.3514364526673 2831.50733290056 13 16 7
57.5147147136534 -30.8843249174439 2805.06579508214 14 17 8
35.7668066651202 -29.4017719454283 2815.24531791281 16 19 10
2.91373518088811 -26.4857935750618 2835.90875317835 17 20 11
15.6162616140914 -29.3651739330069 2814.22422949979 20 23 14
19.3032071259465 -31.1088349042812 2800.83178338742 21 24 15
-3.70185205401752 -29.4157854821071 2812.57140447542 18 21 12
-2.26465887153826 -30.8749951885283 2801.2543210997 18 21 12
21.925621662124 -35.312886472848 2768.12785738902 17 20 11
26.1372496670615 -37.1696945875392 2753.87986059435 15 18 11
-2.60999327928446 -34.6963115622127 2771.34168465701 15 17 12
-23.9336732316937 -33.1765730655935 2781.82922231707 15 17 12
-15.3739316559229 -35.6141816616529 2763.31922076804 14 17 10
-9.07673395779884 -37.7683740477009 2746.87618727764 14 17 10
-14.4110375293542 -38.3754512975573 2741.77112518379 12 15 6
-29.8308798358018 -37.6209595775971 2746.6534281571 13 16 7
-44.4766627760011 -36.9590140000215 2750.86135789059 18 21 14
-31.1616660472698 -40.1004599635516 2727.14913185065 15 18 11
-30.8081475079365 -41.4908707372566 2716.28244366275 25 27 22
278.920049029181 -32.5152738361249 2866.74869361204 94 96 93
304.168175396997 -36.6556171956465 2836.8609597964 26 28 23
303.528582297753 -37.8367153826091 2827.74518277854 27 30 23
278.813884203456 -36.2269923656014 2838.24502806737 27 30 23
322.13611272307 -42.539784882906 2793.04068892801 28 31 24
283.962825120097 -40.6212922988063 2804.90159805704 28 31 24
210.284651674057 -33.1768300073517 2856.51419530955 26 29 22
212.075342998804 -34.6354417847816 2845.45366778683 14 17 10
230.458636487946 -39.3580913157044 2810.58622614207 7 10 3
209.339945242381 -38.0880834219863 2818.75073182024 8 11 4
173.450971466901 -35.0100275625729 2839.68456541535 11 13 8
188.397324444661 -38.0915158771892 2817.15524803251 9 11 6
235.09466894712 -45.0847428928851 2766.98334723353 8 10 5
215.606096934194 -43.9986612463958 2773.85826177379 8 11 4
174.548599577867 -40.2313085816552 2799.69465910602 8 11 4
142.936756588759 -37.5959208555848 2817.55106178526 15 18 11
76.8841789476196 -30.6324551842812 2866.04303999685 17 20 13
85.509560433028 -32.9610308277738 2848.81680007578 18 21 12
76.4749569521204 -33.0822753256284 2847.20725007102 20 23 14
63.6472639600938 -32.7197375049534 2849.02593660694 19 22 13
68.3326853904438 -34.5768173167211 2835.12140140141 17 20 11
77.5009465713765 -37.020082989959 2817.05279452343 16 19 10
63.1639400051678 -36.4631153906747 2820.24869999966 15 18 9
69.9631125792477 -38.6238696994969 2804.16952557208 14 17 8
64.6708782629406 -39.2325872228924 2799.09495207086 16 19 10
41.3783895841617 -38.7889504544837 2800.73899887207 18 21 12
-6.32219247076282 -33.8121817323076 2835.35209461887 21 24 15
3.37049051336669 -36.371304139434 2816.42773435432 21 24 15
8.5296776033168 -38.3481249359247 2801.6309988452 18 21 12
23.2131905843822 -41.6111484137234 2777.67518699888 17 20 11
32.6232628674261 -44.1935732877312 2758.54613265133 16 19 10
33.8728258503718 -45.6960822394974 2747.09310729755 14 17 10
43.8514585156513 -48.3910271055048 2727.14031346261 15 17 14
15.0966218811801 -45.8335425236601 2744.59705868965 15 17 12
1.01256405076056 -45.2532350662135 2747.97674480065 14 17 10
4.36564326696542 -47.0597398344962 2734.34165909226 14 17 10
-8.23156651394585 -46.6751444193633 2736.32783402976 12 15 6
-33.7529604519706 -44.4871051634651 2751.18625856531 12 15 6
-22.5404379828851 -47.3982246388512 2729.65647507922 10 13 6
-22.1712512534264 -48.812578004431 2718.80102382277 18 21 14
270.437804511368 -39.1453624872726 2874.15273166418 48 50 47
281.208305381019 -41.6717754725907 2856.00987026629 21 24 17
268.576185713389 -41.432118091872 2856.73496751298 24 27 20
321.709300619289 -49.0486645686038 2803.81423358339 29 32 25
250.018978036436 -43.0052396457253 2843.27448346672 28 31 24
228.726262205731 -41.6983084660064 2851.31302203298 21 24 17
227.336867536038 -42.7990442844177 2842.88943601261 21 24 17
233.036193158856 -44.7730427077339 2828.48397827194 12 15 8
175.593218379999 -38.9961864968356 2867.15487131492 8 11 4
200.990960376754 -43.395277546234 2836.13895534738 8 11 4
176.03263897109 -41.5801966308447 2847.69826970605 9 12 5
182.453366612055 -43.6569216666969 2832.58021472408 12 14 9
194.260717782672 -46.42358645906 2812.71769805568 9 11 6
196.636432286615 -48.0241721366923 2800.84551056558 8 10 5
219.895726250169 -52.2769728421248 2770.75020222986 8 11 4
205.105692009144 -51.7291234077206 2773.61794656824 8 11 4
108.791471663674 -42.0405032604556 2838.47549788809 18 21 14
82.8371434207416 -39.9820605069385 2851.7843860457 21 24 15
100.561590284398 -43.5572279371625 2826.32602663234 21 24 15
109.765592444555 -46.0528014777267 2808.28306420329 19 22 13
105.202268076561 -46.7670726569576 2802.50132180003 16 19 10
61.9857752410895 -42.404387832584 2831.71607370276 16 19 10
66.5814794847264 -44.3076393190978 2817.74597224827 15 18 9
62.8279580009257 -45.1167989593427 2811.31546150282 15 18 9
45.539985228471 -44.1248348457133 2817.31508741335 17 20 11
58.2740588033182 -47.1395482588267 2795.65274744242 18 21 12
-2.95564384394642 -41.5179396409046 2832.81281091035 20 23 14
17.8662063665858 -45.6483629127188 2803.42153518168 20 23 14
0.782246556048971 -44.6384973662072 2809.56914511644 16 19 10
22.8733623516875 -48.9885622590034 2778.62650683436 15 18 9
4.20134747155165 -49.0940027715321 2776.20644378409 15 17 12
36.2131916996717 -54.8955199339189 2735.15651065277 15 17 14
24.9770745090765 -54.6994088336305 2735.65804821051 15 17 12
11.5897595636065 -54.1940433616419 2738.30740188291 15 18 11
6.21768334659079 -54.8107627950813 2733.17461427568 15 18 11
1.56244574346642 -55.5302395783335 2727.32621563933 14 17 8
-25.4317995484563 -53.065905475852 2743.5884115425 12 15 6
-25.729661716638 -54.3983409099826 2733.4848538643 16 19 12
-23.2000869510745 -56.1459380714798 2720.48812721303 22 25 18
4.25485760335542 -61.5127246500228 2682.31277435534 14 16 11
262.270105883156 -47.0204074696463 2871.89730833053 18 21 14
273.003517564387 -49.6078960812242 2853.72725082834 17 20 13
290.859598691141 -53.0903218997381 2829.60011676228 17 20 13
283.797662927564 -53.5228764933279 2825.71361447299 14 17 10
252.324702534662 -53.5279972829489 2822.66022633242 8 11 4
200.231066419608 -48.2860191835073 2856.56041451182 8 11 4
230.404204289433 -53.3891886277828 2821.59190989954 10 13 6
168.366358315109 -46.8252825852724 2864.34667804531 12 15 8
167.022807714444 -47.9390327910788 2855.9562594485 11 14 7
191.458373463688 -52.3629791873943 2825.47775211724 11 13 8
205.584380733114 -55.4959690611387 2803.58881886405 9 11 6
205.598100993713 -56.8277175517162 2793.71113741748 8 10 5
233.491410558517 -61.7912406536379 2759.5607172076 9 12 5
247.272283726347 -64.9534448587757 2737.42144090229 9 12 5
75.3587692672539 -45.0559431959797 2868.56958452001 22 25 18
90.8962361532319 -48.4021232542801 2845.23269535619 22 25 16
99.4297805481743 -50.8432384555984 2827.93901625628 22 25 16
101.780783283702 -52.476086304461 2816.04875126363 18 21 12
68.359987844596 -49.3143409843826 2836.3018761765 15 18 9
57.8323000506957 -49.2077688820962 2836.08118468364 15 18 9
53.3750418960652 -49.9187049708975 2830.3763488349 14 17 8
45.1408468076506 -50.1170979191851 2828.11160455411 16 19 10
40.6752467206202 -50.8285707963816 2822.40042426459 18 21 12
19.7203412617943 -49.2740482265431 2831.92013950705 19 22 13
4.08052211694532 -48.4345579777982 2836.64340710996 19 22 13
-3.31186285379959 -48.7275959665566 2833.7533929236 20 23 14
7.86542434491233 -51.6096470562802 2813.43354498138 20 23 14
4.87556548232693 -52.5284557673146 2806.32074306704 17 20 11
-23.9656094067544 -49.8098958364502 2823.71601020619 16 19 10
-23.2363656663037 -51.2457238104225 2813.12116871086 15 18 9
0.77560456113579 -57.367318112639 2769.97573930148 15 17 14
-11.0828760400501 -57.0386403171698 2771.26211492366 16 18 13
-4.00331941685894 -59.434136128953 2754.14967675877 16 19 12
0.821188773365122 -61.5209343204396 2739.10976831565 16 19 12
-13.9328781999064 -60.7710460787403 2743.23935161258 15 18 9
-19.2693247153104 -61.3874377346718 2738.1326888737 14 17 8
-26.0476047573541 -61.7927712405201 2734.45195255064 15 18 11
-9.19310723557287 -65.6897255494469 2707.12657622756 13 16 9
331.075015177301 -61.8940393262954 2826.59522967286 29 28 23
347.332964286915 -65.255635901198 2803.78055536111 5 6 0
299.141687037492 -60.5398679156041 2833.09617267545 15 18 11
279.243575425064 -59.3499112319378 2839.67472936756 14 17 10
303.402329200352 -63.7347072038549 2810.23079006274 11 14 7
277.948748199081 -61.8310297891689 2821.43152892994 11 14 7
273.277396199828 -62.5664492529427 2815.57136787112 12 15 8
260.665589973705 -62.2824696593419 2816.31112078879 10 13 6
257.578962202733 -63.2221613963957 2809.12835772799 9 12 5
215.826086086888 -59.1458087363561 2834.46222530323 11 14 7
194.719786784586 -57.7200306037777 2842.6365031725 12 15 8
168.205832189463 -55.5679103263421 2855.5398862625 11 14 7
180.130356978715 -58.4512019427106 2835.76172051299 10 12 7
221.591498762127 -65.2627616847491 2790.44075015587 9 11 6
237.895746012843 -68.7904490267816 2766.42346596596 9 11 6
255.622836649521 -72.5360202597205 2740.96645442825 10 13 6
103.43187302538 -56.1572436098434 2844.39958837041 23 26 19
91.2898643556708 -55.8332531424707 2845.48040470269 22 25 16
100.59084249589 -58.4309589109131 2827.50722491128 21 24 15
83.8815167554556 -57.4783777698702 2832.69079381552 17 20 11
72.5541403456793 -57.2543809612158 2833.12631686432 15 18 9
57.4664992951797 -56.502709062596 2837.01438870543 16 19 10
54.5236680847463 -57.4297165161926 2829.93563661151 15 18 9
44.0261358228553 -57.304351187677 2829.73719517578 17 20 11
-19.0447477572484 -49.7867142193809 2877.92340077319 19 22 13
3.62765850119695 -54.2970783980189 2847.40163488248 21 24 15
-5.24243261656898 -54.3718676142405 2845.91157870579 20 23 14
-8.88215165553108 -55.1881180488402 2839.563529865 20 23 14
4.54394384941548 -58.4506362918659 2817.16655955016 19 22 13
2.30599132447384 -59.4862391037947 2809.36349684913 17 20 11
-30.959814665205 -56.0426931268266 2830.96544092662 16 19 10
-38.3033665561441 -56.3259201976298 2828.11087657619 16 19 10
24.073197992152 -66.7791687279704 2758.40908528529 13 16 9
15.073084243959 -66.8639535329734 2756.82472229935 14 16 13
-25.2751990805042 -62.3273896338461 2785.64950796064 14 16 11
7.303287114234 -68.5352724384037 2743.77325073236 15 18 11
3.39719071227051 -69.3724452281644 2737.23199328051 15 18 11
-2.29584242611969 -71.3742831431247 2721.9786392656 9 12 5
13.1454039662739 -75.1407882245189 2696.099501048 14 17 10
16.2782522381368 -77.0729418698943 2682.30412879177 14 17 10
15.7828403141669 -78.4660992830534 2672.05705551088 10 12 7
301.572484906563 -65.9142234656365 2850.88774184383 24 27 20
344.527213741073 -72.765507220825 2806.6490089278 26 29 22
350.219900035174 -74.8638625607984 2792.23810830376 19 22 15
315.74461787845 -71.767597270371 2810.49144499271 13 16 9
268.624483845087 -66.991381168967 2839.34882643613 14 17 10
298.301447125774 -72.216735394984 2805.25505201448 17 20 13
264.143822829837 -69.0937505022608 2823.73880100593 15 18 11
264.249234914177 -70.4621423546208 2813.92710883631 15 18 11
230.302733982989 -67.3212774452406 2832.56399622626 11 14 7
213.864275047426 -66.4802300351791 2836.7083206884 10 13 6
202.202164905591 -66.2663234045484 2836.90113700252 12 15 8
175.664423923435 -64.0454129260777 2849.78791974588 10 13 6
166.450559765838 -64.1399563054331 2848.0485550974 12 14 9
228.242922789665 -73.8673105663253 2785.33774918076 11 13 8
236.754592900799 -76.4152469692206 2768.02796635227 10 12 7
250.612060886059 -79.7140637301556 2745.94352329521 9 11 6
276.730847973176 -84.7255446890217 2712.97683869049 10 12 7
141.457124021056 -67.469803038209 2821.26756845107 12 14 9
112.286658960577 -64.7838535594851 2837.18862983298 22 24 19
108.555817162717 -65.6173735552 2830.77443668588 20 22 17
91.9012861069568 -65.9994267750895 2826.11008525262 16 19 12
80.5510200512427 -65.7586143407808 2826.52910028305 15 17 12
65.4397317646587 -64.976476984171 2830.40018405162 18 21 14
53.4041871927204 -64.6215577809598 2831.55804066356 18 21 14
42.9102411822497 -64.4797710959821 2831.36228215542 19 22 15
18.1622758114592 -62.2781839628301 2844.31108245238 19 22 15
-4.97804688944248 -60.2841699352313 2855.95417257245 20 23 16
-1.12052296512699 -62.1935825476912 2842.68424834983 20 23 16
-0.301112760169087 -63.6723700945811 2832.15484732719 17 20 13
-0.26488881781539 -65.0454409289146 2822.29297549693 15 18 11
-15.8165644909156 -64.127595448244 2827.08053706829 14 17 10
29.9717220571663 -72.2862835651228 2773.77336973226 13 16 9
-5.52634929486073 -68.4148379184843 2797.46466877048 13 16 9
-15.1609691853873 -68.3709074281267 2796.6563218155 13 16 9
33.0343132393196 -77.0130508929964 2740.15085289079 14 17 10
42.236274533892 -79.8440813371237 2720.86967521017 15 18 11
36.0704582874436 -80.3655968121259 2716.39730184939 13 16 7
18.3012017222302 -79.1184342273022 2723.28436412721 13 16 5
19.3980636225009 -80.743839727843 2711.72002000455 14 17 6
14.6840193523801 -81.4856555469963 2705.82858353166 12 15 6
13.5527321371609 -82.7834663726579 2696.35607026035 17 20 11
12.3896124764418 -84.0837066218726 2686.86046866446 17 20 11
372.343553239347 -82.897559384007 2794.64903804313 16 21 14
315.910144310786 -76.8495673839338 2830.3477559078 25 30 23
339.379632803944 -81.3262970286883 2801.63901893436 21 24 17
306.534373999586 -78.3460071630792 2818.60303916405 14 17 10
272.233034954083 -75.1397720757664 2836.98273346813 11 14 7
256.433517551588 -74.3839651239125 2840.35477189435 13 16 9
279.670102466002 -78.8808769198941 2811.47709591969 13 16 9
240.064615943879 -74.9012991788912 2834.66175749033 15 18 11
278.972801302515 -81.5645523778082 2792.43099225677 13 16 9
211.112274305096 -73.689835904636 2839.61725953843 12 15 8
195.523597996284 -72.9162912908597 2843.14223101779 11 14 7
193.32571258623 -73.9781122789086 2835.36778654617 9 12 5
202.059287490809 -76.5596113177632 2818.21840275974 11 13 8
213.829504549198 -79.5825981637661 2798.32766845916 10 12 7
206.046495741208 -79.894734838512 2795.15438597824 9 11 6
230.081700051099 -84.6738211941376 2764.38384924155 8 10 5
109.605243560048 -71.8266121594908 2840.14958261795 22 24 19
93.6104194621579 -70.9125543426938 2844.61587725366 18 20 15
95.2640668698019 -72.5212920637204 2833.45524325328 16 18 13
96.1102215193774 -74.0237028269665 2822.94481571602 15 17 12
80.9455452656409 -73.2137483185217 2826.77733830721 15 17 12
68.10753978713 -72.7306660053185 2828.58945416024 19 22 15
59.0886771886145 -72.7974334487227 2826.99159099407 19 22 15
90.0429614956386 -78.7368623993964 2788.87971592073 19 22 15
56.8864595476009 -75.2578549862211 2809.32603982062 20 23 16
42.6248340961641 -74.5455107537066 2812.57737768895 20 23 16
23.1793804197316 -73.0492701247768 2820.72095827384 20 23 16
5.30234773072191 -71.7694062720978 2827.53005697784 17 20 13
-2.10449122385903 -72.0482713926148 2824.62934210147 15 18 11
28.2723185747851 -78.0359160702112 2786.09859921092 14 17 10
36.277298934146 -80.6775044230425 2768.42103180249 13 16 9
26.5266437603224 -80.630348626158 2767.52829025412 13 16 9
8.7217682914047 -79.3435339733503 2774.38973247404 14 17 8
24.6537793339532 -83.2348459838676 2748.86572785308 15 18 9
39.7230780008142 -87.0243641852736 2723.9518768547 15 18 9
60.4835511095039 -91.729067781635 2693.2781620828 15 18 9
13.6277802288483 -85.914479080686 2728.50792320235 13 16 5
15.4648769666053 -87.679660516451 2716.24415201189 14 17 6
8.60168816691687 -88.0851709129192 2712.50215709941 13 16 5
-7.60080335155067 -87.010607549842 2718.05375881153 15 18 7
-11.5624425953433 -87.8687094784002 2711.47213115808 19 22 13
-24.8238657812743 -87.2432868521414 2714.21306008977 15 18 11
289.114315696713 -82.3579807652837 2843.00829486977 27 30 23
256.402191924118 -79.2765130849508 2860.06934001081 22 25 18
256.639292763054 -80.6779990241823 2850.3529442017 17 20 13
253.648779217511 -81.643301229773 2843.23972667202 13 16 9
257.005738625474 -83.4902770468222 2830.84257990982 13 16 9
269.038503043088 -86.5540385807942 2811.14196526115 10 13 6
235.862392759804 -83.3347119892104 2829.10239159039 15 18 11
267.546123002976 -89.1694538732236 2792.75487433314 15 18 11
206.155651785254 -81.9530755276369 2834.74720652728 12 15 8
196.866924761701 -82.0328330425267 2832.95364708294 12 15 8
207.159652977392 -84.8894111435066 2814.46276574061 9 11 6
218.920031183649 -87.9764936184551 2794.56457438916 9 11 6
208.789060628404 -87.9502197771645 2793.39632281027 8 10 5
183.15906488671 -85.6883414698612 2805.70632033161 8 10 5
83.839867610902 -75.4793911252338 2863.44739984946 20 22 17
80.9606467158854 -76.4353189220695 2856.41490822048 19 21 16
70.4126301679246 -76.2664873068489 2856.1800898137 17 19 14
65.9928752081393 -76.9979645120908 2850.50204230943 17 19 14
79.0578028670912 -80.3290630426006 2829.07823744887 19 21 16
73.0511591560137 -80.8399241601648 2824.72130562231 22 25 18
68.5561029425719 -81.5774717348288 2818.98863988465 22 25 18
48.2163317236752 -79.9310660653154 2827.71970784207 20 23 16
57.2810161219395 -82.7135539897014 2809.57429771631 19 22 15
35.5215230988231 -80.8323131500009 2819.74744178431 19 22 15
16.0955576519726 -79.2855038286778 2827.90540594313 18 21 14
11.6529371485949 -80.0180268564494 2822.21077742105 16 19 12
25.7765520104956 -83.6134577198595 2799.08273087661 15 18 11
-5.42710570046023 -81.6452557517476 2808.58581098924 14 17 10
-54.0847044815631 -75.4764011945569 2844.98155077267 14 17 10
-6.30156172582597 -84.3819967214062 2789.411015199 16 19 10
25.0540367858294 -90.7753973207848 2749.11768864276 16 19 10
5.09520894714033 -89.0949346949602 2758.12508309142 16 19 10
-3.8663496676814 -89.1441850844388 2756.56884953329 13 16 5
19.1080855606822 -94.2951188731353 2723.79241854171 12 15 4
-1.48881214321861 -92.4906610539483 2733.57292721729 13 16 5
1.79548864733725 -94.5183530707787 2719.88686220333 8 11 0
-20.1373649321992 -92.4717065407607 2731.17020794592 17 20 11
-17.6092024202408 -94.3854656865014 2718.17191035568 10 13 4
-10.8480996644948 -97.0050794075793 2700.82748298474 15 18 11
246.169841575965 -81.3390379363488 2897.10580167768 94 99 95
271.553382103453 -86.2166531386086 2867.31220357201 24 27 20
262.165457203165 -86.293663029158 2865.4467473871 26 29 22
268.843673230766 -88.612789755748 2850.51412341932 27 30 23
249.042189705754 -87.2302772427974 2857.16370320738 22 25 18
263.63167815615 -90.6808567230311 2835.60944317651 18 21 14
270.943687921952 -93.1267550398526 2819.90029658607 15 18 11
259.131554008683 -92.8691013103307 2819.98487353131 15 18 11
212.707409500215 -89.0609750645639 2839.46071260385 17 20 13
208.132899371887 -89.8116804716381 2833.67038238064 13 16 9
197.269306869227 -89.6539261529671 2833.20674012088 13 16 9
226.35051460328 -95.3004342448432 2798.67895656206 13 16 9
242.7448121473 -99.1392013000116 2774.72537607146 8 10 5
180.458974115408 -92.8912925563254 2808.65292353524 8 10 5
166.552278462021 -92.270617991228 2810.92605663461 8 10 5
130.307741902406 -88.3174633508896 2832.84160435645 8 10 5
95.7727441056488 -84.5797682846757 2853.52497413022 20 22 17
72.1423299529165 -82.4404006627707 2864.81352274239 22 24 19
67.7413830767302 -83.176149353561 2859.1490879834 22 24 19
74.0123421387469 -85.5301204944935 2843.92105825615 20 22 17
58.1495959558773 -84.5341781378028 2848.48351375247 21 23 18
77.237654081963 -88.8650622406663 2821.53976413182 22 25 18
62.1424945863529 -87.9840267499964 2825.42304094373 22 25 18
40.3116549120592 -86.0520182636417 2835.54472144982 20 23 16
36.6197913065851 -86.9072937620116 2829.15867423031 19 22 15
21.6669004710219 -86.0138367660246 2833.14514754742 17 20 13
3.02792400093654 -84.5316517859792 2840.63795836942 16 19 12
7.56984729282051 -86.6709064144007 2826.62796902983 16 19 12
37.3178186872014 -92.8006537979047 2788.87568461094 15 18 11
-13.1735762802612 -86.2688017191727 2826.41427279315 14 17 10
-67.0956091956958 -79.1265222584563 2867.64419339448 14 17 10
-30.1320905314157 -86.4462944130986 2822.76563022282 14 17 10
-9.58120376845817 -91.1924923971469 2793.17480828805 16 19 12
15.9355143338553 -96.7790402061088 2758.53372157129 16 19 12
12.0624279466957 -97.6480707417137 2752.01623241787 17 20 11
7.44750874271638 -98.3996002381477 2746.19660461917 14 17 6
-1.53074708848022 -98.4394792735383 2744.62831436031 13 16 5
3.9750736036881 -100.855604028563 2728.84559915661 13 16 5
-24.4857503952118 -97.6806865965579 2746.51860783682 10 13 2
-17.5812718354276 -100.338232414862 2729.27821898949 14 17 8
-10.0401870102855 -103.121814154902 2711.26335010676 16 19 10
2.41815361922182 -106.749740623735 2688.1629827651 16 19 12
17.6103584036791 -110.866505431704 2662.10153483654 17 19 14
302.402234296429 -96.7820141475148 2852.56793006822 146 150 149
286.48400206724 -95.9385419759039 2855.85405914767 24 26 21
271.422286625583 -95.2053907099065 2858.52579457606 27 30 23
267.644656248647 -96.0768446927103 2852.07749124635 32 35 28
273.458356838097 -98.3305284303639 2837.75352969863 32 35 28
281.600001398138 -100.935674929441 2821.4102543002 30 33 26
272.1495652318 -101.007831456363 2819.49950694771 27 30 23
263.509668973736 -101.194163374876 2816.94072232244 23 26 19
212.133409929172 -95.125066981349 2850.12981086081 17 20 13
219.425732394065 -97.6195980851904 2834.40644066816 14 17 10
210.897616843884 -97.7966355444897 2831.92873534182 11 14 7
225.148731938809 -101.347793700244 2810.12837731648 10 13 6
211.101586040058 -100.712180020775 2812.29977070519 8 10 5
215.833673195438 -102.875041966806 2798.42751563284 8 10 5
200.262822324683 -102.002670874988 2801.96590972825 9 11 6
180.086244101224 -100.42309123152 2809.57961017756 9 11 6
146.053936065335 -96.7250373997816 2829.39215306704 9 11 6
142.282972878354 -97.5963694725508 2822.94868354311 8 10 5
90.183190137469 -92.5053110250032 2849.43284273523 22 24 19
78.8442293803824 -92.188484759728 2849.86043824294 24 26 21
69.8244439538422 -92.2238120999796 2848.26206534936 21 23 18
66.90867331517 -93.2052242519936 2841.20294894791 21 23 18
57.1458261035911 -93.1204214112375 2840.30185429791 22 25 18
39.0825190504178 -91.7267908084526 2846.97620051402 22 25 18
41.4552959424253 -93.5402128317769 2835.10080542829 20 23 16
26.4796759368235 -92.6162757480266 2839.07095627263 19 22 15
10.8060970490222 -91.5684753877912 2843.77080584919 17 20 13
-2.56814246506809 -90.8744355668031 2846.4302993766 17 20 13
11.6855618139531 -94.6074625263988 2823.39586047552 15 18 11
46.6329587181171 -101.708802081383 2780.76198390557 14 17 10
42.0572933459131 -102.463962374604 2774.97079365654 14 17 10
22.5621851399525 -102.289170883177 2773.19050874825 15 18 11
27.5368094400745 -104.612551370175 2758.25822434086 15 18 11
17.7979779515227 -104.523991160036 2757.37426375579 16 19 12
17.5716923782856 -106.007186759445 2747.32182984883 16 19 10
14.8335713280052 -108.617844391224 2729.26702988182 14 17 8
0.758476508229133 -107.798294006176 2732.65413080609 15 18 7
-6.05592139706745 -108.19245392136 2728.94726846961 12 15 6
-27.9684790227313 -106.024306741078 2740.24623708407 18 21 14
-7.48699746274495 -111.056364965585 2709.3686172688 8 11 4
10.6863832031823 -115.734954224999 2680.52500061273 9 11 6
314.333271310235 -107.633428863581 2833.98916168409 22 24 19
285.511505381182 -104.880864024801 2847.69326666951 23 26 19
272.866892474625 -104.470226650201 2848.40987887104 26 29 22
267.782180058274 -108.0663414981 2823.70855221513 26 29 22
229.777740567509 -103.864516968563 2845.58460493521 19 22 15
233.912669126693 -105.930777773195 2832.5149827855 11 14 7
202.458027306814 -102.659028464196 2849.25353061482 9 12 5
230.985775093734 -108.413333685537 2815.5590227444 10 13 6
211.421622165238 -106.918652884572 2822.38151117827 10 13 6
152.780589112029 -99.4530318154362 2862.66253339568 8 10 5
192.816352217129 -107.017033124626 2818.77453760908 9 11 6
197.554041627418 -109.218095473961 2804.9061502383 9 11 6
172.725002372333 -106.869932239179 2816.56188415399 9 11 6
206.06825548579 -113.516036569067 2777.70817084304 9 11 6
146.595313644739 -107.237723857153 2809.96930194619 10 12 7
107.462659106535 -102.573911914495 2834.73523192302 20 22 17
82.2961789251635 -100.068307771302 2847.38247628536 22 24 19
74.7937498948468 -100.335798733142 2844.41252373546 20 22 17
42.9448906110634 -96.7252162719459 2863.33737890431 20 22 17
40.840570607843 -97.834690575716 2855.63052061945 23 26 19
25.0932472889414 -96.7582726678242 2860.27705623764 22 25 18
22.9825633757978 -97.8680131856326 2852.56587774726 21 24 17
29.1240704144355 -100.320683127281 2837.24350555674 20 23 16
10.4418774255532 -98.7499638199179 2844.7054362458 18 21 14
10.5303276886919 -100.230036365336 2834.8811768823 18 21 14
28.4790851610701 -104.652460449475 2808.34609686504 15 18 11
38.8513072383017 -107.860114931071 2788.67602741915 14 17 10
35.7827150684256 -108.864661218161 2781.50601024941 14 17 10
37.8691274123337 -110.731870796889 2769.42275094687 14 17 10
47.2751318630613 -113.835362662279 2750.2878139568 15 18 11
27.9350370583553 -112.13352181533 2758.50881284192 15 18 11
20.3931002328472 -112.402391162821 2755.51021326635 15 18 11
-9.04943447065509 -108.956914722911 2773.70826044699 16 19 10
41.3662784275184 -120.653343321662 2703.97563542103 14 17 8
17.8027412177548 -118.194326045709 2716.54932027411 16 19 8
-5.65599376947712 -115.726191310883 2729.19902467661 15 18 9
-18.9402628702151 -114.994990975439 2731.92392790205 11 14 7
-11.3867783508095 -117.882079648261 2713.91781801631 19 22 15
6.09011737568199 -122.527407208758 2685.80450967018 20 22 17
306.04615224281 -115.609287423422 2831.64665728484 23 26 19
280.499263569775 -113.256546991226 2842.78203002221 24 27 20
254.256002750149 -110.774457309428 2854.64857401486 25 28 21
264.054694920198 -113.714979777622 2837.03446131125 26 29 22
251.468210575865 -113.278155439651 2837.79334479019 16 19 12
232.562881239049 -111.869773386569 2843.85766027927 14 17 10
220.062419298193 -111.425641325207 2844.67923472638 11 14 7
221.811713698741 -113.164847889571 2833.58727642195 9 12 5
251.868074132673 -119.286938981901 2798.52895631522 8 11 4
193.116062975503 -113.15887716523 2828.84157667071 11 13 8
222.100805930291 -120.694508188202 2784.35341296703 8 10 5
255.443548956785 -127.480424496467 2745.49862170792 18 20 15
239.775391965698 -126.551383093268 2748.96676356639 9 11 6
213.348737834399 -123.896615557635 2761.93597863315 14 16 11
97.107502750081 -108.321773006669 2844.49113475752 22 24 19
51.297012427681 -102.410902356925 2875.53868875438 18 20 15
42.3575473499422 -102.418185207788 2873.99868384663 23 25 20
45.6139525101205 -104.406147413403 2861.52792904043 27 29 24
58.6840943547982 -108.011655444983 2840.10621963914 24 27 20
39.8571789385835 -106.407404328215 2847.46340779732 24 27 20
40.723975539434 -108.032429512334 2836.96761746187 22 25 18
20.4829186552287 -106.171024919551 2845.77104008209 20 23 16
31.0831546580141 -109.42018016237 2826.26634706437 16 19 12
7.17694011311609 -106.92702897967 2838.59179069908 15 18 11
19.1747312128334 -110.434333275023 2817.62853988517 12 15 8
40.7331671402411 -115.580632201971 2787.53104862251 13 16 9
71.7665575589774 -122.373116967042 2748.23686725565 14 17 10
18.3072275459515 -114.847495386319 2788.56941061674 14 17 10
10.6972508623731 -116.626231327327 2775.63295773641 16 19 12
-4.11837977838436 -115.622270888218 2779.71949361974 15 18 11
22.0216454304092 -121.698218494431 2744.29244551382 15 18 11
29.0628022323478 -127.698082771314 2706.13711305768 14 17 8
-5.25629572058706 -123.25884203826 2729.45061996127 14 17 8
18.1479548320316 -129.000244041892 2695.74774380384 16 19 10
-0.944376693860383 -127.226693436367 2704.14842032434 8 11 4
-3.513496330243 -128.385879586308 2696.1046615428 14 16 11
338.440935452771 -125.270633496294 2825.43844991018 8 12 11
341.801039452397 -127.282407214197 2813.04245351871 17 22 18
300.820392339818 -122.541336525545 2836.46912557104 20 23 16
287.330781770661 -121.968074541834 2837.80933576573 20 23 16
278.684944774039 -122.131020072253 2835.24636302896 19 22 15
297.205962223635 -126.489540626626 2810.361486795 20 23 16
