ply
format ascii 1.0
comment KinectMotionCapture
element vertex 792
property float x
property float y
property float z
property uchar red
property uchar green
property uchar blue
end_header
206.849868941279 -146.399167701071 2892.54518382704 5 8 1
198.473802507431 -146.469882944186 2895.20521818605 9 12 5
203.084063648526 -143.609517411633 2907.20832528283 11 14 7
211.81460366362 -139.84096358455 2922.07126483008 15 18 11
214.896592366447 -137.358881650238 2932.81406056526 14 17 10
192.648023899007 -140.533501887415 2925.61896486629 12 15 8
199.850973393492 -137.143216133979 2939.22057576111 15 18 11
203.001497460244 -134.669523553759 2949.89655480964 15 18 9
211.961101498465 -130.929878075179 2964.53596519503 15 18 9
208.595370722263 -129.918350508839 2970.56283875532 15 18 9
231.736856394636 -123.11390715043 2994.75560285427 15 18 9
219.3199803198 -124.101294153824 2994.47848233418 14 17 10
175.254836635955 -131.945415021358 2972.79571133261 14 17 10
165.198122760442 -132.373304532038 2974.34328716905 18 21 14
178.522335912061 -127.756583758488 2991.60416711108 12 15 8
173.501691208017 -127.106639212343 2996.49368000088 11 14 7
151.687840243274 -130.047838061114 2990.24965097588 11 13 8
145.788464382065 -129.572244063753 2994.62027867004 15 17 12
132.294011514917 -130.707644430027 2994.0181748269 15 17 12
68.8767203112484 -142.387502550803 2960.94492279694 16 18 13
245.362901007333 -148.332778554943 2904.18250288006 7 10 3
211.25378852195 -154.393473442097 2887.93667216108 15 18 11
193.178986177124 -156.710670235575 2883.55546046481 20 23 16
188.823111394352 -155.857487144593 2889.17171774524 5 8 1
193.410025568864 -152.961316273081 2901.1930545535 11 14 7
212.704973952494 -146.731825081794 2923.62248960878 15 18 11
197.827401887868 -148.298409581935 2921.62341592424 15 18 11
204.181527208603 -145.048578289831 2934.67143371985 14 17 10
197.466209662221 -144.761881036267 2938.46365094973 15 18 11
208.010966922891 -140.599405320971 2954.30064310546 18 21 12
203.794945856792 -139.763145387243 2959.78052481307 17 20 11
197.931460786009 -139.295376544282 2964.11700681817 16 19 10
206.141765205911 -135.703189108936 2978.10502987591 15 18 9
189.515356932307 -137.6242467774 2975.06114874347 15 18 9
169.507903258173 -140.271269701918 2969.81401790973 17 20 13
163.607085461126 -139.798221233858 2974.18645369562 13 16 9
178.598557635553 -134.755620298517 2992.56293235689 15 18 11
164.362745890932 -136.112881211345 2991.31255257056 17 20 13
154.283826273429 -136.553257299381 2992.88436238973 18 20 15
133.241492493837 -139.35675900806 2987.2707631353 17 19 14
122.248980223107 -139.969700169947 2988.35804184735 15 17 12
77.4109578411442 -147.839280135728 2967.44617581986 13 15 10
226.421687244136 -161.729075955741 2882.46071710342 5 8 1
201.981638807319 -165.614601256712 2873.29613691488 5 8 1
198.423209198929 -164.568255005189 2879.50921707768 15 18 11
181.126520720012 -166.73533303125 2875.75004863939 5 8 1
188.089779051681 -163.233276511183 2889.57315673166 15 18 11
190.23674335389 -160.869504341876 2899.84468449074 11 14 7
211.152189953212 -154.181186096914 2923.43128290175 16 19 12
218.313961147131 -150.704184761787 2937.06096793265 17 20 13
203.439656077464 -152.303024284852 2935.06341735213 15 18 11
227.892702638815 -144.89753825655 2960.69910473319 15 18 11
217.131288971779 -145.56019318988 2961.56424678922 17 20 11
196.453706375566 -148.462837977954 2955.60309752152 16 19 10
184.790370460435 -149.302077922586 2955.97305157259 14 17 8
194.625365812675 -145.289361525479 2971.11973499772 12 15 6
184.611970629893 -145.75461418081 2972.62981698837 13 16 7
172.912447769963 -146.588761466624 2973.03495251783 15 18 11
153.678308394836 -149.090249818786 2968.41530852497 12 15 8
151.930265526828 -147.688639341583 2975.61195863018 14 17 10
163.601958183606 -143.325757686169 2991.71717668569 16 19 12
161.917606012601 -141.932176433326 2998.85176770311 17 19 14
145.101304480778 -143.865266023464 2995.99823169599 15 17 12
140.040745849594 -143.209021862828 3000.92644862521 13 15 10
96.0904006919034 -151.026014550503 2980.54258077472 11 13 8
251.384209802958 -162.894946184025 2901.77244556842 0 2 0
189.98805094529 -175.692577293686 2865.44047628294 21 24 17
176.720591555438 -176.939784066509 2864.62948949933 12 15 8
190.907597061042 -171.665167820963 2883.77018585143 3 6 0
185.735594788318 -170.996525545685 2888.80723552821 9 12 5
209.001226158804 -163.636975602541 2914.21158592064 13 16 9
217.744211789868 -159.731340289841 2929.04190620355 16 19 12
229.002887138611 -155.262228373053 2945.54155576522 17 20 13
222.337284878007 -154.992222965582 2949.28653418697 17 20 13
218.125483204388 -154.150627555084 2954.76143739433 17 20 13
216.38520958936 -152.739719493356 2961.94933617954 18 21 12
203.123433227717 -153.986080028283 2961.13258099131 17 20 11
189.823771389137 -155.227369652733 2960.35269716338 15 18 9
196.358066508621 -151.92379854301 2973.21386096385 13 16 7
197.967748207375 -149.760673087059 2982.63166446955 13 16 7
177.980902145144 -152.506619506555 2977.37869082191 15 18 11
157.92500771364 -155.243523915515 2972.19260897848 17 20 13
158.693868635435 -153.267487301422 2981.05610227671 14 17 10
186.296482126397 -145.282063454516 3007.72957437635 15 18 11
155.277953687804 -150.451889579359 2995.36830027025 15 17 12
150.228276486305 -149.796692867287 3000.28586659137 15 17 12
146.02283865387 -148.954396015013 3005.75434673758 14 16 11
93.6332721166471 -158.765848336486 2979.87542403126 30 32 27
23.2334662290872 -172.468810149318 2942.69897591936 26 28 25
250.657148824594 -170.136517027507 2902.14781955828 16 19 12
231.105008142295 -172.989291918786 2896.47862840173 0 2 0
192.931474133093 -180.309193305471 2877.37005407921 9 12 5
183.708069823862 -180.611141241124 2879.48843640568 20 23 16
182.571392449026 -178.969262803459 2887.45972719861 16 19 12
208.265779099623 -170.932241802674 2914.60322356299 14 17 10
238.995045679855 -161.752472604254 2945.08058147578 15 18 11
235.609576627823 -160.716094491471 2951.12304469385 17 20 13
233.869335006807 -159.294445098767 2958.3089863025 18 21 14
228.864631273798 -158.646185836766 2963.18291865668 17 20 13
213.99509193493 -160.309178104366 2961.19045522464 18 21 12
190.014732280689 -164.082045072249 2952.96965574484 18 21 12
183.292577652629 -163.809067642547 2956.77035223988 17 20 11
215.478081969204 -154.517728779646 2987.20206392337 15 18 9
204.683793317722 -155.212475642697 2988.10459449813 15 18 9
191.367702775102 -156.477758389267 2987.34457078914 15 18 11
175.512378038865 -158.311349916226 2984.93897416559 14 17 10
170.471777980535 -157.657268037868 2989.84769152131 13 16 9
154.542617628701 -159.481050177257 2987.51396493234 14 17 10
182.222437132897 -151.400041050978 3014.09664285697 15 17 12
157.879808707484 -155.124761593329 3006.2284656016 14 16 11
90.4325840138132 -168.520230706387 2970.32534138341 13 15 10
35.3808336262014 -179.034567713817 2942.94282684932 12 14 9
255.00036545685 -178.038020916214 2897.58553290221 12 14 9
239.494820944274 -179.954361863904 2894.84482967411 12 15 8
221.525585577881 -182.456790666006 2890.38616561767 12 15 8
209.141448736832 -183.569749563864 2890.09543186761 12 15 8
194.297344820927 -185.269370657385 2888.08278656705 12 15 8
181.028539427102 -186.569214329134 2887.28091609595 12 15 8
235.965559489249 -171.352238841954 2935.33764060144 17 20 13
225.22672922032 -172.074072447243 2936.18876574918 14 17 10
236.501951502472 -167.49848492478 2952.65624691335 15 18 11
232.309097887299 -166.653305920143 2958.11214260692 19 22 15
232.22173454368 -164.830809002444 2966.43166304038 19 22 15
218.182309632193 -166.331561328165 2965.00747619378 18 21 12
193.388446565169 -170.362480232035 2956.21572827439 16 19 10
180.892238828881 -171.459174897152 2956.03354089152 14 17 8
227.145578303066 -158.737781524164 2996.07787135525 13 16 7
206.420126510319 -161.786265852005 2990.18581192763 12 15 8
193.940238871487 -162.884588696433 2989.98799693292 11 14 7
198.101049868644 -160.10237816238 3001.03205662365 10 13 6
188.934336592606 -160.422500074102 3003.09683002185 13 16 9
162.996921480988 -164.605999800585 2994.04628824877 15 18 11
165.508379803444 -162.213359491208 3003.95193920103 14 16 11
-46.9278971975378 -203.195281446742 2899.29968659595 15 17 12
227.050269514757 -192.11558653661 2877.8258448617 12 14 9
215.490668418602 -193.055312150799 2878.10730260014 12 15 8
219.189049475759 -190.185687412729 2889.59798011808 11 14 7
214.058475323242 -189.52173709083 2894.59458452773 12 15 8
206.503251872055 -189.456963614184 2897.83639381478 12 15 8
206.231091158298 -187.59497007089 2906.33324534259 13 16 9
226.118029822559 -178.90425266087 2937.73043588772 15 18 11
209.641261980796 -181.032596730565 2934.56825859196 15 18 11
211.111950148089 -178.786506571973 2944.11216042428 17 20 13
211.794215431247 -176.742648284128 2953.05162045803 18 21 14
205.105638916498 -176.484400360257 2956.82115040471 16 19 10
189.345833380324 -178.4003539257 2954.33287487679 15 18 9
189.229933130528 -176.557099549038 2962.67766493657 14 17 8
198.245039674702 -172.547032199055 2977.22199227857 15 18 9
206.497082904782 -168.742465703305 2991.13751639041 15 18 11
179.045366169932 -173.406258980565 2980.82752921432 15 18 11
185.672281605917 -169.999935125627 2993.58153286046 14 17 10
181.49088930064 -169.15186679247 2999.02562026238 14 17 10
160.562253675041 -172.224240899552 2993.33885628332 14 17 10
163.907151026945 -169.61044068127 3003.80111193862 14 16 11
150.462453367954 -170.911520962294 3003.17408785731 14 16 11
75.4119759470227 -186.460322011013 2962.38650797025 14 16 11
-5.87632568659169 -203.332346040506 2918.06937276705 10 12 7
-40.0648549966514 -209.253639421084 2904.7159571246 3 5 2
-74.3841302102308 -215.157831030379 2891.4898464628 5 7 4
208.710980964944 -203.939626888646 2865.19333829492 13 15 10
209.949740125435 -201.643292453409 2874.95978513539 12 15 8
199.151366908042 -202.395402295217 2875.87484996769 11 14 7
206.070526353808 -198.684036076479 2889.71047518153 11 14 7
203.347044827154 -197.409702865719 2896.47765250107 13 16 9
203.067289301283 -195.530135704524 2904.97978625853 16 19 12
257.138591212509 -178.264900839086 2960.67833427454 17 20 13
205.637675088262 -189.103118694833 2932.65181475131 16 19 12
195.643866479831 -189.650802277786 2934.1546302392 14 17 10
203.670362701112 -185.77428300384 2948.28349127578 16 19 12
203.539156457711 -183.912823667374 2956.64078972837 18 21 12
189.423880178042 -185.462127501403 2955.29910030338 16 19 10
183.526379035475 -185.003780644258 2959.670753336 15 18 9
185.076751764085 -182.745268867866 2969.13369131129 14 17 8
174.211520067637 -183.486312985363 2970.11317425043 17 20 11
168.310698278979 -183.027075757403 2974.48799313728 16 19 12
169.910154638838 -180.774486392918 2983.90306567104 16 19 12
176.554961519487 -177.332265208131 2996.63399723847 14 17 10
153.94014699686 -180.851441754901 2989.8535145585 13 16 9
139.639986447497 -182.375564024508 2988.69203396418 13 15 10
130.346799813015 -182.704964171049 2990.88410643798 15 17 12
69.5896080047129 -195.106228995101 2959.52702577577 16 18 13
41.5444127438045 -199.764450722958 2949.80521023472 7 9 4
-31.5075133541045 -214.873177000944 2911.21906227611 1 3 0
-62.4097226534159 -220.082480284199 2900.16502556968 7 9 6
223.55713388891 -209.338653039243 2868.25278802076 0 0 0
226.404224508121 -206.609142366302 2879.19227116589 12 14 9
202.804083379592 -210.679999229465 2870.63795184578 12 15 8
213.712086550706 -205.895334457684 2887.43918548957 10 13 6
218.246508575245 -202.763894491924 2899.47787510935 11 14 7
212.318409364579 -202.305582204659 2903.87991758532 13 16 9
208.007940097664 -201.436864938469 2909.44879057298 17 20 13
226.447647649839 -194.837865992517 2931.25597001418 14 17 10
242.557841085021 -188.866666402171 2951.21811408555 17 20 13
239.996759702538 -187.604137892523 2957.82577039089 16 19 12
227.630213799889 -188.789975508302 2957.52800217965 15 18 11
229.991345066985 -186.305380677814 2967.56933928206 17 20 13
217.591567700261 -187.486557188908 2967.30388149666 16 19 10
190.326283279861 -192.319919004884 2956.8338264323 15 18 9
181.127088994903 -192.675750127204 2958.93613175824 13 16 7
172.737333685759 -192.826396752549 2961.62157319617 13 16 7
165.992335341763 -192.5701761287 2965.44743048741 13 16 7
168.389449571534 -190.08926247442 2975.4535800522 11 14 7
144.145273362597 -194.073562319192 2967.526003998 11 14 7
147.387394887881 -191.391964566296 2978.08029712243 12 15 8
134.755965217264 -192.541873714754 2978.0402521967 13 16 9
125.448570389034 -192.882632741019 2980.24811245439 14 16 11
120.32952724573 -192.216450534397 2985.23293652985 18 20 15
62.081258904751 -204.190353898402 2955.57235973387 18 20 15
-17.5418171098771 -221.142208696653 2912.44758630465 18 20 15
-28.0336923203772 -221.638808382519 2914.43743911349 23 25 22
-47.8883573560878 -224.331114886235 2910.46218911411 13 15 12
228.427386340136 -215.256232515655 2872.79330259372 17 17 17
217.67478653919 -216.051764419623 2873.66933150866 10 12 7
203.685428608756 -217.678164942131 2872.21433600035 10 13 6
229.881157127682 -208.880421012979 2900.16446727941 12 15 8
216.711460332792 -210.299964224936 2899.28187204424 13 16 9
207.546009380481 -210.674951897091 2901.35383891374 15 18 11
221.862403798765 -205.026568392725 2920.31080752521 17 20 13
211.091317639384 -205.818384030054 2921.20464440476 17 20 13
214.95027073254 -202.878589699601 2932.52516264016 17 20 13
239.257441589933 -194.772709758285 2958.20218883723 17 20 13
240.797600014544 -192.469892547658 2967.66872144355 17 20 13
241.549430589155 -190.377397917569 2976.53191368439 19 22 15
227.533266926785 -191.998237305061 2975.10271473082 15 18 9
212.651179453954 -193.819381194018 2973.14574867988 13 16 7
194.419956974258 -196.456784544329 2968.96719087911 12 15 6
174.47208158511 -199.496709023793 2963.71896860589 13 16 7
167.731104637443 -199.246037195512 2967.54165270069 13 16 7
158.488104565078 -199.608876777911 2969.68849366844 12 15 8
143.391520970917 -201.401253480101 2967.94061150117 11 14 7
127.413515794332 -203.391951458938 2965.68005863341 13 16 9
138.186028240959 -198.84514075863 2981.23408197971 14 17 10
152.390649267157 -193.492678156271 2998.92887088419 19 21 16
165.843657352281 -188.355314054162 3015.98456685473 21 23 18
46.9838792239692 -215.152319204882 2946.67805985127 22 24 19
-31.8258573621009 -232.133381070437 2904.16719229762 25 27 22
-51.6692650647874 -234.872601189482 2900.18769741199 13 15 10
209.746771223124 -225.341250297012 2868.74484316772 9 11 6
220.618198028244 -220.443619274465 2885.56570132111 10 13 6
219.500433888221 -218.721893122041 2893.50640953491 13 16 9
219.209114539059 -216.791793055637 2902.01221975652 14 17 10
217.325406469267 -215.285671576769 2909.32847857419 17 20 13
226.802452919821 -210.837073104358 2924.76618736977 17 20 13
215.231155988976 -211.859014075431 2925.07174848078 18 21 14
193.859045130647 -215.394537286856 2918.47690588124 16 19 12
207.504758723344 -209.908961143696 2936.70702400616 18 21 14
236.784154926025 -200.458047070949 2965.74955522345 23 26 19
238.346370217487 -198.136015106581 2975.19134510271 23 26 19
244.872133032269 -194.56515359713 2988.02147620354 22 25 16
223.440019968452 -198.091962685042 2981.48492873739 20 23 14
214.318832156266 -198.484193219055 2983.51515229987 16 19 10
191.106995509986 -202.410614210299 2975.97114048961 15 18 9
171.129351940497 -205.494714555653 2970.75866979121 14 17 8
173.53775205865 -202.966073150057 2980.7465581612 11 14 7
163.477886569363 -203.551277476167 2982.32051465773 15 18 11
159.244215349459 -202.684251548085 2987.81337602845 11 14 7
150.828047845219 -202.85152944433 2990.52750326112 10 13 6
163.382400813721 -197.853464700732 3007.07959395565 16 18 13
156.667866599133 -197.610460607861 3010.87715331356 21 23 18
49.5967496663727 -221.883904305601 2949.32943200986 24 26 21
-12.3003460876889 -234.984349639539 2917.79072207296 12 14 9
-58.3601782120429 -244.146094651834 2896.86620329318 15 17 12
245.355266592833 -225.060680542834 2887.18988312342 31 31 29
220.233447860759 -229.755594150935 2877.40502883708 10 12 7
209.461052216108 -230.585427021985 2878.30578498541 12 14 9
226.819131749031 -223.929797086614 2899.76141984392 13 15 10
216.061847452401 -224.76115168582 2900.64739511103 14 17 10
223.062381406937 -220.897008249592 2914.37997167069 15 18 11
212.295121721822 -221.726545088724 2915.27558398188 13 16 9
212.060493256122 -219.786667755762 2923.72365424245 17 20 13
202.894213625812 -220.187202399408 2925.80021983268 14 17 8
220.641262421019 -213.580726157668 2946.87686735817 15 18 9
242.588131792099 -205.928285457509 2970.71366014948 21 24 15
247.44374563374 -202.739124243319 2982.42487037148 24 27 18
237.551684681777 -203.362937770301 2983.83790090487 25 26 18
235.875928786256 -201.871195679605 2990.94944756468 23 24 16
215.222864055444 -205.234218137039 2985.03233315466 19 20 12
196.980090283182 -207.955434186469 2980.8776334385 19 20 12
193.610506548727 -206.879721523012 2986.89850867198 19 20 12
171.953761375762 -210.430222669263 2980.58852588676 17 18 12
192.732344242441 -203.261227162094 3002.82307880035 16 19 12
186.895471293082 -202.819414706933 3007.13663307626 13 16 9
176.031055859317 -203.633931985363 3008.12650259758 13 16 9
171.015919525073 -202.980288679182 3013.00999891963 17 19 14
108.706980664237 -214.61395514778 2988.74835043078 23 25 20
24.9727689422699 -233.33259843705 2942.88224166949 6 11 5
-40.4838108657271 -247.423485793574 2909.35656380251 12 17 13
-137.629115044677 -269.173382337548 2856.00055703487 16 21 17
228.233279591642 -238.908456841921 2866.56280098241 0 1 0
245.433015419128 -232.157296615368 2888.16155414586 8 8 8
229.919059434351 -234.315718672822 2885.46532095829 15 17 12
217.5652024645 -235.600660884785 2885.16960006524 17 19 14
214.830753980002 -234.283313123235 2891.94131020422 16 18 13
232.268541738374 -227.561986218579 2913.30808363319 18 21 14
216.674092461481 -229.709068403138 2910.68976760435 22 25 18
220.476717350127 -226.672435491494 2922.0522457215 21 24 17
220.261433025232 -224.718573976672 2930.47904010831 18 21 14
224.955480159929 -221.476287528772 2942.34283657236 14 17 8
237.041555339601 -216.305513478314 2959.3340698315 14 17 8
244.301773089763 -212.433330367219 2972.80758828283 17 20 11
232.761618852702 -213.500976783242 2973.08897948335 18 21 12
234.34167634304 -211.137367235558 2982.50656880473 25 26 18
222.772095927206 -212.200832263572 2982.81656262844 24 25 17
211.99787242919 -213.046490671968 2983.7211350277 23 24 16
208.647091981949 -211.967618429856 2989.72320917666 23 24 16
182.903812206076 -216.645766900127 2980.55265917165 23 24 16
188.665384408505 -213.219673661844 2992.74613021689 20 21 15
164.470823540853 -217.456747487842 2984.80664527939 19 22 15
201.177573110346 -206.174713701454 3017.5396920227 16 19 12
189.508789969767 -207.224273844416 3017.94580264064 15 18 11
161.023213303993 -212.508182529094 3007.33719712789 17 19 14
120.652105711307 -220.74141861869 2989.12858917039 19 21 16
46.3906486830385 -237.410278595956 2949.13995390776 21 23 18
-26.8442144344445 -251.641480907242 2919.10756120316 19 24 20
196.796376185888 -252.667964543253 2853.05237411171 13 13 13
235.601335990745 -239.908513402333 2890.56838986487 18 20 17
209.619337537939 -244.949253599104 2880.27157261607 19 21 16
185.950493566299 -249.319266651479 2871.82969138891 19 21 16
220.251522498103 -237.915871938443 2905.51647003686 18 21 14
220.794620346701 -235.720816538974 2914.57177852334 22 25 18
222.986243136274 -233.092285765676 2924.76016638024 21 24 17
218.71591993798 -232.213415592099 2930.28767313301 20 23 16
238.874089196458 -224.797955991791 2953.10154080362 16 19 10
237.119562621361 -223.274494623936 2960.28661981738 15 18 9
231.29137447741 -222.83995230677 2964.59296231836 16 19 10
218.080627931623 -224.359137634441 2963.76585715384 16 19 10
223.735184269747 -220.884614316361 2976.05843858968 22 23 15
224.497982242859 -218.716459529321 2984.89955750352 21 22 14
217.856980698388 -218.499220222814 2988.62824369916 23 24 16
204.587445301532 -220.010021296055 2987.85827754368 24 25 17
188.791010380646 -222.163365209415 2985.441461726 24 25 17
189.576358588242 -219.997493033888 2994.26052529263 21 22 16
199.558106016507 -215.465982605282 3009.18480420558 21 24 17
198.749855225858 -213.740110347527 3016.81754829545 17 20 13
197.961526711415 -212.016795540157 3024.43054941859 16 19 12
135.084343709801 -226.177850456797 2991.18768176256 17 19 14
98.8608845676389 -233.444285636295 2975.80272710047 18 20 15
-38.2422893015395 -264.174726453342 2903.93821285255 15 20 13
-50.4752620945936 -265.171160055991 2904.8970578982 23 28 22
-33.8729207641051 -258.909458398643 2924.3275557556 18 23 19
238.402116261572 -248.351171007451 2884.78392896461 8 8 8
222.871599170212 -250.576986998374 2882.11376415264 22 24 21
229.76007531262 -246.576962714223 2895.93719480429 24 26 21
210.162649415683 -249.905699097247 2890.38365727791 22 24 19
198.559313067435 -251.009151719985 2890.73274354857 22 25 18
216.023924003339 -244.139610488088 2912.05131299488 25 28 21
227.116074492319 -239.052858880425 2928.62503732741 23 26 19
230.165067971783 -236.184632058201 2939.34352576135 22 25 18
239.766540875356 -231.556457286268 2954.63147379308 21 24 15
236.381824716215 -230.462944841497 2960.66474494806 20 23 14
227.280040859164 -230.910883440594 2962.68427156594 20 23 14
224.718899195997 -229.597516203181 2969.28447378913 19 22 13
231.210448610067 -225.870113525383 2982.12544258631 16 17 9
219.633669058713 -226.975115505132 2982.44838655935 16 17 9
221.238534505281 -224.570596719042 2991.83563268789 18 19 11
205.494099328171 -226.765552993689 2989.37333064477 20 21 13
197.996121241482 -226.768085439013 2992.5682422245 21 22 16
213.77044355437 -220.655960672332 3011.42617328815 20 21 15
202.137616700632 -221.752835560183 3011.80357188036 18 21 14
198.828819996007 -220.667403301799 3017.76298598473 16 19 12
160.359984137024 -228.720787166988 3000.47296847212 16 19 12
166.219018732784 -225.236247504635 3012.56101956407 16 18 13
103.149386587933 -239.557466153697 2979.53292888191 17 19 14
-69.4233182203727 -279.789402383209 2884.77991677494 16 21 14
-54.6230797955607 -273.87597646222 2903.21724798196 12 17 11
-67.7444740069944 -275.104417671199 2903.67568993451 20 25 21
234.487901328282 -256.595730134834 2882.80412222198 12 12 14
251.76821291312 -249.627504427858 2904.29111812603 20 22 19
253.911694215077 -246.944743570378 2914.51895816704 22 24 19
247.243126551328 -246.736353601264 2918.27632585482 22 24 19
227.666380693041 -250.115802556251 2912.70941019836 23 26 19
211.253789161313 -252.589699216989 2909.53491524207 26 29 22
229.625620786417 -245.433055204152 2931.3270767849 24 27 20
229.431779075523 -243.432494032853 2939.72601399219 23 26 19
242.286983024008 -237.862180256826 2957.31134853486 21 24 15
219.324285035824 -242.116681300596 2949.56842844265 21 24 15
230.630546510585 -237.002788402066 2965.92552593022 21 24 15
233.816321294959 -234.124266594724 2976.50666691208 20 23 14
229.645279114607 -233.251307862403 2981.93645985483 19 20 12
210.65130670866 -236.375326485884 2977.17033621348 18 19 11
198.197694906972 -237.716480152343 2976.98198137151 18 19 11
198.124634468789 -235.730054456314 2985.2630702066 19 20 12
184.802435132085 -237.287052471669 2984.55222800977 20 21 13
186.409562748429 -234.8604991672 2993.93397107808 19 20 14
178.046876753756 -235.087224350476 2996.60343882222 15 18 11
161.315880691305 -237.517030149503 2993.73860766172 14 17 10
173.837346761953 -232.23054722392 3010.28038960865 13 16 9
120.140378501291 -244.335409956031 2983.20488256233 14 16 11
-64.2644742378007 -286.174720373383 2889.10298723917 12 17 10
-65.5458996768505 -284.358798502711 2897.19229145624 15 20 13
-61.7138698009367 -281.232954132909 2908.51204672979 18 23 17
256.649304118611 -255.315646314621 2908.78695888023 15 17 14
253.187582611942 -254.202371937315 2914.89377667866 11 13 8
262.603985089045 -249.453832893503 2930.34771259289 13 15 10
240.646033469295 -253.567313047195 2923.0027931537 26 29 22
215.374731053892 -258.576997997629 2913.41290144162 21 24 17
215.932034435879 -256.326061919062 2922.44584448348 24 27 20
243.316437697493 -246.612485140967 2950.49749163581 23 26 19
238.295417583961 -245.958630810356 2955.38679944835 22 25 16
225.115400876482 -247.562064632916 2954.54163099088 22 25 16
232.345137558629 -243.523212931051 2968.02044620642 22 25 16
233.895036434602 -241.068422647892 2977.4548448468 22 25 16
221.506189692211 -242.442272010966 2977.20700975323 22 23 15
190.961313538646 -248.755509141008 2964.54438757344 21 22 14
199.103351530551 -244.50262190798 2978.50288690379 18 19 11
191.583683320466 -244.518017223211 2981.72123822324 19 20 12
183.223455844018 -244.755873121433 2984.38990973725 19 20 12
172.354361599109 -245.662705947494 2985.39806958482 19 20 14
164.792510448465 -245.672134775718 2988.65742734365 13 16 9
141.348340697133 -249.920986052992 2981.39178079669 12 15 8
102.74861477283 -258.171925985814 2964.26093775437 12 15 8
135.328358888347 -247.472682822927 2994.0927380069 14 16 11
-49.3847199632063 -292.135692777849 2890.7952164203 17 19 14
-52.3456470393864 -290.751346116355 2897.78192074065 17 22 15
-46.8245216830501 -287.151587515406 2910.18849139376 13 18 12
-65.0212415612064 -289.758755694765 2907.38845041427 9 14 8
247.122438824198 -265.11866937052 2902.69189629642 26 28 25
250.858953344469 -261.924851840546 2914.09645332671 14 16 11
250.617412058437 -259.88619833828 2922.53712688736 7 9 4
256.043623616903 -256.242513241038 2935.03145602787 9 12 5
217.070799310169 -265.224730399414 2915.54503117186 17 20 13
203.049751204856 -267.080622940292 2914.15542329577 18 21 14
231.214072403493 -257.025948406746 2942.79909562575 20 23 16
227.792207702001 -255.910664876177 2948.86637591747 22 25 16
232.538252712116 -252.511914265881 2960.65541238768 23 26 17
247.14610078626 -246.380993639856 2979.25164443456 23 26 17
233.154168046202 -248.239583649511 2977.83352325506 21 24 15
211.724521370698 -252.141539010382 2971.34997308417 21 22 14
212.45787714903 -249.892954123622 2980.20844099905 20 21 13
207.439713480714 -249.237985672655 2985.09474765276 18 19 11
209.042855583816 -246.76763377437 2994.47363713961 16 17 9
193.258104743616 -249.061233784874 2992.065948647 14 15 9
184.90689631118 -249.310411837377 2994.72767536842 13 14 8
165.706998735815 -252.497660671288 2990.17538386193 14 17 10
128.065037395445 -260.646132446661 2973.4952309982 13 16 9
135.484403861063 -256.58964305384 2986.7831341925 17 20 13
132.053376969616 -255.470904699413 2992.85900205283 21 23 18
-36.6503848234547 -296.415907744073 2900.03777625697 14 17 10
-29.4425541242052 -292.331335654901 2913.53158698409 13 18 11
-51.8181157526074 -296.107792710382 2907.96879574988 16 21 14
-90.3985233123787 -304.132752725269 2892.20261671254 18 23 17
223.189514905012 -279.182066110403 2886.02588732868 1 3 0
229.274663828053 -275.252086700111 2899.24047706857 17 19 14
264.368756824047 -262.953794648805 2933.42437525908 12 14 9
258.540796406471 -262.532578510538 2937.73246122782 9 12 5
226.040592072296 -269.771375107166 2922.89724032624 12 15 8
214.471490021487 -270.963822741882 2923.22548485737 11 14 7
217.488875718413 -267.982607380693 2933.9586606299 17 20 13
214.848029820666 -266.625963224342 2940.63161402655 21 24 15
231.80149420023 -259.723649662422 2961.03566866367 25 28 19
254.585511634295 -251.218708182554 2985.33240896989 23 26 17
232.413406541818 -255.415197234049 2978.21241577374 20 23 14
220.843332210647 -256.606090599038 2978.54173391524 20 21 13
232.305595520619 -251.349611484541 2994.72284509387 19 20 12
241.369288137249 -246.792747979497 3009.13810951477 15 16 8
220.708164842154 -250.510470934692 3003.28108411488 14 15 7
214.904842833709 -250.090002106325 3007.56481423121 14 15 9
185.818789728268 -256.083970362826 2996.24019003462 14 15 9
153.28786211239 -262.978572110725 2982.80151527535 10 13 6
129.817962876933 -267.341898001859 2975.57799994241 13 16 9
176.590384260772 -252.512912411235 3014.79537318707 17 20 13
141.366142768129 -260.068410033137 2999.87781324832 22 24 19
4.74609590729802 -292.876503589702 2927.84096074873 13 16 9
-35.2695065718289 -301.494263563683 2910.75307273803 13 18 11
-37.3323380266251 -299.872596381036 2918.23012612037 16 21 14
-61.4486401096861 -304.15051149535 2911.63587469519 15 20 14
209.296685999407 -288.252670204595 2885.57494926663 14 16 11
188.04387306276 -292.286865644994 2878.93534560497 5 7 2
210.248341630511 -283.616016404581 2903.78306540819 11 14 7
182.481526791268 -289.52203891772 2892.55232908661 8 11 4
204.020832853887 -281.104223835589 2916.68071626871 10 13 6
194.020772554412 -281.841824478389 2918.21780943673 9 12 5
217.370048018446 -272.979043495615 2943.31726095861 15 18 9
246.566948717767 -262.497051174229 2972.28965635737 21 24 15
247.303638392763 -260.211234982409 2981.13931089296 22 25 16
240.690306294149 -260.028783258153 2984.8453246673 22 25 16
225.853316676464 -262.175737760787 2982.89206828793 22 23 15
230.737480494349 -258.729137176417 2994.536540693 20 21 13
234.017923713435 -255.753575438155 3005.00933206032 16 17 9
225.752777114013 -256.035332964734 3007.59041334138 14 15 7
199.225036063408 -261.420143874163 2997.88638006083 14 15 9
185.068166400679 -263.314727943876 2996.63736359012 14 15 9
150.869682142568 -270.760879129759 2982.10195951622 10 13 6
154.122990801146 -267.78095314777 2992.60105086994 10 13 6
173.322479051858 -260.41632001406 3013.5405964473 11 14 7
123.826576842895 -271.990926711779 2989.29988152875 19 21 16
57.3051965792479 -288.149280790422 2954.30298045608 18 20 15
2.30389287979094 -301.046774924583 2927.22260119747 13 16 9
-26.7320795132755 -306.783571340635 2917.22714554518 10 15 8
-46.5598209810607 -309.978561041697 2913.29945640188 12 17 10
-30.8030086720557 -303.525128624127 2932.12433003649 5 10 3
-59.1868584146256 -309.006332984216 2922.86077771758 10 15 11
204.563884425436 -296.859411604472 2883.04497006511 0 2 0
188.929690902554 -299.279521412169 2880.50647402353 8 10 5
186.950394825946 -297.650622536585 2887.8991688574 22 25 18
189.836054014537 -294.598343244717 2898.75264778207 14 17 10
186.281040025955 -293.449232140002 2904.94714758349 11 14 7
206.281640797633 -285.427286642445 2927.82784474003 11 14 7
211.752925350668 -281.682727042898 2940.26250652324 14 17 8
232.77657864532 -273.450742232692 2963.51350084201 19 22 13
231.026870893371 -271.850314862827 2970.68241915166 20 23 14
225.19490096407 -271.431836547356 2974.99489127383 21 24 15
220.181431133231 -270.776988078574 2979.87655461085 21 22 14
225.87552683289 -267.060517364382 2992.09411315671 20 21 13
232.446288252 -263.115245072926 3004.82422222816 17 18 10
231.624688206539 -261.292088423856 3012.45550589285 16 17 9
205.94093421172 -266.513633313206 3003.30649750273 15 16 10
196.787969025809 -267.032680145887 3005.38701986064 15 16 10
184.283314939837 -268.486073884676 3005.26593979518 13 16 9
141.676660119904 -278.358342574092 2985.26878363109 11 14 7
90.3456581652153 -288.461837331612 2968.30089529839 13 15 10
53.1851430475636 -296.643481502393 2952.56447140169 18 20 15
-8.56749668423262 -311.562043303914 2921.15103131913 13 16 9
-66.3541879916254 -325.283108321936 2892.70724075261 10 15 8
-63.4078657218353 -322.235174321067 2903.50112257299 15 20 13
-19.6810760955515 -308.045945132797 2940.16943377962 13 18 11
-33.5770789893202 -309.659511947106 2940.03674784111 21 26 22
209.115786017015 -300.488343505592 2896.06514438396 14 16 11
201.542241527291 -300.538077616187 2899.3420709045 14 16 11
189.917574442474 -301.78719028157 2899.73420524457 5 8 1
219.572796664453 -290.79356108877 2929.59277020766 4 7 0
207.986498618771 -292.047215937062 2929.94747485733 16 19 10
221.600239681901 -285.873246432808 2948.10759793862 18 21 12
214.908259783291 -285.691169963921 2951.89176560356 19 22 13
222.929145868642 -281.206594014864 2965.93632707702 18 21 12
215.438455465299 -281.265475885362 2969.13233029989 16 19 10
221.083142544306 -277.507454102405 2981.39281110663 15 16 8
230.073187982324 -272.803142239847 2995.85941546175 16 17 9
239.955330969515 -267.869438567824 3010.82315907138 17 18 10
220.947411973581 -271.263958073895 3006.11086451237 18 19 11
207.680032098327 -272.987790410825 3005.37024381981 18 19 13
201.856620771953 -272.571776810666 3009.6745814066 17 18 12
181.031422435783 -276.41998208657 3003.99977017799 18 21 14
164.309404345049 -279.075148664278 3001.15933198352 16 19 12
130.79145163179 -286.451679767033 2987.35510736732 12 15 8
116.440824636344 -288.379024370056 2986.30299894278 21 23 18
58.3167283961426 -302.568531609886 2956.84658270038 19 21 16
-30.3960043200924 -325.210109108081 2908.00189525502 12 15 8
-67.1092218583 -333.205928235881 2893.21108054918 12 17 10
-71.7863154367535 -332.246883467593 2899.13066653253 15 20 13
-11.1060183346257 -313.200653520737 2946.58624501212 19 24 17
-61.5609825325465 -324.933425187199 2923.32126953946 12 17 13
196.330316688627 -311.541697954254 2887.72274709785 0 2 0
212.102733237772 -304.54328424021 2907.86848681143 10 12 7
231.208928082603 -296.586122909446 2930.23000802892 5 8 1
205.07388196113 -302.233270787035 2920.17513400996 19 22 15
232.424819945852 -291.867850042224 2948.16367042334 18 21 12
225.749832406649 -291.693311377861 2951.93207850842 20 23 14
226.40999843124 -289.340442011418 2960.84781173016 17 20 11
212.378970607706 -291.340699967236 2959.48945100706 16 19 10
213.879610535422 -288.748746493847 2968.95215400963 15 18 9
217.055291049824 -285.678453349439 2979.51497503093 13 16 9
222.741174371556 -281.890391133637 2991.73010739679 13 16 9
216.921446445828 -281.477790325979 2996.03129172153 13 16 9
218.54527767383 -278.901131198114 3005.3739244394 13 16 9
205.2725284012 -280.650881577932 3004.64246631323 14 17 10
196.949542491511 -280.956188236672 3007.28446343585 14 17 10
181.9461509245 -283.176397314291 3005.50727364623 14 17 10
148.52323587385 -290.656710849424 2991.62367638233 14 17 10
154.313068521795 -286.881192894026 3003.73743956681 14 17 10
111.490114108514 -296.9663900596 2983.98620499021 16 19 12
50.8335251358734 -312.039595668566 2952.92413590612 16 19 12
-5.86310458492134 -325.887525294636 2924.83389576341 16 19 12
-54.3467675951046 -337.323471389064 2902.40133701567 13 16 9
-55.6076007158683 -335.413908382494 2910.45635263728 13 16 9
12.7452179085363 -314.023793783134 2962.69943823997 15 18 11
23.5920203852498 -308.81728821629 2978.08218787501 14 16 13
217.020237493661 -310.198453428088 2912.32329551781 11 13 10
209.473237245722 -310.266983694668 2915.5766412775 20 23 16
188.146307825583 -314.505007882387 2909.04076217942 11 14 7
214.643605285861 -304.271427698882 2936.47955291237 18 21 12
253.500140281738 -290.3846548745 2972.36048892622 20 23 12
219.964374797217 -298.294507869778 2957.23586808028 16 19 10
222.27229441287 -295.43523938789 2967.27466853714 16 19 10
212.32125592133 -296.241821808706 2968.77327780187 15 18 9
217.957688913015 -292.412291719246 2981.03138614286 14 17 10
212.115878481646 -291.999518135744 2985.35413534395 14 17 10
216.176593379445 -288.66605119033 2996.41645432617 13 16 9
202.077946776859 -290.685958785778 2995.12780641643 12 15 8
196.230855305323 -290.271824855243 2999.45593655177 12 15 8
221.137135365598 -280.881975338309 3024.34826831137 14 17 10
140.254653614009 -300.161163014776 2987.06914797454 11 14 7
127.609362041623 -301.667678208781 2987.09557433998 12 15 8
111.573984714804 -304.135867270146 2984.96256583899 13 16 9
47.5559276733488 -320.351673721686 2951.73938503154 13 16 9
0.125009116497043 -331.710996092503 2929.66735768604 12 15 8
-24.6888086113892 -336.543367781263 2922.43078872918 13 16 9
-86.0005749676196 -351.707552611433 2892.03276716146 13 16 9
-40.9676406267607 -334.408281660113 2938.28034476953 15 17 12
208.23497186322 -320.045787348511 2906.91560979095 4 6 3
183.699361889194 -325.333885224252 2898.05288539354 16 18 13
168.449258901077 -325.465432114164 2904.71411192326 16 19 10
222.655811667666 -306.715243303829 2951.55674670568 19 22 11
214.335136605564 -307.043426342168 2954.1998302414 17 20 9
210.087937179396 -306.13427183818 2959.6998987358 16 19 10
217.319930612009 -301.770445626612 2973.12877971616 15 18 9
210.644496961852 -301.605197281873 2976.89900390119 15 18 11
220.431575921969 -296.513325557887 2991.933770326 14 17 10
209.653875521881 -297.581018583338 2992.87494980184 13 16 9
193.058318317139 -300.365495134015 2989.92804603568 12 15 8
202.117213626634 -295.531787384533 3004.30715679506 12 15 8
148.069452066258 -309.346719706089 2976.41549305983 12 15 8
143.678134737759 -306.2919584982 2990.24368461819 14 17 10
138.574311902944 -305.622948062772 2995.21297669134 16 19 12
40.9151057793982 -329.660360260905 2948.37368892109 13 16 9
-13.2724065836283 -343.101903249804 2921.98252233621 10 13 6
-37.2717003694785 -347.748529500116 2915.32657528707 13 16 7
-57.9683043862023 -351.410889893963 2910.91384736558 13 16 9
-72.7933303661712 -353.363327630726 2910.33687074178 14 17 10
-67.246379233219 -349.484776882216 2922.67659065928 17 19 14
210.444074347151 -324.257072505323 2918.09756186035 17 19 14
157.535312448097 -338.381709016345 2889.12062876786 13 16 9
193.698610353159 -324.922148286714 2923.48806499213 19 22 13
199.951396799957 -320.747087482795 2936.49996526984 18 21 12
202.996423278288 -317.578975825004 2947.17807014682 15 18 9
209.351672808012 -313.416756705429 2960.09045890583 16 19 10
223.137935313122 -307.016336479533 2978.04579632713 15 18 9
234.549570236502 -301.375071892929 2994.22031111734 14 17 10
190.044820960232 -312.673966153146 2972.06744180657 14 17 10
199.004974237589 -307.781696779258 2986.53594948103 12 15 8
198.931265206269 -305.63104958925 2994.7934105136 12 15 8
194.735094148557 -304.724524532605 3000.24319571495 11 14 7
124.879328675963 -323.406889809113 2961.84555176821 12 15 8
113.041269804831 -324.710494476221 2962.45730335867 14 17 10
229.773428872829 -287.902795517143 3047.98434523088 14 17 10
157.071777581234 -307.282505568768 3008.2643715884 16 19 12
-28.3541480517044 -355.070888233506 2913.22186838771 7 10 3
-43.0954360373308 -357.06391405418 2912.56739975674 12 15 6
-33.3246169598262 -351.919380814008 2927.61086697825 13 16 9
-47.2445759432447 -353.662872801871 2927.52117267481 14 17 10
-37.3873985742916 -348.529596655975 2942.48021078792 19 21 16
-84.5756887417579 -359.831571076921 2921.57568318083 12 16 15
183.864429215926 -339.745181638183 2900.01895441424 25 27 22
164.907458840706 -343.375689668924 2895.29094612259 11 14 7
171.862538149758 -338.895488598315 2908.97760676784 20 23 14
187.827543793729 -331.640514763675 2928.89418318949 17 20 11
205.525243739368 -323.893286578255 2949.85123221303 14 17 8
209.433186758098 -320.451252022333 2961.04920968413 16 19 10
228.955671518229 -312.223480449681 2982.95735278626 13 16 7
248.595124200633 -304.010808355133 3004.75157670874 13 16 9
229.651043511261 -307.641378661682 3000.01077797284 12 15 8
176.802145633276 -321.57107992476 2972.36249699569 12 15 8
206.458572608716 -310.355627056269 3000.77017086067 12 15 8
198.963043527051 -310.452051765213 3003.97652777777 12 15 8
164.859360168003 -318.567597557178 2989.44592124013 12 15 8
193.947049599886 -305.478764322837 3025.22669736601 17 20 13
-19.451717667482 -362.369332196708 2911.12830535733 22 25 18
-40.906413691356 -366.388501955181 2906.10386311416 9 12 5
-24.4218508462528 -359.19876120145 2925.51415297549 8 11 2
-22.2288503943595 -356.248699671513 2935.65365068793 15 18 11
-14.909047343409 -351.813137987287 2948.98439510568 13 16 9
-59.411536435356 -362.519845231354 2929.57591289353 17 19 14
-90.4519810117375 -369.237510662237 2918.88208112741 14 19 15
186.370864787375 -346.180092174239 2902.73216960199 24 26 21
219.248918130762 -333.46457229241 2934.80423388233 15 18 11
189.804470871707 -340.475282491739 2922.56886507573 21 24 17
208.252357453841 -332.388898939781 2944.14774998209 17 20 11
181.953623521765 -338.36234142064 2934.30330873668 14 17 8
216.872875074289 -325.188741501374 2967.11454762686 16 19 10
270.831479879218 -306.178095675489 3012.74799364967 13 16 7
256.068304644819 -308.590929018015 3010.76073527295 12 15 8
230.555110492991 -314.304180070103 3001.51469455152 12 15 8
211.548452059553 -317.971913641125 2996.84152915481 11 14 7
189.167494373836 -322.646315939946 2989.99956504039 12 15 8
189.923654169494 -320.209294542304 2998.80787523694 12 15 8
169.0980325656 -324.362610135623 2993.17857949111 13 16 9
169.026359067172 -322.179049591984 3001.42915463013 13 16 9
179.833455639081 -316.71174814217 3016.812449456 15 18 11
165.606887888896 -318.831298088671 3015.6658940748 19 22 15
0.81705270945065 -363.888888162752 2925.23389497292 13 16 9
-35.7598139675201 -372.497658537069 2910.39827577278 7 10 3
-23.4879283250202 -366.497118381923 2927.08235742765 7 10 1
-28.0659890779118 -365.533352415442 2932.9032424022 16 19 12
-53.8534408691906 -370.846527554499 2925.28732184352 12 15 8
-79.279430928461 -373.669355719495 2926.86377099639 14 19 15
200.187247671074 -348.970727366012 2913.51423727061 24 26 21
207.183516282097 -344.415213375332 2927.14852727142 22 24 19
218.911932949876 -336.101374003487 2952.53250862847 20 23 14
227.710559294253 -331.051209843284 2967.13841599671 16 19 12
228.400102445476 -328.587732860304 2976.00862954001 14 17 10
230.756379317797 -325.612570523499 2985.98194362301 13 16 9
256.96959793158 -315.180111991212 3012.25652539917 14 17 10
230.635925222989 -321.21778959816 3002.45627279891 13 16 9
196.774618643533 -329.553298705056 2987.71749301804 13 16 9
177.668644683003 -333.253239830714 2983.14770967039 12 15 8
158.497551123488 -336.944470361187 2978.64130362501 12 15 8
162.532051540043 -333.458140682016 2989.70672308735 11 14 7
145.784086471026 -336.371828335991 2986.93025992806 12 15 8
147.352080371224 -333.656701549422 2996.30821232037 12 15 8
85.1531713977387 -348.129818807677 2972.35697211351 17 20 13
16.8806275486859 -366.552162997178 2936.59946264032 12 15 8
-18.8156086700864 -375.010617885566 2922.28405713163 9 12 3
-25.0877039884561 -374.55195718197 2927.02764133197 9 12 3
-55.9136580723143 -381.458679398303 2916.14875984635 12 15 6
-59.7027114708939 -380.230487570658 2922.56363830333 14 17 8
-58.3804008047313 -377.482295115354 2932.18067068751 18 20 15
-100.49794291132 -387.653283214276 2914.57578760236 14 19 15
248.738665740199 -340.412835612686 2949.05774896139 24 26 21
236.416921893775 -342.10826883063 2948.79080965346 22 24 19
207.015420244708 -349.285377902766 2936.53738890202 21 24 17
223.875426280764 -341.569866595372 2956.91405878417 19 22 15
237.578555387365 -334.910854746241 2974.91372917014 16 19 12
223.576233395281 -337.120326341755 2973.55778481665 14 17 10
217.726479303873 -336.721571937935 2977.89083206021 13 16 9
233.22943828831 -329.56258230127 2996.86316690792 14 17 10
238.95017144216 -325.532925000884 3009.00798522732 14 17 10
206.760020006558 -333.446008297484 2995.38144581153 13 16 9
152.108533016008 -348.341399622805 2966.83207240435 13 16 9
158.581084975293 -344.042110572239 2979.60738139882 12 15 8
131.865879560193 -350.098649021695 2970.18878404051 12 15 8
124.209798020654 -350.197271180727 2973.55489670384 13 16 9
119.04767232025 -349.519613428515 2978.58080631475 12 15 8
123.092055631252 -346.004291675147 2989.63246474289 13 16 9
103.692685042999 -349.710427121487 2985.35460625967 14 17 10
17.8096500857783 -373.74632371308 2938.15713265721 11 14 7
-57.9379746340893 -392.123403644059 2906.98198031767 10 13 4
-51.5903972847598 -387.806531524522 2919.87879217738 12 15 6
-20.5819313773317 -376.060166315398 2948.28231210173 14 17 8
-71.8966429341501 -389.185116002762 2924.65993245163 17 20 13
-55.2316370633035 -381.808636203475 2943.86343977158 14 19 15
178.104036743053 -372.939401035787 2890.80711860841 15 17 16
251.882897973366 -344.098056554544 2960.65026062252 21 23 18
221.707565944537 -351.62456578733 2947.79965890894 21 24 17
224.770554658312 -348.323562004431 2958.44028562254 19 22 15
218.902140933761 -347.925374214275 2962.7919459029 15 18 11
203.220717545807 -350.684792426071 2960.35049944947 14 17 10
194.864474528567 -351.071086967822 2963.03749134526 14 17 10
223.454167053033 -339.634647558994 2991.05453941543 14 17 10
230.798057606506 -335.04194670797 3004.33847732887 14 17 10
167.230974151434 -353.003678682412 2969.50827295362 13 16 9
155.501163962708 -354.428295602456 2970.03075540237 13 16 9
153.690129463461 -352.708862846084 2977.24298313451 13 16 9
136.936725290526 -355.69669625539 2974.48287979607 13 16 9
100.138406901553 -364.945193731466 2958.54446964616 15 18 11
99.0948743431672 -362.955436289634 2966.37184989452 14 17 10
111.460753745079 -356.797858822322 2982.93938431066 13 16 9
78.6146701698938 -364.71219357489 2969.96438017059 13 16 9
75.0665990772155 -363.504811999562 2976.14337322363 11 14 7
-71.3602867161289 -403.932239122316 2899.38363706643 10 13 4
-67.5835794386135 -400.351611191653 2910.69111168633 11 14 5
-60.3697289600316 -395.740040032225 2924.10139229314 13 16 7
-70.1049050726104 -396.313475373633 2926.76809730573 16 19 12
-115.655873768227 -407.746220513465 2907.0911696056 13 18 12
210.127830770663 -367.206127694356 2923.34220084727 25 27 24
228.482405834639 -358.795488484852 2944.96615846797 22 24 19
226.659234791986 -357.065444525064 2952.18886963591 22 25 18
233.801671586849 -352.406953580659 2965.66313036261 19 22 15
213.275491871437 -356.804497927879 2959.77258129811 15 18 11
191.041541660098 -361.724004123946 2952.82120067943 14 17 10
194.127832855694 -358.398340578349 2963.43504298195 14 17 10
225.17848157951 -346.055061449778 2993.12536044716 13 16 9
209.474515940119 -348.845662865479 2990.71090764655 13 16 9
191.245337170741 -352.424112515618 2986.66940664337 13 16 9
165.510847203354 -358.375781972205 2977.6786919162 13 16 9
181.962586549294 -350.832689904442 2997.06935082752 13 16 9
135.359204543377 -363.374303001087 2974.34997166466 13 16 9
111.052490494436 -368.766619450065 2966.69260084926 14 17 10
105.024784097616 -368.348114412207 2971.19943822763 14 17 10
95.6467241501335 -368.982416088386 2973.52085546882 14 17 10
83.7335483729529 -370.403451990515 2974.22455554267 13 16 9
2.01366268087044 -393.635208294653 2929.85904602456 11 14 7
-50.9994636295272 -405.333373532681 2913.38031432632 11 14 5
-65.7991434409912 -407.494512917003 2912.80901459487 11 14 5
-31.43261508604 -394.464978116497 2943.3562520752 12 15 6
-119.824504083195 -416.818779911621 2905.48671701834 13 18 12
165.785592020534 -389.159756911391 2892.68401828916 22 24 21
191.319612262455 -378.2307962959 2919.55933345591 23 25 20
228.364261688786 -363.550268068475 2954.28836328755 22 25 18
233.883119871174 -359.39001980266 2966.61434515022 19 22 15
210.095823717329 -364.913773762944 2958.46061109335 14 17 10
205.020660406242 -364.248700644408 2963.40202576949 14 17 10
249.107322738493 -347.484563622063 3002.16622644127 14 16 11
227.724021373305 -352.195664384426 2995.75624602909 12 14 9
222.728425954526 -351.540297734452 3000.62008322376 12 15 8
211.13226194578 -353.025281872976 3001.01877528866 12 15 8
206.122568320826 -352.367725138317 3005.8962885169 12 15 8
187.848919794535 -355.982819833175 3001.90436276132 13 16 9
181.147536365199 -355.854634783758 3005.70583339955 13 16 9
126.130537893895 -371.184425577355 2977.5836223477 12 15 8
112.624173347077 -373.169583524004 2977.11894077784 14 17 10
58.0775303396979 -388.184972050784 2949.90010059717 14 17 10
10.8517777857435 -400.77828268874 2927.80672330486 13 16 9
-19.7537088611859 -408.035800075629 2916.76076176827 11 14 7
-20.9843633068569 -405.993810543494 2924.76589909475 10 13 4
-34.0181004145386 -407.66455779777 2925.2023310458 11 14 5
-36.0817857284781 -405.888756397843 2932.6574513529 11 14 3
1.74439332495613 -391.683592238901 2965.2634221537 12 15 6
185.254367446058 -389.878618769742 2907.46567247815 24 26 23
206.785896425593 -380.21478494482 2931.4176213927 27 29 24
232.503810349557 -369.207344793048 2958.09872817355 22 25 18
238.032127873084 -365.01329102897 2970.41032033275 19 22 15
229.748928693697 -365.441315214905 2973.03094624095 14 16 11
