ply
format ascii 1.0
comment KinectMotionCapture
element vertex 804
property float x
property float y
property float z
property uchar red
property uchar green
property uchar blue
end_header
125.25443590295 170.815059270981 2983.36695763614 20 23 14
125.343039278597 171.832159891061 2991.63077773716 20 23 14
122.886883845137 172.653826259097 2998.19940025603 19 22 13
80.9646739444854 170.535114626124 2979.21042645776 19 22 13
57.8005332053189 169.837271880332 2972.55844092769 22 28 18
61.2812004799408 171.114978287361 2983.08334912448 14 20 10
56.1611117984602 171.756108926224 2988.07291404558 22 28 18
83.0825332360399 174.725145498441 3013.33042113711 10 16 6
155.808809092539 131.031055379245 2723.68223294201 13 16 9
227.270648756871 138.968619504433 2788.99640248053 23 26 19
254.63413726816 142.680427542462 2819.37312424752 25 28 21
264.641887572702 144.735969543332 2836.05443828996 24 27 20
257.96421523064 145.225513403255 2839.77929263563 21 24 17
248.079232291101 145.420348959665 2841.06429862104 19 22 15
249.399757805899 146.648865368142 2850.90737330097 19 22 15
258.791901718132 148.607256701193 2866.79778094186 19 22 15
255.360450797747 149.386331083105 2872.923934214 20 23 16
237.396957722275 148.852031256819 2868.16901721668 20 23 16
244.474904746812 150.577834539524 2882.14042935229 20 23 16
272.716690058532 154.179063046812 2911.66133301919 21 24 17
257.994741080237 153.93493130576 2909.31226536914 19 22 15
254.64555914274 154.703540255133 2915.35860895346 20 23 16
237.406795495703 154.252332188833 2911.28831547012 23 26 19
261.08465713948 157.38047797014 2936.90905263647 24 27 20
247.935455104337 157.2874199637 2935.81005186783 23 26 19
238.865060493968 157.553858677883 2937.69248600282 22 25 18
228.125701717731 157.681170793921 2938.41897044135 19 25 15
233.077563596606 159.150700759681 2950.28876568709 19 25 15
244.710252114313 161.176043956773 2966.77820259258 19 25 15
259.745662453873 163.471481176601 2985.51674176177 18 24 14
193.236321735874 158.920411967304 2947.37508644802 16 22 12
192.40519076295 159.895580203129 2955.14150462371 13 19 9
177.366494101632 159.690819336584 2953.10115310724 15 21 11
164.799010616036 159.698804210221 2952.82681028568 17 23 13
164.809231909045 160.74255000744 2961.16418896593 16 22 12
171.585860253908 162.331482152428 2974.03847302342 14 20 10
161.5240136266 162.547773881152 2975.49593605242 13 19 9
156.519522019496 163.175105637876 2980.37275083858 19 20 12
159.152869809018 164.412497685111 2990.32810893681 18 21 12
147.363686423771 164.496924079783 2990.68617606252 18 21 12
131.282622780216 164.248508579193 2988.27045318656 19 22 13
121.132469302574 164.475792738577 2989.8139815469 19 22 13
101.541116547692 163.970722158058 2985.25398604595 19 22 13
57.8552486518809 161.609316399876 2965.21840215881 15 18 9
26.0380493728429 160.198397010041 2953.09431738795 21 27 17
23.4125130525613 161.049911726777 2959.82672605844 21 27 17
58.8155037832903 164.797750865348 2990.71657164322 28 34 24
215.451068094894 130.565118609671 2780.7204634319 23 26 19
231.665374641507 133.309548374637 2802.47304613326 25 28 21
278.239247585419 138.969486425444 2847.49382793108 25 28 21
259.622963160031 138.297415772255 2841.9899198606 22 25 18
259.342462626951 139.3950064778 2850.60836919987 21 24 17
250.264464077418 139.649756680354 2852.50041955776 23 26 19
227.501087059927 138.613116969146 2844.08363445351 21 24 17
240.111201210244 140.924683902149 2862.39432599108 21 24 17
256.038883640677 143.527808455726 2883.0355062077 20 23 16
266.400053072374 145.590526763049 2899.36480917742 19 22 15
263.037360335545 146.366765330418 2905.423441531 19 22 15
275.142144747674 148.564592980927 2922.8354964253 22 25 18
253.075511716018 147.61734061175 2915.13086999294 23 26 19
257.088557074501 149.060713281324 2926.51954279893 23 26 19
234.922796273855 148.125850661506 2918.91152050701 22 25 18
248.817645960298 150.452898687627 2937.36107188424 20 23 16
235.632738437282 150.337758041183 2936.30079099743 19 22 15
230.662636106362 150.96153213462 2941.14398254506 19 25 15
222.384659911337 151.292471189031 2943.64724751711 17 23 13
238.966532164762 153.81316526184 2963.65099075785 17 23 13
214.095599351376 152.686637016271 2954.50616872301 17 23 13
193.297756581945 151.933883421308 2948.34668660564 16 22 12
179.101936277633 152.830326157474 2955.22596774511 16 22 12
171.571386697958 153.244305725476 2958.3916630052 20 26 16
168.234101191814 154.016987494753 2964.42559129632 19 25 15
158.163723971533 154.21870578794 2965.89367927765 18 24 14
144.69255211782 154.139251583803 2965.11238866241 17 23 13
139.649322738605 154.771975458347 2970.02687367626 22 23 15
153.274217787179 156.955596688416 2987.34844525767 18 21 12
149.125987325958 157.652994822578 2992.78187144782 16 19 10
136.45853382372 157.649591545251 2992.60814565237 17 20 11
122.0486535387 157.510897667877 2991.35085266619 19 22 13
93.8969524272895 156.264881575539 2981.23047650637 20 23 14
57.9184278828695 154.408271545462 2966.21997553312 23 26 17
45.024529700159 154.433230940584 2966.26692066225 12 17 10
43.3033971155186 155.356893632329 2973.50748893222 21 26 19
60.606210047025 157.786860156111 2992.80873691429 19 24 17
160.059433950983 117.665261984641 2738.44068338701 4 7 0
261.282163454041 131.379969345362 2844.1988614795 18 21 14
261.805310194344 132.573042795463 2853.42207420599 22 25 18
242.307812565534 131.786326882822 2847.39359691678 24 27 20
238.015142124714 132.505551478897 2852.96689035836 23 26 19
234.533198695292 133.30272037353 2859.1408469193 23 26 19
248.8309555556 135.821744372594 2878.57884086958 21 24 17
249.457611216553 137.001669368663 2887.70121104348 20 23 16
272.83902935998 140.357268890091 2913.58270342445 18 21 14
274.389722934844 141.600840784068 2923.19499262405 19 22 15
267.001374539104 141.989629411038 2926.22320321646 25 28 21
243.252553650841 140.837783472356 2917.3850965558 27 30 23
250.553771877431 142.617470899893 2931.12717087614 27 30 23
246.41471739566 143.3171675992 2936.55080761414 20 23 16
252.160274612922 144.932640709198 2949.02779064063 17 20 13
242.277432603235 145.095293175602 2950.3154272977 17 23 13
233.199535137346 145.33663365469 2952.20935922931 16 22 12
213.324365194485 144.596982172258 2946.54862218675 15 21 11
205.846328814034 144.99686363279 2949.66425475785 15 21 11
194.192708509144 145.022330299117 2949.89675780487 15 21 11
169.958287681546 145.009860059287 2949.87459142206 13 19 9
168.278142782817 145.939869265326 2957.07352030197 20 26 16
165.773705449544 146.79363127203 2963.68534373971 20 26 16
156.540327658612 147.05431650921 2965.73047294372 18 24 14
143.065485848392 146.948866386071 2964.95666883502 16 22 12
135.478649719504 147.362283191619 2968.17834064659 17 19 8
140.608674705428 148.875084680607 2979.86482178106 15 18 7
140.683426436241 149.944165589671 2988.13471410615 16 19 8
124.587432342376 149.628554014908 2985.74374893848 21 24 15
128.945017418147 151.05854028125 2996.79226721652 22 25 16
72.570736081639 148.430881180002 2976.64262018758 18 21 12
39.9277638512596 146.777789734856 2963.95742377087 20 25 18
42.505131520683 148.071813321028 2973.96000083918 35 40 33
86.5879134444421 152.78193725397 3010.25856688919 0 5 0
129.230060581692 106.958523423725 2715.37364067311 8 11 4
238.202085698908 121.923594895763 2827.42195709868 23 26 19
262.668287364797 125.603151990015 2855.01218125345 22 25 18
247.984752614391 125.258454396322 2852.64016913834 20 23 16
230.84359880426 124.674935811683 2848.49250308084 21 24 17
234.596522026924 126.211584459379 2860.12603270617 21 24 17
231.122967828839 127.013498797663 2866.29061941989 22 25 18
243.042626392775 129.349124699361 2883.86647833876 24 27 20
259.102629803677 132.077019701855 2904.35748300586 26 29 22
274.451138960071 134.711819565324 2924.15219993066 30 33 26
256.461100996855 134.052338196755 2919.44180633457 27 30 23
234.322558202261 133.001535479425 2911.82389205606 24 27 20
236.685580869743 134.347614768512 2922.03162306973 20 23 16
267.831348391609 138.465195632344 2952.84324077357 14 17 10
259.631196206935 138.765771254874 2955.27371305486 12 15 8
256.367613883636 139.541115792131 2961.23372159795 16 22 12
230.779558404937 138.193607532578 2951.41710224462 18 24 14
211.728199967114 137.4848743284 2946.35098565108 19 25 15
194.27384695667 136.940465395999 2942.5085506399 17 23 13
192.588836305651 137.882457934283 2949.7105401525 15 21 11
175.057099606768 137.347793250251 2945.94384593423 12 18 8
177.552333179308 138.677069027078 2956.02243527452 14 20 10
161.630165726873 138.305144745798 2953.46718067571 17 23 13
156.587989044866 138.938856318837 2958.38047436427 16 22 12
149.018781244541 139.34252305421 2961.58608204109 15 21 11
149.040276130386 140.435063138744 2969.90539194463 14 20 10
146.546304446059 141.296113389996 2976.5057456389 16 18 7
140.671123010787 141.851943253356 2980.84082692648 17 20 9
137.344146354425 142.635135778596 2986.86296489224 18 21 10
137.434862207265 143.718898001119 2995.11449687446 21 24 15
134.987149355 144.57409816381 3001.66977950519 21 24 15
110.290722293667 143.479418003236 2993.76421070555 20 23 14
105.243231741488 144.113714706355 2998.68269466377 21 24 15
70.9545052119434 142.216635702901 2984.83399921398 11 16 9
56.3612712902986 142.042684697681 2983.76399008752 16 21 14
230.270482793088 111.51618517525 2804.24508744488 23 26 19
274.975159999527 118.681493357183 2856.56749030672 23 26 19
258.731869350542 118.13031763097 2852.94069975671 23 26 19
248.048305146317 118.177109740217 2853.62368018227 21 24 17
231.7113739595 117.637637677493 2850.08780843224 25 28 21
231.436858844361 118.784400151497 2858.69304659711 26 29 22
233.609794279697 120.179287260264 2869.08232326788 27 30 23
241.486291372738 122.154044503191 2883.64121525385 27 30 23
266.469646659421 125.868920373822 2910.71267811852 26 29 22
262.309530090272 126.577690672113 2916.15588874667 24 27 20
249.183682280481 126.375585147888 2915.04981406253 20 23 16
239.289878131604 126.508277496364 2916.3531022202 17 20 13
253.954916525273 129.111680270092 2935.41390903239 15 18 11
271.177928492041 131.949309508184 2956.1510574987 14 17 10
272.864802345484 133.219899654544 2965.62446222464 14 17 10
239.925019293421 131.062069132499 2950.47444707924 19 25 15
234.977076128414 131.684531302744 2955.29582814921 21 27 17
223.397586709056 131.658506467108 2955.46232855254 19 25 15
210.125885063883 131.474649928167 2954.49839169099 16 22 12
177.658429061167 129.442729748458 2940.27798646941 12 18 8
167.606018970592 129.595227228598 2941.73550764001 13 19 9
167.573236448312 130.711371731785 2950.10522708942 14 20 10
167.564688737589 131.824457366348 2958.45133311215 15 21 11
147.403365643874 131.024499174038 2953.08366368389 14 20 10
146.554141992932 132.057996306203 2960.85942717091 13 19 9
155.859859372788 134.038076659574 2975.41520484863 16 19 10
149.9951597183 134.590396048713 2979.74005857751 16 18 7
139.885583031224 134.750068821015 2981.25362436046 19 22 11
138.257208701178 135.696180811432 2988.39876431586 21 24 13
128.974450654418 135.937109918087 2990.49584879135 21 24 13
122.23616396118 136.414017274892 2994.28276175341 19 22 13
79.5630759113184 134.73900242106 2983.05872729773 28 31 24
65.8581053097382 134.609535971456 2982.51699408334 18 23 16
63.321112946789 135.484589627073 2989.15799825039 6 11 5
183.483375492599 99.1022127791356 2768.93642543223 23 26 19
262.270661539763 110.253450804713 2847.75666779936 23 26 19
259.595513875054 111.154773826389 2854.53097962253 28 31 24
250.517908031696 111.357159959122 2856.43037940404 29 32 25
268.751503315616 114.517312353828 2878.95015355099 27 30 23
236.335574941313 112.202282131441 2863.30351485563 29 32 25
249.827795152745 114.830628116364 2882.10835154678 27 30 23
256.933139705717 116.758074630854 2896.02309259204 24 27 20
256.793209231277 117.904539401184 2904.49473021964 17 20 13
252.609721850164 118.619420007766 2909.96024530866 17 20 13
245.984597997973 119.077310852769 2913.63725868686 17 20 13
254.883512124319 121.155137127022 2928.58255120456 15 18 11
260.571928472209 122.884657894015 2941.09941976513 16 19 12
262.205305275502 124.184089839914 2950.62168504732 18 21 14
249.875517440108 124.043284588972 2950.13296020477 18 21 14
244.113172551907 124.580669656029 2954.35871926593 22 25 16
226.768138721225 123.942500990318 2950.42158634085 24 27 18
230.092278711573 125.405262939236 2961.07457731655 19 22 13
230.132153745057 126.529009691965 2969.37102312985 19 22 13
205.208401729864 125.15187375984 2960.31602889183 17 20 11
193.550260267262 125.114580772938 2960.56195952264 15 18 9
181.86222637359 125.08108923343 2960.83734976912 16 19 10
197.822316772026 127.774829863495 2980.0157082182 16 19 10
171.006015938426 126.259716524348 2970.02661729893 15 18 9
147.460207627816 125.085293942393 2962.40716228333 15 18 9
141.565720181613 125.639254753633 2966.76169097025 16 19 10
138.207557864712 126.438226071178 2972.81212681732 18 20 9
132.313027977083 126.992183940343 2977.16669808405 20 24 10
133.218236094239 128.195045940185 2986.00907147203 21 25 11
125.628630854429 128.58613463683 2989.23679313643 19 22 11
129.987300808992 130.106696619848 3000.27084706242 18 21 12
67.6096640767354 125.355488440406 2967.97530781541 17 20 11
66.7560608147908 126.403542788416 2975.75326877075 24 27 20
63.3424989488676 127.209464929412 2981.85768986029 18 23 16
237.161827335624 99.101692427852 2820.49206602351 23 26 19
263.930826120102 103.365307797926 2849.96032083498 21 24 17
263.659237614287 104.545066625456 2858.55777598689 26 29 22
301.098995215501 109.946002129609 2895.68288662973 25 28 21
250.327574203653 105.461291906492 2865.99258418058 25 28 21
275.881243577667 109.496223530744 2893.86765978484 25 28 21
269.275828803171 109.946713668125 2897.52619557889 23 26 19
268.331152451506 111.020363967637 2905.39081038817 21 24 17
256.856364067089 110.938959224918 2905.46152624213 17 20 13
248.605200625044 111.214962904932 2907.94594733645 18 21 14
249.309507423428 112.462625241754 2916.98119723361 18 21 14
259.850621392503 114.761794746959 2933.09720307586 19 22 15
259.815045807428 115.911778743123 2941.46469461563 20 23 16
258.982466046423 116.971285047504 2949.22008632959 20 23 16
244.175448888971 116.546042695692 2946.98226070817 21 24 17
239.224690491847 117.169856251705 2951.80623761102 27 28 20
226.003940692526 116.926578190204 2950.80048728842 27 28 20
219.377501513428 117.379682853721 2954.47951420121 16 17 9
172.857950384131 113.695618210175 2930.36808578751 12 13 5
221.096405570855 119.835861000072 2972.24767682078 11 12 4
220.328388243141 120.887213441675 2979.94016222144 11 12 4
214.559941192365 121.423144013555 2984.17219579399 14 15 7
186.143110062757 119.658137180069 2972.97489494876 17 18 10
174.431926814211 119.606477561471 2973.27595808099 18 19 11
156.792466160336 118.965362285807 2969.63163085144 18 19 11
148.385729936987 119.260972259354 2972.26797805776 19 21 10
137.425015952681 119.305644358829 2973.22648564849 24 26 15
134.922091560773 120.193741883139 2979.83173193859 21 25 11
129.880623122265 120.828957250534 2984.74410007073 18 22 8
123.987731560938 121.380507064696 2989.0970625227 16 19 8
105.279281737597 120.683222720097 2985.10598762913 19 22 13
66.8187091277996 118.083706285702 2968.41859468118 21 24 15
63.3886811711384 118.897668843731 2974.53817847211 21 24 17
71.1474164071957 120.783736707562 2987.81020865668 7 12 6
224.491153718811 90.436327554097 2811.68273108252 18 21 12
238.460926003926 93.3233991881103 2831.39202128475 18 21 12
286.120211072722 100.097436845703 2876.58721867961 14 17 8
290.738101236994 101.839473357171 2888.74837642652 27 30 21
280.93544168872 101.913404503118 2889.96950368651 23 26 19
287.224608294283 103.832060158894 2903.27877362424 22 25 18
282.261855701126 104.457863052837 2908.11436691779 22 25 18
266.775179304745 103.892695033881 2905.1552246026 23 26 19
254.48521599413 103.699240285593 2904.63507283294 24 27 20
253.549747502015 104.785661542184 2912.4883187177 17 20 13
255.081062161237 106.142159021267 2922.10349895683 19 22 15
262.365699556277 108.128979536375 2935.83108626613 21 24 17
258.239169707339 108.843027873387 2941.2401646928 23 26 19
257.402571827905 109.91703522577 2948.9974032092 23 26 19
245.884675848442 109.819869641615 2949.11291714577 23 26 19
231.036408048003 109.367941439481 2946.92033602164 25 26 18
222.758932786726 109.636979314791 2949.43225252631 24 25 17
190.425750307579 107.322274555282 2935.1203071483 21 22 14
169.598675884067 106.26837248497 2929.0343621087 12 13 5
209.498987279433 111.696487493577 2965.12899865911 15 16 8
201.19036813118 111.969459382493 2967.67126005845 10 11 3
199.561066598172 112.949711662026 2974.81227482028 12 13 5
181.17437511852 112.169172886212 2970.51365626154 18 19 11
160.20497141404 111.133272513634 2964.56672350088 19 20 12
153.486293363732 111.593120153763 2968.33634836733 19 20 12
150.138903893265 112.402666599927 2974.37486146124 20 21 13
140.874952970282 112.602385965762 2976.45936096649 26 28 17
131.592844211957 112.804442649644 2978.56188385807 21 24 13
126.54367515158 113.441178180326 2983.4816741421 17 20 9
116.381979000267 113.560425726483 2985.05263231228 13 19 7
97.6563193046513 112.822641623931 2981.08429508083 19 22 13
88.2867556906812 113.035683900766 2983.27170042904 20 26 16
80.6148899819537 113.422055800536 2986.58180509563 19 24 17
242.068782393694 85.333327064312 2826.15647709083 23 26 17
235.334780219988 85.7900882144137 2829.94177522023 19 22 13
258.988766856379 89.8781297395185 2856.86125776784 22 25 16
280.37816805096 93.662531238329 2881.82331920402 25 28 19
284.065264023487 96.537241024967 2901.82624515817 23 26 19
262.134479127306 95.1788091851475 2894.04749166527 22 25 18
270.077343089764 97.3200562209925 2908.51587325013 22 25 18
260.229737887323 97.3839081130927 2909.78312191844 24 27 20
248.73271979189 97.2629446471127 2909.88142112408 24 27 20
264.113985424303 100.233816331533 2929.5939391156 26 29 22
255.072773663316 100.392387381344 2931.46333704344 27 30 23
262.398849130598 102.415045713266 2945.14481676276 25 28 21
258.286809774645 103.130455525922 2950.53930469017 23 26 19
240.18584146329 102.271130354426 2945.96860339643 22 25 18
225.324259720739 101.788954955727 2943.79371373607 21 24 15
212.071022129806 101.496743857968 2942.82745655219 20 23 14
214.530428053219 102.954675794253 2952.92260795352 12 15 6
207.05490933855 103.308725925754 2956.04285213769 10 13 4
180.412885333495 101.562520475245 2945.91451922254 11 14 5
176.21032648504 102.28939330595 2951.39720011507 11 14 5
187.910502593529 104.742465255986 2967.75640272238 15 18 9
182.0771716095 105.282221460029 2972.05230157304 18 21 12
160.26942154459 104.104837580886 2965.5415231821 17 20 11
140.070143208003 103.117399155448 2960.23925336768 19 22 13
148.514284056759 105.195491894493 2974.2191937717 19 22 13
142.632398263856 105.741393159785 2978.56240002798 19 22 13
112.145603005538 103.694533063122 2966.62844331602 13 19 9
113.003892163455 104.961647619048 2975.50791142439 14 20 10
94.2892935599309 104.17984061756 2971.53509693021 11 19 8
73.8053197781912 103.228356152374 2966.51021992178 13 21 10
69.5184458933884 103.965962211476 2972.07537836733 16 24 13
92.6926116859961 107.525282849051 2995.298409027 15 22 14
267.604925314131 81.3367809457389 2846.73353619318 24 27 18
222.63437266049 77.0532335430193 2821.17253268474 19 22 13
274.250799870698 84.6816401218457 2869.39717635501 27 30 21
281.244083845863 86.7871729276936 2883.39653629252 24 27 18
272.222270560614 86.9302109590024 2885.24930486253 23 26 19
290.574265692192 90.390845760865 2907.60709504194 22 25 18
284.811789886279 90.9193043410892 2911.83430343717 21 24 17
271.760242103682 90.5749993078821 2910.67546475299 21 24 17
255.424781489077 89.8484197516214 2907.16612495084 22 25 18
251.237330425379 90.5764893977221 2912.63362670098 27 30 23
232.377918217119 89.5709159521752 2907.42077752204 27 30 23
267.396367853361 94.9119773907363 2941.29115701549 27 30 23
265.739266626033 95.918298823119 2948.45592427532 23 26 19
255.886575149233 95.9670960778089 2949.7304487581 21 24 17
236.134015892475 94.8751224821144 2944.00036838819 20 23 16
217.962625325484 93.9819614539985 2939.50459836015 20 23 14
218.751370905427 95.2772078927133 2948.4489663895 19 22 13
178.120645143344 91.840571462946 2928.3723184594 16 19 10
199.640999773469 95.4990469276721 2951.80604369336 10 13 4
168.817942871249 93.2148560848707 2938.82382998557 11 14 5
177.944750577155 95.4497246878092 2953.51994786427 11 14 5
193.831734659969 98.4248346428201 2972.72931570212 16 19 10
188.850541031662 99.0540408068126 2977.58271821435 18 21 12
172.102279010883 98.3797594155602 2974.47556666491 15 18 9
145.190545271358 96.5979553623638 2964.62032096106 16 19 10
135.91237515222 96.7735546308149 2966.72250527816 16 19 10
128.308841959879 97.1362475306137 2969.96859233367 16 19 10
113.907811078849 96.7632901860372 2968.73679795466 13 19 9
86.7114240999989 95.0174688637302 2959.1588988935 13 19 9
70.4938275139981 94.4754610961101 2956.92214805656 12 17 10
78.1423392525245 96.4985595853669 2970.28337873699 13 20 12
70.4407640040188 96.8736197537518 2973.62465728472 17 24 16
95.3320765567627 100.70421836283 2997.93659753919 13 20 12
219.914788488194 68.1808834094679 2811.01434274251 19 22 13
288.126315933281 78.1470388850986 2872.17141101694 28 31 22
279.114383176005 78.2756611385008 2874.0161608803 18 21 12
260.462850495927 77.1982098192479 2868.60750777519 24 27 18
270.679408973385 79.7455650585919 2885.00912027531 21 24 17
280.165006138356 82.1833025238944 2900.73588030573 21 24 17
288.105990758683 84.4121406430952 2915.19284433926 21 24 17
273.443549063457 83.8408074322373 2912.83338315378 22 25 18
260.358187452952 83.4742199835222 2911.71141543186 23 26 19
240.727500997121 82.3185649410734 2905.86938781705 22 25 18
247.934650885912 84.4382505833279 2919.65462179976 22 25 18
250.297065896119 85.9580309729618 2929.83728327929 21 24 17
252.69515573768 87.4732735806644 2939.98485196411 18 21 14
244.4539966326 87.7067580085604 2942.46596077283 17 20 13
223.028498096172 86.3739863736992 2935.59856720582 16 19 12
227.102772569936 88.0815214432171 2946.88739550785 19 22 13
222.950960471496 88.8084224605813 2952.32001780346 18 21 12
212.172381700076 88.7565468767307 2953.11193214077 14 17 8
168.963795896169 84.9239720200969 2931.4025910714 13 16 7
174.713067443966 86.8239107021938 2943.83350398344 12 15 6
169.662289713542 87.462412396239 2948.75463066243 13 16 7
177.162658533676 89.5452013158463 2962.25414723124 18 21 12
184.722105023724 91.6205333425763 2975.696100926 18 21 12
160.399468721289 90.0479378412513 2967.48998805578 15 18 9
136.822563400139 89.7955651465814 2968.26726585097 14 17 8
143.608916798087 91.766574333033 2981.07508412513 13 16 9
120.760274195199 90.4118270131961 2974.20723233297 16 19 12
110.584508249678 90.4859196905549 2975.79883588668 15 18 11
93.5693011295791 89.8081700943854 2972.95727736621 14 19 12
56.0024430999126 86.8789940484541 2956.848045493 15 22 15
249.430250632212 64.8026398962521 2834.63371644823 19 22 13
251.490334806001 66.3851939177794 2845.10731900222 28 31 22
282.378696505445 71.6949422279894 2877.41558982465 17 20 11
268.545659717813 71.1913689925608 2875.63907388603 23 26 17
258.689364161069 71.2089947415632 2876.92212225038 23 26 19
272.173411850633 74.2141738055565 2895.67937861204 22 25 18
269.596289308 75.1544348494536 2902.35025717525 22 25 18
267.841551591652 76.1956074508763 2909.60716576644 23 26 19
240.948166978084 74.0669763313715 2898.36771283849 24 27 20
253.806890384171 76.9465465275874 2916.34758107572 20 23 16
255.337461705446 78.3915200090817 2925.9504227459 20 23 16
251.178885372697 79.1223218553573 2931.38884764337 20 23 16
235.556292867186 78.4357119400396 2928.58262109301 20 23 16
228.916727636407 78.8659057670725 2932.27806858079 18 21 14
228.85509163675 80.1026947607136 2940.65860875676 18 21 14
235.417774274858 82.1401627549319 2953.67871281914 19 22 13
239.554929107505 83.8700271539181 2964.90213757211 18 21 12
196.488078297791 79.8957608702358 2943.07299348931 15 18 9
203.925065203221 82.0275014468618 2956.62787636086 14 17 8
193.93275672567 82.0626148376953 2958.0430650584 13 16 7
165.554598338414 79.9172877084449 2946.86391062393 15 18 9
165.514963889045 81.1514209947351 2955.22299544762 18 21 12
151.24335720337 80.7037335229117 2953.87372600955 18 21 12
160.465065374074 83.0195161588388 2968.46364726508 16 19 10
144.479564282665 82.3790307206466 2966.01097712771 15 18 9
146.176889105224 83.803129834245 2975.45097748652 13 16 7
156.369671107907 86.2009285852992 2990.4813954435 15 18 11
148.819297906723 86.5417502314019 2993.6775885617 15 18 11
120.853197818762 84.5491922479692 2983.48324640739 14 17 10
86.818795860657 81.8905187544302 2969.49456623158 16 21 14
56.0701286670522 79.6355316597229 2957.85141330195 16 23 16
66.294376100883 82.0293454039364 2972.85083676094 15 22 15
245.517506339441 57.1368456428436 2832.5672459842 30 33 26
214.059215798508 54.2677434069581 2817.46845968315 23 26 19
297.639286847794 66.731387342803 2889.91817551269 32 35 28
276.628207996429 65.2387423568 2882.66288628365 24 27 20
270.809692969524 65.76745835735 2886.94570440712 23 26 19
264.182440973017 66.1909493471158 2890.62991534767 22 25 18
267.238939429174 67.8799535168584 2901.51557766385 18 21 14
251.716984306104 67.1458171406267 2898.61644109519 18 21 14
250.750902914037 68.305994817854 2906.48918487539 18 21 14
248.178545311516 69.2543547715409 2913.15447260929 19 22 15
253.771721595968 71.245146976917 2925.72730015627 18 21 14
243.888636459733 71.2505491764065 2927.03841976237 18 21 14
229.068020911136 70.6353558468237 2924.84217221593 18 21 14
222.413148812167 71.0626179666962 2928.55359079713 17 20 13
219.866683045886 72.0078354662253 2935.19363200824 17 20 13
233.832749412039 75.0149156946393 2953.47195570723 21 24 15
223.907634722599 75.0257638091983 2954.8240063771 19 22 13
235.511048288954 77.7091451621091 2971.24525599 17 20 11
196.513233207383 74.1341066107865 2952.40171586585 15 18 9
178.176174343386 73.133818595459 2948.08629022769 13 16 7
175.63721164318 74.0782228941501 2954.719000974 15 18 9
152.195018735235 72.4785790171739 2947.05950185354 15 18 9
153.825453360056 73.9332350696238 2956.5614088653 15 18 9
149.604575758927 74.6754308145908 2962.06035367199 18 21 12
142.018557380108 75.0131649219588 2965.29239931539 17 20 11
145.398718104219 76.6616004910531 2975.86231839435 12 15 6
150.511027275755 78.5059634748799 2987.51704910827 16 17 11
120.044644716388 76.1347905875648 2975.61075557331 14 17 10
121.769910460329 77.577581828182 2985.02058533793 13 16 9
94.555192441145 75.6252333257966 2975.49141389782 17 22 16
47.5977437066986 71.3971850136315 2953.31213414572 15 22 15
58.6583616760219 73.9419090631991 2968.87597198163 11 18 11
283.535097379658 56.5445766030621 2871.42126181213 30 33 26
259.317033168864 54.5629886141641 2861.75484690238 23 26 19
273.487116818993 57.8167941082979 2881.21102185365 24 27 20
262.839106861599 57.6927382380897 2881.88394764327 23 26 19
265.859345433978 59.4137360278966 2892.800550075 22 25 18
271.341844027444 61.4540059472205 2905.47596942073 20 23 16
264.733875806669 61.8701641269474 2909.14211507303 20 23 16
247.571103771877 60.8884987993578 2905.07509998892 21 24 17
257.190796371491 63.4566725269786 2920.64908500585 20 23 16
257.098116380768 64.7306740681656 2929.05495232559 19 22 15
252.943436085497 65.4673423336165 2934.48864134606 20 23 16
238.144686807068 64.817484611306 2932.2761414942 22 25 18
226.584453475775 64.5988837117438 2932.45164513358 19 22 15
222.401622825257 65.3392572742308 2937.91307807366 16 19 12
219.873488263652 66.2907843394608 2944.53398357649 17 20 11
215.703925550826 67.029483563286 2949.98215088283 16 19 10
182.529554505848 64.0791512506336 2935.18255434278 18 21 12
170.824633144756 63.8790264515317 2935.49900457505 17 20 11
193.23158578176 67.9833779225915 2959.40333392056 13 16 7
170.695539938618 66.4204485045159 2952.25583814815 13 16 7
168.993976187621 67.4777921975325 2959.45721628343 13 16 7
160.600609131046 67.6998231797393 2962.0911626523 14 17 8
161.437857907511 69.066747801407 2970.97677228636 14 17 8
151.351850248963 69.0824660541848 2972.48787224869 16 19 10
124.356520749594 67.0326226246255 2962.75525447291 17 20 11
92.1837768188536 64.3763742807328 2949.75138055494 22 23 17
105.692023921767 67.293974803105 2967.08064129389 9 12 5
95.4819497936592 67.3254883988756 2968.71260654974 17 20 13
79.2850022991844 66.6427632796715 2966.47614882278 5 10 3
80.9732455067409 68.1124161913304 2975.91877237007 29 34 28
260.982911894442 47.72377575687 2863.9452560106 22 24 19
274.354699482601 50.9309614010175 2882.78413182813 22 25 18
264.512548112956 50.8994539256064 2884.06039667472 22 25 18
251.425649693864 50.4266546541999 2882.95565308745 22 25 18
259.295181903972 52.8393485838831 2897.45639661209 23 26 19
251.848973572704 53.1437144408936 2900.55487846633 24 27 20
244.391819558837 53.4494695274734 2903.66368637567 25 28 21
243.430265791051 54.6370608194356 2911.52788243774 22 25 18
258.794261612532 58.0183517450426 2931.1968898222 22 25 18
248.106005095066 57.8811924524603 2931.91171772104 18 21 14
234.114837690975 57.3101143808127 2930.30220500747 14 17 10
215.976627946413 56.199021286247 2925.8056961965 14 17 10
217.529679705909 57.707561492697 2935.37681932502 16 19 12
217.464652089115 58.9949236693872 2943.75325273258 16 19 10
217.423859182906 60.2792380468379 2952.10607117768 15 18 9
235.641266338669 63.9384677788312 2973.15124764498 17 20 11
245.660490388596 66.5054063079599 2988.32867458739 17 20 11
216.61364724046 64.0063776513716 2976.44890161901 12 15 6
179.108799862779 60.4479617762709 2958.95418430593 14 17 8
174.080260661416 61.0857625575914 2963.85333139141 14 17 8
175.760653008268 62.5783435796926 2973.30002435273 14 17 8
183.35627099632 64.8132295440046 2986.68247721297 14 17 8
161.527364521242 63.3177140579795 2980.23972716263 15 18 9
157.352646921319 64.0605201846835 2985.69240634961 16 19 10
104.946155284686 58.767690300992 2959.16244009428 11 12 6
98.1260858560704 59.2064114780916 2963.03587058024 17 20 13
92.9995424938852 59.85679943086 2968.03047686774 17 20 13
62.3121772806567 57.3528317216913 2956.36324939147 22 25 18
60.5453928931654 58.4299627733447 2963.62646801996 0 2 0
278.880777703781 41.859903627248 2869.71132671621 23 25 20
246.655497526124 38.6058337107194 2854.01416119997 30 32 27
260.793329062011 41.9943800157993 2873.48244834444 17 19 14
275.82902427662 45.4850495063164 2893.46129698058 23 26 19
263.575035370369 45.0959173678247 2892.93400528641 23 26 19
243.212375264925 43.5761466225474 2886.45574515036 23 26 19
238.965011345249 44.3307883869572 2891.97915174667 23 26 19
235.533501088867 45.1978443671208 2898.09236029853 23 26 19
235.363964065657 46.5149223709037 2906.56818110533 21 24 17
244.186019793551 49.0666367840145 2921.5197546889 18 21 14
246.537693546154 50.7117716652744 2931.6945550569 15 18 11
239.095850356207 51.0081038527054 2934.78955179214 13 16 9
214.401466513615 48.9585237717557 2925.60617851957 15 18 11
215.127328817374 50.3781371228209 2934.59460919642 17 20 13
222.480713845481 52.6845289928546 2948.20703442511 18 21 12
236.507822868785 55.8717388891052 2966.39778093494 17 20 11
239.851003558148 57.6072765028847 2976.9918859329 19 22 13
244.064332686953 59.4483430721078 2988.12289500953 19 22 13
214.181603673894 56.7615648897734 2975.68367119988 15 18 9
195.033498553963 55.5201782987467 2970.79235142981 15 18 9
170.80111145543 53.6282057422339 2962.54382355526 14 17 8
171.635156975233 55.0343651575388 2971.42681518517 14 17 8
183.422727774068 57.8581211464695 2987.64444663398 14 17 8
176.756744172183 58.272360779916 2991.36848597765 15 18 9
134.623679200619 54.1168104939099 2971.47302892748 15 18 9
112.630632812512 52.5887128028245 2965.19808787289 14 15 7
77.8386261248269 49.4453167286662 2950.61611501902 18 19 11
105.819638190615 54.317638802463 2977.37394682262 14 15 7
64.0855606512467 50.3275177426263 2958.4747483045 13 16 7
44.3893601314227 49.1559680815165 2954.11737350112 8 14 4
251.027497787693 30.7353913046581 2849.41903894291 29 31 26
246.72311595613 31.5000941088327 2854.99724030933 24 26 21
271.28123671464 36.4743444706738 2882.30483234679 29 32 25
283.127392757098 39.5631098514045 2899.84236666997 28 31 24
271.696612494286 39.264285555489 2899.90117848163 27 30 23
267.502728410779 40.0152517157671 2905.37202206273 24 27 20
252.791595321505 39.2581355503981 2903.08803294889 22 25 18
238.034670449388 38.5068806200978 2900.84864946434 19 22 15
237.057615736791 39.7244563770867 2908.72414434491 19 22 15
240.176760102983 41.5155971603827 2919.53216475748 14 17 10
235.164244248083 42.1519934314075 2924.41560800906 14 17 10
227.695344547589 42.4441332288389 2927.53809189265 15 18 11
221.857881480706 42.9666542810957 2931.84064131058 17 20 13
217.663274027423 43.7180563711864 2937.31180093634 17 20 13
217.597983930477 45.0388501067684 2945.68355382077 17 20 11
228.305584554161 47.8352591839595 2961.56040632029 16 19 10
222.512508184628 48.3523172675992 2965.81968651597 19 22 13
210.070613157296 47.9637652724981 2965.47890263285 19 22 13
215.080569181266 49.9526847918666 2977.21424398453 15 18 9
211.792111426385 50.8080217854872 2983.18746919078 13 16 7
193.45467714633 49.6370516024512 2978.89764309616 13 16 7
156.610021000985 46.0039896333836 2962.17528810776 14 17 8
155.756410672195 47.2064602727483 2969.93043342015 14 17 8
165.873270164416 49.8594318778238 2984.99819127399 16 19 10
155.798320850441 49.82677263806 2986.50546030896 17 20 11
78.0047545472944 40.8943396305733 2943.2128461301 12 14 3
108.44118403927 46.216866940708 2971.71693778958 17 19 8
85.486347212286 44.5387969337473 2965.00232538375 16 18 7
221.580677976231 19.1812577749627 2827.93816334994 28 30 25
245.991469769115 24.2746690739479 2855.37478113571 23 25 22
252.110408434712 26.597711870897 2868.7933216914 27 29 24
255.874079989634 28.5555688984631 2880.35358580732 27 30 23
273.374365567884 32.5337127923555 2902.06407707025 26 29 22
274.836001354574 34.1196881362193 2911.71419488965 23 26 19
272.283002653061 35.1083489353774 2918.35430250131 20 23 16
257.573199779218 34.319186757698 2916.0740666925 17 20 13
245.257271773768 33.890385750412 2915.61414448094 17 20 13
250.025817201219 35.9424133080049 2927.57954494118 18 21 14
254.024986533687 37.8708196784084 2938.91064691896 19 22 15
255.610345219718 39.4414189180337 2948.44017865186 19 22 15
239.165962082906 38.429895513057 2945.08111510083 17 20 13
229.251578552572 38.3607263799747 2946.43433608533 15 18 11
218.489993727432 38.1777602006423 2947.22875031554 15 18 9
216.79701080003 39.2790890701388 2954.41510657626 14 17 8
216.778081466283 40.6107928127012 2962.73921004323 17 20 11
217.613878357816 42.0554113043909 2971.61477830043 18 21 12
227.636791667369 44.7693269419803 2986.76715644304 14 17 8
222.708112438026 45.3959429822987 2991.56879419994 14 17 8
211.088272828042 45.1007484269507 2991.81480826408 14 17 8
154.16289983868 38.6010288761299 2961.44840416878 14 17 8
162.547366324958 41.0802282635449 2975.42831870944 14 17 8
143.19859828013 39.7737023560931 2970.74588775265 16 19 10
93.3921703730101 34.3631353434188 2945.9024870693 16 19 10
126.30708397163 40.1491321689676 2976.12797257533 14 14 4
94.0921937904333 37.1549542328849 2963.21589635325 19 21 8
120.407785003889 42.0074596287455 2988.79628810156 14 16 3
60.817353013523 35.4037215101188 2958.25788225452 10 14 0
217.661658337808 11.3584024511998 2825.90113795452 24 26 21
250.857398270016 17.9022921643031 2859.98680831728 27 29 26
256.186000290285 20.1397930406044 2872.78556074391 22 24 19
267.190844276513 23.2256911581338 2889.74204483832 24 27 20
273.441385304059 25.5704288968761 2903.02669580024 23 26 19
272.480704420339 26.813639374508 2910.88180458417 20 23 16
271.540513478919 28.0543495557745 2918.71727393721 18 21 14
272.243036750468 29.534786751434 2927.7198908804 14 17 8
251.017118656991 27.7479819266466 2920.72141689038 16 19 12
258.24442647461 30.193116621367 2934.43819468196 23 26 19
271.250638195438 33.4735204070146 2952.2123618129 23 26 19
257.315213699039 32.7784189231419 2950.56616401612 16 19 12
244.979837182107 32.3284526947469 2950.1286826744 14 17 10
236.725082279997 32.4811131595723 2952.635238057 14 17 10
234.229591412626 33.47146533079 2959.21798955518 15 18 9
213.557368387023 31.838915723232 2953.06379864163 15 18 9
231.762279552873 35.8042321077008 2974.07614433808 18 21 12
244.262260348348 38.9250825793878 2990.95967885377 19 22 13
229.368561022518 38.1278630313508 2988.86290797409 15 18 9
126.671474973622 26.2919544483323 2935.30355378758 15 18 9
149.201224442931 30.8290307541357 2959.02232536374 14 17 8
136.564967812455 30.4178134373087 2958.87789535039 14 17 8
150.005473186635 33.643510129632 2976.22855030602 15 18 9
111.190751633859 29.6084064633089 2958.68810234195 15 18 9
42.6069472140314 21.5088695976111 2921.71431064453 18 20 9
78.0483293723249 27.7684424899869 2953.61170914004 10 13 2
59.2749954185492 26.5678041209846 2949.75912281013 10 14 0
53.2201743180378 27.114203219675 2954.27398280376 19 25 11
249.636785027985 9.1589653973661 2851.15486712063 26 31 25
250.925821354667 10.8107658055411 2860.96698768156 20 25 19
270.68168759871 15.3350979065873 2884.60765557441 24 29 22
275.293189549156 17.4725204424278 2896.71671903034 21 26 19
281.562832750559 19.8531134459169 2909.97710185876 18 23 16
266.089184537864 18.8699725064841 2907.0667985797 19 25 15
265.942636761971 20.2507060421453 2915.51038246426 20 26 16
250.406656583744 19.2756220571714 2912.66078493405 21 24 13
255.963777592147 21.5201250081783 2925.23191756573 20 23 12
257.49660744335 23.14145502429 2934.80611322152 19 22 13
263.146713400691 25.3742431161165 2947.28664187542 17 20 11
259.839262359856 26.2492966080012 2953.27581360556 13 16 9
247.509928452108 25.7747230934975 2952.83596880974 14 15 9
247.489972810329 27.1397925233197 2961.15615998175 15 18 9
238.420965638157 27.1586821017872 2963.07380402425 14 20 8
223.546433752905 26.3270278248253 2960.96342687262 15 21 11
211.940842056866 25.9876237650885 2961.20182669303 16 22 12
227.716274557886 29.6571197820928 2980.41967478592 15 21 11
198.630491173594 26.7739221395915 2968.63501221403 14 17 8
172.771254915115 24.3884165621949 2959.24075709208 13 16 7
156.017149976862 23.3420579430899 2956.19440049785 13 16 7
124.957211140574 20.2561255036081 2943.5662489522 12 15 8
107.223131763222 19.1074654440191 2940.09089441119 13 16 9
145.020971708452 25.878428962634 2973.82411581534 16 17 11
118.014322169785 23.4121373861454 2964.16428986017 16 19 12
100.21527476334 22.2718665987124 2960.75220960169 15 22 14
38.2602204567282 14.9434539980518 2928.41794944705 10 18 7
35.5463604257338 15.970762713221 2935.21208259174 19 27 16
49.031555918452 19.2508484002596 2952.51032092936 21 29 16
263.787279694351 5.76782832152584 2871.61261383222 21 26 20
271.551120427884 8.45594236589253 2886.17794142483 24 29 22
276.967675633132 10.7535324235675 2898.88081172581 23 28 21
277.603179620898 12.2810061906686 2907.94302782381 19 24 17
266.964215846911 12.0265391810037 2908.62624532904 19 25 15
254.680384708198 11.5219194207372 2908.14565643291 19 25 15
254.530665412792 12.9197851813401 2916.58985754787 23 26 15
260.910499118646 15.3249805266701 2929.73752120307 20 23 12
261.639772334046 16.8408911813121 2938.70833209482 18 21 12
254.226722510799 17.0953337956319 2941.78092785189 16 19 10
236.97514288779 15.8446203945893 2937.84152736147 13 16 9
242.651985014678 18.109736220755 2950.29072857875 15 16 10
236.037480910747 18.492558678411 2953.9686293068 16 19 10
225.291858978917 18.2522435458915 2954.75533045621 14 20 8
211.213320505185 17.5171216720758 2953.25716195069 15 21 11
216.152474065813 19.6465780165545 2965.04203991374 15 21 11
218.647022379246 21.3978363357863 2975.05894089098 15 21 11
177.052637181928 16.5821382384169 2954.72613642006 16 19 10
160.323193267831 15.4953065826907 2951.66127296142 13 16 7
146.886036284434 14.90861177152 2950.92117501731 12 15 6
140.956091888008 15.4344752560029 2955.31472791059 12 15 8
114.016318679269 12.8899796958695 2945.60038912781 12 15 8
117.296805366093 14.7713177812636 2956.23486310905 15 16 10
155.227571994845 21.6635017578666 2989.8178321787 15 18 11
150.205635346764 22.303768751167 2994.71005832612 12 19 11
96.8468741577402 15.9987661426876 2967.85839918241 10 17 9
43.268214207508 9.72177103583832 2941.22062542078 17 25 14
255.061130868821 -2.71779051384641 2865.9449633493 31 36 30
266.810459989976 0.669149058551255 2883.53424037939 24 29 22
266.591181465928 2.09220668334997 2892.04379149013 24 29 22
269.617406413333 4.03220818399991 2902.92208071014 20 25 18
266.225029583238 4.92936364675339 2908.99231834281 18 24 14
258.795024001706 5.17801986776278 2912.08260664492 18 24 14
246.487090136708 4.65266683094606 2911.62901648152 23 26 15
264.230854554862 8.90459451277775 2933.05726453284 18 21 10
258.447070225669 9.40889947949114 2937.30886465822 15 18 9
246.941462391993 9.01418439694362 2937.45649181228 14 17 8
225.578275161438 7.08433354659471 2930.6154702447 15 18 11
229.585803743992 9.13251152186373 2941.92023133069 16 17 11
227.877376189343 10.2809297729975 2949.11530238654 16 19 10
206.390591417234 8.36696086758437 2942.39432981831 14 20 8
205.495144574825 9.64450264148864 2950.17992392628 14 20 10
199.64806535631 10.1573930694837 2954.493445727 14 20 10
225.35998341519 15.4879989196713 2980.60263080338 14 20 10
207.925174106898 14.2210302112861 2976.8475826264 18 21 12
173.744318582421 10.4359050441325 2961.75391275467 13 16 7
165.356659150316 10.5748906179691 2964.39412760116 13 16 7
139.349766547339 8.0743999257612 2955.16383000381 12 15 8
135.093719699479 8.85007344139133 2960.69241255053 12 15 8
169.583797229132 15.3884301941795 2992.0763571546 15 16 10
154.45280328361 14.5260988438346 2990.22518467808 14 17 10
125.738852934219 11.6728673421791 2979.48376674102 10 17 9
99.4617792185575 9.20707855821423 2970.51663405569 8 15 7
96.8870918692915 10.2339285629613 2977.17263446728 12 19 11
248.73433880225 -10.8623348475892 2862.09537126848 15 20 14
265.276378788102 -6.61704991223294 2883.30068408116 26 31 24
258.625898799674 -6.24035244238602 2887.01487682286 25 30 23
272.101828565651 -2.54540330572312 2905.67824668714 22 27 20
262.256962824149 -2.70273041443247 2906.97546518997 21 27 17
249.962254920324 -3.25365357754454 2906.5128585471 21 27 17
235.199747604699 -4.19603034468036 2904.3072662355 22 25 14
239.906031400567 -1.97167321557229 2916.30936102289 16 19 8
257.70031577622 2.34993896254393 2937.67680482948 14 17 8
253.545715182389 3.11511597906849 2943.10620112428 14 17 8
232.198599790423 1.12965846813368 2936.25743862355 16 19 12
211.595814259108 -0.715218265816275 2930.06601495024 17 18 12
209.021713900326 0.31944481999524 2936.72027770163 15 18 9
208.934189448086 1.7431910257284 2945.09855545743 14 20 8
197.297561750344 1.34439821621796 2945.3768899596 14 20 10
197.231462011976 2.76559262270593 2953.73460765462 14 20 10
203.83389678907 5.21955287152465 2966.653679882 15 21 11
222.978915302935 9.60493037690657 2988.08764739402 18 21 12
203.018972182904 7.9138821253153 2982.65170739656 14 17 8
166.263049967102 3.6570452560119 2965.93376980423 13 16 7
153.671455628104 3.14497026402671 2965.75989619555 12 15 8
114.158439716498 -1.46630290216287 2947.58111313522 12 15 8
124.175795244645 1.49404214883281 2962.70225023525 14 15 9
153.678421290525 7.38354637434441 2990.63291426266 14 17 10
102.966161218694 1.1405182878394 2965.39480853297 11 16 9
92.7489973695681 1.03208598464993 2967.05449792935 20 27 19
86.7591372801466 1.56155358717874 2971.5073531464 19 26 18
260.796136115595 -15.9186459655913 2872.12013993901 26 31 25
261.338253285489 -14.3214329498116 2881.26478309716 25 30 23
265.12208033626 -12.1850808411628 2892.77898885471 22 27 20
268.949277739156 -10.0542274432359 2904.25060207652 21 26 19
264.747563952551 -9.28032478311314 2909.72549282189 22 28 18
247.603801991687 -10.6653230549233 2905.69921288636 22 28 18
226.346891404731 -12.716204615398 2898.77054532673 17 20 9
238.349086583014 -9.24655902642241 2916.09649871092 13 16 5
260.213965223279 -4.17745958468052 2940.39652621977 13 16 7
257.699164881208 -3.14203868581658 2946.99179117352 15 18 9
234.724508239184 -5.44971123878696 2938.97266795864 18 21 14
211.665556397391 -7.74649734951832 2931.03597995382 17 18 12
213.205166654721 -6.03744356285807 2940.59047703112 14 17 8
212.302768444435 -4.73111109034502 2948.37871869747 13 19 7
209.767112590817 -3.69268680089835 2954.99391174067 14 20 10
208.901406011478 -2.39090618043897 2962.74639083684 15 21 11
226.327473576994 1.8162312831958 2983.07948937424 15 21 11
213.8903312723 1.26047845487448 2982.75869817741 18 21 12
218.941806821924 3.47445915903238 2994.41954608152 15 18 9
142.915707245723 -7.06675970428627 2951.02649847947 14 17 8
124.402277832063 -8.5140209906181 2946.95227385862 13 16 9
112.549614797132 -8.90590861614482 2947.44411406103 12 15 8
100.666976024157 -9.29389201483977 2947.96514357142 13 16 9
82.7334021849606 -9.1468550350991 2952.99851811384 14 19 12
91.1249534353602 -6.40611540362562 2966.93274184514 13 20 12
80.0319670841647 -6.65654290590029 2968.0662134438 9 16 8
233.68445313572 -27.6967990826996 2852.60495258693 21 26 20
255.798024764716 -22.329660999068 2878.03088361823 26 31 24
264.387845995226 -19.3313399814017 2893.14706122964 24 29 22
260.160293102216 -18.5510454681464 2898.64700371854 21 26 19
256.74445965503 -17.6334356311371 2904.73717312915 22 28 18
242.818358996451 -18.5056828822377 2903.10789869062 21 27 17
242.63909786001 -17.0374139026289 2911.5710297254 16 19 8
240.857896798466 -15.8463582898968 2918.83172632397 14 17 6
259.467862856432 -11.2357430833601 2940.76371880037 19 22 13
252.049522434922 -11.0112014704917 2943.84598755468 19 22 13
233.975124652235 -12.5579846919705 2939.35050733274 15 18 11
228.151769841261 -12.0550507951392 2943.64194201701 15 16 10
225.616374196128 -11.0081882071063 2950.25596733448 17 20 11
215.671277185642 -11.1834622793844 2951.65536952248 14 20 8
216.449967161043 -9.59592779937973 2960.56652287094 13 19 9
231.342233891904 -5.71471457461209 2979.21282875862 15 21 11
231.379508448406 -4.27328635130425 2987.46490370139 17 23 13
232.273334608148 -2.70023713236117 2996.26386603203 19 22 13
163.107773880229 -12.4190656023297 2957.27294106298 19 22 13
130.44248722924 -16.1977626342553 2943.50715745552 14 17 8
109.385686937045 -18.0857333850488 2937.77260858621 14 17 10
118.502948396612 -15.1532117052243 2952.37475536657 14 17 10
142.845273332496 -9.82805792247116 2977.01095383814 13 14 8
139.469924887075 -8.91417346689555 2983.06147165328 14 17 10
97.1878154735428 -14.1147245913779 2963.46846860482 13 18 11
71.6948917593849 -16.6405243771476 2955.14844229371 23 28 22
232.955906742273 -34.9873626672929 2852.98904272167 31 36 30
241.443496706835 -31.9297305655191 2868.1979713391 26 31 25
241.964914743797 -30.2910697517971 2877.3570430758 24 29 22
251.372041828152 -27.1070296713237 2893.05108401369 25 30 23
254.392500873966 -25.0563612812924 2903.9187423413 24 30 20
261.498500101202 -22.3091002638385 2917.71166505983 21 27 17
262.174827908624 -20.689806123825 2926.7197714904 16 19 8
253.123118142991 -20.7517524974208 2928.63252431291 15 18 7
245.682717952598 -20.5321400742319 2931.73742727591 18 21 12
242.315934871332 -19.6144778618247 2937.77888120701 18 21 12
237.320238228206 -18.9759487930805 2942.6453075061 14 17 10
244.637163307316 -16.2550866820431 2956.2326794825 15 16 10
232.267892698803 -16.8675217496164 2955.85286829825 17 20 11
209.968731500469 -19.1354409643842 2948.57433975581 14 20 8
223.13255411305 -15.4555809151701 2966.13261963803 13 19 9
229.754579975728 -12.8892837956276 2979.01597212938 15 21 11
246.397103877184 -8.67901519506126 2998.7094311677 17 23 13
240.666475424401 -8.18970952921166 3002.91080145413 19 22 13
192.38100000348 -14.6914778000509 2978.1352608553 19 22 13
147.240266778427 -20.6201305347043 2955.82055149705 14 17 8
109.458333239221 -25.2957224293418 2938.76610296624 13 16 9
