ply
format ascii 1.0
comment KinectMotionCapture
element vertex 793
property float x
property float y
property float z
property uchar red
property uchar green
property uchar blue
end_header
-3.05152815508336 -198.820885990871 2937.26975352846 11 14 7
-16.9118498442238 -200.067506349974 2937.04740110046 14 16 11
-26.5445446460428 -200.33918698436 2939.56807928459 15 17 14
245.725330715606 -200.436421201235 2866.17902386356 7 8 3
231.03080842116 -202.220767614074 2864.03036416686 9 10 4
212.296644575858 -205.017534549148 2858.95787912749 11 12 4
201.504440923141 -205.770923397639 2859.86700652749 11 14 7
203.528513817955 -203.269046177008 2870.2404932465 13 16 9
220.071071965147 -197.118145740958 2891.16364237852 16 19 12
202.03790255668 -199.697606657799 2886.77985108389 15 18 11
197.687665774335 -198.827001412213 2892.38793475971 14 17 10
211.982092945186 -193.305710981082 2911.38583931533 14 17 10
224.745475310196 -188.200407691089 2929.13108239451 14 17 10
213.166154404257 -189.157444389114 2929.4350186082 15 18 11
208.086419998018 -188.498723848514 2934.38191135764 14 17 10
201.371147851205 -188.242329257189 2938.17822438333 11 14 7
193.828803904131 -188.185813439662 2941.40846461081 11 14 7
209.293564850485 -182.507888376508 2960.63796921415 13 16 9
170.471886589842 -190.072637204849 2942.2088622176 13 16 9
151.314744041995 -192.81177622928 2937.5478839026 12 15 8
160.240309748365 -188.743894429852 2952.17258166982 12 15 8
156.78551284861 -187.680037391379 2958.28016493432 12 15 8
131.713768836374 -191.802855385759 2949.7779395468 12 15 8
173.244858415194 -179.97772487643 2986.14186963384 14 17 10
182.404313948653 -175.93965293461 3000.53871722917 11 14 7
146.402277463518 -182.639655156191 2984.85016805161 12 15 8
92.6282827301668 -193.488370354291 2957.6651535324 16 19 12
14.2293869096877 -210.055371497144 2914.68511703119 19 22 15
-10.530109661564 -213.910489970105 2907.25016876427 10 13 6
-6.63763605769052 -211.032651913772 2918.54655774726 10 11 5
-17.1045688517526 -211.516769248531 2920.50979748182 11 14 7
-25.8954673928731 -211.603547925211 2923.58414042416 10 13 6
-18.530213131069 -207.946620496982 2936.98483292064 13 15 10
-45.227284230708 -212.164497715782 2928.69372175179 14 16 13
261.699475124188 -203.431165619526 2879.09929764808 9 10 5
242.263436375455 -206.492761349916 2873.34567918402 9 10 4
203.588542340365 -214.499230076619 2853.41952781397 12 13 5
200.782272337928 -213.206646693523 2860.2662179463 11 14 7
232.501621993276 -203.060833175289 2892.45144643625 13 16 9
232.217281824929 -201.164900848069 2900.95537620507 16 19 12
209.374916214027 -205.023500010604 2893.03445015823 15 18 11
184.022398883847 -209.486464593762 2883.44406318358 14 17 10
212.059996016508 -200.412253261501 2912.35882425936 14 17 10
224.010626754401 -195.451876535182 2929.51565248405 14 17 10
235.229302771311 -190.706377012002 2946.01417200601 16 19 12
231.018257715478 -189.849957872099 2951.48613294 15 18 11
193.267668788804 -197.354223830332 2933.40172621913 11 14 7
177.505246937196 -199.33951923613 2930.92629742483 11 14 7
183.888140947685 -195.826244879355 2943.90681071632 11 14 7
190.326283279861 -192.319919004884 2956.8338264323 11 14 7
146.43889379108 -201.197706722715 2935.1269805544 11 14 7
151.213335639543 -198.095345692989 2946.93162479492 11 14 7
170.141354861824 -191.558142067313 2968.26303685049 12 15 8
157.577087229117 -192.717196199315 2968.15765065286 13 16 9
169.154945741488 -188.016711977144 2984.30614988897 14 17 10
177.468757318838 -184.132805921901 2998.14861076662 15 18 11
139.781161145681 -191.33352718288 2981.37369685433 15 18 11
96.9068358467036 -199.721359655057 2961.4229424082 17 20 13
-0.832137506331598 -221.144364666477 2905.77398700329 19 22 15
-3.69894711474617 -219.840021486259 2912.67905576642 9 12 5
-7.39852230930804 -218.737551853676 2919.0240005716 10 11 5
-18.7143179223574 -219.437317069593 2920.44513697885 11 14 7
-33.4530489328126 -220.9331452486 2919.71464363943 10 13 6
-25.2543853869733 -217.033455124589 2933.6691153361 14 16 11
-35.7591457184832 -217.528165076497 2935.67148395873 14 16 13
-46.286313667276 -218.019932254551 2937.69566873587 13 15 12
256.212160969702 -211.977019679058 2875.89231431073 10 11 6
204.892184385953 -223.460109544807 2846.36418379075 10 11 5
202.069641033699 -222.157336949339 2853.22552763888 12 13 5
208.867582800674 -218.3493548579 2867.16758185789 13 16 9
226.960762776287 -211.62817005887 2889.30047144752 14 17 10
241.949413482839 -205.754860793722 2908.97388285746 15 18 11
216.711460332792 -210.299964224936 2899.28187204424 15 18 11
202.695415348985 -211.922174856755 2897.85275791043 16 19 12
196.74112316052 -211.462624437376 2902.28062740517 18 21 14
233.836003153461 -200.012195345865 2937.43718478327 20 23 16
243.448956218724 -195.629674187684 2952.74970249956 18 21 14
235.176613978088 -195.806975330054 2955.32249055074 17 20 13
205.618229935211 -201.35404513899 2942.98393724427 13 16 9
184.145025639645 -204.822307236261 2936.47954075904 12 15 8
199.585061626287 -199.005830251149 2955.71278185732 11 14 7
173.101964434116 -203.700319138172 2945.86238727196 11 14 7
134.956692826724 -211.260029459692 2928.1781009402 11 14 7
149.637434766944 -205.657223936751 2946.78000348209 11 14 7
152.795630752723 -202.937756507328 2957.41237662823 11 14 7
136.864356236674 -204.934817379058 2955.10635995655 12 15 8
140.890625627822 -202.015025003223 2966.26368691481 14 17 10
134.83589922446 -199.661556715497 2979.01316258412 17 20 13
77.4998236119346 -209.731744037448 2958.08443743249 14 17 10
-6.14426356794695 -227.962282996977 2912.05669206186 9 12 5
-8.15927853355536 -226.447113684978 2919.50166546036 10 11 5
-43.1975241855125 -232.844324199914 2905.64546173343 12 15 8
-46.1043389856468 -231.526003952411 2912.58819043889 11 14 7
-42.1903915815234 -228.590636353554 2923.85475277952 13 15 10
-55.2925912527904 -229.70227881867 2924.27653362461 16 18 15
-82.962085268627 -234.240422119955 2915.58114081402 15 17 14
221.317527530058 -228.415769686214 2850.62410145817 10 11 6
197.003517235568 -232.833544626766 2841.4130297954 9 10 2
202.148566329915 -229.401552885214 2854.21784560464 12 13 5
206.54429812507 -226.187527227909 2866.38205054327 13 16 9
215.000196005038 -221.92286206407 2881.44405090976 14 17 10
234.786061380723 -214.711615875651 2904.65780449273 15 18 11
244.209344054352 -210.256429569276 2920.14826567659 15 18 11
194.69021514298 -221.181527138387 2893.00046157391 16 19 12
201.682105146369 -217.356776094149 2906.74744388317 20 23 16
221.729281490322 -210.178531274167 2929.70658939961 21 24 17
232.127156181426 -205.533512981534 2945.61811853605 23 26 19
224.643958297945 -205.5082473866 2948.79424461729 22 25 18
204.878429053722 -208.621004599872 2943.37537673084 18 21 14
216.205506518486 -203.780474807915 2959.75254442239 16 19 12
207.061404114213 -204.170052468805 2961.80513042006 17 20 13
183.892240729702 -208.102370784274 2954.21927720999 16 19 12
165.593782711046 -210.773785066048 2950.11251209415 14 17 10
165.44551578737 -208.860051457242 2958.47902593983 11 14 7
147.067353439567 -211.520769084787 2954.44982744026 10 13 6
141.934596898508 -210.852681180001 2959.44798746106 10 13 6
137.636485787911 -209.977249773567 2965.00393411179 14 17 10
154.231195347665 -203.926431519385 2984.47317890525 18 21 14
155.852905885 -201.6107959149 2993.85649666307 18 21 14
75.2449409385796 -219.539433506591 2949.0202819373 19 22 15
37.1977166810926 -226.902358718084 2932.62645770208 14 17 10
8.27629292236898 -231.979316763207 2922.41972973949 8 11 4
-37.6565800453963 -241.157669720662 2901.37193112945 11 12 6
-72.7615711791039 -247.640006912383 2887.59425049624 13 14 8
-56.2073045876326 -241.583087709386 2907.10275403749 14 17 10
-59.1249120634991 -240.254826909366 2914.05473082017 15 17 12
-79.9419949768185 -243.228237659103 2909.6594759255 20 22 19
194.373636349467 -242.940813805443 2831.34828365947 9 11 6
209.830344835587 -236.675799326473 2851.91592223332 7 10 1
240.563448635239 -226.347759053 2883.6366650848 18 21 10
215.429791865179 -231.041226219232 2873.86301451971 16 19 12
223.104258845748 -226.947136622607 2888.30928899759 14 19 12
236.473022628895 -221.364552381117 2906.8000846229 12 17 10
265.097487178982 -209.807286165201 2944.6841241583 12 18 8
222.018682910108 -219.170453692081 2922.24608012774 14 20 10
216.93400735935 -218.510107771653 2927.19763927631 20 26 16
225.69133170079 -214.237004251899 2941.95907152533 23 29 19
216.560723424353 -214.641976867668 2944.00087086419 21 27 17
221.318609971524 -211.440318668708 2955.80727868538 17 23 13
226.123629773595 -208.244648296362 2967.56742964386 17 23 13
213.715323257689 -209.496426181266 2967.3208762819 17 20 13
199.625285005554 -211.166036796982 2965.97224425427 17 20 13
208.616196976688 -206.922203803026 2980.50604670488 17 20 13
204.429950371111 -206.05875181715 2985.9526808016 17 20 13
191.951247821036 -207.300682177763 2985.77457628242 15 18 11
172.78551347323 -210.219949273066 2981.148752602 10 13 6
166.058188890036 -209.98078736745 2984.95958085861 12 15 8
187.731113710161 -202.609631747337 3007.69306913294 18 21 14
153.420237248226 -209.289908994529 2993.15607634524 21 24 17
92.9542306687177 -222.43860412457 2961.62031431913 21 24 17
39.8054239246646 -233.673155842252 2935.28875251338 11 14 7
4.98803897665256 -240.287073471559 2921.24492221738 6 9 2
-41.7963292353662 -249.801910351647 2899.6751559894 9 11 6
-62.5087605165575 -252.837205906629 2895.18546486617 10 12 7
-30.6492737257558 -242.969447902977 2924.43847511519 9 11 6
-52.2305350246772 -246.210018264618 2919.4246374103 10 12 7
-79.8547932708278 -250.893266559239 2910.70577126634 14 19 13
-119.546506316679 -258.464384773767 2894.55881022519 17 22 18
193.658567244409 -250.463467621442 2831.75329348246 16 18 13
219.469768088299 -241.300657277495 2860.03164761251 24 27 18
259.808462754037 -228.247302670482 2898.81502180755 11 14 3
241.127035122225 -231.278160606946 2893.72476747637 16 21 14
208.737427118002 -237.984569897428 2878.7006983309 17 22 15
228.506472802097 -230.60342056179 2901.9063803473 17 22 15
238.719818994626 -225.83226840208 2917.98250648018 15 20 13
305.59121665911 -205.953303908531 2974.75416879863 13 19 9
248.836274186213 -219.122651837835 2942.3701363652 14 20 10
214.575937104141 -226.226782777242 2926.42869329907 12 18 8
212.743254610445 -224.704361400396 2933.69187384757 17 23 13
206.846063294436 -224.258748346008 2938.06476342633 19 25 15
207.490137868575 -222.094879909936 2947.02440995121 19 25 15
219.642024728723 -216.932150145697 2963.95181802274 19 25 13
215.43770915556 -216.063901066318 2969.41534802107 22 25 18
202.99957967329 -217.335506823037 2969.20133985636 21 24 17
209.520686958766 -213.687529911282 2982.02503418582 18 21 14
217.752007360679 -209.619813660469 2995.9219051115 18 21 14
231.024276996616 -204.280913645458 3013.12762795597 16 19 12
192.823478899975 -212.154974590635 2995.54494113376 14 17 10
185.309285008927 -212.139659130664 2998.75331733432 14 17 10
169.429575477046 -214.247064691413 2996.41240476794 17 20 13
151.825601475438 -216.77221876607 2993.01163672179 19 22 15
106.465860363788 -226.28333533816 2971.4435541811 19 22 15
48.3021792240228 -238.945247688281 2941.80066847158 9 12 5
-4.20207062570421 -250.095488470459 2916.23350033973 4 7 0
-40.0192578548002 -256.994095605746 2901.80765615557 9 11 6
-48.021150429995 -256.914349536101 2905.49080154303 12 14 9
-42.4494560811808 -253.462402690474 2917.86900295195 12 14 9
-47.0381601158594 -252.542039270598 2923.7065338981 11 13 8
-85.7375035781929 -260.028585183403 2907.97854475905 12 17 11
-89.5390837433134 -258.889285375524 2914.41933852408 14 19 13
205.659091387059 -254.46384653648 2841.68284099881 16 18 15
256.691533022878 -236.174077339926 2897.41377782877 15 18 9
232.399033971424 -240.787231717077 2888.20988433708 18 23 16
244.928579193707 -235.295023035922 2906.13048454989 19 24 17
227.780652233566 -237.922780238703 2902.29201974747 19 24 17
279.922546118676 -221.716524093379 2948.72672697993 17 22 15
238.577234644711 -230.910375810715 2927.37643065303 14 20 10
245.673050989887 -226.976926222085 2941.00414697119 14 20 10
227.649915656079 -229.813724222463 2936.64842600066 13 19 9
212.822193216341 -231.77078800233 2934.65790141071 15 21 11
198.764546387197 -233.503998064014 2933.28616634956 16 22 12
196.117212809222 -232.188020601915 2939.97157262824 18 24 14
213.98100990938 -225.444813946163 2960.91241650757 19 25 13
219.625893325668 -221.969041718176 2973.21441870944 22 25 18
212.964551389383 -221.749402050655 2976.96261060053 20 23 16
212.902402161018 -219.797551335304 2985.23797461002 18 21 14
210.381276985755 -218.49707166595 2991.8003446461 19 22 15
193.768637282072 -220.868103578007 2988.80895927489 19 22 15
170.450285611899 -224.956971183014 2981.39472799651 18 21 14
149.547881479217 -228.388646992043 2975.73502039185 13 16 9
177.863749340283 -219.118269408963 3002.92721407482 16 19 12
124.272342810321 -230.92563163666 2975.70257438281 18 21 14
78.0112324558813 -240.772012631886 2953.6625452845 18 21 14
31.5611282628341 -250.593729349286 2931.80620665028 10 13 6
-39.0873463091954 -264.388583817671 2903.39206566073 10 12 7
-51.3222326434426 -265.384746703634 2904.35277086925 12 14 9
-50.8526179124855 -263.176624100279 2913.4791178508 12 14 9
-78.4354241464205 -268.004529869899 2904.74046955758 11 13 8
-8.89264319822258 -248.554074288664 2957.50583289737 11 16 10
-68.9363639515057 -261.463406237808 2928.34917566513 12 17 11
259.777547664047 -246.55687564493 2883.13069534007 13 15 12
241.933357050204 -249.461697435791 2878.60733350385 26 28 23
259.963494335425 -242.340553383398 2900.74404945601 18 21 14
278.107026217186 -235.23385194373 2922.77029750937 20 25 18
259.451045858047 -238.358788874862 2917.66867849458 21 26 19
261.643878673884 -235.706662654033 2927.85203953868 20 25 18
282.41835569895 -227.961896044694 2951.42248021395 19 24 17
240.0795820272 -235.515206210721 2937.90145748327 17 23 13
215.546339849188 -240.159941397234 2928.94163094691 20 26 16
221.856383531946 -236.409657037996 2941.95945571591 15 21 11
211.900792520487 -237.073314794217 2943.4414614972 14 20 10
212.556400878468 -234.872600122063 2952.38420894663 16 22 12
205.860920087927 -234.65385900416 2956.16677187189 17 23 11
218.060815501295 -229.383564998754 2973.03027095052 23 26 19
210.572068483638 -229.387791886443 2976.21626638008 21 24 17
207.201222300508 -228.29500905598 2982.23621012252 17 20 13
201.355681812708 -227.859740382907 2986.55933856037 16 19 12
193.018475081266 -228.07957751633 2989.2028248107 12 15 8
158.888774877829 -235.065538885891 2974.53110129982 10 13 6
127.958448602016 -241.161385637672 2962.21910658646 11 14 7
91.8962807056536 -248.548519084186 2946.69182648411 11 14 7
110.956545669355 -241.557327446961 2967.82481733366 16 19 12
78.0944344260366 -248.054419306172 2954.65626102427 17 20 13
24.0749436754406 -259.961428508862 2927.87144307099 16 19 12
-14.9913919569387 -267.936480623584 2911.16317426752 10 13 6
-53.3666569690028 -275.674783782347 2895.1505800476 10 12 7
-46.5207200785072 -269.703149684383 2917.2269813261 10 12 7
-46.0136529503372 -267.480554197772 2926.31399843775 10 12 7
-63.3879267799458 -269.788104372103 2924.06988228149 13 18 12
-54.3181252470886 -265.414431057733 2938.50615588845 16 21 15
253.960871416794 -253.201812827715 2888.47195033579 21 23 18
245.667440506204 -253.441337563785 2891.07453852597 24 27 20
266.176839025122 -245.576439937482 2914.89045076458 22 25 18
245.887450488314 -249.192837304635 2908.6493113768 23 26 19
222.307681693067 -253.69764887423 2900.13890034468 22 25 18
230.085324767133 -249.442873585192 2914.45897016133 20 23 16
264.598059726999 -237.802223313537 2947.90045532588 21 24 15
230.243856196774 -243.208965444538 2940.30348129607 21 24 15
218.6792239937 -244.337684107217 2940.61820593007 19 22 13
233.196333889656 -238.324967457079 2959.32201282526 19 22 13
224.086871211489 -238.785133997984 2961.35063406848 19 22 13
225.617516929505 -236.349646560902 2970.80700433154 18 21 10
206.634409810489 -239.475270801749 2966.0303286092 19 22 15
199.942440507347 -239.261765284076 2969.80984055301 17 20 13
196.546413643071 -238.159999599241 2975.85346142211 15 18 11
202.262907945917 -234.622404016338 2988.07521549017 15 18 11
207.200789655841 -231.312660657019 2999.68657267244 10 13 6
183.083387651129 -235.744623698843 2991.6992723844 8 11 4
145.542561662944 -243.697242968659 2974.88974370611 11 14 7
128.736073162151 -246.117177933348 2972.09841874787 11 14 7
120.249269065779 -246.327384563262 2974.88903400881 12 15 8
35.0956252670507 -264.542041863058 2936.02592848653 11 14 7
-15.7480796976128 -275.700983578727 2911.64491936606 10 13 6
-46.5183914171727 -281.570441451058 2900.55747697309 10 12 7
-45.2182382051944 -279.102800907825 2910.23797748691 12 14 9
-35.3973460810333 -274.451826546111 2925.30433137757 12 14 9
-53.584015441654 -277.020162950894 2922.48857076627 13 15 10
-73.5335749145731 -280.017522914149 2918.65263911393 16 21 15
-79.8726260124614 -279.518506197625 2923.45640895005 19 24 18
246.073441791286 -262.56658807979 2883.51828754086 10 12 9
234.566871761297 -263.726171410226 2883.7795795211 15 17 14
232.635521821494 -262.148428059276 2891.13222389655 10 13 6
240.349229359458 -257.842486467861 2905.50822028855 27 30 23
219.169739625335 -261.725559739383 2898.7734698123 19 22 15
213.232717297184 -261.285346388809 2903.18704809079 25 28 21
227.497871534203 -255.17579462443 2922.12673849229 26 29 20
250.768741503067 -246.586710469722 2947.34450010157 23 26 17
237.631800327131 -248.196193820154 2946.45745112209 20 23 14
235.039323433969 -246.862571398582 2953.08577598451 19 22 13
234.091061316032 -245.078936648418 2960.84867827897 20 23 14
248.703580675259 -239.013454174727 2979.45028124303 19 22 13
225.696520415074 -243.320758233944 2971.75887996334 16 19 8
210.822899092587 -245.367021471887 2969.82677944142 12 15 8
191.784973610149 -248.530787170427 2965.11017645512 12 15 8
191.672307009209 -246.522916185678 2973.427425191 14 17 10
194.066502111468 -243.845356790051 2983.40740933786 14 17 10
203.962027465212 -239.156616071615 2998.39406947724 11 14 7
175.68041689092 -244.76777501722 2987.63129006612 9 12 5
148.124271701887 -250.141407172098 2977.52957792288 11 14 7
151.372395050636 -247.242499324091 2988.04579281073 10 13 6
160.521210430741 -242.787811099295 3002.39196837295 10 13 6
87.4929054924705 -260.166866133323 2962.70067069257 11 14 7
18.3577348417852 -276.392683799638 2926.05820740679 11 14 7
-29.1504276162455 -286.802865459109 2903.92260181441 8 11 4
-29.530058605503 -284.758820158288 2912.49926574423 10 12 7
-30.7322700838144 -282.939410089174 2920.50939377309 13 15 10
-62.4745593120464 -289.094441109386 2909.01243768352 15 17 12
-64.9177175225146 -285.450223503998 2925.07002283562 16 21 15
-58.4168688413489 -281.64585945149 2937.89038246554 17 22 16
176.356830285576 -287.697235063083 2841.68411123095 7 9 8
203.099100688808 -277.793703359367 2870.34533054908 21 23 18
229.997453988421 -267.910113744515 2898.85450467579 17 20 13
244.987306807721 -261.495828588582 2918.44676636959 20 23 16
244.756222587593 -259.458257490322 2926.87721588805 22 25 18
240.508244514732 -258.570823291344 2932.38126784173 28 31 22
242.745933309069 -255.850182133535 2942.51029760032 22 25 16
256.38822382232 -249.928807610914 2960.67940408357 20 23 14
248.142414350627 -250.193484208132 2963.23875875703 19 22 13
238.249845050664 -250.912881086323 2964.66642126507 19 22 13
232.424107105735 -250.488276020895 2968.97146156166 17 20 11
219.217054202749 -252.114424691555 2968.15649769063 14 17 6
206.793939538935 -253.507613575968 2967.9458873644 13 16 9
186.099509433342 -257.170512940942 2962.11383321701 12 15 8
183.496273226971 -255.825951702679 2968.75122548417 10 13 6
181.732997830948 -254.255892957304 2975.9381051344 10 13 6
135.192567991477 -264.927710871088 2952.8801964702 11 14 7
160.794953305458 -255.876339338958 2978.5482216386 13 16 9
146.539222331133 -257.69928515213 2977.38678780871 15 18 11
160.642439428373 -251.83581135835 2995.10674508275 16 19 12
129.623655152716 -258.169194561483 2982.91736041267 19 22 15
89.2548852258659 -266.966273979173 2964.79010475807 18 21 14
18.44369677299 -283.847303055646 2927.07463540881 13 16 9
-24.0045884359645 -293.042529075141 2908.23672074468 10 13 6
-25.2175113502093 -291.208117376 2916.25526815339 8 10 5
-39.1141139471824 -292.741971188029 2916.1113961821 11 13 8
-59.8397258560666 -296.063949639039 2911.67682738185 12 14 9
-102.754536234041 -305.197692704504 2893.2934297953 12 14 9
167.655449033519 -297.589847096653 2836.19981916167 12 13 15
175.966289054325 -292.937927137504 2851.34862803703 11 13 8
215.635022014405 -279.211351557523 2889.28087302613 15 18 11
237.82768532878 -270.631110346396 2914.15336960563 14 17 10
236.773009866316 -268.80718375635 2922.01632464994 11 14 7
247.860761900466 -263.50360948245 2938.56237041777 21 24 15
258.21676252525 -258.441857311638 2954.45388803587 18 21 12
261.338893270375 -255.474288994303 2965.08506745425 21 24 15
243.337204411487 -258.527582144021 2960.74004770562 20 23 14
230.985642782826 -259.95475168555 2960.46306864202 18 21 12
225.96061717142 -259.299419412651 2965.35613553394 16 19 10
214.378150166813 -260.488868421894 2965.69754630821 13 16 5
201.121910169486 -262.134998436719 2964.93437918292 13 16 9
193.593351922706 -262.165135635892 2968.16373728424 12 15 8
172.844237222947 -265.871530001097 2962.39241428928 10 13 6
152.022328577869 -269.568246297821 2956.69194634383 10 13 6
115.367633827262 -277.613058253246 2940.43334944558 10 13 6
119.305725231991 -274.412396744398 2951.63672611266 11 14 7
155.787923676111 -262.292016397827 2984.46851034549 16 19 12
148.194323864055 -262.312686244459 2987.76105641204 18 21 14
133.055018526751 -264.386884861479 2986.09725072319 21 24 17
5.07241381857959 -294.946513106308 2919.3207371512 15 18 11
-19.7016934573031 -299.476545404899 2912.00004949865 10 13 6
-24.2850339682796 -298.538931619159 2917.82970478993 10 12 7
-44.1076192627876 -301.689283279053 2913.89029800736 12 14 9
-65.6929059475955 -305.284692325214 2908.93290257276 12 14 9
-48.2155516836453 -298.4479941792 2928.82676258198 15 17 12
-93.732877468264 -308.372859371591 2908.89322513419 16 21 15
-111.228116380343 -310.813731933537 2906.78893408368 18 23 17
188.43695074923 -294.378071080874 2870.35229915339 14 15 9
188.84825906636 -292.051500758517 2879.51903874466 8 9 3
224.759581050792 -279.384470201316 2914.25382639638 19 20 14
241.474622562223 -272.379066756889 2934.87940182647 9 10 2
253.43488947529 -266.794641909886 2951.93476498905 26 27 19
234.62116845332 -270.125278369773 2947.0201870848 21 22 14
234.462804562623 -268.063426461992 2955.3744977061 21 22 14
218.826813554185 -270.447102808615 2952.83240174461 20 21 13
219.497787285354 -268.152661302843 2961.74637620823 17 18 10
211.178949625452 -268.428256352901 2964.37952485271 17 19 8
201.202409618977 -269.167685248149 2965.89387007899 15 18 11
200.263011564588 -267.343182149584 2973.64192990327 14 17 10
181.181365451855 -270.637359313021 2968.98801690671 12 15 8
138.036800255963 -280.659793674956 2948.12996095884 11 14 7
168.535569988765 -270.006082571003 2977.20111051884 11 14 7
155.138359388092 -271.6595027526 2976.57900677007 10 13 6
139.203254532994 -274.002522604804 2974.32792626791 13 16 9
123.218591357352 -276.338793608228 2972.12506043376 16 19 12
144.0207138654 -268.502748802502 2994.23731069848 20 23 16
65.0877899508933 -288.14597949846 2950.82532805581 18 21 14
16.0931571336822 -299.445432932642 2927.46308700667 9 12 5
-18.77107473869 -306.803793595318 2913.5758047543 7 10 3
-24.1972685602923 -306.09349451765 2918.85911353956 8 10 5
-72.8125394646879 -317.101525334644 2896.49433552715 8 10 5
-35.8958457519813 -304.902267175306 2928.88300142897 8 10 5
-45.5753270509351 -305.338102685982 2931.47406347342 9 11 6
-97.9063906454525 -317.222048465349 2907.26060726785 10 15 9
-105.155744956428 -316.953872965559 2911.58553056462 12 17 11
171.327929639371 -308.983567191807 2849.82399450591 0 1 0
167.659272413415 -307.820689755156 2856.12930906415 6 7 1
161.586262814663 -307.372784507115 2860.67645001153 15 16 10
165.990362280243 -303.833008491268 2872.784199969 12 13 7
238.321689923901 -280.346531777733 2933.5199232829 12 13 5
238.123146130452 -278.263470134232 2941.91133619392 19 20 12
225.768965381521 -279.738722900576 2941.6440646351 19 20 12
219.89205885903 -279.315021879718 2946.00038754501 19 20 12
238.487506283438 -271.795133121315 2967.51680787872 18 19 11
230.209134218907 -272.08657486697 2970.11245356549 17 18 10
223.555370216374 -271.903890986974 2973.8585825056 17 19 8
214.429582646633 -272.427366460058 2975.91277164001 17 20 13
206.932627616813 -272.477157008224 2979.1139898781 16 19 12
187.041444186251 -276.054197699949 2973.88851935154 15 18 11
158.806713076621 -281.972037046423 2963.12451516833 14 17 10
142.905368106143 -284.354369835848 2960.84572103663 14 17 10
166.028001160649 -275.708916537946 2984.78510559876 13 16 9
144.285596723985 -279.729568721713 2978.6296718467 11 14 7
122.466529280969 -283.74005508038 2972.54886308871 14 17 10
84.6646704039831 -292.181346277141 2956.07076942517 18 21 14
1.88242357280277 -310.870304392673 2919.173998907 12 15 8
-33.0135212894431 -318.318309625527 2905.33145755071 7 10 3
-69.7337253584389 -326.213973970729 2890.53277774009 9 11 6
-57.0269883491794 -318.263369500057 2916.4158678133 9 11 6
-51.4418864638242 -314.530711177433 2928.73926630652 9 11 6
-79.9110499898061 -320.072984410196 2919.56945778842 9 14 8
-52.9368705621494 -310.55697881573 2945.22384557131 10 15 9
-85.7701723277602 -317.244444247557 2933.47172747329 7 11 10
204.644862643747 -304.051669447949 2884.02757006551 11 12 7
171.319185025542 -311.802655297396 2868.67051052589 0 1 0
189.109577709101 -302.027390726067 2899.15515014827 14 15 9
212.282702543221 -292.953336061868 2924.3979578498 16 17 9
220.97742355886 -288.211764378944 2939.15231673686 16 17 9
235.43621314281 -281.802337403465 2957.85574079316 17 18 10
245.909554904609 -276.601056528548 2973.61011464606 14 15 7
227.017831023208 -280.011803395476 2968.7844971755 13 14 6
224.455049714379 -278.639732378806 2975.37765119813 15 17 6
216.153277929952 -278.938189949638 2977.99757008856 15 18 11
206.189530134917 -279.710943697134 2979.50380001639 15 18 11
178.042181869606 -285.715397075139 2968.66582489305 15 18 11
164.681112483263 -287.427094031986 2968.01644566611 14 17 10
147.135011944557 -290.320921391389 2964.61236032425 14 17 10
154.471407167416 -286.091408138363 2977.95742018016 13 16 9
165.199509590864 -280.921729619892 2993.46314590248 12 15 8
121.714468603478 -291.145844290613 2972.97299571027 14 17 10
110.7002067535 -292.125955020962 2974.1361395779 17 20 13
75.3266893489095 -299.951492838782 2959.40672464944 17 20 13
-10.6451612666487 -321.913964490156 2911.99099500799 14 17 10
-41.3541776174959 -328.273779977986 2900.9151600492 12 15 8
-49.3670839153335 -328.262287637674 2904.61933009744 11 13 8
-58.2374381664423 -328.484348848059 2907.79256843377 13 15 10
-54.3916549519166 -325.18088461938 2919.0724143012 13 15 10
-65.8144469293842 -326.106722101037 2920.63321306216 12 14 9
-61.9165826519068 -322.809836555787 2931.86265183271 11 16 10
-63.9573516202412 -321.157649759659 2939.31294821232 12 17 11
-90.8194733076635 -326.290365061179 2931.32060954414 11 15 14
115.915026331807 -335.88416131413 2829.47305760068 0 1 0
146.003022956558 -324.483381191095 2860.25860377228 13 15 10
177.070761357166 -312.861676615522 2891.45584649932 17 20 13
210.743689926411 -300.534619900932 2924.21291193416 26 29 22
236.484278251588 -290.655812084054 2951.03831406562 16 17 9
249.351557503251 -284.670654745992 2968.55068179841 14 16 5
237.830995426001 -285.953753428404 2968.8441236035 12 13 5
220.556262436477 -288.924173118971 2965.18222442885 13 14 6
217.158433227597 -287.783113372418 2971.22182740762 14 15 7
212.125825561542 -287.125292071567 2976.12205551464 13 16 9
187.328872161025 -292.248795550705 2967.49452202317 13 16 9
197.109988715045 -287.253129959335 2982.54976627176 13 16 9
169.610363363814 -290.976607438988 2980.65016854402 12 15 8
152.891219150185 -293.66981739469 2977.81249934176 10 13 6
138.618393565657 -295.636968787948 2976.68935423427 9 12 5
119.992192475705 -296.685059656122 2981.17024793187 16 19 12
3.73939706785764 -325.401873436488 2922.31157496919 14 17 10
-21.8782757831062 -330.416352672008 2914.48325213088 8 11 4
-38.2948171737527 -332.799487008063 2912.71617412865 11 14 7
-47.9866535603608 -333.273198662037 2915.32544087721 12 15 8
-64.4867045654563 -335.645156627186 2913.6396372939 12 15 6
-71.6794100661846 -335.399837802297 2917.91168569123 13 16 9
-63.5326398096758 -330.885902463321 2931.82690301682 10 15 8
-92.9214692145326 -336.800911419574 2922.20817932903 10 15 9
-126.699959953664 -343.884709352811 2910.03631630709 9 14 10
109.566831404825 -345.323144753333 2825.83603641112 133 135 134
141.250417651713 -333.309791069793 2857.78075687351 28 30 27
175.537060660655 -320.5827245303 2891.28584499566 26 28 23
213.254640545523 -306.898835803685 2926.91119497691 19 22 15
244.683169214909 -295.202482036762 2957.73879667372 16 17 9
236.410000022124 -295.526570275437 2960.33410096934 16 18 7
228.937654511896 -295.603922269656 2963.51461731838 15 16 8
207.553634503572 -299.833510936246 2957.03418325198 15 16 8
200.846224158941 -299.659160102002 2960.83481542336 14 15 7
178.522082423707 -304.116626967021 2953.90470710983 13 16 9
185.763669610298 -299.794256424654 2967.33018848047 14 17 10
194.71492545436 -294.992738819582 2981.82094450951 14 17 10
183.875592839126 -296.033644678479 2982.81936655456 13 16 9
152.27681412344 -303.141570356236 2969.90349265909 13 16 9
148.817780895138 -301.985748095779 2976.0016902408 10 13 6
128.703154706848 -305.677295353203 2971.01502569617 12 15 8
128.562856716871 -303.550067248787 2979.34207187967 10 13 6
106.682814342836 -307.712908143616 2973.34433006347 13 16 9
3.8272375175521 -332.899481908799 2923.33249136198 12 15 8
-5.77505874444428 -333.398339192437 2925.85655995624 9 12 5
-12.0166523751197 -332.931405617384 2930.56863280301 11 14 5
-27.5756078796556 -335.110075422824 2929.33664888782 12 15 6
-52.5155807354225 -339.925806142861 2922.22289430995 12 15 6
-58.8302672777656 -339.449009387803 2927.00609172483 13 16 7
-66.0007747602349 -339.211589779318 2931.25726466262 10 15 8
-104.79366056805 -347.835822527733 2915.7903140729 10 15 8
-145.449265761554 -356.918787454982 2899.40705314948 19 24 18
117.153194975066 -348.133003174497 2841.38986153781 0 1 0
161.884150066083 -332.038114480802 2882.44734106388 20 22 17
197.137376401745 -318.951185229132 2916.35665726188 22 25 18
237.456610759391 -304.40245970784 2953.52176918673 16 17 9
234.04882389806 -303.249605667538 2959.56917922813 16 18 7
219.229357083099 -305.559741056263 2957.62230266834 16 17 9
208.452535823779 -306.628370474948 2958.56274754291 15 16 8
182.076758069774 -312.38228927326 2948.76236644718 14 15 7
163.816654780302 -315.657557155378 2944.70710165868 14 17 10
178.434192986206 -309.0735033164 2963.22673837049 14 17 10
188.193015797053 -303.977686158454 2978.28898043581 14 17 10
179.820647671319 -304.297878244091 2980.98221488856 13 16 9
126.651711000716 -317.873961641475 2953.5994725974 13 16 9
135.60115716522 -313.02564356253 2968.08544641739 12 15 8
127.120470693225 -313.331253344793 2970.88374948916 17 20 13
136.99744326287 -308.25001955063 2985.83116035421 13 16 9
15.5304562554721 -341.564928044606 2914.40901846408 14 17 10
-2.81196770662895 -342.348157858103 2919.98588024823 10 13 6
6.95568628661558 -337.252097728011 2935.0393169077 9 12 5
0.743113857210265 -336.791505818111 2939.72350856795 10 13 4
-30.0269717153876 -343.38412691899 2928.74272481706 11 14 5
-32.0586865893393 -341.700265383386 2936.17934883444 12 15 6
-38.326919358679 -341.232066914967 2940.91768778902 12 15 6
-67.6161590578692 -347.310207634452 2931.22418085467 10 15 8
-93.5949270024441 -352.40521096246 2923.76633220798 10 15 8
-115.383991130952 -356.278354720608 2919.0523398565 12 17 11
223.135534283143 -318.071356610854 2935.75454046365 8 11 4
239.160517478798 -310.894559069319 2955.62311271183 16 17 9
220.295435848154 -314.491097717909 2950.7988368786 16 17 9
228.283130986228 -309.829381954498 2964.85017626616 15 16 8
208.53391336198 -313.666534146622 2959.52217596146 15 16 8
186.257082791372 -318.242890638395 2952.56265879699 14 15 7
175.400746745143 -319.319275055936 2953.58320921584 14 17 10
181.81033376412 -315.163686611467 2966.44228221366 14 17 10
183.322784198289 -312.507307929982 2975.88407303311 13 16 9
174.938885936205 -312.836529871929 2978.58975384853 13 16 9
163.223367130162 -314.156480231631 2979.0825750711 13 16 9
146.490429122202 -316.960021515109 2976.27491023258 13 16 9
137.91596961082 -315.122214061125 2987.35166677753 17 20 13
96.8075722223984 -325.080554055002 2968.71325877228 18 21 14
-40.1053873199171 -363.168399748574 2887.82823920552 16 19 12
-49.8123792443579 -363.679975279654 2890.45815189169 11 14 7
-8.12681410826244 -349.156504625175 2926.26987197175 8 11 4
-16.0636242185213 -349.186153740594 2929.90455807001 9 12 3
-40.9447314129752 -354.132756650813 2922.75169187282 10 13 4
-40.4558266947275 -351.697529699787 2931.82531768843 11 14 5
-56.9498685001189 -354.174236745539 2930.14902874934 12 15 6
-115.718786307866 -366.455331268601 2910.96990819765 10 15 8
271.926840221197 -312.092785034685 2962.93926860183 18 20 15
263.709092879783 -312.456250410584 2965.48502026144 14 17 10
228.68771581535 -321.172602757726 2949.12067745029 16 17 9
218.749088017552 -322.029163150227 2950.61434943506 15 16 8
214.497688751901 -321.113801735894 2956.11800889551 13 14 6
219.244314007451 -317.422213075716 2967.86284999555 14 15 7
204.369426929715 -319.788589479624 2965.97965681543 14 15 7
182.87680927736 -324.164145785335 2959.62863576824 13 16 9
168.718081832711 -326.264490209518 2958.41153755099 12 15 8
171.849993581457 -323.07955750334 2969.00087792644 12 15 8
165.921291816121 -322.662270526541 2973.40958227108 12 15 8
171.598550395015 -318.731802232202 2985.61223157786 13 16 9
178.158004528602 -314.557219447806 2998.31967696028 13 16 9
163.111988046734 -316.899928877848 2996.60291983982 16 19 12
148.020073786059 -319.236514797131 2994.930496998 20 23 16
129.534519455199 -322.566464516227 2991.10685253601 22 25 18
11.1580875919679 -355.594576818092 2922.24133046184 18 21 14
-26.1785717494227 -364.364401533554 2906.76675321084 12 15 8
-29.1076490797249 -362.900747086783 2913.71010860667 8 11 4
-30.334797066649 -360.940825493248 2921.72423141526 8 11 2
-31.5420860145901 -358.983512346866 2929.71868158993 10 13 4
-41.2148607096592 -359.512374645223 2932.31717103816 11 14 5
-65.3650881535435 -364.256613648481 2925.82553046491 12 15 6
-85.3372993295971 -367.750377574032 2922.08546057748 11 16 9
-107.083256976817 -371.730735783586 2917.34450910195 11 16 9
-155.447586130575 -383.369335572833 2896.240649358 12 17 11
251.641638411686 -323.219390257632 2957.80397717318 19 22 15
223.086442926921 -329.984369340377 2946.06615857516 16 17 9
208.252357453841 -332.388898939781 2944.14774998209 14 15 7
218.657258669793 -326.870701021745 2959.92324610818 12 13 5
234.042033573273 -319.831274366093 2979.03094869373 13 14 6
216.743770324412 -322.998972790408 2975.42123528314 14 15 7
188.709534637176 -329.468826813153 2964.53972370969 12 15 8
168.801148903403 -333.380794177801 2959.38083734051 12 15 8
159.553148656134 -333.980248035545 2961.56795288441 11 14 7
175.10410376928 -326.96169902908 2980.5133839306 11 14 7
174.168884424342 -325.027581993283 2988.24143118457 13 16 9
173.25358654785 -323.0959338528 2995.94972318552 13 16 9
163.194902726967 -323.950640299847 2997.56267640563 16 19 12
169.813535423746 -319.745689411463 3010.20686820748 19 22 15
93.6301971883768 -340.552966648646 2968.48727986266 21 24 17
-5.0685944363309 -365.653352414383 2921.42017573233 11 14 7
-34.0742599463053 -371.993990341955 2911.4842102508 9 12 5
-30.2452458633193 -368.509589131493 2922.75396570685 8 11 2
-17.9068184512001 -362.517702983432 2939.37324945929 9 12 3
-14.8203458553415 -359.298058771819 2950.00258123992 11 14 5
-55.9192635885481 -369.125061833978 2932.75259541547 12 15 6
-57.9690543513087 -367.405663127241 2940.20191667928 11 16 9
-71.9634046173914 -369.192495042768 2940.19249964161 11 16 9
-132.234839756816 -384.476335529693 2911.61291748594 11 16 10
210.689296423275 -345.60274072643 2921.00893315471 22 24 19
226.61837704349 -338.203498299466 2940.93952297909 14 16 11
227.226520536807 -335.729979025021 2949.8894211817 15 16 10
195.315815597357 -343.592432381328 2935.97790418119 14 15 7
198.348810361346 -340.341397469811 2946.65570070769 14 15 7
246.385885326729 -322.916013609911 2988.48423567371 15 16 10
243.868068558327 -321.491703700416 2995.02501835746 14 15 9
201.113177698766 -332.676505694828 2973.95180746161 13 16 9
187.821484125336 -334.584174599305 2973.26250159516 13 16 9
176.142458567938 -335.973060502542 2973.72927312558 12 15 8
166.087499690375 -336.8447642558 2975.34070177435 12 15 8
138.597680503301 -343.095263771416 2965.30306538565 12 15 8
164.194341113843 -332.946055532786 2990.81451548342 13 16 9
129.956352178684 -341.231571668384 2976.44239791082 14 17 10
129.817560149173 -339.022684683059 2984.75587950638 15 18 11
-18.4320510256555 -377.252071561785 2913.73233300484 10 13 6
-39.8834804880033 -381.373285894681 2908.71972916132 10 13 6
-41.1360065191508 -379.382744491117 2916.75452714843 8 11 2
-32.2095461426195 -374.346766317096 2931.23525227358 10 13 4
-33.3986774813204 -372.364393728294 2939.2083057412 11 14 5
-68.5858320468977 -380.524208149843 2925.76014501241 13 16 7
-80.0408583291099 -381.575654434636 2927.37151784074 12 17 10
-75.2903861714618 -377.816942978033 2939.10261819013 12 17 10
-91.0424548466158 -380.129818527777 2938.08257190049 18 23 17
219.657213824495 -349.836424290405 2928.31641120783 23 25 20
231.55834928338 -343.67734028863 2945.34522056443 15 17 12
224.06094796866 -343.798974021475 2948.55716251935 16 17 11
184.821116949997 -354.098106812044 2929.53085667268 14 15 9
196.799970266473 -347.948437083732 2946.48388247332 14 15 9
243.196419632878 -330.868376607506 2987.1588029219 15 16 10
244.768267954581 -328.133509424529 2996.53001019472 13 14 8
233.22943828831 -329.56258230127 2996.86316690792 13 16 9
201.077342936771 -337.480816984912 2983.19959861084 13 16 9
180.351660606886 -341.749455207419 2977.48810632277 12 15 8
162.862081856846 -344.971417881234 2974.07673010738 12 15 8
166.043335672603 -341.711328546073 2984.60596496394 13 16 9
115.244523758213 -355.273054618174 2959.11859754172 13 16 9
146.700874055715 -343.218682927669 2988.44874774006 13 16 9
131.571864331161 -345.646400270834 2986.82696826888 14 17 10
113.886310313099 -348.841875045492 2983.60594564977 15 18 11
-48.6092097656403 -394.084890116653 2895.17412926541 9 12 5
-47.3770226669887 -391.303458719035 2904.87574298325 9 12 5
-64.6950238930137 -394.178971904341 2902.65935414275 8 11 2
-53.2835916888903 -388.319939369975 2918.8018842286 10 13 4
-60.4604957144961 -388.112508140924 2923.06417913967 11 14 5
-74.4478952158962 -389.953671551987 2923.05589006123 12 15 6
-97.8492153311117 -394.604936184252 2917.22374118602 11 16 9
-84.9578431856912 -385.996295122978 2942.82656616089 14 19 13
193.082090925325 -365.645995429674 2910.28116290459 25 27 24
215.445194236419 -355.987236399146 2934.82500558509 15 17 12
214.402725696382 -354.000060300032 2942.65171076884 16 17 11
200.362496889405 -356.234430905437 2941.33675066369 14 15 9
203.406818149198 -352.930808433631 2951.99552739397 14 15 9
218.752862070691 -345.684206563048 2971.11107001089 14 15 9
225.182835054426 -341.342517333032 2983.92239382951 12 13 7
217.704713691049 -341.473392509549 2987.11655638908 13 16 9
203.62945770946 -343.702063106763 2985.83587416939 13 16 9
192.813148562721 -344.876280999453 2986.83113703025 12 15 8
181.143187489049 -346.308842595288 2987.29502480064 12 15 8
168.614040471716 -347.998869928456 2987.23357876199 13 16 9
160.205661488692 -348.377222582395 2989.97083079297 13 16 9
137.622250358557 -353.193115162197 2983.3511559854 13 16 9
151.694053450014 -346.518574805801 3000.98243254783 14 17 10
129.034594465994 -351.324231688179 2994.43676155175 14 17 10
-43.4739933803807 -400.184532918611 2899.478439615 8 11 4
-57.3981333994276 -402.060944274824 2899.41254256634 9 12 5
-12.2396115934862 -385.758059265134 2937.18054378178 9 12 3
-54.0392985155207 -396.201573174567 2919.30030499538 10 13 4
-70.5511863706914 -398.849516729688 2917.66704612884 11 14 5
-82.8605048577145 -400.196477852258 2918.75351139156 12 15 6
-100.736228775812 -400.811617984285 2925.25899886912 11 16 9
-101.99045295032 -398.793206123149 2933.29136389623 11 16 10
179.799288829072 -379.642267890252 2892.94854549781 25 26 28
210.935706237267 -366.938946762051 2923.91772650094 23 25 22
219.575829807026 -361.731301951753 2938.65741605418 14 16 11
218.54291332151 -359.731842626127 2946.47248260907 15 16 10
217.530251385738 -357.734684386518 2954.26811403815 14 15 9
205.120392871547 -359.465801114317 2954.09394790506 14 15 9
200.033410868606 -358.799355999535 2959.04689593648 14 15 9
206.418500065087 -354.414003046295 2971.89633654013 13 14 8
209.573330259535 -351.09712735261 2982.44341744427 13 16 9
214.414111544517 -347.254932992562 2994.07283860053 13 16 9
209.399722735816 -346.597108683934 2998.95497466833 12 15 8
197.769048943532 -348.056012303347 2999.3840807691 12 15 8
170.355475241445 -354.533676221228 2989.30396844415 13 16 9
157.796505527003 -356.243560944567 2989.27507169819 13 16 9
167.692530180511 -350.825055489863 3004.1533771162 13 16 9
61.3373293092452 -379.7793075026 2951.0886935953 15 18 11
-54.3119160874497 -411.244734981441 2893.45417761341 9 12 5
-5.06466956837848 -393.451378196871 2934.02694594144 10 13 6
-18.9064623261177 -395.365178456344 2933.88480290855 9 12 3
-41.2510766031038 -399.89455895116 2928.40256225243 11 14 5
-70.4598368563132 -406.508346080758 2918.708306344 12 15 6
-66.6121863965787 -402.907042868058 2929.94261537956 12 15 6
-85.7331576663265 -406.366610817026 2926.76910684884 10 15 8
-118.165526879847 -411.436035145207 2924.29875193925 8 13 7
237.899419896421 -367.426772048059 2935.47371491905 29 31 30
234.441974377424 -366.223578547121 2941.56299659131 24 26 21
236.660734078558 -363.134089304179 2951.65630763337 18 21 14
238.915100819324 -360.048970956703 2961.71490637515 14 15 9
230.62900126891 -360.466309960151 2964.33683312935 13 14 8
210.095823717329 -364.913773762944 2958.46061109335 14 15 9
199.298762667888 -366.128659468111 2959.44277099398 14 15 9
198.307382136121 -364.120106984599 2967.21524776802 14 15 10
205.549212247488 -359.433280750284 2980.58662151865 13 16 9
206.263885586879 -356.896430290052 2989.42103584571 13 16 9
216.908392737611 -351.152425347111 3004.92522555688 12 15 8
203.641246932612 -353.169627619644 3004.22773237745 12 15 8
170.439021523585 -361.590776931116 2990.26404215389 13 16 9
164.528077476343 -361.190441319048 2994.65761822626 13 16 9
161.112761031944 -359.989918298085 3000.70579764243 13 16 9
64.7716611585447 -386.056770080838 2954.27413264063 15 18 11
-10.9548257624184 -407.688353811803 2913.63996348661 13 16 9
-19.7537088611859 -408.035800075629 2916.76076176827 9 12 5
-20.1418132010289 -405.728599625038 2925.30694564428 9 12 5
-25.5729261132895 -405.014437132375 2930.59456814823 10 13 4
-47.9322736434931 -409.595386023312 2925.13457961677 11 14 5
-97.5167590430246 -422.630261936221 2902.61456558596 12 15 6
-84.7892831337553 -413.773634324094 2928.34348964224 10 15 8
-118.490010910688 -421.751738427113 2916.22658491061 10 15 8
-109.511864649093 -416.539059936284 2930.62986895818 9 14 8
235.331366705997 -372.981900552771 2943.09594106205 14 17 10
229.455485105622 -372.591131853658 2947.45577574993 19 22 13
229.257570933425 -370.295419542392 2955.81513376191 13 16 7
236.405222105055 -365.556769176341 2969.27236900789 12 15 6
219.963484928256 -368.699459024687 2966.22532560707 11 14 7
226.355280907251 -364.23954347679 2979.0574237996 11 14 7
217.23465821031 -364.935829553067 2981.13202547066 13 15 10
199.882929820542 -368.336862977356 2977.61022838843 12 15 8
196.467850992758 -367.131845758607 2983.65716976532 12 15 8
173.258289275585 -372.413421298029 2976.31119016723 11 14 7
168.159644378952 -371.744061153932 2981.27528878443 11 14 7
165.548498759835 -370.265397129241 2987.90037704011 12 15 8
168.766602230229 -366.901758519882 2998.37805294936 12 15 8
161.196548134077 -367.043157424612 3001.66506147402 10 13 6
50.0987277541047 -400.535250441451 2936.97629697211 14 17 10
38.9198277566978 -401.716800455502 2938.33270159209 15 18 11
-21.7676556399637 -418.733940123319 2907.58862373271 10 13 6
-17.9823627947315 -415.06561697162 2918.87461144158 7 10 3
-34.3750085754042 -417.833645849285 2917.14069199057 10 13 6
-38.1499036697779 -416.579595559142 2923.5380270147 9 12 5
-60.537589942546 -421.210397658086 2918.1135475559 10 13 6
-66.8834252512482 -420.75445745972 2922.93042090421 11 14 7
-93.2197026560213 -424.107837902399 2924.07230492491 12 18 8
-102.168204109043 -424.445680501091 2927.34025702659 12 18 8
-117.980375008871 -426.910860145521 2926.40206577121 8 13 7
239.673767784079 -380.947636617606 2938.54395775091 22 24 19
226.528649472912 -383.036449170723 2937.73587343442 12 15 8
216.583729014796 -384.020237595693 2939.25459837153 18 21 12
222.847205330213 -379.506582172819 2952.20617715686 13 16 5
237.300208373703 -372.255310817556 2970.7905852597 12 15 6
238.800260279893 -369.403348627584 2980.21544300158 11 14 7
228.071761033791 -370.664440779932 2981.13634931067 12 15 8
218.955486968469 -371.374497125363 2983.209005808 13 15 10
203.250625260779 -374.2693898847 2980.81085703151 12 15 8
181.73391828211 -379.069875606247 2974.54656142355 12 15 8
179.942811987166 -377.30970148245 2981.73297859792 11 14 7
160.800148797955 -381.277718685924 2977.23924972394 11 14 7
145.737112058122 -383.874931221355 2975.57667157708 11 14 7
151.401089517138 -379.661713719408 2987.75071902283 12 15 8
118.805213225921 -387.963084646188 2974.58445912855 10 13 6
118.638805242186 -385.652827979076 2982.9103813802 16 19 12
3.86612946286746 -420.528086827326 2916.40725880714 15 18 11
1.80501635212726 -418.73136787904 2923.85639543193 10 13 6
-15.3703264653147 -421.812841595814 2921.52912340143 7 10 3
-8.16603029567586 -417.038432410549 2934.92482418916 10 13 6
-40.5925136830305 -424.979941432342 2922.95407652258 9 11 6
-35.0545086408238 -420.749162494082 2935.25062086782 10 13 6
-98.1796698933501 -438.38517067241 2904.18450517296 11 14 7
-91.8462334702723 -433.877520775559 2917.06716230931 12 15 6
-70.1184974495099 -424.528295825627 2939.45386446806 13 19 9
-79.0147307303917 -424.883636890823 2942.67249976785 13 19 9
-164.114428712128 -449.165505972686 2898.98458139068 11 16 9
223.380236829954 -391.203798642306 2936.40144930315 19 22 15
203.713276580792 -395.534347379187 2931.06502784484 11 14 5
221.306331178348 -387.09534321417 2952.02374705829 12 15 6
241.449212366272 -377.838849587287 2974.58102982583 12 15 6
245.404975018553 -374.135849056197 2985.69261319477 12 15 8
206.903304907434 -384.823387978709 2967.40728038728 12 15 8
216.579953432139 -379.183320729255 2982.47102064966 13 15 10
198.406234905703 -382.940656153434 2978.40088604466 12 15 8
189.225746818955 -383.655148176773 2980.53796360578 12 15 8
176.726147477013 -385.469478676159 2980.46521040037 11 14 7
167.500375686909 -386.177659242987 2982.64598467583 11 14 7
133.387840606551 -395.13650628353 2968.24914542655 11 14 7
131.544544980937 -393.358165490944 2975.48470235206 12 15 8
123.88776808149 -393.503934018821 2978.85847373078 12 15 8
81.1605246919251 -405.170740849739 2959.24595791057 15 18 11
34.913157787305 -417.910967482015 2937.61965264279 14 17 10
-9.84587007595117 -430.07852567073 2917.26492103681 10 13 6
9.93651223125935 -421.156137838852 2938.81231805294 8 11 4
-15.6586085983048 -427.00881251093 2931.08548564346 10 13 6
-40.5015643797046 -432.576272343208 2923.98649691106 8 10 5
