ply
format ascii 1.0
comment KinectMotionCapture
element vertex 787
property float x
property float y
property float z
property uchar red
property uchar green
property uchar blue
end_header
131.087243556976 988.547027111053 2591.00008010864 22 18 9
137.890830636024 987.015426158905 2586.99989318848 23 16 8
144.672676920891 985.483825206757 2582.99994468689 23 16 6
151.315301656723 983.188986778259 2576.99990272522 23 15 2
157.986715435982 981.275379657745 2572.00002670288 23 13 1
165.272280573845 983.17676782608 2576.99990272522 30 20 8
172.785326838493 986.222624778748 2585.00003814697 32 22 10
179.785206913948 986.216068267822 2585.00003814697 40 30 18
186.495900154114 984.683156013489 2581.00008964539 54 44 32
192.734986543655 980.861067771912 2571.00009918213 48 40 27
199.541196227074 980.090975761414 2569.00000572205 32 26 14
207.783281803131 986.187696456909 2585.00003814697 24 17 7
216.776520013809 995.336174964905 2608.99996757507 20 16 5
222.553610801697 989.605963230133 2594.00010108948 21 19 7
237.807646393776 1025.07710456848 2687.00003623962 21 19 7
54.1482754051685 986.157953739166 2602.9999256134 26 14 2
61.2928196787834 987.670958042145 2607.00011253357 76 57 43
68.4589669108391 989.18354511261 2611.00006103516 87 59 47
75.7045820355415 991.453647613525 2617.00010299683 110 72 59
82.9509869217873 993.34442615509 2621.99997901917 98 58 46
90.0526791810989 993.340671062469 2621.99997901917 83 49 37
97.1172451972961 992.958009243011 2621.00005149841 91 65 50
104.136541485786 992.195963859558 2618.99995803833 38 29 14
110.97501963377 989.918410778046 2612.99991607666 20 14 0
119.136288762093 999.005854129791 2637.00008392334 21 18 3
124.554209411144 985.362529754639 2601.0000705719 23 16 8
131.446689367294 984.220743179321 2598.00004959106 25 18 10
138.322800397873 983.07877779007 2595.00002861023 31 22 13
144.846454262733 979.66343164444 2585.99996566772 34 24 14
151.614874601364 978.142082691193 2582.00001716614 39 27 13
158.545762300491 977.757096290588 2581.00008964539 33 19 6
166.11248254776 981.160044670105 2589.99991416931 44 31 15
173.326745629311 982.289850711823 2592.99993515015 47 34 18
180.418029427528 982.661724090576 2594.00010108948 56 43 27
187.297806143761 981.896996498108 2592.00000762939 66 54 38
193.791747093201 979.237914085388 2585.00003814697 58 49 34
201.257452368736 981.503367424011 2591.00008010864 39 31 18
209.559306502342 987.556517124176 2607.00011253357 29 21 8
216.950565576553 989.063799381256 2611.00006103516 25 19 7
224.36335682869 990.570902824402 2615.00000953674 25 21 10
235.160872340202 1006.47222995758 2657.00006484985 25 21 10
54.2546696960926 981.031119823456 2608.00004005432 28 16 2
61.389546841383 982.157051563263 2611.00006103516 87 65 52
68.5143917798996 982.906341552734 2612.99991607666 98 69 55
75.8235827088356 985.912501811981 2621.00005149841 111 72 57
82.9862058162689 986.661195755005 2622.99990653992 98 56 42
90.0565758347511 986.281335353851 2621.99997901917 86 53 36
97.0843508839607 985.524773597717 2619.99988555908 95 66 50
104.021713137627 984.015882015228 2615.9999370575 78 61 43
110.767386853695 981.001973152161 2608.00004005432 57 46 28
116.656400263309 971.217155456543 2582.00001716614 31 21 11
124.03267621994 974.221169948578 2589.99991416931 25 15 5
131.24980032444 975.720286369324 2594.00010108948 23 13 3
138.381853699684 976.466834545136 2595.99995613098 31 17 4
144.908457994461 973.07562828064 2586.99989318848 51 35 20
151.855990290642 972.693264484406 2585.99996566772 75 58 40
158.920794725418 973.062813282013 2586.99989318848 66 47 30
166.632309556007 977.193713188171 2598.00004959106 71 53 33
173.667937517166 977.186620235443 2598.00004959106 70 53 35
180.772975087166 977.555572986603 2598.99997711182 67 50 32
187.666490674019 976.795732975006 2596.99988365173 79 63 47
195.148780941963 979.044854640961 2602.9999256134 74 61 44
202.585771679878 980.917632579803 2608.00004005432 81 72 55
210.773125290871 986.175119876862 2621.99997901917 82 73 56
218.620672821999 989.551901817322 2631.00004196167 61 52 37
225.14396905899 986.910581588745 2624.00007247925 34 28 16
233.133852481842 990.66287279129 2634.0000629425 35 31 20
33.7981656193733 995.678246021271 2665.99988937378 23 26 15
54.3819591403008 976.251661777496 2614.00008201599 28 16 4
61.5804307162762 978.116273880005 2618.99995803833 89 67 54
68.7272623181343 978.860199451447 2621.00005149841 102 73 59
76.0005861520767 981.09769821167 2627.00009346008 97 58 43
83.0532237887383 980.347096920013 2625 86 44 28
90.0949463248253 979.596257209778 2622.99990653992 86 51 32
97.0886722207069 978.471517562866 2619.99988555908 92 63 45
104.026317596436 976.973176002502 2615.9999370575 84 65 48
110.772281885147 973.980724811554 2608.00004005432 78 63 44
116.79707467556 965.386033058167 2585.00003814697 33 21 9
124.133877456188 967.994868755341 2592.00000762939 30 18 6
131.407305598259 969.856441020966 2596.99988365173 35 23 9
138.494461774826 970.224022865295 2598.00004959106 54 37 21
145.19476890564 967.977106571198 2592.00000762939 66 47 30
152.038633823395 966.850280761719 2588.99998664856 89 68 47
159.173265099525 967.590391635895 2591.00008010864 89 68 47
166.703432798386 970.570921897888 2598.99997711182 79 58 37
173.742026090622 970.56370973587 2598.99997711182 70 49 30
180.850028991699 970.929622650146 2599.99990463257 60 42 22
188.396856188774 973.535895347595 2607.00011253357 75 58 40
196.5062469244 978.755950927734 2621.00005149841 76 61 42
203.992187976837 980.614840984344 2625.99992752075 78 67 49
211.263865232468 981.353104114532 2628.00002098084 84 73 55
219.460248947144 986.198842525482 2641.00003242493 72 63 46
226.611450314522 986.190021038055 2641.00003242493 53 45 34
234.293550252914 988.421380519867 2647.0000743866 49 42 32
54.5509457588196 972.182214260101 2621.99997901917 25 13 1
61.8184544146061 974.774956703186 2628.99994850159 75 56 42
68.9402595162392 974.771797657013 2628.99994850159 111 85 70
76.1198550462723 975.509941577911 2631.00004196167 91 58 39
83.0887258052826 973.652362823486 2625.99992752075 70 35 15
90.1678130030632 973.277449607849 2625 95 63 42
97.1302166581154 971.790015697479 2621.00005149841 109 78 58
104.110635817051 970.673024654388 2618.00003051758 93 70 52
110.862292349339 967.701733112335 2609.99989509583 93 72 55
117.389790713787 963.247358798981 2598.00004959106 45 29 13
124.283187091351 962.129473686218 2595.00002861023 39 26 9
131.362631917 962.494373321533 2595.99995613098 55 40 21
138.500645756721 963.229656219482 2598.00004959106 91 70 49
145.369276404381 962.111055850983 2595.00002861023 96 74 51
152.338996529579 961.73357963562 2594.00010108948 108 82 59
159.30312871933 961.355745792389 2592.99993515015 106 80 57
166.710719466209 963.573098182678 2598.99997711182 95 68 47
173.950120806694 964.677810668945 2601.99999809265 85 60 40
181.275114417076 966.152906417847 2605.99994659424 72 49 31
189.344361424446 971.335232257843 2619.99988555908 79 58 41
197.264328598976 975.405097007751 2631.00004196167 81 62 45
204.466819763184 975.767135620117 2631.99996948242 72 60 38
211.835384368896 976.870596408844 2634.99999046326 87 74 55
220.05096077919 981.680870056152 2648.00000190735 96 85 67
228.508442640305 987.232446670532 2663.00010681152 79 69 57
237.932100892067 996.490776538849 2687.99996376038 97 89 78
40.3931066393852 966.234922409058 2625 22 19 12
54.7408498823643 968.438804149628 2631.00004196167 22 13 4
61.9155019521713 969.172060489655 2632.99989700317 56 38 24
69.0222531557083 968.800783157349 2631.99996948242 108 85 69
76.1813819408417 969.16526556015 2632.99989700317 95 64 43
83.1243395805359 966.952979564667 2627.00009346008 77 45 24
90.2408286929131 966.948747634888 2627.00009346008 92 60 39
97.1718952059746 965.103685855865 2621.99997901917 110 79 58
104.234874248505 964.730858802795 2621.00005149841 96 71 51
111.037440598011 962.149143218994 2614.00008201599 91 68 52
117.75678396225 959.199011325836 2605.99994659424 42 27 8
124.624252319336 957.720935344696 2601.99999809265 42 27 8
131.672352552414 957.714974880219 2601.99999809265 61 44 24
138.773620128632 958.076655864716 2602.9999256134 96 74 51
145.712107419968 957.333922386169 2601.0000705719 101 77 53
152.639597654343 956.590712070465 2598.99997711182 108 82 57
159.556105732918 955.847322940826 2596.99988365173 108 80 56
166.782379150391 956.943988800049 2599.99990463257 104 76 54
174.225300550461 959.144532680511 2605.99994659424 102 75 54
181.770116090775 961.712837219238 2612.99991607666 94 68 51
189.786344766617 966.489136219025 2625.99992752075 96 73 59
197.647824883461 970.160841941834 2635.99991798401 95 76 59
204.708769917488 969.784021377563 2634.99999046326 83 68 45
211.924865841866 970.142841339111 2635.99991798401 92 77 56
219.727918505669 973.077774047852 2644.00005340576 104 91 72
228.775501251221 981.164813041687 2665.99988937378 94 84 72
54.9100413918495 964.282035827637 2638.99993896484 21 14 6
62.0361678302288 963.913798332214 2638.00001144409 25 9 0
69.0519064664841 962.083458900452 2632.99989700317 102 81 64
76.1562213301659 961.714386940002 2631.99996948242 110 79 58
83.1917375326157 960.614323616028 2628.99994850159 119 87 64
90.3139710426331 960.609912872314 2628.99994850159 76 44 23
97.2878485918045 959.143698215485 2625 97 66 45
104.279741644859 958.042502403259 2621.99997901917 100 73 54
111.170291900635 956.210315227509 2617.00010299683 89 63 46
117.943249642849 953.646838665009 2609.99989509583 52 34 14
124.726064503193 951.448678970337 2604.00009155273 64 46 24
131.77989423275 951.44248008728 2604.00009155273 86 68 46
138.886868953705 951.801240444183 2605.00001907349 99 75 51
145.831048488617 951.063632965088 2602.9999256134 99 73 48
152.881726622581 951.056361198425 2602.9999256134 108 81 54
159.80938076973 950.318276882172 2601.0000705719 116 86 60
167.046755552292 951.406598091125 2604.00009155273 111 83 61
174.433946609497 953.225314617157 2608.99996757507 114 86 65
181.987181305885 955.774366855621 2615.9999370575 109 82 63
189.433619379997 957.592606544495 2621.00005149841 107 81 66
196.906939148903 959.410488605499 2625.99992752075 104 81 63
204.329490661621 960.862815380096 2630.00011444092 96 78 56
211.853891611099 962.679982185364 2634.99999046326 90 73 53
219.155862927437 963.401019573212 2637.00008392334 82 69 53
227.755695581436 969.60186958313 2654.00004386902 60 51 36
55.2249811589718 962.621986865997 2654.00004386902 20 16 5
62.2274875640869 959.717214107513 2645.99990844727 24 6 0
69.1603496670723 956.449568271637 2637.00008392334 63 40 22
76.2179791927338 955.357730388641 2634.0000629425 113 78 58
83.3225399255753 954.990744590759 2632.99989700317 116 78 57
90.4216095805168 954.623699188232 2631.99996948242 103 67 45
97.403958439827 953.168034553528 2628.00002098084 98 63 43
104.364529252052 951.712131500244 2624.00007247925 104 73 55
111.303299665451 950.255870819092 2619.99988555908 92 65 46
118.084713816643 947.711229324341 2612.99991607666 64 42 21
125.067561864853 946.979701519012 2611.00006103516 75 53 30
132.039427757263 946.24787569046 2608.99996757507 90 68 45
139.106974005699 946.241080760956 2608.99996757507 100 76 50
146.006256341934 945.145905017853 2605.99994659424 101 75 50
152.947902679443 944.413185119629 2604.00009155273 109 81 57
159.939974546432 944.042801856995 2602.9999256134 105 77 53
166.926473379135 943.672239780426 2601.99999809265 109 78 57
174.308553338051 945.477306842804 2607.00011253357 114 83 63
181.787103414536 947.644591331482 2612.99991607666 114 85 67
189.225703477859 949.449181556702 2618.00003051758 120 88 73
196.616172790527 950.890600681305 2621.99997901917 110 81 63
203.950449824333 951.969087123871 2625 86 64 43
211.46160364151 953.772723674774 2630.00011444092 82 61 42
218.750238418579 954.487919807434 2631.99996948242 123 107 94
227.594316005707 961.730599403381 2651.99995040894 124 112 100
50.1544773578644 997.606158256531 2770.99990844727 23 21 9
55.7481236755848 964.481890201569 2678.99990081787 27 21 9
62.3248405754566 954.038381576538 2650.00009536743 38 19 4
69.4262608885765 952.954769134521 2647.0000743866 70 45 25
76.5402838587761 952.230930328369 2644.99998092651 107 71 49
83.5484266281128 950.426697731018 2640.00010490417 107 69 48
90.5637443065643 948.981940746307 2635.99991798401 105 67 46
97.5572839379311 947.536945343018 2631.99996948242 101 66 44
104.529030621052 946.091711521149 2628.00002098084 102 74 53
111.394003033638 943.925976753235 2621.99997901917 96 69 50
118.271544575691 942.120015621185 2617.00010299683 69 44 22
125.265553593636 941.393733024597 2615.00000953674 78 53 31
132.248595356941 940.666973590851 2612.99991607666 90 66 42
139.114007353783 939.220070838928 2608.99996757507 104 78 53
146.069660782814 938.492894172668 2607.00011253357 104 78 53
153.014287352562 937.76524066925 2605.00001907349 107 79 55
160.132274031639 938.117325305939 2605.99994659424 108 80 56
167.191341519356 938.109159469604 2605.99994659424 113 82 61
174.45082962513 939.180552959442 2608.99996757507 118 87 66
181.86554312706 940.971493721008 2614.00008201599 119 88 70
189.307123422623 942.762196063995 2618.99995803833 132 101 83
196.475639939308 943.112790584564 2619.99988555908 118 87 69
203.571662306786 943.102955818176 2619.99988555908 84 58 41
210.828334093094 943.812966346741 2621.99997901917 83 60 44
217.929348349571 943.802714347839 2621.99997901917 124 108 95
228.291511535645 957.47047662735 2660.00008583069 147 134 125
55.3765520453453 950.84285736084 2661.00001335144 26 16 4
62.5163689255714 949.767768383026 2657.99999237061 60 39 22
69.6660578250885 949.049353599548 2655.99989891052 104 77 58
76.8337920308113 948.688089847565 2654.99997138977 106 70 48
83.7744548916817 945.825219154358 2647.0000743866 106 68 45
90.7060280442238 943.319261074066 2640.00010490417 109 73 51
97.7107360959053 941.884815692902 2635.99991798401 107 72 50
104.693681001663 940.450191497803 2631.99996948242 102 74 53
111.654818058014 939.01515007019 2628.00002098084 95 70 50
118.458561599255 936.507880687714 2621.00005149841 89 64 44
125.463739037514 935.786664485931 2618.99995803833 91 64 43
132.407337427139 934.707880020142 2615.9999370575 97 71 48
139.387845993042 933.986186981201 2614.00008201599 105 79 54
146.301314234734 932.906806468964 2611.00006103516 106 80 55
153.198391199112 931.827127933502 2608.00004005432 108 80 56
160.324811935425 932.176232337952 2608.99996757507 106 78 54
167.456462979317 932.524979114532 2609.99989509583 106 78 56
174.727112054825 933.588147163391 2612.99991607666 113 85 63
182.013794779778 934.650897979736 2615.9999370575 115 86 68
189.605683088303 937.142372131348 2622.99990653992 141 112 94
196.635350584984 936.7755651474 2621.99997901917 100 73 54
203.581660985947 936.050891876221 2619.99988555908 85 62 44
210.597366094589 935.68342924118 2618.99995803833 95 74 57
217.773616313934 936.030030250549 2619.99988555908 99 83 70
225.298464298248 937.805652618408 2625 136 123 114
48.3860149979591 947.943210601807 2673.00009727478 24 14 4
55.4836802184582 945.457756519318 2665.99988937378 31 19 5
62.6139044761658 944.035887718201 2661.99994087219 91 68 50
69.8010697960854 943.677544593811 2661.00001335144 125 97 76
76.9537761807442 942.964136600494 2658.99991989136 114 78 56
83.8423445820808 939.41342830658 2648.9999294281 116 78 55
90.7453373074532 936.571538448334 2641.00003242493 122 86 64
97.5307300686836 933.020055294037 2631.00004196167 119 87 64
104.580037295818 932.305335998535 2628.99994850159 106 79 58
111.533395946026 930.880904197693 2625 99 74 54
118.555352091789 930.16529083252 2622.99990653992 94 69 49
125.566303730011 929.449439048767 2621.00005149841 101 73 52
132.515668869019 928.378641605377 2618.00003051758 104 76 54
139.555260539055 928.016722202301 2617.00010299683 103 75 51
146.477192640305 926.945209503174 2614.00008201599 104 76 52
153.50016951561 926.582396030426 2612.99991607666 111 83 59
160.640478134155 926.928758621216 2614.00008201599 111 85 60
167.721852660179 926.920115947723 2614.00008201599 105 79 56
175.070524215698 928.329408168793 2618.00003051758 111 85 62
182.301476597786 929.029107093811 2619.99988555908 112 85 66
189.687699079514 930.437982082367 2624.00007247925 125 98 79
196.720331907272 930.073380470276 2622.99990653992 77 50 31
203.747361898422 929.708540439606 2621.99997901917 98 75 57
211.09040081501 930.761754512787 2625 97 76 59
218.532547354698 932.169079780579 2628.99994850159 106 92 81
48.3525544404984 940.049171447754 2671.0000038147 61 43 29
55.6116998195648 940.398097038269 2671.99993133545 97 78 63
62.7350732684135 938.635051250458 2667.00005531311 128 101 82
69.8837041854858 937.575340270996 2664.00003433228 122 91 71
76.8423527479172 934.403717517853 2654.99997138977 128 93 71
83.7520956993103 931.231617927551 2645.99990844727 128 92 68
90.8191576600075 930.170834064484 2642.99988746643 127 95 72
97.7215394377708 927.702069282532 2635.99991798401 124 94 70
104.705207049847 926.288604736328 2631.99996948242 108 84 60
111.624576151371 924.522876739502 2627.00009346008 102 80 57
118.561893701553 923.108637332916 2622.99990653992 105 77 56
125.573232769966 922.398090362549 2621.00005149841 108 77 57
132.472306489944 920.983195304871 2617.00010299683 108 77 56
139.722853899002 922.031342983246 2619.99988555908 104 76 52
146.653264760971 920.967817306519 2617.00010299683 104 76 52
153.625965118408 920.255720615387 2615.00000953674 108 80 56
160.587638616562 919.543206691742 2612.99991607666 102 76 51
167.730808258057 919.886291027069 2614.00008201599 104 80 56
174.946069717407 920.580863952637 2615.9999370575 107 83 59
182.241544127464 921.62698507309 2618.99995803833 110 85 65
189.697653055191 923.376560211182 2624.00007247925 110 85 65
196.95557653904 924.070060253143 2625.99992752075 78 56 35
204.457297921181 925.819098949432 2631.00004196167 59 38 21
212.146684527397 928.271412849426 2638.00001144409 54 35 20
220.705032348633 934.242129325867 2654.99997138977 40 24 11
48.4820827841759 935.30946969986 2677.99997329712 95 73 59
55.6773692369461 934.258759021759 2674.99995231628 131 108 92
62.7151653170586 931.111872196198 2665.99988937378 126 98 77
69.8352679610252 929.711043834686 2661.99994087219 129 97 76
76.759934425354 926.214277744293 2651.99995040894 124 89 67
83.7885737419128 924.463391304016 2647.0000743866 130 96 71
90.8930823206902 923.759758472443 2644.99998092651 125 93 70
97.9495570063591 922.706544399261 2641.99995994568 120 92 68
104.910098016262 920.954644680023 2637.00008392334 107 85 61
111.758388578892 918.503701686859 2630.00011444092 105 83 60
118.704207241535 917.100071907043 2625.99992752075 105 77 56
125.724032521248 916.394710540771 2624.00007247925 106 75 55
132.682234048843 915.339648723602 2621.00005149841 105 74 53
139.78399336338 915.331900119781 2621.00005149841 106 78 54
146.717444062233 914.27618265152 2618.00003051758 107 79 55
153.751969337463 913.918495178223 2617.00010299683 103 77 52
160.780861973763 913.560450077057 2615.9999370575 103 77 52
167.932510375977 913.900673389435 2617.00010299683 107 83 59
175.156205892563 914.589524269104 2618.99995803833 105 81 57
182.460159063339 915.627419948578 2621.99997901917 105 80 60
189.563244581223 915.617287158966 2621.99997901917 97 75 54
197.041124105453 917.352914810181 2627.00009346008 77 54 36
204.701274633408 919.786393642426 2634.0000629425 75 56 41
213.283807039261 926.060795783997 2651.99995040894 54 36 22
222.794905304909 935.826599597931 2680.0000667572 67 51 38
48.5030598938465 928.453147411346 2678.99990081787 138 111 92
55.7014793157578 927.410483360291 2676.00011825562 137 108 90
62.7659261226654 924.634397029877 2667.99998283386 137 105 84
69.9705705046654 924.283802509308 2667.00005531311 128 96 73
76.8802314996719 920.46719789505 2655.99989891052 131 97 72
83.9834362268448 919.422924518585 2653.00011634827 125 93 68
91.1046043038368 918.724596500397 2651.00002288818 117 87 61
98.288968205452 918.718934059143 2651.00002288818 113 86 59
105.23447394371 916.633546352386 2644.99998092651 107 83 59
112.062349915504 913.854956626892 2637.00008392334 103 81 58
118.891902267933 911.422252655029 2630.00011444092 101 79 56
125.779181718826 909.682393074036 2625 101 73 52
132.84170627594 909.32834148407 2624.00007247925 103 75 53
139.898627996445 908.973872661591 2622.99990653992 106 78 54
146.893903613091 908.272564411163 2621.00005149841 106 78 54
153.819411993027 907.224357128143 2618.00003051758 104 78 53
160.789892077446 906.522274017334 2615.9999370575 102 78 52
168.070256710052 907.552659511566 2618.99995803833 105 81 57
175.232827663422 907.889306545258 2619.99988555908 107 83 59
182.609423995018 909.265458583832 2624.00007247925 105 83 62
189.64596092701 908.908605575562 2622.99990653992 68 46 25
197.201877832413 910.976946353912 2628.99994850159 58 35 17
204.790100455284 913.044929504395 2634.99999046326 85 67 55
213.29528093338 918.92409324646 2651.99995040894 108 91 81
223.887577652931 933.118760585785 2693.00007820129 76 62 53
41.7218990623951 931.910753250122 2710.00003814697 190 181 166
48.7051606178284 925.030469894409 2690.00005722046 145 117 96
55.8297410607338 922.276318073273 2681.99992179871 140 109 89
62.934398651123 919.865608215332 2674.99995231628 139 107 84
70.0797289609909 918.486058712006 2671.0000038147 128 96 71
77.0874843001366 915.730595588684 2663.00010681152 129 97 72
84.2100456357002 914.694011211395 2660.00008583069 122 90 65
91.2475064396858 912.969410419464 2654.99997138977 114 84 58
98.3318910002708 911.932170391083 2651.99995040894 109 82 55
105.280511081219 909.862816333771 2645.99990844727 103 79 53
112.238951027393 908.136963844299 2641.00003242493 102 78 54
119.26057189703 907.098531723022 2638.00001144409 100 76 52
126.21782720089 905.715823173523 2634.0000629425 97 70 49
133.406385779381 906.051933765411 2634.99999046326 100 74 51
140.280142426491 904.32471036911 2630.00011444092 104 78 53
147.182658314705 902.940809726715 2625.99992752075 104 78 53
154.063329100609 901.556670665741 2621.99997901917 103 77 52
161.22941672802 901.89129114151 2622.99990653992 103 79 53
168.46489906311 902.569472789764 2625 104 80 56
175.777897238731 903.591096401215 2628.00002098084 108 84 60
182.967722415924 903.924643993378 2628.99994850159 105 80 60
189.945831894875 903.226315975189 2627.00009346008 67 42 22
197.212889790535 903.903007507324 2628.99994850159 62 39 21
204.645991325378 905.267000198364 2632.99989700317 58 40 28
213.548332452774 912.819266319275 2654.99997138977 73 56 46
41.6782796382904 923.598766326904 2707.00001716614 158 147 129
48.7443767488003 918.478190898895 2691.99991226196 152 120 95
55.9164471924305 916.427850723267 2686.00010871887 148 116 93
62.985323369503 913.353443145752 2677.00004577637 137 105 80
70.1364949345589 911.984622478485 2673.00009727478 134 103 75
77.1500989794731 909.250557422638 2664.99996185303 121 90 62
84.246851503849 907.880842685699 2661.00001335144 114 84 58
91.3218110799789 906.510829925537 2657.00006484985 111 81 55
98.3749404549599 905.140221118927 2653.00011634827 107 80 53
105.485841631889 904.451668262482 2651.00002288818 103 75 51
112.543240189552 903.421521186829 2648.00000190735 102 74 52
119.765058159828 903.75554561615 2648.9999294281 100 74 51
126.752510666847 902.383387088776 2644.99998092651 97 70 49
133.870050311089 902.034461498261 2644.00005340576 100 74 51
140.768557786942 900.32035112381 2638.99993896484 104 78 53
147.695824503899 898.94711971283 2634.99999046326 104 78 53
154.542475938797 897.232353687286 2630.00011444092 102 76 51
161.607682704926 896.881818771362 2628.99994850159 102 78 52
168.859794735909 897.554337978363 2631.00004196167 102 78 54
175.988778471947 897.544205188751 2631.00004196167 103 79 55
183.117493987083 897.533714771271 2631.00004196167 104 79 59
190.318271517754 897.863984107971 2631.99996948242 82 57 37
197.899296879768 899.899661540985 2638.00001144409 80 57 39
205.823510885239 903.299272060394 2648.00000190735 99 82 72
215.08863568306 912.156522274017 2674.00002479553 84 70 61
41.5423214435577 913.272023200989 2697.99995422363 149 138 118
48.7474277615547 911.238014698029 2691.99991226196 156 124 99
55.8991245925426 908.865332603455 2684.99994277954 149 117 92
63.0127862095833 906.492114067078 2677.99997329712 131 100 72
70.0621530413628 903.780043125153 2670.00007629395 132 101 73
77.1838426589966 902.421295642853 2665.99988937378 121 90 62
84.2837393283844 901.062309741974 2661.99994087219 113 83 57
91.4993211627007 901.056706905365 2661.99994087219 110 80 54
98.6406058073044 900.373995304108 2660.00008583069 108 78 52
105.850480496883 900.367617607117 2660.00008583069 101 73 49
112.932682037354 899.345338344574 2657.00006484985 101 73 51
120.088890194893 898.999512195587 2655.99989891052 102 74 52
127.191588282585 898.315072059631 2654.00004386902 100 75 53
134.283244609833 897.630035877228 2651.99995040894 100 76 52
141.203835606575 895.929336547852 2647.0000743866 101 77 51
148.15317094326 894.566535949707 2642.99988746643 101 77 51
155.080631375313 893.203437328339 2638.99993896484 99 75 49
162.232086062431 893.193960189819 2638.99993896484 97 73 47
169.383302330971 893.183887004852 2638.99993896484 103 77 54
176.400527358055 892.496705055237 2637.00008392334 98 72 49
183.267444372177 891.132175922394 2632.99989700317 104 77 58
190.474018454552 891.45964384079 2634.0000629425 100 73 54
198.135867714882 893.81730556488 2641.00003242493 93 67 50
206.923648715019 900.912523269653 2661.99994087219 54 40 29
34.1799333691597 904.675126075745 2694.00000572205 182 177 158
41.3755923509598 902.322053909302 2687.00003623962 158 134 108
48.5875569283962 900.97588300705 2683.00008773804 154 123 95
55.7777658104897 899.629235267639 2678.99990081787 145 114 86
62.8991350531578 897.610604763031 2673.00009727478 130 99 71
70.0141116976738 895.927309989929 2667.99998283386 129 98 70
77.217698097229 895.586848258972 2667.00005531311 119 89 61
84.4157189130783 895.245850086212 2665.99988937378 112 82 56
91.7113348841667 895.911812782288 2667.99998283386 109 79 53
98.8693088293076 895.234167575836 2665.99988937378 106 76 50
106.175482273102 895.89935541153 2667.99998283386 99 69 45
113.279782235622 894.884943962097 2664.99996185303 99 69 45
120.458118617535 894.541919231415 2664.00003433228 98 70 48
127.343252301216 892.183542251587 2657.00006484985 98 76 53
134.342193603516 890.832364559174 2653.00011634827 98 76 52
141.265884041786 889.144718647003 2648.00000190735 97 76 49
148.442566394806 889.135777950287 2648.00000190735 98 77 50
155.442729592323 888.119101524353 2644.99998092651 100 76 50
162.549361586571 887.77357339859 2644.00005340576 98 74 48
169.52195763588 886.756122112274 2641.00003242493 102 76 53
176.544949412346 886.073887348175 2638.99993896484 99 73 50
183.348029851913 884.384334087372 2634.0000629425 104 75 57
190.702348947525 885.380387306213 2637.00008392334 103 74 56
198.597773909569 888.726115226746 2647.0000743866 104 78 61
208.101898431778 898.786425590515 2677.00004577637 50 36 25
26.977950707078 900.763034820557 2703.9999961853 196 181 160
34.1060236096382 895.431101322174 2687.99996376038 163 147 124
41.3474775850773 894.429326057434 2684.99994277954 150 124 97
48.5725961625576 893.426954746246 2681.99992179871 137 110 81
55.7605512440205 892.09109544754 2677.99997329712 133 104 74
62.9031956195831 890.421628952026 2673.00009727478 123 94 64
70.0711235404015 889.418005943298 2670.00007629395 115 86 56
77.3095339536667 889.413297176361 2670.00007629395 110 81 51
84.5478251576424 889.407932758331 2670.00007629395 108 78 50
91.8203517794609 889.735400676727 2671.0000038147 107 80 53
99.0981534123421 890.062272548676 2671.99993133545 103 76 49
106.421038508415 890.721917152405 2674.00002479553 98 70 46
113.58454823494 890.048563480377 2671.99993133545 90 64 41
120.737060904503 889.374911785126 2670.00007629395 90 64 41
127.686813473701 887.368440628052 2664.00003433228 94 69 49
134.603843092918 885.36149263382 2657.99999237061 103 76 57
141.594856977463 884.020447731018 2654.00004386902 100 73 52
148.788183927536 884.011268615723 2654.00004386902 96 70 47
155.805021524429 883.002400398254 2651.00002288818 95 69 46
162.80534863472 881.993293762207 2648.00000190735 98 72 49
169.596567749977 879.984438419342 2641.99995994568 98 74 50
176.421970129013 878.308296203613 2637.00008392334 100 76 52
183.428853750229 877.63112783432 2634.99999046326 102 77 55
190.858528017998 878.951847553253 2638.99993896484 109 84 62
198.909878730774 882.936775684357 2651.00002288818 120 101 84
209.902450442314 899.244129657745 2700.00004768372 128 121 113
19.72078345716 896.796822547913 2713.99998664856 208 199 184
26.7502442002296 885.890960693359 2680.99999427795 184 167 147
34.006766974926 885.558545589447 2680.0000667572 167 147 123
41.2732027471066 885.556042194366 2680.0000667572 145 119 92
48.5576838254929 885.883390903473 2680.99999427795 132 105 76
55.7642169296741 884.888648986816 2677.99997329712 126 99 69
62.8837943077087 882.902145385742 2671.99993133545 119 90 60
70.0757205486298 882.237017154694 2670.00007629395 113 84 54
77.2856250405312 881.901681423187 2668.99991035461 111 82 52
84.5849961042404 882.557213306427 2671.0000038147 110 80 52
91.8263345956802 882.551372051239 2671.0000038147 107 80 53
99.1045981645584 882.875561714172 2671.99993133545 104 77 50
106.467738747597 883.860111236572 2674.99995231628 95 69 44
113.719426095486 883.852899074554 2674.99995231628 91 67 43
120.925731956959 883.514821529388 2674.00002479553 90 65 43
127.982601523399 882.185161113739 2670.00007629395 89 62 45
135.118901729584 881.515920162201 2667.99998283386 99 70 52
142.137423157692 880.18536567688 2664.00003433228 104 76 55
149.190112948418 879.18484210968 2661.00001335144 94 66 45
156.285062432289 878.514289855957 2658.99991989136 99 72 51
163.307458162308 877.512991428375 2655.99989891052 95 68 47
170.184955000877 875.8504986763 2651.00002288818 96 71 49
176.901310682297 873.526930809021 2644.00005340576 98 76 53
183.857902884483 872.524440288544 2641.00003242493 102 80 57
191.304251551628 873.834192752838 2644.99998092651 96 75 54
199.672430753708 879.108011722565 2661.00001335144 102 85 67
4.96302312240005 882.288932800293 2691.99991226196 237 237 235
12.2125325724483 878.68320941925 2680.99999427795 233 229 220
19.4750353693962 878.354370594025 2680.0000667572 207 199 188
26.7021469771862 877.041876316071 2676.00011825562 170 154 138
33.9455902576447 876.712083816528 2674.99995231628 158 140 120
41.2297584116459 877.364993095398 2677.00004577637 133 109 83
48.5428161919117 878.345251083374 2680.0000667572 122 97 67
55.8304116129875 878.669381141663 2680.99999427795 116 89 60
62.9350543022156 876.371324062347 2674.00002479553 110 80 52
70.1853632926941 876.366853713989 2674.00002479553 110 81 51
77.3486793041229 875.378608703613 2671.0000038147 112 83 53
84.5589339733124 875.045597553253 2670.00007629395 113 84 54
91.7292609810829 874.384164810181 2667.99998283386 109 79 51
99.0369468927383 875.033318996429 2670.00007629395 106 79 50
106.554344296455 877.320528030396 2677.00004577637 103 77 52
113.896936178207 877.968668937683 2678.99990081787 99 73 48
121.069319546223 877.305626869202 2677.00004577637 96 70 47
128.374442458153 877.625107765198 2677.99997329712 95 68 49
135.735437273979 878.271877765656 2680.0000667572 96 69 50
143.053710460663 878.59046459198 2680.99999427795 98 71 52
150.04076063633 876.942455768585 2676.00011825562 99 74 54
157.000452280045 875.293910503387 2671.0000038147 88 65 47
164.055779576302 874.300479888916 2667.99998283386 83 62 43
171.030402183533 872.978866100311 2664.00003433228 88 70 50
177.916184067726 871.329307556152 2658.99991989136 84 67 49
184.844195842743 870.00697851181 2654.99997138977 76 61 42
192.111894488335 870.322704315186 2655.99989891052 64 51 34
-24.4351252913475 882.197439670563 2713.99998664856 218 220 219
-16.9936046004295 877.973139286041 2700.99997520447 234 238 239
-9.6440389752388 875.698685646057 2694.00000572205 245 249 250
-2.32721259817481 871.47331237793 2680.99999427795 239 243 242
4.93386154994369 869.848012924194 2676.00011825562 237 237 235
12.1723627671599 868.547081947327 2671.99993133545 227 222 216
19.4545593112707 870.171368122101 2677.00004577637 223 214 205
26.6840010881424 869.194626808167 2674.00002479553 155 139 124
33.9352041482925 869.192540645599 2674.00002479553 135 116 101
41.1863476037979 869.189977645874 2674.00002479553 129 105 81
48.509880900383 870.487153530121 2677.99997329712 118 94 66
55.771715939045 870.483577251434 2677.99997329712 114 88 61
62.9393085837364 869.179368019104 2674.00002479553 107 80 51
70.1901018619537 869.174838066101 2674.00002479553 108 81 52
77.4407684803009 869.16983127594 2674.00002479553 111 82 52
84.6279636025429 868.514239788055 2671.99993133545 115 84 55
91.7354077100754 867.208123207092 2667.99998283386 110 80 52
99.0806594491005 868.176758289337 2671.0000038147 109 79 51
106.561452150345 870.120167732239 2677.00004577637 106 79 52
113.947041332722 871.087849140167 2680.0000667572 102 75 48
121.122568845749 870.429873466492 2677.99997329712 99 71 47
128.574684262276 871.721625328064 2681.99992179871 96 69 48
136.200234293938 873.987972736359 2688.99989128113 85 60 40
143.756791949272 875.603854656219 2694.00000572205 83 57 40
150.947719812393 874.944150447845 2691.99991226196 89 66 48
157.951205968857 873.308837413788 2687.00003623962 86 67 50
165.050342679024 872.323274612427 2684.00001525879 85 68 50
172.325551509857 872.312366962433 2684.00001525879 88 72 56
179.801240563393 873.275876045227 2687.00003623962 84 71 55
186.875149607658 872.289001941681 2684.00001525879 80 68 54
194.004848599434 871.626853942871 2681.99992179871 57 48 33
-38.6088900268078 862.643778324127 2676.00011825562 255 255 253
-31.4455330371857 865.22513628006 2684.00001525879 253 253 251
-24.1216700524092 863.615155220032 2678.99990081787 237 239 238
-16.8815199285746 864.906072616577 2683.00008773804 234 238 239
-9.59458295255899 863.939881324768 2680.0000667572 226 230 233
-2.32129637151957 862.006068229675 2674.00002479553 218 222 223
4.92129381746054 860.39412021637 2668.99991035461 215 215 215
12.1504245325923 859.748959541321 2667.00005531311 193 190 185
19.3977560847998 860.392451286316 2668.99991035461 188 181 175
26.6459211707115 860.713243484497 2670.00007629395 194 181 172
33.9248515665531 861.678302288055 2673.00009727478 157 143 132
41.1891788244247 861.998021602631 2674.00002479553 117 96 75
48.4950952231884 862.962067127228 2677.00004577637 112 90 66
55.7130537927151 862.313628196716 2674.99995231628 110 88 64
62.9200786352158 861.664831638336 2673.00009727478 108 82 55
70.2211409807205 862.304985523224 2674.99995231628 111 84 55
77.475018799305 862.299919128418 2674.99995231628 109 79 51
84.6337229013443 861.327290534973 2671.99993133545 113 82 53
91.7760282754898 860.35418510437 2668.99991035461 114 83 54
99.1615876555443 861.637115478516 2673.00009727478 112 81 52
106.648273766041 863.564133644104 2678.99990081787 106 76 48
114.03975635767 864.523649215698 2681.99992179871 104 74 46
121.402099728584 865.160346031189 2684.00001525879 101 74 47
128.823012113571 866.118907928467 2687.00003623962 88 61 40
136.462613940239 868.366301059723 2694.00000572205 83 58 38
144.24666762352 871.257901191711 2703.00006866455 87 64 46
152.135342359543 874.471306800842 2713.00005912781 89 68 51
159.548923373222 874.783217906952 2713.99998664856 86 67 50
166.783139109612 874.127745628357 2711.99989318848 69 56 40
174.13467168808 874.11642074585 2711.99989318848 81 69 53
182.48975276947 878.93944978714 2726.99999809265 72 64 51
-60.0228533148766 850.321114063263 2660.00008583069 223 225 222
-52.5110960006714 845.529973506927 2644.99998092651 241 243 240
-45.4234331846237 847.131729125977 2650.00009536743 250 252 249
-38.2652841508389 847.773969173431 2651.99995040894 242 242 240
-31.0845002532005 848.096072673798 2653.00011634827 248 248 246
-23.9342581480742 849.696397781372 2657.99999237061 243 245 244
-16.7631413787603 851.615846157074 2664.00003433228 234 238 239
-9.53796785324812 851.61679983139 2664.00003433228 218 222 225
-2.31624953448772 852.89591550827 2667.99998283386 211 215 216
4.9142618663609 851.936817169189 2664.99996185303 205 205 207
12.1376039460301 851.616501808167 2664.00003433228 191 187 184
19.3555001169443 851.29576921463 2663.00010681152 186 181 177
26.607858017087 852.253139019012 2665.99988937378 188 178 169
33.8891334831715 853.529751300812 2670.00007629395 177 164 155
41.1458350718021 853.846728801727 2671.0000038147 111 92 75
48.4078787267208 854.163289070129 2671.99993133545 109 89 65
55.591955780983 853.200614452362 2668.99991035461 109 87 63
62.8773644566536 853.835821151733 2671.0000038147 108 84 58
70.1997578144073 854.790151119232 2674.00002479553 112 86 59
77.3934796452522 854.145765304565 2671.99993133545 109 79 51
84.6078917384148 853.820502758026 2671.0000038147 111 81 53
91.8167307972908 853.494644165039 2670.00007629395 115 84 55
99.2796868085861 855.406045913696 2676.00011825562 112 81 52
106.735207140446 856.997191905975 2680.99999427795 105 74 46
114.175125956535 858.268201351166 2684.99994277954 103 73 45
121.727012097836 860.177993774414 2690.99998474121 104 74 48
129.167392849922 861.128330230713 2694.00000572205 94 70 46
137.079745531082 864.955008029938 2706.00008964539 94 69 47
145.110309123993 869.10080909729 2719.00010108948 88 70 50
-81.3012942671776 839.347422122955 2648.00000190735 228 233 229
-74.0077868103981 838.084995746613 2644.00005340576 252 255 253
-66.5083229541779 833.969235420227 2631.00004196167 254 255 253
-59.1695308685303 831.120848655701 2621.99997901917 231 233 230
-52.0581379532814 831.124782562256 2621.99997901917 236 238 235
-45.1352186501026 834.614992141724 2632.99989700317 230 232 229
-38.0082502961159 834.935009479523 2634.0000629425 226 226 224
-30.9460833668709 837.156236171722 2641.00003242493 224 224 222
-23.8008666783571 837.792158126831 2642.99988746643 210 212 211
-16.6888106614351 840.646505355835 2651.99995040894 219 223 224
-9.50283650308847 841.281414031982 2654.00004386902 215 219 220
-2.31033563613892 843.500792980194 2661.00001335144 210 214 215
4.90723270922899 843.50061416626 2661.00001335144 198 198 200
12.1202357113361 843.183100223541 2660.00008583069 184 180 179
19.3277914077044 842.86493062973 2658.99991989136 173 168 165
26.5698134899139 843.814313411713 2661.99994087219 169 160 155
33.8153652846813 844.446122646332 2664.00003433228 176 165 159
41.0717092454433 845.077395439148 2665.99988937378 115 98 82
48.3207069337368 845.391273498535 2667.00005531311 102 84 64
55.6166991591454 846.338450908661 2670.00007629395 116 95 74
62.9053190350533 846.968173980713 2671.99993133545 109 87 64
70.2834501862526 848.548531532288 2677.00004577637 102 78 54
77.4568319320679 847.592353820801 2674.00002479553 111 84 57
84.6454799175262 846.952617168427 2671.99993133545 110 80 52
91.8231382966042 846.312522888184 2670.00007629395 117 86 58
99.2494896054268 847.890615463257 2674.99995231628 115 84 56
106.74262046814 849.785268306732 2680.99999427795 114 83 55
114.268071949482 851.67932510376 2687.00003623962 111 80 52
121.916368603706 854.206800460815 2694.9999332428 106 76 50
129.463970661163 855.782926082611 2700.00004768372 84 60 36
137.494415044785 860.211074352264 2713.99998664856 103 78 56
146.080911159515 867.491245269775 2736.99998855591 98 77 56
-87.8874361515045 826.561152935028 2630.00011444092 207 212 208
-80.5701240897179 824.681401252747 2624.00007247925 216 221 217
-73.3971819281578 824.05823469162 2621.99997901917 247 249 246
-66.2096738815308 823.120415210724 2618.99995803833 243 245 242
-58.9480549097061 820.924818515778 2611.99998855591 232 234 231
-51.8434345722198 820.614516735077 2611.00006103516 229 231 228
-44.915571808815 823.446571826935 2619.99988555908 204 206 203
-37.8522165119648 824.392437934875 2622.99990653992 206 207 202
-30.8193936944008 826.595008373261 2630.00011444092 205 206 201
-23.7215161323547 827.854156494141 2634.0000629425 201 203 200
-16.6333615779877 830.684244632721 2642.99988746643 195 197 196
-9.47128888219595 831.313788890839 2644.99998092651 189 191 190
-2.30268645100296 833.514273166656 2651.99995040894 191 193 192
4.8891413025558 833.199918270111 2651.00002288818 189 189 189
12.1165448799729 835.713684558868 2658.99991989136 184 183 181
19.3364433944225 836.026847362518 2660.00008583069 178 174 173
26.5717096626759 836.653828620911 2661.99994087219 163 158 155
33.7543077766895 835.708677768707 2658.99991989136 159 154 150
40.9821979701519 836.020350456238 2660.00008583069 179 169 157
48.251673579216 836.960077285767 2663.00010681152 162 150 134
55.6206554174423 839.156329631805 2670.00007629395 103 87 71
62.9804208874702 840.72345495224 2674.99995231628 118 101 83
70.3146904706955 841.661691665649 2677.99997329712 106 88 68
77.491283416748 840.713500976563 2674.99995231628 113 89 65
84.6514627337456 839.764893054962 2671.99993133545 112 84 60
91.8983966112137 839.758634567261 2671.99993133545 114 84 58
99.2564782500267 840.694665908813 2674.99995231628 114 84 58
106.82974755764 843.201696872711 2683.00008773804 119 88 60
114.361144602299 845.079481601715 2688.99989128113 117 86 58
122.060604393482 847.899615764618 2697.99995422363 113 83 55
129.568889737129 849.147796630859 2701.99990272522 98 74 50
137.706622481346 854.166686534882 2717.99993515015 110 85 63
146.30451798439 861.384868621826 2740.9999370575 107 86 67
-95.4968258738518 823.53001832962 2642.99988746643 205 210 206
-87.6597613096237 817.304790019989 2622.99990653992 198 203 199
-80.2995190024376 814.81808423996 2615.00000953674 191 196 192
-73.2064768671989 814.823567867279 2615.00000953674 201 203 200
-66.0880208015442 814.516961574554 2614.00008201599 225 227 224
-58.9748620986938 814.209938049316 2612.99991607666 220 222 219
-51.8471635878086 813.590824604034 2611.00006103516 195 197 194
-44.8673777282238 815.463840961456 2617.00010299683 195 197 194
-37.7827882766724 815.778493881226 2618.00003051758 189 190 185
-30.7395793497562 817.338943481445 2622.99990653992 189 190 185
-23.6691888421774 818.898975849152 2628.00002098084 194 196 193
-16.6030954569578 822.016417980194 2638.00001144409 193 195 192
-9.45406779646873 822.640717029572 2640.00010490417 184 186 185
-2.29503773152828 823.575854301453 2642.99988746643 186 188 187
4.87842783331871 824.198961257935 2644.99998092651 182 184 183
12.0946355164051 827.002882957459 2654.00004386902 180 180 178
19.3160306662321 827.93653011322 2657.00006484985 177 176 174
26.5336968004704 828.246414661407 2657.99999237061 164 160 157
33.718653023243 827.621042728424 2655.99989891052 159 154 151
40.9389287233353 827.93003320694 2657.00006484985 162 153 144
48.2189022004604 829.173147678375 2661.00001335144 176 166 154
55.5829852819443 831.350564956665 2667.99998283386 102 89 73
62.9849508404732 833.527505397797 2674.99995231628 103 87 71
70.2934712171555 834.145843982697 2677.00004577637 115 98 80
77.554777264595 834.140539169312 2677.00004577637 115 93 70
84.7208723425865 833.199918270111 2674.00002479553 112 86 63
92.0425429940224 833.816826343536 2676.00011825562 111 83 59
99.3006527423859 833.810031414032 2676.00011825562 114 84 58
106.877140700817 836.295306682587 2684.00001525879 121 90 62
114.49683457613 838.780105113983 2691.99991226196 120 89 61
122.114464640617 840.952694416046 2698.99988174438 117 87 61
129.57800924778 841.878592967987 2701.99990272522 99 73 50
137.361615896225 844.673275947571 2710.99996566772 127 102 80
146.208018064499 853.387296199799 2739.00008201599 132 115 99
-102.983474731445 818.883419036865 2651.00002288818 201 206 202
-95.1423570513725 813.330352306366 2632.99989700317 218 223 219
-87.5658169388771 809.321343898773 2619.99988555908 215 217 214
-80.1824778318405 806.547224521637 2611.00006103516 202 204 201
-73.0717927217484 806.24395608902 2609.99989509583 183 185 182
-65.9663900732994 805.9401512146 2608.99996757507 170 172 169
-58.9114278554916 806.253552436829 2609.99989509583 169 169 167
-51.7913587391377 805.639803409576 2608.00004005432 175 175 173
-44.8020547628403 807.187914848328 2612.99991607666 155 156 151
-37.7278067171574 807.499825954437 2614.00008201599 165 168 161
-30.7066608220339 809.355854988098 2619.99988555908 161 164 157
-23.6258786171675 810.284435749054 2622.99990653992 156 159 152
-16.5728367865086 813.375174999237 2632.99989700317 165 167 162
-9.44401510059834 814.611852169037 2637.00008392334 179 181 178
-2.2934686858207 815.847873687744 2641.00003242493 178 180 177
4.86956164240837 815.538883209229 2640.00010490417 177 179 176
12.0727308094501 818.318545818329 2648.9999294281 176 176 174
19.2665476351976 818.626344203949 2650.00009536743 173 173 171
26.5056807547808 820.169150829315 2654.99997138977 166 165 163
33.6830317974091 819.549202919006 2653.00011634827 163 159 158
40.9110896289349 820.164322853088 2654.99997138977 152 147 141
48.1680445373058 821.087718009949 2657.99999237061 152 148 139
55.5453561246395 823.555171489716 2665.99988937378 173 165 154
62.9424229264259 825.713276863098 2673.00009727478 143 131 117
70.246048271656 826.326131820679 2674.99995231628 101 88 72
77.5024369359016 826.320767402649 2674.99995231628 111 93 73
84.7903788089752 826.623857021332 2676.00011825562 116 94 73
92.1867713332176 827.853143215179 2680.0000667572 115 89 66
99.5304509997368 828.463852405548 2681.99992179871 118 90 66
107.123747467995 830.927610397339 2690.00005722046 124 94 68
114.802770316601 833.699643611908 2698.99988174438 129 97 72
122.439928352833 835.853397846222 2706.00008964539 132 102 76
129.731103777885 835.5353474617 2704.99992370605 143 117 94
137.320697307587 837.070286273956 2710.00003814697 144 119 97
145.684510469437 842.929005622864 2729.00009155273 159 142 126
154.880344867706 852.802336215973 2760.99991798401 178 164 151
163.249745965004 857.424259185791 2776.00002288818 218 209 200
172.253862023354 864.825248718262 2799.99995231628 250 247 242
-102.291636168957 806.239008903503 2632.99989700317 211 216 212
-94.8240458965302 803.490400314331 2624.00007247925 223 225 222
-87.4385014176369 801.047384738922 2615.9999370575 206 208 205
-80.0962075591087 798.603892326355 2608.00004005432 190 192 189
-72.9371458292007 797.690749168396 2605.00001907349 181 183 180
-65.870076417923 797.695875167847 2605.00001907349 164 166 163
-58.8931776583195 798.925399780273 2608.99996757507 156 156 154
-51.7951622605324 798.623263835907 2608.00004005432 169 169 167
-44.7710528969765 799.545407295227 2611.00006103516 153 154 149
-37.6728475093842 799.242258071899 2609.99989509583 157 160 153
-30.6503176689148 800.77588558197 2615.00000953674 153 156 147
-23.5735736787319 801.390290260315 2617.00010299683 148 151 142
-16.5237002074718 803.841650485992 2625 155 158 151
-9.42322053015232 805.679976940155 2631.00004196167 175 177 172
-2.2910323459655 807.824015617371 2638.00001144409 172 174 169
4.86623169854283 807.823896408081 2638.00001144409 174 176 173
12.0462737977505 809.354305267334 2642.99988746643 173 173 171
19.2243419587612 809.659481048584 2644.00005340576 172 172 170
26.4577157795429 811.495125293732 2650.00009536743 167 167 165
33.6855091154575 812.411546707153 2653.00011634827 163 162 160
40.8986918628216 812.71505355835 2654.00004386902 157 154 149
48.1534637510777 813.630521297455 2657.00006484985 147 143 134
55.4660893976688 815.15771150589 2661.99994087219 155 146 137
62.8292933106422 816.990673542023 2667.99998283386 169 157 145
70.1723992824554 818.210542201996 2671.99993133545 144 130 117
77.421173453331 818.205177783966 2671.99993133545 124 105 88
84.7965553402901 819.424152374268 2676.00011825562 121 99 78
92.1590700745583 820.336163043976 2678.99990081787 122 96 73
99.6490120887756 822.166442871094 2684.99994277954 124 96 72
107.25099593401 824.608683586121 2693.00007820129 128 98 74
114.981226623058 827.662587165833 2703.00006866455 134 104 80
122.62973934412 829.797327518463 2710.00003814697 141 111 87
129.932284355164 829.482018947601 2709.00011062622 140 114 91
137.330532073975 829.778492450714 2710.00003814697 158 133 111
