ply
format ascii 1.0
comment KinectMotionCapture
element vertex 760
property float x
property float y
property float z
property uchar red
property uchar green
property uchar blue
end_header
280.230224132538 947.424709796906 3068.00007820129 240 240 240
288.544833660126 947.405755519867 3068.00007820129 240 240 240
296.471983194351 946.151256561279 3063.99989128113 243 243 243
304.874330759048 946.44033908844 3065.00005722046 223 223 223
313.383758068085 947.037696838379 3066.99991226196 220 220 220
322.323113679886 948.86988401413 3072.99995422363 204 204 204
331.07927441597 950.083911418915 3076.99990272522 217 217 217
339.636027812958 950.680077075958 3078.9999961853 196 196 194
348.316043615341 951.584577560425 3082.00001716614 188 190 187
357.243269681931 953.106105327606 3086.99989318848 187 189 186
366.315543651581 954.935967922211 3092.99993515015 155 157 154
375.298678874969 956.4568400383 3098.00004959106 148 150 147
383.936703205109 957.050859928131 3099.99990463257 154 156 153
393.597602844238 960.114538669586 3109.99989509583 150 152 149
402.665704488754 961.634159088135 3115.00000953674 166 171 167
-86.8368670344353 795.535624027252 2598.00004959106 207 209 206
-79.236276447773 790.029883384705 2579.99992370605 207 209 206
-71.9851851463318 787.279427051544 2571.00009918213 189 191 188
-64.8586377501488 785.447180271149 2565.00005722046 203 205 202
-57.6742365956306 782.389581203461 2555.0000667572 190 192 189
-50.6432726979256 780.862390995026 2549.99995231628 179 181 178
-43.6736382544041 779.9471616745 2546.99993133545 152 154 149
-36.7635041475296 779.950201511383 2546.99993133545 163 165 160
-29.8532918095589 779.952645301819 2546.99993133545 151 152 147
-22.9520313441753 780.260801315308 2548.00009727478 158 159 154
-16.0704795271158 781.793415546417 2552.99997329712 181 182 177
-9.15101822465658 782.406806945801 2555.0000667572 180 179 177
-2.22589680925012 784.857034683228 2562.99996376038 174 173 171
4.74263913929462 787.306785583496 2571.00009918213 187 186 184
11.7864795029163 791.899442672729 2585.99996566772 187 186 182
18.8971497118473 795.879304409027 2598.99997711182 185 186 181
26.0583516210318 799.246072769165 2609.99989509583 183 184 178
33.2030169665813 800.775051116943 2615.00000953674 182 183 177
40.3901524841785 802.609741687775 2621.00005149841 178 180 179
47.5916415452957 804.137587547302 2625.99992752075 170 172 171
54.8410005867481 805.971086025238 2631.99996948242 182 177 171
62.122818082571 807.804107666016 2638.00001144409 176 167 158
69.5946365594864 811.473846435547 2650.00009536743 187 173 160
77.2183537483215 816.061675548553 2664.99996185303 151 130 113
84.7014933824539 818.505525588989 2673.00009727478 152 129 111
91.9870659708977 818.805158138275 2674.00002479553 139 116 98
99.4634479284287 820.635437965393 2680.0000667572 115 92 74
107.410296797752 825.833439826965 2697.00002670288 121 99 85
116.384997963905 837.76718378067 2736.00006103516 131 113 99
125.209033489227 847.250580787659 2766.99995994568 182 168 157
133.625447750092 853.058993816376 2786.00001335144 243 234 227
142.246037721634 859.479010105133 2806.99992179871 249 248 244
151.300609111786 867.735683917999 2834.00011062622 244 243 239
160.27694940567 874.766826629639 2857.00011253357 251 251 251
255.300939083099 939.221858978271 3068.00007820129 252 252 252
263.187795877457 937.673509120941 3062.99996376038 249 249 249
271.490275859833 937.65527009964 3062.99996376038 222 222 222
279.883593320847 937.942743301392 3063.99989128113 247 247 247
288.187831640244 937.923610210419 3063.99989128113 237 237 237
296.00778222084 936.373591423035 3059.00001525879 231 231 231
304.595947265625 937.272012233734 3062.00003623962 206 206 206
312.89330124855 937.251627445221 3062.00003623962 218 218 218
322.134226560593 939.985692501068 3071.00009918213 204 204 204
330.670177936554 940.576553344727 3072.99995422363 198 198 198
339.326798915863 941.473126411438 3075.99997520447 178 178 176
347.773045301437 941.757082939148 3076.99990272522 183 185 182
356.80291056633 943.571150302887 3082.99994468689 185 187 184
366.456896066666 946.914851665497 3094.00010108948 141 143 140
375.443041324615 948.421776294708 3098.99997711182 165 167 164
384.827315807343 950.846552848816 3107.00011253357 168 170 167
394.254416227341 953.270733356476 3115.00000953674 181 183 180
-94.8309972882271 796.429991722107 2624.00007247925 207 209 206
-86.1412808299065 782.171308994293 2576.99990272522 204 205 200
-79.1192576289177 781.873941421509 2575.99997520447 209 210 205
-71.9624906778336 780.058324337006 2569.9999332428 204 205 200
-64.8381412029266 778.242170810699 2563.99989128113 189 190 185
-57.655930519104 775.211572647095 2553.99990081787 183 182 178
-50.6470315158367 774.001479148865 2549.99995231628 174 173 168
-43.6940342187881 773.397982120514 2548.00009727478 163 162 157
-36.7662347853184 773.097455501556 2546.99993133545 158 157 152
-29.867235571146 773.403465747833 2548.00009727478 153 152 147
-22.9717548936605 774.012386798859 2549.99995231628 154 153 148
-16.0716734826565 774.924516677856 2552.99997329712 154 153 148
-9.14811622351408 775.228917598724 2553.99990081787 171 170 165
-2.22345674410462 777.050614356995 2559.99994277954 167 168 163
4.73561231046915 779.175281524658 2566.99991226196 179 180 175
11.7508908733726 782.513499259949 2578.00006866455 188 189 184
18.8331119716167 786.154806613922 2589.99991416931 174 175 170
25.9604435414076 789.18844461441 2599.99990463257 191 192 187
33.1292971968651 791.918098926544 2608.99996757507 183 184 179
40.2852706611156 793.433010578156 2614.00008201599 181 182 177
47.486424446106 795.250952243805 2619.99988555908 180 181 176
54.7200366854668 797.068297863007 2625.99992752075 180 179 174
61.9861036539078 798.885107040405 2631.99996948242 183 178 172
69.3634003400803 801.612079143524 2641.00003242493 183 174 167
76.7604112625122 804.034769535065 2648.9999294281 182 172 163
84.3591392040253 807.974636554718 2661.99994087219 176 163 154
91.8562188744545 810.396313667297 2670.00007629395 163 147 134
99.5078608393669 813.727915287018 2680.99999427795 165 147 133
107.33850300312 817.969560623169 2694.9999332428 146 127 112
115.75535684824 825.852572917938 2720.99995613098 157 138 124
124.26782399416 833.431601524353 2746.00005149841 147 130 120
132.483959197998 838.278293609619 2762.00008392334 239 232 226
141.090720891953 844.94537115097 2783.99991989136 255 252 248
150.030121207237 852.82576084137 2809.99994277954 251 247 244
158.717557787895 858.581006526947 2828.9999961853 247 247 247
167.978286743164 866.763532161713 2855.99994659424 241 242 244
178.185015916824 878.890573978424 2895.99990844727 240 241 243
188.287153840065 889.499247074127 2930.99999427795 242 246 247
225.48446059227 911.29058599472 3003.00002098084 253 252 248
235.338062047958 917.950510978699 3025.00009536743 251 250 246
245.391011238098 924.913048744202 3048.00009727478 255 255 255
254.236698150635 927.019894123077 3055.0000667572 255 255 255
262.690216302872 927.608788013458 3056.99992179871 251 251 251
271.154195070267 928.197383880615 3059.00001525879 229 229 229
279.537171125412 928.481996059418 3059.99994277954 242 242 242
287.736922502518 928.159356117249 3059.00001525879 247 247 247
295.83403468132 927.53279209137 3056.99992179871 230 230 230
304.516762495041 928.726434707642 3061.00010871887 192 192 192
313.322752714157 930.222690105438 3065.99998474121 214 214 214
322.050511837006 931.415319442749 3069.9999332428 201 201 201
330.368906259537 931.393802165985 3069.9999332428 188 188 188
339.238464832306 932.888865470886 3075.00004768372 172 174 171
348.021447658539 934.080064296722 3078.9999961853 182 184 181
357.520073652267 937.091052532196 3088.99998664856 183 185 182
366.716980934143 939.191401004791 3095.99995613098 135 137 134
375.830084085464 940.988004207611 3101.99999809265 172 174 171
384.603530168533 941.874206066132 3105.00001907349 188 190 187
-93.5007333755493 778.238415718079 2586.99989318848 208 210 207
-86.147665977478 775.236845016479 2576.99990272522 206 207 202
-78.9715573191643 773.438096046448 2571.00009918213 209 210 205
-71.8278363347054 771.638751029968 2565.00005722046 202 203 198
-64.7418200969696 770.139694213867 2559.99994277954 189 188 184
-57.6602295041084 768.339157104492 2553.99990081787 181 180 175
-50.65081641078 767.139911651611 2549.99995231628 173 172 167
-43.6801500618458 766.240954399109 2546.99993133545 165 162 157
-36.7401167750359 765.642285346985 2545.00007629395 155 154 149
-29.8577509820461 766.246497631073 2546.99993133545 152 151 146
-22.9734797030687 767.15099811554 2549.99995231628 154 153 148
-16.0539951175451 767.152428627014 2549.99995231628 151 150 145
-9.13447421044111 767.153382301331 2549.99995231628 164 163 158
-2.21928092651069 768.658101558685 2555.0000667572 167 168 163
4.73043322563171 771.365523338318 2563.99989128113 175 176 171
11.7289805784822 774.072527885437 2572.99995422363 186 187 182
18.7763515859842 776.778995990753 2582.00001716614 169 170 165
25.8725229650736 779.484927654266 2591.00008010864 185 186 181
33.0428816378117 782.791912555695 2601.99999809265 184 185 180
40.1649884879589 783.99258852005 2605.99994659424 182 181 176
47.3087131977081 785.192549228668 2609.99989509583 182 181 176
54.557416588068 787.595510482788 2618.00003051758 181 180 175
61.8494190275669 789.99787569046 2625.99992752075 183 180 175
69.2109689116478 792.700469493866 2634.99999046326 181 176 172
76.5053182840347 794.199168682098 2640.00010490417 180 175 169
84.0167924761772 797.502398490906 2651.00002288818 190 181 174
91.6910022497177 801.70750617981 2664.99996185303 157 144 135
99.5523408055305 806.81437253952 2681.99992179871 158 144 133
107.266768813133 810.115814208984 2693.00007820129 158 139 124
115.253359079361 814.920663833618 2709.00011062622 158 139 124
123.417057096958 820.326626300812 2726.99999809265 171 152 137
131.774112582207 826.333522796631 2746.99997901917 176 163 154
140.290096402168 832.640528678894 2767.99988746643 228 215 207
149.133339524269 840.150117874146 2792.99998283386 245 236 231
157.88745880127 846.455752849579 2813.99989128113 246 242 241
167.049318552017 854.264795780182 2839.99991416931 249 249 249
177.213340997696 866.284132003784 2880.00011444092 238 239 241
187.015786767006 875.595390796661 2911.00001335144 229 233 236
196.18259370327 881.296575069427 2930.0000667572 236 240 243
205.521687865257 887.297749519348 2950.00004768372 234 238 239
214.389875531197 890.892148017883 2961.99989318848 244 246 245
223.84837269783 896.591246128082 2980.99994659424 240 240 238
232.864871621132 900.184214115143 2993.00003051758 244 244 244
242.50964820385 905.882060527802 3012.00008392334 249 249 249
252.340197563171 911.879658699036 3032.00006484985 249 249 249
261.934995651245 916.673839092255 3048.00009727478 254 254 254
270.995587110519 919.362008571625 3056.99992179871 249 249 249
279.282212257385 919.342935085297 3056.99992179871 236 236 236
287.662476301193 919.624328613281 3058.00008773804 233 233 231
295.854061841965 919.303596019745 3056.99992179871 224 224 222
304.537206888199 920.486211776733 3061.00010871887 143 143 141
313.241511583328 921.668291091919 3065.00005722046 164 164 162
322.071850299835 923.150479793549 3069.9999332428 183 183 181
330.390691757202 923.12890291214 3069.9999332428 177 179 176
339.701950550079 925.812840461731 3078.9999961853 170 175 171
348.948359489441 928.195774555206 3086.99989318848 177 182 178
358.584880828857 931.480288505554 3098.00004959106 166 171 167
367.332726716995 932.358741760254 3101.0000705719 165 170 166
375.126957893372 930.831670761108 3095.99995613098 192 197 193
-93.3992937207222 770.382225513458 2584.00011062622 204 206 203
-86.0872566699982 767.705678939819 2575.00004768372 207 208 203
-78.9467543363571 766.221106052399 2569.9999332428 201 202 197
-71.6932043433189 763.245463371277 2559.99994277954 193 194 189
-64.6961107850075 762.654304504395 2558.00008773804 180 179 175
-57.6419979333878 761.16818189621 2552.99997329712 172 171 166
-50.6347678601742 759.979665279388 2549.00002479553 161 158 153
-43.6148457229137 758.194327354431 2542.99998283386 163 160 155
-36.6707071661949 757.302939891815 2539.99996185303 157 156 151
-29.8131126910448 758.19993019104 2542.99998283386 156 155 150
-22.9481868445873 759.394466876984 2546.99993133545 158 157 152
-16.0678029060364 760.886788368225 2552.00004577637 151 150 145
-9.15307831019163 761.782169342041 2555.0000667572 158 157 152
-2.22118617966771 762.378931045532 2556.99992179871 167 168 163
4.72525646910071 763.571500778198 2561.00010871887 170 171 166
11.6979563608766 765.061557292938 2565.99998474121 183 184 179
18.7268611043692 767.743766307831 2575.00004768372 163 164 159
25.7746167480946 769.53113079071 2581.00008964539 176 177 172
32.9564809799194 773.702919483185 2595.00002861023 186 187 182
40.1063673198223 775.787174701691 2601.99999809265 183 182 178
47.330416738987 778.467237949371 2611.00006103516 182 181 177
54.4781684875488 779.35791015625 2614.00008201599 181 180 176
61.7834068834782 782.03672170639 2622.99990653992 182 181 177
69.0060406923294 783.224523067474 2627.00009346008 182 179 174
76.3081833720207 785.007834434509 2632.99989700317 182 177 171
83.7378203868866 787.685036659241 2641.99995994568 189 182 174
91.4225876331329 792.150616645813 2657.00006484985 172 159 150
99.3370488286018 797.808051109314 2676.00011825562 156 142 131
107.115395367146 801.675856113434 2688.99989128113 171 153 139
114.921525120735 805.245220661163 2700.99997520447 165 146 132
123.154640197754 811.198890209198 2720.99995613098 166 148 134
131.448045372963 816.853821277618 2740.00000953674 167 154 145
139.89494740963 822.806179523468 2759.99999046326 206 193 185
148.396700620651 828.459739685059 2779.00004386902 240 231 226
156.945109367371 833.81450176239 2796.99993133545 244 243 241
166.179150342941 842.14973449707 2825.00004768372 245 245 245
176.364704966545 854.359447956085 2865.9999370575 238 239 241
186.386853456497 864.779710769653 2901.00002288818 229 233 236
195.460140705109 870.131492614746 2918.99991035461 229 233 234
204.352036118507 874.290347099304 2933.00008773804 216 218 217
213.391825556755 878.746509552002 2947.99995422363 232 234 233
222.512558102608 883.202016353607 2963.00005912781 225 225 223
231.480836868286 886.762797832489 2974.99990463257 231 231 231
240.513756871223 890.322923660278 2986.99998855591 242 242 242
250.610023736954 897.458910942078 3010.99991798401 243 243 243
260.836064815521 904.594421386719 3035.00008583069 246 246 246
270.748466253281 910.238683223724 3053.99990081787 249 249 249
279.118806123734 910.517573356628 3055.0000667572 233 233 233
287.964463233948 912.286221981049 3061.00010871887 230 230 228
296.261429786682 912.266194820404 3061.00010871887 219 219 217
304.955869913101 913.437724113464 3065.00005722046 139 139 137
313.467025756836 914.012610912323 3066.99991226196 145 145 143
322.303265333176 915.481209754944 3072.00002670288 183 183 181
330.843180418015 916.055262088776 3073.99988174438 171 173 170
340.38645029068 919.310927391052 3085.00003814697 166 171 167
349.762588739395 921.970009803772 3094.00010108948 169 174 170
359.418511390686 925.224423408508 3105.00001907349 162 167 163
367.830365896225 925.200819969177 3105.00001907349 186 191 187
-100.884117186069 766.965627670288 2595.99995613098 208 210 207
-93.3701694011688 763.132274150848 2582.99994468689 200 202 199
-86.0937386751175 760.775506496429 2575.00004768372 205 206 201
-78.8298398256302 758.122682571411 2565.99998474121 197 198 193
-71.5866014361382 755.173921585083 2555.99999427795 189 190 185
-64.5492523908615 753.997266292572 2552.00004577637 177 176 172
-57.5786270201206 753.410935401917 2549.99995231628 170 169 164
-50.5988895893097 752.528727054596 2546.99993133545 160 157 152
-43.6353124678135 751.645922660828 2543.99991035461 163 160 155
-36.7023795843124 751.058161258698 2542.00005531311 158 157 152
-29.8505574464798 752.242505550385 2546.0000038147 154 153 148
-22.9589510709047 752.835512161255 2548.00009727478 155 154 149
-16.0690266638994 754.018783569336 2552.00004577637 152 151 146
-9.15019400417805 754.610657691956 2553.99990081787 154 153 148
-2.21961829811335 754.906594753265 2555.0000667572 166 167 162
4.72008110955358 755.792915821075 2558.00008773804 162 163 158
11.6897309198976 757.564961910248 2563.99989128113 174 175 170
18.6991989612579 759.632110595703 2571.00009918213 161 162 157
25.7366318255663 761.403143405914 2576.99990272522 159 160 155
32.8446812927723 764.059960842133 2585.99996566772 188 189 184
40.0169342756271 767.011880874634 2595.99995613098 184 184 182
47.2252406179905 769.667685031891 2605.00001907349 183 183 181
54.3780922889709 770.845592021942 2608.99996757507 180 180 178
61.6703145205975 773.500263690948 2618.00003051758 181 181 179
68.9324513077736 775.268018245697 2624.00007247925 184 183 179
76.3139575719833 777.921557426453 2632.99989700317 186 183 178
83.6490616202354 779.68829870224 2638.99993896484 190 185 181
91.1197811365128 782.3406457901 2648.00000190735 189 180 173
98.8247841596603 786.469697952271 2661.99994087219 195 185 176
106.486044824123 789.711833000183 2673.00009727478 161 147 136
114.67482149601 796.203136444092 2694.9999332428 162 148 137
122.846983373165 801.807463169098 2713.99998664856 167 153 142
131.074011325836 807.115793228149 2732.00011253357 165 152 144
139.499828219414 813.014268875122 2752.00009346008 169 158 152
147.820249199867 817.730247974396 2767.99988746643 215 208 202
156.507775187492 823.922872543335 2789.00003433228 243 242 240
165.779575705528 832.478106021881 2818.00007820129 248 248 248
175.885319709778 844.28197145462 2858.00004005432 239 240 242
185.629412531853 853.426337242126 2888.99993896484 232 236 239
194.871693849564 859.615921974182 2910.00008583069 226 230 231
204.157814383507 865.509271621704 2930.0000667572 204 206 205
212.972894310951 869.038760662079 2941.99991226196 220 222 221
221.777528524399 872.272372245789 2953.00006866455 212 212 210
230.71925342083 875.800669193268 2964.99991416931 219 221 220
239.645093679428 879.032969474792 2976.0000705719 221 223 222
249.379262328148 884.922921657562 2996.00005149841 220 222 221
259.823054075241 892.879664897919 3023.00000190735 215 217 216
270.324140787125 900.540351867676 3049.00002479553 209 211 210
279.046893119812 901.997745037079 3053.99990081787 226 228 227
287.89034485817 903.750061988831 3059.99994277954 220 222 219
296.378642320633 904.320418834686 3062.00003623962 208 210 207
305.275321006775 906.071782112122 3068.00007820129 133 135 132
313.5906457901 906.050503253937 3068.00007820129 154 156 153
322.430044412613 907.505333423615 3072.99995422363 157 159 156
331.295996904373 908.959865570068 3078.00006866455 165 167 164
340.740203857422 911.890208721161 3088.00005912781 158 163 159
350.237995386124 914.820075035095 3098.00004959106 161 166 162
359.326392412186 916.568338871002 3104.00009155273 184 189 185
-100.814037024975 759.392738342285 2594.00010108948 206 208 205
-93.3772474527359 756.179869174957 2582.99994468689 197 199 196
-85.8662351965904 751.795411109924 2568.00007820129 204 205 200
-78.5900503396988 748.874127864838 2558.00008773804 194 195 190
-71.4800208806992 747.123241424561 2552.00004577637 185 186 181
-64.5288899540901 746.835768222809 2551.00011825562 177 176 172
-57.5378760695457 745.962202548981 2548.00009727478 169 168 163
-50.5828931927681 745.380759239197 2546.0000038147 160 157 152
-43.6215065419674 744.506061077118 2542.99998283386 165 162 157
-36.6907492280006 743.923604488373 2540.99988937378 162 161 156
-29.8411268740892 745.09733915329 2545.00007629395 154 153 148
-22.9516997933388 745.684802532196 2546.99993133545 154 153 148
-16.0765592008829 747.442960739136 2552.99997329712 154 153 148
-9.154480881989 748.029470443726 2555.0000667572 155 154 149
-2.22152634523809 748.615443706512 2556.99992179871 164 165 160
4.72044432535768 748.908221721649 2558.00008773804 160 161 156
11.6860698908567 750.371336936951 2562.99996376038 167 168 163
18.6860896646976 752.126812934875 2569.00000572205 166 167 162
25.7186312228441 753.881692886353 2575.00004768372 155 156 151
32.7836945652962 755.636096000671 2581.00008964539 183 184 179
39.9737507104874 759.146451950073 2592.99993515015 185 185 183
47.1563413739204 761.48533821106 2601.0000705719 183 183 181
54.2988777160645 762.652516365051 2605.00001907349 180 180 178
61.510119587183 764.404594898224 2611.00006103516 181 181 179
68.7275305390358 765.863358974457 2615.9999370575 183 183 181
76.1168673634529 768.785417079926 2625.99992752075 185 184 180
83.4018290042877 770.243227481842 2631.00004196167 186 182 179
90.7481610774994 771.993100643158 2637.00008392334 189 182 176
98.0897173285484 773.449599742889 2641.99995994568 190 181 174
105.776965618134 777.247607707977 2654.99997138977 176 163 154
114.002607762814 784.265160560608 2678.99990081787 158 145 136
122.539356350899 792.453110218048 2707.00001716614 165 152 143
130.460098385811 795.956492424011 2719.00010108948 167 156 150
138.597771525383 800.337433815002 2733.99996757507 159 150 145
146.97676897049 805.595874786377 2752.00009346008 212 207 204
155.56538105011 811.439156532288 2772.0000743866 237 236 234
165.262371301651 822.258055210114 2809.00001525879 248 246 247
175.282850861549 833.661556243896 2848.00004959106 242 242 244
185.450285673141 844.771206378937 2885.99991798401 229 233 236
194.752052426338 851.196944713593 2907.99999237061 226 230 231
204.033344984055 857.036411762238 2927.99997329712 209 211 210
212.988376617432 861.118853092194 2941.99991226196 221 223 222
221.943825483322 864.9080991745 2954.99992370605 218 218 216
230.891525745392 868.404030799866 2967.00000762939 218 220 219
239.984422922134 872.191905975342 2980.00001907349 214 216 215
249.896541237831 878.613233566284 3002.00009346008 211 213 212
260.09938120842 885.619103908539 3026.00002288818 205 207 206
269.988596439362 891.16096496582 3045.00007629395 192 194 193
278.244137763977 891.141533851624 3045.00007629395 223 225 224
287.15780377388 893.170237541199 3052.00004577637 212 214 211
296.302497386932 895.783543586731 3061.00010871887 200 202 199
305.296391248703 897.811055183411 3068.00007820129 141 143 140
313.612163066864 897.789657115936 3068.00007820129 161 163 160
322.452008724213 899.230897426605 3072.99995422363 148 150 147
331.749022006989 901.842176914215 3082.00001716614 162 164 161
341.204553842545 904.745399951935 3092.00000762939 174 179 175
350.487589836121 907.062947750092 3099.99990463257 186 191 187
-100.705116987228 751.539885997772 2591.00008010864 202 204 201
-93.2397767901421 748.066604137421 2578.9999961853 197 199 196
-85.8059227466583 744.302690029144 2565.99998474121 207 208 203
-78.5038992762566 741.118252277374 2555.0000667572 184 185 180
-71.3734701275826 739.093601703644 2548.00009727478 176 177 172
-64.4579604268074 739.098846912384 2548.00009727478 173 172 168
-57.5648881494999 739.393591880798 2549.00002479553 166 165 160
-50.6463944911957 739.397704601288 2549.00002479553 157 154 149
-43.6934866011143 738.821268081665 2546.99993133545 163 160 155
-36.7224663496017 737.664043903351 2542.99998283386 163 162 157
-29.8551581799984 738.536894321442 2546.0000038147 155 154 149
-22.935451939702 738.248884677887 2545.00007629395 154 153 148
-16.0526130348444 739.410698413849 2549.00002479553 155 154 149
-9.1444393619895 740.281939506531 2552.00004577637 153 152 147
-2.22169840708375 741.732656955719 2556.99992179871 157 158 153
4.72634611651301 742.892980575562 2561.00010871887 157 158 153
11.6960955783725 744.052648544312 2565.00005722046 155 156 151
18.6875332146883 745.211720466614 2569.00000572205 176 177 172
25.7106330245733 746.66041135788 2573.99988174438 151 152 147
32.7481217682362 747.818470001221 2578.00006866455 173 174 169
39.899755269289 750.7164478302 2588.00005912781 186 188 185
47.0330603420734 752.453565597534 2594.00010108948 183 185 182
54.1779845952988 753.899991512299 2598.99997711182 178 180 179
61.3263733685017 755.055725574493 2602.9999256134 179 181 180
68.6014443635941 757.371366024017 2611.00006103516 182 184 183
75.9487822651863 759.976327419281 2619.99988555908 183 185 184
83.2496955990791 761.710643768311 2625.99992752075 176 175 173
90.4453471302986 762.28404045105 2628.00002098084 194 190 187
97.8744402527809 764.597415924072 2635.99991798401 200 195 191
105.545952916145 768.360376358032 2648.9999294281 187 180 174
113.628260791302 774.44314956665 2670.00007629395 198 189 184
121.643222868443 779.365062713623 2687.00003623962 173 164 159
129.750192165375 784.286320209503 2703.9999961853 165 158 152
137.949138879776 789.206981658936 2720.99995613098 150 142 139
146.186649799347 793.836891651154 2736.99998855591 197 193 192
154.903545975685 800.496459007263 2759.99999046326 220 219 217
163.921445608139 808.025360107422 2786.00001335144 235 235 235
174.249544739723 821.063995361328 2831.00008964539 239 240 242
184.757173061371 833.811640739441 2875 228 229 231
194.833397865295 843.658149242401 2908.99991989136 232 233 235
204.257428646088 850.023627281189 2930.99999427795 216 218 217
212.859213352203 852.618396282196 2940.00005722046 218 220 219
221.809789538383 856.372475624084 2953.00006866455 220 222 221
230.597034096718 859.255969524384 2963.00005912781 207 209 208
240.243405103683 865.038692951202 2983.00004005432 203 205 204
250.41401386261 872.270464897156 3007.99989700317 199 201 200
260.289967060089 878.051698207855 3028.00011634827 197 199 198
269.29846405983 880.642414093018 3036.99994087219 188 190 189
277.258634567261 879.753053188324 3033.99991989136 215 217 216
286.42526268959 882.632672786713 3043.99991035461 199 201 198
296.323269605637 887.54141330719 3061.00010871887 189 191 188
305.41718006134 889.839768409729 3069.00000572205 174 176 173
313.940584659576 890.39808511734 3071.00009918213 160 162 159
322.893977165222 892.115533351898 3076.99990272522 179 181 178
332.094669342041 894.412517547607 3085.00003814697 168 170 167
341.889888048172 898.158252239227 3098.00004959106 191 196 192
-107.744671404362 744.556546211243 2591.00008010864 212 214 211
-100.596234202385 743.702471256256 2588.00005912781 185 187 184
-93.1384786963463 740.261554718018 2575.99997520447 199 201 198
-85.7790932059288 737.107396125793 2565.00005722046 196 197 192
-78.5099565982819 734.239935874939 2555.0000667572 182 183 178
-71.4350044727325 732.808887958527 2549.99995231628 175 176 171
-64.4629448652267 732.239425182343 2548.00009727478 166 165 161
-57.5693510472775 732.531547546387 2549.00002479553 172 171 166
-50.6701953709126 732.823133468628 2549.99995231628 156 153 148
-43.6968803405762 731.964588165283 2546.99993133545 158 155 150
-36.7253236472607 730.818271636963 2542.99998283386 165 164 159
-29.7988448292017 730.246126651764 2540.99988937378 155 154 149
-22.9101963341236 730.535507202148 2542.00005531311 154 153 148
-16.04756526649 732.26135969162 2548.00009727478 153 152 147
-9.15231835097075 733.986616134644 2553.99990081787 157 156 151
-2.22360924817622 735.424041748047 2559.00001525879 152 153 148
4.72855940461159 736.286163330078 2562.00003623962 164 165 160
11.6970054805279 737.147688865662 2565.00005722046 150 151 146
18.6889879405499 738.296031951904 2569.00000572205 174 175 170
25.6826654076576 738.869071006775 2571.00009918213 157 158 153
32.7125526964664 740.016281604767 2575.00004768372 158 159 154
39.7795028984547 741.450309753418 2579.99992370605 186 188 185
46.8916408717632 743.171334266663 2585.99996566772 178 180 179
54.0154092013836 744.604349136353 2591.00008010864 181 183 182
61.1426383256912 745.749354362488 2595.00002861023 182 184 183
68.4228241443634 748.330771923065 2604.00009155273 185 186 188
75.6357535719872 749.761998653412 2608.99996757507 182 184 183
83.0024927854538 752.342283725739 2618.00003051758 185 185 183
90.3146341443062 754.059851169586 2624.00007247925 187 186 184
97.8076905012131 756.926238536835 2634.0000629425 190 186 183
105.514198541641 760.941565036774 2648.00000190735 190 185 181
113.12622576952 763.806819915771 2657.99999237061 188 183 179
120.882846415043 767.246067523956 2670.00007629395 167 159 156
128.752306103706 770.97225189209 2683.00008773804 173 165 162
137.046992778778 776.709139347076 2703.00006866455 155 147 145
145.503327250481 782.732725143433 2723.99997711182 198 194 193
153.848797082901 787.606239318848 2740.9999370575 207 206 204
162.639245390892 794.203102588654 2763.99993896484 225 225 225
171.985059976578 802.810549736023 2793.99991035461 240 241 243
184.064030647278 822.91042804718 2864.00008201599 234 235 237
194.847911596298 835.825979709625 2908.99991989136 230 231 233
204.481661319733 842.994034290314 2934.00001525879 217 219 218
213.019713759422 845.277070999146 2941.99991226196 220 222 221
221.826121211052 848.421454429626 2953.00006866455 223 225 224
230.847418308258 852.139830589294 2966.00008010864 202 204 203
241.066351532936 859.879612922668 2993.00003051758 198 200 199
251.847505569458 869.054973125458 3025.00009536743 200 202 201
260.738581418991 871.334671974182 3032.99999237061 186 188 187
269.140422344208 871.890127658844 3035.00008583069 194 196 195
277.369856834412 871.870458126068 3035.00008583069 205 207 206
287.010252475739 876.159250736237 3049.99995231628 194 196 193
296.925067901611 881.021976470947 3066.99991226196 175 177 174
305.438667535782 881.575226783752 3069.00000572205 181 183 180
313.962548971176 882.12788105011 3071.00009918213 167 169 166
323.02138209343 884.116291999817 3078.00006866455 192 194 191
-107.669778168201 737.011075019836 2588.99998664856 202 204 201
-100.331887602806 734.741806983948 2581.00008964539 186 188 185
-92.9287150502205 731.61780834198 2569.9999332428 198 200 197
-85.7188478112221 729.632079601288 2562.99996376038 191 192 187
-78.5775184631348 727.93036699295 2556.99992179871 177 178 173
-71.4685767889023 726.228058338165 2551.00011825562 171 172 167
-64.4932612776756 725.664019584656 2549.00002479553 166 165 161
-57.5738400220871 725.668847560883 2549.00002479553 174 173 168
-50.6741553544998 725.957691669464 2549.99995231628 156 153 148
-43.7003001570702 725.107371807098 2546.99993133545 156 153 148
-36.7570780217648 724.541127681732 2545.00007629395 158 157 152
-29.8363603651524 724.259078502655 2543.99991035461 159 158 153
-22.9480471462011 724.830508232117 2546.0000038147 155 154 149
-16.0551201552153 725.686132907867 2549.00002479553 154 153 148
-9.14945174008608 726.825892925262 2552.99997329712 157 156 151
-2.22117640078068 727.680325508118 2555.99999427795 155 156 151
4.72339242696762 728.534340858459 2559.00001525879 154 155 150
11.6933602839708 729.957163333893 2563.99989128113 165 166 161
18.6904519796371 731.379568576813 2569.00000572205 168 169 164
25.6846770644188 731.947183609009 2571.00009918213 161 162 157
32.6770022511482 732.229590415955 2572.00002670288 158 159 154
39.7055186331272 733.080804347992 2575.00004768372 173 174 169
46.804640442133 734.785616397858 2581.00008964539 181 181 179
53.9153814315796 736.205101013184 2585.99996566772 181 181 179
61.0295794904232 737.33925819397 2589.99991416931 181 183 182
68.2442039251328 739.327132701874 2596.99988365173 182 183 185
75.4676759243011 741.029560565948 2602.9999256134 182 183 185
82.8820988535881 744.154989719391 2614.00008201599 185 187 186
90.2527794241905 746.425569057465 2621.99997901917 188 188 188
97.8523790836334 750.119090080261 2634.99999046326 189 189 187
105.522349476814 753.81201505661 2648.00000190735 190 189 185
112.922109663486 755.226910114288 2653.00011634827 190 185 182
120.439350605011 757.210612297058 2660.00008583069 184 179 175
128.138288855553 760.047733783722 2670.00007629395 178 173 170
136.398285627365 765.730738639832 2690.00005722046 150 145 142
144.926771521568 772.267043590546 2713.00005912781 194 193 191
153.411388397217 777.948677539825 2733.00004005432 210 209 207
161.827713251114 782.77575969696 2750 223 223 223
170.520603656769 788.456082344055 2769.99998092651 238 239 241
181.50694668293 803.81315946579 2823.99988174438 235 236 238
204.218134284019 833.95516872406 2930.0000667572 217 219 218
212.818324565887 836.501181125641 2938.99989128113 221 223 222
221.466913819313 839.046597480774 2947.99995422363 223 225 224
231.175780296326 845.291376113892 2970.00002861023 197 199 198
241.72842502594 854.096651077271 3000.99992752075 197 199 198
252.032428979874 861.478209495544 3026.99995040894 196 198 197
260.241717100143 861.45955324173 3026.99995040894 189 191 190
268.716484308243 862.29395866394 3029.99997138977 198 200 199
277.481228113174 863.981783390045 3036.00001335144 196 198 197
287.595450878143 869.652986526489 3055.99999427795 195 197 194
297.236680984497 873.615920543671 3069.9999332428 164 166 163
305.957913398743 874.732613563538 3073.99988174438 177 179 176
314.802557229996 876.133441925049 3078.9999961853 180 182 179
-115.768633782864 736.798405647278 2612.99991607666 208 213 209
-107.636548578739 729.757726192474 2588.00005912781 196 198 195
-100.223042070866 726.94593667984 2578.00006866455 188 190 187
-92.791311442852 723.569691181183 2565.99998474121 197 199 196
-85.4913890361786 720.756828784943 2555.99999427795 188 189 184
-78.4299820661545 719.635248184204 2552.00004577637 174 175 170
-71.47416472435 719.359159469604 2551.00011825562 169 170 165
-64.5236223936081 719.082534313202 2549.99995231628 166 165 161
-57.5783513486385 718.805313110352 2549.00002479553 175 174 169
-50.6582595407963 718.809604644775 2549.00002479553 156 153 148
-43.7208935618401 718.531310558319 2548.00009727478 155 152 147
-36.7744117975235 717.970490455627 2546.0000038147 156 155 150
-29.8387072980404 717.409074306488 2543.99991035461 164 163 158
-22.9588635265827 718.257129192352 2546.99993133545 156 155 150
-16.0626824945211 719.104647636414 2549.99995231628 155 154 149
-9.15375631302595 720.233678817749 2553.99990081787 155 154 149
-2.22135148942471 720.798194408417 2555.99999427795 154 155 150
4.72376495599747 721.644043922424 2559.00001525879 150 151 146
11.6942813619971 723.053455352783 2563.99989128113 165 166 161
18.6846498399973 724.180340766907 2568.00007820129 155 156 151
25.6866980344057 725.024521350861 2571.00009918213 167 168 163
32.6795689761639 725.304186344147 2572.00002670288 157 158 153
39.7240556776524 726.429343223572 2575.99997520447 164 165 160
46.7720441520214 727.271914482117 2578.9999961853 182 182 180
53.8987591862679 728.960037231445 2585.00003814697 180 180 178
60.9872378408909 729.80147600174 2588.00005912781 181 183 182
68.1707039475441 731.488347053528 2594.00010108948 181 182 184
75.2996057271957 732.328593730927 2596.99988365173 182 183 185
82.6348885893822 734.860360622406 2605.99994659424 185 186 188
90.0532752275467 737.673461437225 2615.9999370575 188 188 188
97.488597035408 740.204036235809 2625 190 190 190
105.092145502567 743.579864501953 2637.00008392334 192 191 189
112.462624907494 744.981408119202 2641.99995994568 194 190 187
120.312809944153 749.201953411102 2657.00006484985 195 191 190
127.908170223236 751.448094844818 2664.99996185303 195 191 190
136.053800582886 756.513357162476 2683.00008773804 182 178 177
144.403651356697 762.141883373261 2703.00006866455 197 196 194
153.142437338829 769.179403781891 2727.9999256134 202 201 199
161.545783281326 773.960649967194 2744.99988555908 210 210 210
169.794768095016 777.613282203674 2757.99989700317 231 231 231
203.397020697594 822.681546211243 2917.99998283386 217 218 220
212.32733130455 826.612949371338 2931.99992179871 221 222 224
221.783936023712 832.235276699066 2951.99990272522 216 220 221
232.204884290695 840.957820415497 2983.00004005432 192 196 195
242.793500423431 849.679529666901 3013.99993896484 195 199 198
251.967698335648 853.044152259827 3026.00002288818 190 194 193
260.002791881561 852.461397647858 3023.9999294281 200 204 203
268.736064434052 854.133486747742 3029.99997138977 195 199 198
278.049737215042 857.49626159668 3042.00005531311 181 185 184
288.369089365005 863.677084445953 3063.99989128113 176 181 177
297.742128372192 866.756677627563 3075.00004768372 167 172 168
306.776076555252 868.70801448822 3082.00001716614 198 203 199
-114.891469478607 724.175870418549 2592.99993515015 208 213 209
-107.436947524548 721.39173746109 2582.99994468689 188 190 187
-100.075349211693 718.886196613312 2573.99988174438 194 196 193
-92.762403190136 716.38023853302 2565.00005722046 193 195 192
-85.4646414518356 713.594257831573 2555.0000667572 182 183 178
-78.4361436963081 712.762892246246 2552.00004577637 170 171 166
-71.4797824621201 712.489426136017 2551.00011825562 164 165 160
-64.5540058612823 712.494850158691 2551.00011825562 164 163 159
-57.6054789125919 712.220311164856 2549.99995231628 175 174 169
-50.6622567772865 711.945354938507 2549.00002479553 157 154 149
-43.7071844935417 711.390376091003 2546.99993133545 155 152 147
-36.7917641997337 711.393654346466 2546.99993133545 154 153 148
-29.8645291477442 711.116909980774 2546.0000038147 171 170 165
-22.9697003960609 711.677670478821 2548.00009727478 157 156 151
-16.0576552152634 711.958527565002 2549.00002479553 155 154 149
-9.14731342345476 712.797403335571 2552.00004577637 152 151 146
-2.22065858542919 713.635921478271 2555.0000667572 152 153 148
4.72413888201118 714.752972126007 2559.00001525879 151 152 147
11.690647341311 715.869605541229 2562.99996376038 161 162 157
18.6861250549555 717.264831066132 2568.00007820129 143 144 139
25.6887339055538 718.10108423233 2571.00009918213 173 174 169
32.6821580529213 718.378067016602 2572.00002670288 155 156 151
39.727196097374 719.492375850677 2575.99997520447 159 158 153
46.8120090663433 720.885574817657 2581.00008964539 181 182 177
53.9238564670086 722.2780585289 2585.99996566772 176 177 172
60.9684698283672 722.55277633667 2586.99989318848 181 181 179
68.0446550250053 723.106324672699 2588.99998664856 180 182 181
75.1895308494568 724.21783208847 2592.99993515015 183 185 184
82.4828147888184 726.446092128754 2601.0000705719 185 187 186
89.8537635803223 728.952825069427 2609.99989509583 187 187 187
97.2733795642853 731.459200382233 2618.99995803833 190 190 190
104.821354150772 734.52353477478 2630.00011444092 193 192 190
112.215936183929 736.190617084503 2635.99991798401 194 193 191
120.0957223773 740.650117397308 2651.99995040894 190 188 189
127.91807949543 744.271039962769 2664.99996185303 194 192 193
135.962873697281 748.729348182678 2680.99999427795 192 190 191
144.147634506226 753.466010093689 2697.99995422363 198 196 197
152.761206030846 759.877681732178 2720.99995613098 199 197 198
161.14616394043 764.613091945648 2737.99991607666 217 215 216
169.315174221992 767.951488494873 2750 226 226 226
178.384616971016 774.91956949234 2775.00009536743 230 230 230
190.537229180336 794.17359828949 2844.00010108948 232 234 233
201.94847881794 808.95859003067 2897.0000743866 219 220 222
211.908772587776 817.040860652924 2926.00011825562 220 221 223
221.349731087685 822.609126567841 2946.00009918213 212 216 217
232.455745339394 833.761215209961 2986.00006103516 191 195 194
242.489293217659 840.444803237915 3009.99999046326 191 195 194
251.653254032135 843.776941299438 3022.0000743866 187 191 190
259.935975074768 844.037234783173 3023.00000190735 197 201 200
269.021838903427 846.8097448349 3032.99999237061 182 186 185
278.801292181015 851.53603553772 3049.99995231628 181 185 184
288.484126329422 855.703234672546 3065.00005722046 178 183 179
298.054099082947 859.31134223938 3078.00006866455 187 192 188
-114.900447428226 717.192053794861 2592.99993515015 206 211 207
-107.403755187988 714.158177375793 2582.00001716614 184 186 183
-100.044317543507 711.677074432373 2572.99995422363 196 198 195
-92.6611870527267 708.6421251297 2562.00003623962 189 191 188
-85.4713767766953 706.712961196899 2555.0000667572 179 180 175
-78.3808529376984 705.336391925812 2549.99995231628 169 170 165
-71.5134590864182 705.89554309845 2552.00004577637 163 164 159
-64.5591095089912 705.624282360077 2551.00011825562 163 162 158
-57.6100386679173 705.352485179901 2549.99995231628 175 174 169
-50.6265163421631 704.526960849762 2546.99993133545 157 154 149
-43.6934866011143 704.25409078598 2546.0000038147 155 152 147
-36.7657952010632 703.980803489685 2545.00007629395 153 152 147
-29.8669021576643 704.260051250458 2546.0000038147 172 171 166
-22.9625068604946 704.538702964783 2546.99993133545 156 155 150
-16.0652305930853 705.37006855011 2549.99995231628 161 160 155
-9.15521010756493 706.477463245392 2553.99990081787 151 150 145
-2.22518108785152 708.13775062561 2559.99994277954 153 154 149
4.73005371168256 708.690881729126 2562.00003623962 153 154 149
11.6961384192109 709.243416786194 2563.99989128113 159 160 155
18.6876114457846 710.348725318909 2568.00007820129 145 146 141
25.6907735019922 711.176693439484 2571.00009918213 169 170 165
32.7101647853851 712.00430393219 2573.99988174438 150 151 146
39.7457741200924 712.831199169159 2576.99990272522 152 151 146
46.8157194554806 713.934242725372 2581.00008964539 177 176 172
53.8864284753799 714.760184288025 2584.00011062622 166 165 161
60.9261617064476 715.03210067749 2585.00003814697 174 174 172
67.9711848497391 715.303599834442 2585.99996566772 176 178 177
75.1374736428261 716.681003570557 2591.00008010864 181 183 182
82.4258849024773 718.887567520142 2598.99997711182 182 184 183
89.7575467824936 721.093595027924 2607.00011253357 185 185 185
97.0953032374382 723.022401332855 2614.00008201599 187 187 187
104.430973529816 724.674046039581 2619.99988555908 194 193 191
111.756406724453 726.048469543457 2625 195 194 192
119.652204215527 730.741441249847 2641.99995994568 199 199 199
127.688020467758 735.710382461548 2660.00008583069 195 195 197
135.922715067863 741.231739521027 2680.0000667572 195 195 195
143.945068120956 745.092868804932 2694.00000572205 196 194 195
152.211546897888 749.783158302307 2710.99996566772 200 198 199
160.452246665955 753.91960144043 2726.0000705719 209 207 208
168.712437152863 757.778823375702 2740.00000953674 219 219 219
177.562534809113 763.849794864655 2762.00008392334 219 219 219
188.139691948891 776.557326316834 2808.00008773804 230 232 231
211.779937148094 808.606326580048 2924.00002479553 212 216 217
221.591830253601 815.503358840942 2948.99988174438 202 206 207
232.006058096886 824.058771133423 2980.00001907349 186 190 189
242.346256971359 831.783652305603 3007.99989700317 185 189 188
251.338869333267 834.530532360077 3017.99988746643 188 192 191
260.127186775208 836.44700050354 3025.00009536743 179 183 182
270.106136798859 841.957628726959 3045.00007629395 179 183 182
279.735893011093 846.084833145142 3059.99994277954 194 198 197
-115.04240334034 711.02899312973 2595.99995613098 205 210 206
-107.453808188438 707.47709274292 2582.99994468689 182 184 181
-100.013315677643 704.472362995148 2572.00002670288 197 199 196
-92.704676091671 702.014863491058 2562.99996376038 186 188 185
-85.5115875601768 700.104653835297 2555.99999427795 177 178 173
-78.4178003668785 698.741614818573 2551.00011825562 168 169 164
-71.5191289782524 699.021399021149 2552.00004577637 162 163 158
-64.5642355084419 698.75293970108 2551.00011825562 162 161 157
-57.6146207749844 698.483824729919 2549.99995231628 174 173 168
-50.630547106266 697.66640663147 2546.99993133545 158 155 150
-43.6969734728336 697.396278381348 2546.0000038147 156 153 148
-36.7976240813732 697.673439979553 2546.99993133545 151 150 145
-29.90448102355 698.223888874054 2549.00002479553 171 170 165
-22.9913908988237 698.499917984009 2549.99995231628 156 155 150
-16.0791166126728 699.049353599548 2552.00004577637 163 162 157
-9.15952771902084 699.872255325317 2555.0000667572 151 150 145
-2.22535897046328 701.242208480835 2559.99994277954 152 153 148
4.73227817565203 702.063918113709 2562.99996376038 150 151 146
11.7016360163689 702.611088752747 2565.00005722046 159 160 155
18.7109392136335 704.253375530243 2571.00009918213 150 151 146
25.7128104567528 704.799473285675 2572.99995422363 162 163 158
32.7254869043827 705.344915390015 2575.00004768372 146 145 141
39.7180952131748 705.341994762421 2575.00004768372 151 150 145
46.7650294303894 706.160426139832 2578.00006866455 174 173 169
53.7864379584789 706.430196762085 2578.9999961853 162 161 157
60.8367212116718 706.973552703857 2581.00008964539 172 172 170
67.92401522398 707.790195941925 2584.00011062622 175 177 176
75.1144289970398 709.427893161774 2589.99991416931 180 182 181
82.4006944894791 711.61299943924 2598.00004959106 181 183 182
89.6613523364067 713.249623775482 2604.00009155273 184 184 184
96.9915241003037 715.15953540802 2611.00006103516 191 190 188
104.239888489246 716.247200965881 2615.00000953674 193 192 190
111.637458205223 718.155980110168 2621.99997901917 195 194 192
119.25396323204 721.159696578979 2632.99989700317 196 196 196
127.265959978104 726.080060005188 2651.00002288818 198 198 198
135.47682762146 731.547594070435 2671.0000038147 205 205 205
143.421918153763 735.097229480743 2684.00001525879 196 196 196
151.381105184555 738.372266292572 2696.00009918213 197 197 197
159.463971853256 741.920590400696 2709.00011062622 208 208 208
167.924910783768 746.837556362152 2726.99999809265 218 218 218
176.611796021461 752.301514148712 2746.99997901917 216 216 216
186.277896165848 761.324942111969 2779.99997138977 232 234 233
199.608743190765 784.040212631226 2862.99991607666 223 227 226
211.433887481689 799.36009645462 2918.99991035461 210 214 213
221.232891082764 806.189835071564 2944.00000572205 199 203 204
232.257127761841 816.852331161499 2983.00004005432 187 191 190
242.122769355774 822.858810424805 3005.00011444092 189 193 192
251.440912485123 826.673805713654 3019.00005340576 187 191 190
260.490536689758 829.392790794373 3029.00004386902 177 181 180
270.480990409851 834.849417209625 3049.00002479553 189 193 192
-115.184418857098 704.848885536194 2598.99997711182 209 211 206
-107.545509934425 701.060891151428 2585.00003814697 190 192 187
-99.9823436141014 697.27224111557 2571.00009918213 192 194 189
-92.6034972071648 694.296538829803 2559.99994277954 182 183 178
-85.4180082678795 692.405164241791 2552.99997329712 174 175 170
-78.3625543117523 691.326856613159 2549.00002479553 164 165 159
-71.4407488703728 691.332817077637 2549.00002479553 160 161 155
-64.5187646150589 691.338241100311 2549.00002479553 161 162 156
-57.5966276228428 691.343128681183 2549.00002479553 170 169 164
-50.6345964968205 690.805077552795 2546.99993133545 156 155 150
-43.7176339328289 690.808773040771 2546.99993133545 157 156 151
-36.800567060709 690.811991691589 2546.99993133545 152 151 147
-29.9186110496521 691.628396511078 2549.99995231628 167 166 162
-23.0022538453341 691.901803016663 2551.00011825562 163 162 158
-16.0930082201958 692.716956138611 2553.99990081787 156 155 151
-9.16743185371161 693.531632423401 2556.99992179871 158 157 153
-2.22814572043717 695.159554481506 2562.99996376038 156 155 151
4.74004400894046 696.244359016418 2566.99991226196 154 153 149
11.7299491539598 697.328627109528 2571.00009918213 152 151 147
18.7342744320631 698.141038417816 2573.99988174438 152 151 147
25.7548466324806 698.952853679657 2576.99990272522 155 154 150
32.7789485454559 699.493050575256 2578.9999961853 149 148 144
39.7829823195934 699.490129947662 2578.9999961853 158 159 154
46.7869155108929 699.486672878265 2578.9999961853 164 165 160
53.8533069193363 700.29628276825 2582.00001716614 161 162 157
60.9358698129654 701.105415821075 2585.00003814697 161 161 159
68.0345743894577 701.913893222809 2588.00005912781 173 173 171
75.1494169235229 702.721774578094 2591.00008010864 173 173 171
82.4072360992432 704.613983631134 2598.00004959106 180 180 178
89.6340236067772 705.96319437027 2602.9999256134 183 183 181
96.8877449631691 707.311928272247 2608.00004005432 186 186 186
104.048795998096 707.846343517303 2609.99989509583 188 188 188
111.390769481659 709.464967250824 2615.9999370575 193 193 193
118.900991976261 711.896777153015 2625 196 198 195
126.747831702232 715.955078601837 2640.00010490417 199 201 198
134.98018682003 721.63987159729 2661.00001335144 200 202 199
