ply
format ascii 1.0
comment KinectMotionCapture
element vertex 775
property float x
property float y
property float z
property uchar red
property uchar green
property uchar blue
end_header
-47.5422107697141 436.509560234168 2590.4707475218 158 158 158
-58.6238979589258 435.499527544516 2591.07812532716 181 181 181
-66.9571503324309 434.781583305735 2588.73894067671 193 193 193
-75.2779953297751 434.06446497135 2586.40875458138 189 189 189
-78.8601239598321 433.852937602108 2578.8704806694 135 135 135
-82.460829335687 433.639770885699 2571.31873177432 168 169 171
-84.0675438560767 433.640277332536 2561.5078528593 182 184 183
-80.3577098688537 434.210736416313 2545.67335283006 172 174 171
477.5782390071 469.026575636866 3068.88143443932 188 183 179
487.527862118331 470.095708106914 3053.86741222417 174 165 160
495.623148447851 470.986393288513 3039.97831109015 153 142 138
500.990918035074 471.61356005348 3027.81604445343 124 113 109
504.534878405305 472.064692859379 3016.80084120499 78 63 60
507.149502150268 472.426548747916 3006.34682090491 81 66 63
514.998361352948 473.298565434411 2992.27927940504 104 88 88
527.164782179738 474.592206842501 2975.16769950309 108 92 92
221.988743872586 448.845366457811 2874.85108770476 200 204 205
209.520838584567 447.732124982347 2875.68808028329 153 153 153
197.087073803689 446.621644691131 2876.55013050701 152 152 152
180.727427830792 445.120786430143 2880.73972595382 180 180 180
166.003643222063 443.781293463957 2883.64564182613 125 125 123
154.47787009307 442.758659628289 2883.9310284292 131 131 129
146.908985525558 442.128885833217 2880.9113602852 162 162 160
140.914523679085 441.655589733393 2876.56344962649 148 148 146
135.700268207769 441.260007518331 2871.5464842265 134 134 132
125.807658642949 440.398550297488 2870.54623460658 151 151 149
118.265785366214 439.770934846299 2867.54615845615 191 191 189
108.408519569267 438.912251249095 2866.57154433679 185 185 185
102.433654602522 438.440512843173 2862.23784776443 152 152 150
94.1474948142966 437.738033672955 2859.93287986767 140 140 138
90.4808931513981 437.496760572684 2853.56825561264 127 127 125
86.0343303447082 437.177803812504 2847.87315850246 129 129 127
82.341632156032 436.934446474516 2841.48960576189 133 133 131
75.5895026428042 436.38514288904 2837.82709727841 152 152 150
68.0814872247204 435.760061198643 2834.85157824629 165 165 163
60.5814154410496 435.135537993077 2831.88152607608 181 181 179
53.8435489346951 434.587265805016 2828.22965685193 183 183 181
47.8617650416098 434.114712977684 2823.89094047701 195 195 193
42.6293209123272 433.717378072935 2818.86048637596 198 198 196
38.1393432198394 433.394680183522 2813.13389793898 197 197 195
31.4018697528851 432.846205438353 2809.48201813447 194 194 192
26.155091013115 432.44757026913 2804.44146045928 180 180 180
20.9029677424999 432.048417095158 2799.39673131881 147 147 147
17.8632454587242 431.872137963943 2792.25183788205 144 144 144
13.3307149961772 431.545758427909 2786.49408890864 159 159 159
6.58324991924131 430.996156018294 2782.835254738 168 168 168
-0.160701736961588 430.44676813275 2779.17867413061 185 185 185
-5.44038808413472 430.045033937671 2774.11424533136 190 190 190
-9.26877137467841 429.790012475307 2767.6322724837 192 192 194
-13.1115203279917 429.533722682373 2761.13987923617 199 199 201
-19.1403186078625 429.056494880071 2756.76705744926 203 203 205
-22.2833821029709 428.871351071768 2749.54720486165 208 210 209
-26.8840536202948 428.538853912214 2743.74002799647 207 207 207
-30.0600636502781 428.350876771665 2736.49627741123 183 183 183
-33.9698354426856 428.088798918412 2729.95526855963 171 171 171
-34.3295357115698 428.187266634741 2719.81413092909 166 166 166
-34.7253704006292 428.28273695786 2709.64648902681 158 158 158
-35.8661802560072 428.303208515883 2700.1737499506 167 167 167
-33.507385379989 428.680231463803 2687.06398293248 170 170 170
-29.0905290795629 429.26778952417 2671.74210507638 178 178 178
-26.1445481948941 429.706979170263 2657.82327998449 191 191 191
-24.6564057795071 429.998702603023 2645.31725746438 180 180 180
-12.4502476343409 431.959688709425 2576.36249759737 209 211 208
-33.2427497960706 429.977111177867 2587.21735745264 182 184 181
-43.6802911270242 429.052962654347 2587.05708872844 132 132 132
-56.1381263329648 427.920950276281 2589.13632287525 141 141 141
-63.7988339333386 427.279988867104 2586.05003358766 159 159 159
-73.4841958798762 426.430870100401 2585.20008468582 157 157 157
-77.7457216866737 426.138260381817 2578.4042216695 170 170 170
-83.3674508913151 425.705983647067 2573.09138952231 178 179 181
-84.2980522938932 425.756305138564 2562.5361496062 178 180 179
-79.246256328664 426.423276388168 2545.20458757143 155 157 154
487.661525439096 462.303269256222 3071.21652809576 186 177 172
494.072544107249 462.989819277273 3058.57579914055 188 170 166
504.876560204685 464.090404314213 3042.94597284198 153 134 128
512.044460963239 464.850468197579 3029.61896512275 132 113 107
515.602392256901 465.272169265036 3018.61403509432 111 92 85
516.460762901212 465.440756765985 3009.35625823421 88 63 56
516.403406510437 465.523882440946 3000.66896057496 91 64 55
525.112718465141 466.433189674405 2985.99003741576 85 56 50
539.891022841425 467.915498121903 2967.06771338735 76 48 44
222.419418704827 441.261724608843 2875.12488044067 199 201 200
210.746918208899 440.246008585935 2875.30393628421 141 141 143
195.132231604282 438.852330213084 2878.79907493336 170 170 172
178.777245504778 437.386889201419 2882.99222781719 128 128 130
166.42838772446 436.304500956129 2883.91567675235 131 131 131
155.689263488066 435.375949967964 2883.53676184455 153 153 153
147.33238127015 434.675523124151 2881.18053614465 145 145 145
139.771355631259 434.051319432272 2878.16629884238 132 132 130
135.342745842358 433.727812813324 2872.48419321199 170 170 170
127.009503903117 433.029286159774 2870.14511447945 182 182 182
120.242222594351 432.481114990582 2866.47162787195 176 178 177
111.928963524309 431.78416236443 2864.1470431205 157 158 160
103.627982388735 431.088189451944 2861.83136386823 124 126 125
96.1092885985506 430.467291046702 2858.84812504544 130 132 131
91.6708526185497 430.142978038313 2853.15859763788 144 146 145
87.9884124002706 429.891684305448 2846.78244091956 154 156 155
82.0007255884674 429.41830974893 2842.43944123067 169 171 170
74.4890659966915 428.797891576484 2839.4613040809 191 193 192
68.5037889369879 428.3246674289 2835.12005203458 191 193 192
62.5174559767521 427.851297997781 2830.77803380754 195 197 196
55.0203874030659 427.231917078563 2827.81018477504 191 193 192
49.0363703796621 426.758645648433 2823.46984591643 199 201 200
43.0512958052032 426.285258672966 2819.12873983123 197 199 198
38.5616025476128 425.956564636571 2813.40232721551 189 191 190
33.3162011987715 425.554804526977 2808.36245773494 163 165 164
28.0651273078685 425.152520556822 2803.31876793114 157 158 160
23.5504004749609 424.821668675637 2797.5739025355 178 179 181
19.025619031837 424.489952873454 2791.82203843943 189 190 192
14.4911574847164 424.157412644607 2786.06285837648 199 200 202
6.27130375638885 423.467100863684 2783.80601878781 202 203 205
-0.470699780899864 422.92008131866 2780.15086240951 204 205 207
-6.47863701843554 422.444289582222 2775.79317051134 206 207 209
-10.302250103319 422.180872218882 2769.31461316067 208 209 211
-14.8665367414718 421.845552784575 2763.53409265253 209 210 212
-18.716526972675 421.579879090586 2757.03640251681 210 211 213
-22.5808355463828 421.31295583545 2750.52832637977 200 204 203
-26.4594400403553 421.044814707524 2744.00988065628 198 200 199
-29.6349366332469 420.845408348588 2736.7664443813 198 200 199
-32.8291103892968 420.644429187326 2729.5094606656 200 202 201
-34.6157795198017 420.581133102365 2720.8031367471 204 206 205
-36.4300319105686 420.515527785936 2712.07680543787 201 203 202
-38.2717953433078 420.447619088526 2703.33051912012 201 203 202
-34.489614107946 420.930270083847 2688.78305701895 199 201 200
-26.5448705271685 421.821392770985 2669.84438545586 198 200 199
-21.4974828955494 422.430273778847 2653.74437011665 190 192 191
-17.2215632102641 422.964762604051 2638.31976101734 162 162 162
22.7028057843182 427.355769477898 2551.18234094389 206 208 205
-12.0044364955887 424.065425290736 2576.6456896054 210 212 209
-30.0540722765954 422.409913187125 2584.55012749277 167 169 166
-41.1857563026263 421.433692838988 2585.12143279032 136 138 137
-52.9696402526838 420.392533244761 2586.45465214341 151 153 152
-61.319478665204 419.688928103336 2584.10351654967 146 148 147
-69.6569835703755 418.986172754016 2581.76132608297 156 158 157
-74.6045038993544 418.617451813684 2575.7025276315 164 166 165
-79.5619302756629 418.247804307837 2569.63683785871 171 171 171
-83.1866771538155 418.00981265798 2562.06724054534 169 169 169
-78.8036439058821 418.563554610162 2545.48563572221 151 151 149
495.96935142771 455.397196371315 3074.73370009661 191 188 183
505.988688660653 456.372652369937 3059.76974064626 175 166 161
513.251433377445 457.098623808876 3046.51131465148 158 143 138
529.357177292094 458.62958285331 3027.31648966905 155 136 132
534.691260809205 459.182283284827 3015.12942609456 115 98 91
534.650754233498 459.24684484278 3006.45454367196 97 80 72
530.159308034967 458.906945834432 3000.72650907953 84 61 55
530.952058395969 459.048395932115 2991.42102521934 79 54 47
537.869599424635 459.74814952909 2977.91222090548 76 48 44
558.764747683052 461.722036460446 2954.78077213064 76 48 44
221.25187543557 433.530341644447 2876.70971016467 200 200 200
209.582633266055 432.533469908841 2876.8912234886 162 162 164
194.765253011966 431.245660516245 2879.72955166765 172 172 174
180.787415846639 430.034756025325 2881.94183545777 138 138 138
167.642764084816 428.900286200535 2883.5234636554 142 142 142
156.900596046659 427.987365549369 2883.14242140148 142 142 140
146.183990429758 427.076475509121 2882.77962570069 194 195 190
140.194019041063 426.602437925876 2878.43496651489 197 198 193
134.984509578267 426.200638498854 2873.42141010636 153 153 151
129.769703282316 425.798424905228 2868.4040118126 139 139 137
124.549552007684 425.395793244674 2863.38273671213 139 141 140
117.774592188357 424.849165743795 2859.70369160744 144 146 145
108.685214240321 424.087988941033 2858.05119303923 161 163 162
99.6124954696462 423.328146781473 2856.41077782444 153 155 154
92.8607031037734 422.783316845348 2852.74883088322 138 140 139
86.8784383003329 422.309843837639 2848.40976122522 115 117 116
80.1314576338794 421.765363472544 2844.75100968122 115 117 116
72.6260261770886 421.15036377729 2841.77741488507 115 117 116
68.1663095625113 420.818232931022 2836.07242109246 121 123 122
62.182125540112 420.344484957543 2831.73195875893 116 118 117
54.6868112459373 419.73018537766 2828.76570165609 118 120 119
48.7049904806343 419.256554174593 2824.42695308953 122 124 123
43.4728613209283 418.852672966222 2819.39669415833 126 128 127
39.7320351062049 418.587672808272 2812.97814275943 129 131 130
35.2305923777219 418.251962936459 2807.24317716492 142 144 143
29.9754562585375 417.846098420159 2802.19622995195 149 151 150
23.2309129552424 417.301362852471 2798.53953848889 159 161 160
16.4897859563653 416.756848877303 2794.8850302232 157 159 158
12.70178867953 416.487818233903 2788.43226309949 157 159 158
7.4289535398484 416.08027634672 2783.37277146965 164 166 165
2.88380584972181 415.740731744103 2777.60580931505 169 171 170
-5.32560699427043 415.058793511966 2775.35658095993 171 173 172
-9.1509760680919 414.786496360967 2768.87670567752 171 173 172
-14.4435600916109 414.377085746779 2763.80288819486 167 169 168
-16.8446260492923 414.238246490439 2755.88582889261 165 167 166
-22.1570145295293 413.827097070807 2750.79764592923 164 169 165
-25.3154389253289 413.617662681528 2743.56653486031 170 175 171
-27.0572684407657 413.541151349568 2734.89264919787 166 171 167
-28.826586575935 413.462368324987 2726.19882494178 171 176 172
-32.7630748393721 413.180621201778 2719.63834912145 180 182 179
-36.0029466109621 412.964319819565 2712.34816032897 178 180 177
-36.4263363925506 413.012625946285 2702.16059873313 167 169 166
-33.3530099275823 413.389797180335 2688.33377503461 161 163 160
-26.1117822904973 414.15941318962 2670.11953092408 180 182 179
-19.6575818415576 414.856139695591 2652.56942143837 187 189 186
-13.9839517512437 415.48049519587 2635.6884243743 136 136 134
-11.5589775105829 416.170535905515 2576.92862315901 210 212 209
-27.5511285713395 414.755463359824 2582.62038913814 130 132 129
-40.0595663561125 413.668177241503 2584.66316694297 131 133 132
-52.5293770219202 412.583851477531 2586.73425584248 129 131 130
-60.1997710279376 411.952291681961 2583.64099229375 154 156 155
-67.1841956829393 411.385349539723 2579.80999876181 157 159 158
-70.7868993035254 411.138041648314 2572.2566283647 155 157 156
-75.0816066634881 410.825392853136 2565.43631535347 159 159 157
-75.3629433453484 410.892804563387 2554.11649674851 164 164 162
-71.0017089730026 411.400485102149 2537.51856166809 162 162 160
517.933476856476 449.725618936644 3060.98429525981 184 181 176
527.903062130072 450.64769608036 3045.98399917795 163 154 149
537.795158592362 451.563813998788 3030.92720514141 149 134 129
552.954928245637 452.943557704803 3012.28089392252 136 118 114
560.011924874052 453.612310139454 2998.87302692205 103 88 81
551.93198963751 452.951336797235 2995.48272920986 89 74 67
542.977584364637 452.213631207783 2992.69315747145 74 55 49
541.094741606391 452.097879828432 2985.15188617055 78 55 49
553.270597185397 453.219008979081 2968.04656639026 68 43 39
215.288890166753 425.383685590208 2882.22663245554 199 199 199
206.026854997248 424.619111218222 2880.44895377344 167 167 167
194.397461754134 423.644048016588 2880.65946489906 127 127 127
182.005275561236 422.60089180886 2881.55199733829 148 148 146
169.647508090648 421.560528479064 2882.46920031331 176 176 174
157.323788962457 420.522844187375 2883.41139370523 196 197 192
146.606257121689 419.627770967506 2883.0480066803 176 177 172
141.400013005912 419.222905352312 2878.03680186067 141 142 137
134.625557764972 418.678514313117 2874.35813386373 124 125 120
129.413148546044 418.273194063674 2869.34245752644 123 123 121
124.195395173697 417.867440878204 2864.32290490538 119 121 120
119.747320386654 417.530323576142 2858.62632526462 119 121 120
110.652938668126 416.779136836011 2856.97024995803 113 115 114
102.345670369681 416.097978881813 2854.65008804789 118 120 119
93.282110418027 415.34922472714 2853.01666289642 125 127 126
85.0013752561427 414.670126637187 2850.71574585684 149 151 150
77.4968681216635 414.060165136585 2847.74255216409 160 162 161
72.2853321243013 413.654796140197 2842.72750859683 163 165 164
69.3471160845465 413.452477068764 2835.65606730518 156 158 157
62.6034863593627 412.910359200814 2831.99975689653 157 159 158
54.3527092684992 412.233478945362 2829.72056833574 153 155 154
46.8671340542564 411.624856974035 2826.76110558097 155 157 156
42.3923562080373 411.285347809496 2821.04545068451 155 157 156
40.9021739055433 411.212837966917 2812.55400972548 152 154 153
36.3989881708577 410.870972280359 2806.81745493114 144 146 145
30.3975146725937 410.39504699692 2802.46444805908 138 140 139
22.1688553593187 409.71961500118 2800.201300483 131 133 132
16.1717705313018 409.243910825391 2795.85147617161 134 136 135
12.3864242317078 408.966327535833 2789.40058747703 149 151 150
7.85128840074067 408.621629982321 2783.64115150911 141 143 142
1.83986693428739 408.144570211532 2779.2809273962 148 150 149
-6.36559132705727 407.470674232806 2777.03460653803 152 154 153
-10.9148748928285 407.124611093265 2771.26461318124 153 155 154
-14.7475325648048 406.84291127179 2764.77940661211 148 150 149
-14.9726421453442 406.885190030411 2754.73555203571 146 148 145
-21.0114635080085 406.40556703552 2750.35545217006 142 147 143
-21.2914120456911 406.443333124839 2740.27152632872 133 138 134
-25.1967546076712 406.1554761695 2733.73359774456 176 181 177
-24.1073661944504 406.316820952288 2722.17288617407 185 190 186
-30.9102838773303 405.768625964917 2718.47386035484 155 157 154
-35.5761951691704 405.412591920512 2712.61927056586 108 110 107
-40.2520427353599 405.055648375396 2706.75747315275 157 159 156
-35.7501653547212 405.525124966012 2691.49663078621 176 178 175
-25.679051159142 406.496896856312 2670.39441480028 185 187 184
-18.5198431833171 407.207219121187 2652.12041255241 208 210 207
-13.545976783317 407.721319972118 2635.96662002321 144 144 142
-11.1138490823453 408.275067111218 2577.21131415016 208 210 207
-24.3605982194923 407.146076617726 2579.95399416464 119 121 118
-37.5641260183843 406.020393367252 2582.72802300146 121 123 122
-50.7244565517846 404.898015409632 2585.53338319986 117 119 118
-57.0390751709955 404.394227574819 2580.95322961746 152 154 153
-63.3546492733781 403.890227911628 2576.37238231196 151 153 152
-66.9678713844883 403.630716580295 2568.81132502376 151 153 152
-69.9261411957319 403.430557382162 2560.49032063617 159 159 157
-68.87880158906 403.593360161366 2547.66380326727 157 157 155
-60.5200739600233 404.419155471402 2526.55483342118 168 168 166
532.606468096261 443.277456966218 3060.47218544121 183 178 175
545.290676244115 444.379934913337 3043.73528681483 169 164 160
553.406693520458 445.095771494886 3029.86032834396 137 128 123
574.85298183705 446.942319409457 3007.12776776197 112 98 95
581.907069674821 447.569373991881 2993.71758090924 112 98 95
594.229736840811 448.643728091846 2976.71845105662 143 132 128
560.351900911493 445.800317308428 2990.43406816482 156 147 142
553.14651183443 445.218969596926 2986.44281984066 94 80 77
557.416788733197 445.611367391999 2974.71909928754 54 39 34
578.35836355456 447.418750096994 2951.62016826521 45 27 25
211.720591512638 417.485006427517 2885.7756603428 209 209 207
202.468961616841 416.731625614727 2884.00558136326 129 128 126
195.61850853826 416.183258552385 2880.2718007726 182 181 177
182.430364600435 415.093493571115 2881.82212700253 183 182 177
168.490440297799 413.939280519025 2884.06218178923 151 150 145
156.170014075735 412.92321104501 2885.00657728537 141 142 136
147.814172765482 412.245854959222 2882.65122301959 152 153 145
142.605895513047 411.837538727448 2877.63852685775 172 173 167
135.829105089704 411.295139161691 2873.95817612447 163 164 158
129.055781969517 410.753005550204 2870.28034026034 161 162 156
122.285738074113 410.211133014918 2866.60517737568 151 153 148
115.519300589448 409.669542280745 2862.93233580547 148 150 147
107.983226078711 409.06205230947 2859.9365652438 139 141 138
98.9136434957318 408.323255063776 2858.29853011503 138 140 137
90.6290658170188 407.651522767359 2855.9948648622 139 141 138
82.3566706069827 406.980747514859 2853.70003578851 147 149 146
74.0963623998332 406.310906636531 2851.41397357395 159 161 158
69.6580649689853 405.968412860442 2845.72445451446 166 168 165
66.7292493422322 405.755309835013 2838.65977315995 165 167 164
61.5091838632083 405.345904201835 2833.63852594304 167 169 166
54.0177971013289 404.741785102952 2830.67487308131 172 174 171
45.0278670251283 404.009082135726 2829.0946106233 165 167 164
41.3109759088277 403.728471241968 2822.69333121659 157 159 156
38.3285311173456 403.510934040383 2815.58975047609 151 153 150
34.5809729513151 403.227808901681 2809.16622713542 133 135 130
25.6084884382934 402.4963055387 2807.59891189172 136 138 135
18.8791527182968 401.957182766899 2803.95297868323 126 128 125
15.1129215154158 401.67241048038 2797.51591051652 111 113 108
14.2833612851887 401.639877139154 2788.26853445571 75 77 72
9.00876305267273 401.225669987555 2783.20743648436 34 36 33
2.26172666165603 400.684899583068 2779.54895781313 38 40 37
-4.48186852691834 400.144337852164 2775.89268032295 40 42 37
-6.84859812792094 399.979897333852 2768.00067698001 41 43 40
-13.5987818262437 399.438667436597 2764.33961995411 39 41 38
-15.9983478788706 399.271496697309 2756.42350446049 38 40 35
-19.8657578707091 398.9781095938 2749.91304599465 43 48 42
-18.7066305560808 399.117218579611 2738.40277701341 43 48 42
-21.1823733224656 398.943722739847 2730.43170183344 31 36 30
-17.239611367359 399.322777573012 2716.00012338798 29 34 28
-23.3489719832374 398.83667837829 2711.56885530907 29 31 26
-33.7271406446535 397.982868310036 2711.45168890122 24 26 21
-37.698253387108 397.680687214825 2704.86630403205 32 34 29
-34.614405636145 397.986361030179 2691.04674528975 21 23 18
-25.951365396361 398.773106133978 2671.39292250473 18 20 15
-20.8945229261548 399.249539317283 2655.29909030545 23 25 20
-24.3129108839271 398.995550724963 2647.87930042673 9 10 5
2.62253087604947 401.484457934348 2574.78346363359 202 204 201
-15.4936969950736 399.962564628358 2582.64000982223 210 212 209
-26.6656468818443 399.039670047808 2583.18269012055 108 110 107
-37.122534724553 398.178198355941 2583.00841969059 111 113 112
-49.6019637473877 397.141694991443 2585.07277826771 118 120 119
-54.5581721461557 396.754895128722 2579.00788455276 141 143 142
-59.5240083770867 396.36720039417 2572.93571240708 141 143 142
-61.7957431757863 396.212317806231 2563.8772901302 153 155 154
-65.4425372319021 395.938586088522 2556.29182379355 156 158 155
-63.7353294551481 396.127936615944 2542.70875678381 157 159 156
-56.7274373374296 396.776075371368 2523.08971084023 158 160 157
554.634812405067 437.389887969245 3046.7682402012 179 174 171
561.883130184174 437.990655037021 3033.49872162658 163 155 152
581.605360786926 439.611069859118 3011.98557714134 139 130 125
604.775667548021 441.513671979008 2988.03271051233 115 101 98
634.932709369738 443.98769854625 2959.2663951459 127 113 110
595.563825902075 440.779913373382 2976.41039780991 131 122 117
549.26259201223 437.005467978281 2998.40729792812 144 137 131
555.356010777167 437.513508993795 2985.53542984185 140 130 128
569.331532241656 438.666127251071 2967.26451803183 111 100 96
203.781965014187 409.240088359362 2902.21115015063 202 202 200
204.153580168353 409.285669107679 2892.59989079438 209 209 207
198.909229689478 408.871074530236 2887.56071810277 152 151 147
192.864562771676 408.390903300418 2883.17637789253 161 158 153
178.098237496344 407.195825430837 2886.05248109572 80 77 70
164.169928257555 406.069348429567 2888.30109637865 77 77 69
153.438462742999 405.204870392596 2887.92776350686 82 82 74
146.663148851241 404.664714238203 2884.24878898317 65 65 55
139.89153477286 404.124899727416 2880.57220378663 47 48 40
135.468974015068 403.777706415826 2874.8940687732 95 96 88
128.697510114891 403.237892025595 2871.21788692168 108 109 101
121.152298749361 402.634602777492 2868.21521965944 126 129 122
112.064139035946 401.904721295229 2866.56405720949 144 146 141
103.765798386203 401.239595932783 2864.25044835066 167 169 164
95.479732817715 400.575409822576 2861.94544824067 174 176 171
87.2057093724297 399.912187213092 2859.64947708013 185 187 182
80.4766686956473 399.375682621466 2856.00406549339 183 185 180
73.7511385511818 398.839444595754 2852.36090563962 175 177 172
70.0773830229089 398.553665312485 2845.99086996232 147 149 144
67.1492049107405 398.329075908537 2838.92659257497 137 139 134
62.68716894769 397.978609985313 2833.21982456638 86 88 83
54.4376627163228 397.317171908203 2830.94163549644 42 44 39
44.6936425717333 396.532972820175 2830.04978732299 29 31 26
40.228387047883 396.182134056966 2824.34068349756 29 31 26
37.2509614265097 395.953457971849 2817.24068483994 17 19 14
31.2681319328632 395.477960204058 2812.90119557016 33 36 29
21.5617221447655 394.69655864071 2812.03633163977 31 33 28
16.3299146380025 394.282617143424 2807.00654940132 30 32 27
17.0136266618282 394.354656456887 2796.386338638 35 38 31
16.9185988698635 394.362732641493 2786.43660988344 35 38 31
10.9016947225204 393.884250407434 2782.07240405309 44 46 41
5.61707941339185 393.465888997665 2777.00431792401 45 47 42
2.52115269211384 393.22735620028 2769.81807088692 46 49 42
-12.25933541832 392.028384579458 2773.91892405528 47 49 44
-10.2694183636758 392.207798251101 2761.77607980848 47 49 44
-2.53139285126514 392.859794865064 2743.92137931454 47 50 43
-16.5528663696137 391.722927030805 2747.33744182057 43 48 41
-26.925648721779 390.885873733595 2747.22455941662 34 39 32
-31.4856553981804 390.55821630528 2720.44979079515 29 32 25
-52.8751796509885 388.830158771163 2720.99196932482 32 35 28
-41.2562948664981 389.801739685135 2698.54169104412 31 34 27
-21.2903275273548 391.460312279667 2667.32395885565 30 33 26
-29.5946550158455 390.792827454313 2665.0059980585 27 30 23
-45.5917984867233 389.492103400757 2670.69472413065 16 17 12
-22.5209231981882 391.454228248111 2602.20552110114 209 211 208
-19.1867155330956 391.744586928451 2587.33204492315 203 205 202
-27.5976735362242 391.067814128244 2584.93673834491 113 115 112
-35.9963461775306 390.391887219818 2582.55034197225 110 112 111
-45.7484257620049 389.604331819639 2581.65263433845 117 119 118
-51.3957924140194 389.154728556908 2576.32112929625 130 132 131
-54.3353252563548 388.928052476938 2568.01357342405 133 135 134
-56.6217515579945 388.755117021578 2558.94440952182 146 148 147
-59.609447774726 388.524334645373 2550.60162371545 150 152 149
-59.2616584548713 388.568337184187 2538.50271677408 157 159 156
-50.9251420556403 389.270634985355 2517.37701999426 152 154 151
549.665340669398 429.247040248645 3050.53532768645 176 168 166
565.908892374464 430.51431641676 3031.43877242949 150 142 139
581.148154735472 431.702620934734 3012.84911749367 121 112 107
632.708717148554 435.737672734342 2961.31779207985 139 125 122
556.681334525575 429.727457688492 2985.22141631981 147 142 139
578.602128629144 431.441800779652 2961.59712883657 135 130 127
204.205393384178 401.745183937827 2902.48013924396 14 15 10
202.979281005192 401.642806510609 2894.17997692281 35 34 30
198.536649817868 401.287866419738 2888.48754766474 67 64 57
189.313722622126 400.55757928951 2886.73839285906 61 57 48
175.349699331677 399.455041492761 2888.96123952056 52 49 40
159.056438505963 398.169695103029 2893.2000505874 52 49 40
149.127842837542 397.384132166682 2892.17409829251 53 53 41
141.579284801519 396.785466216215 2889.16932285235 58 58 46
133.254472824955 396.125880929309 2886.83655242536 45 47 34
130.415857014446 395.897009046314 2879.83717897023 22 24 13
125.219543921004 395.483035058938 2874.8328327479 24 25 17
120.017650450244 395.068619357142 2869.82473343061 22 25 18
105.50564683941 393.923371149843 2872.88515775593 22 24 19
98.772872696808 393.388782094988 2869.2370494027 20 22 17
92.0437045523133 392.854482275795 2865.59126210248 20 22 17
84.5489785788951 392.260080239051 2862.62553227089 21 23 18
80.8953031210153 391.967152792567 2856.2700168583 22 24 19
76.4629211891674 391.613055051246 2850.5847272939 22 24 19
72.0209097394289 391.258184679562 2844.89245317295 21 23 18
68.3287717476619 390.962129293333 2838.50933408209 25 27 22
63.10699668553 390.545965646925 2833.48651884422 25 27 22
56.368259925021 390.010759129938 2829.83408493446 31 33 28
47.3726537546808 389.29841705538 2828.24981088661 34 36 31
46.6573035537259 389.235764826019 2819.08507555528 25 27 22
31.6781338113796 388.053882576191 2823.04169225259 28 31 24
19.737918392289 387.110430510507 2824.26237297243 28 31 24
16.0231590530899 386.812323081125 2817.86255031303 28 31 24
27.8858516676945 387.736210770433 2796.82351410809 31 34 27
25.5767016067465 387.548161076471 2788.97313181741 32 35 28
-1.11121588601382 385.447669964347 2804.19923291071 34 37 30
13.5308155193292 386.589224931518 2780.23595472008 36 39 32
6.03877097295236 385.994435214141 2777.2721667485 40 43 36
-32.8979770737705 382.933234744205 2804.61105806944 47 50 43
-30.0704076502334 383.147810984778 2791.84058737739 63 66 59
-25.1153742904646 383.529115863336 2776.90750636682 67 70 63
18.9141727942821 386.974601759545 2723.61920531875 69 72 65
-0.954217795616552 385.408809847492 2732.67571673987 64 70 60
-47.9016756937924 381.671314373277 2706.03438017894 23 26 19
-51.8783191899768 381.351057909452 2699.44459991603 27 30 23
-71.0839478279748 379.82828279392 2697.86556641482 16 17 11
-15.9863737935932 384.099240526276 2584.6728747682 206 208 205
-25.0940148918866 383.375649191826 2583.00732723041 102 104 101
-34.1851064834382 382.653281954758 2581.35407746057 107 109 108
-43.2593931879524 381.932146254946 2579.71272167293 115 117 116
-48.2326472020764 381.532148277429 2573.63510989956 129 131 130
-51.1803780749638 381.290671185287 2565.32153613001 138 140 139
-52.7983664926919 381.153167200796 2555.50178547617 153 155 154
-55.122558971306 380.960200442829 2546.40543708081 145 147 144
-51.4271967767548 381.238434795916 2530.55867148733 157 159 156
526.519700239946 419.791465014692 3074.46781816781 194 190 189
542.893289019368 421.000510504757 3055.46523461132 169 164 161
551.075145330326 421.589669354722 3041.63736261402 152 144 141
563.667587062303 422.512202932377 3024.83302910068 107 96 92
536.830720484377 420.36503854915 3007.83790371576 160 155 152
569.511544191234 422.805193190349 2977.19555576543 132 128 125
203.024466501853 394.129463634378 2904.05585275541 10 11 6
197.005672844968 393.650171147007 2899.69027307518 57 56 51
191.783643967497 393.230738368775 2894.66725728236 72 68 59
180.193957064234 392.33320566161 2894.90694508834 57 53 44
167.840869406022 391.378531039326 2895.82826906644 43 39 30
154.731165420965 390.367246289909 2897.43585560997 48 46 34
144.026355387076 389.536606802148 2897.0820172639 50 48 36
134.919762665575 388.826022888346 2895.41759007899 46 46 34
123.476926632251 387.940259783766 2895.76379282991 42 42 30
115.974747659568 387.350217285202 2892.792387765 22 24 13
101.460585758976 386.234362843307 2895.85169086225 25 27 16
108.771072352241 386.755094929796 2880.1567611364 25 28 21
98.1682399072561 385.932619680323 2879.87688987431 26 28 23
99.9645071406907 386.039583276244 2868.82833439471 23 25 20
102.487008810721 386.200733067244 2857.07147959138 23 25 20
91.1186609213059 385.320877377429 2857.47171030969 25 27 22
117.352576744286 387.257997136686 2824.62368101509 25 27 22
84.6378261659626 384.750674826202 2834.24399935327 25 27 22
62.6665387095708 383.077080213998 2844.24560317429 24 26 21
64.2844205786028 383.169704625645 2833.06765970631 24 26 21
46.2063244355475 381.787973319018 2839.71752171735 31 33 28
28.9512377479397 380.468130749279 2845.72898321898 35 37 32
29.0432839412187 380.446404792066 2835.91471743496 27 29 24
32.0960591257617 380.645930079431 2823.30713249212 27 30 23
-3.00275221067303 377.991908681597 2846.01977423003 27 30 23
13.4610705911649 379.19414517578 2820.90709113014 27 30 23
63.2094869441948 382.88396793071 2764.35494934649 28 31 24
3.78589894199166 378.41223691179 2810.18398783914 29 32 25
0.0441876834522681 378.103059183855 2803.76457108499 31 34 27
-27.2643889363706 376.032976485321 2819.77622826239 35 38 31
-20.6910093853183 376.494412887646 2803.54665356667 38 41 34
-24.4360813401903 376.18479114236 2797.12479832299 41 44 37
-34.0306066841825 375.438262794919 2796.34121845358 43 46 39
-20.3337391708063 376.430557470787 2772.92705138326 40 43 36
-23.4319886084067 376.16861398972 2765.73929645683 37 40 33
-29.4400979524836 375.689387977312 2761.38146239968 28 34 24
-54.9053410279381 373.758465422652 2776.25972854022 26 32 22
-70.9136323028336 372.533464293209 2781.94046240584 26 32 22
-81.1317344430687 371.740516424537 2781.93993439124 28 34 24
-92.7525322355591 370.843052010644 2783.39240070183 34 37 28
-37.5735484438078 374.860087582556 2696.19497463521 29 32 23
-34.9222005468233 374.957825039592 2661.06373919861 11 12 6
-26.4449108273894 375.554998549962 2641.2745961568 165 167 162
4.6516297038437 377.764184471706 2574.89921618634 197 199 196
-10.71606922822 376.585400991828 2579.80952658451 203 205 202
-21.9023328161221 375.717719709067 2580.34181576463 94 96 93
-31.0027760950367 375.005166645918 2578.68154199074 107 109 108
-38.7205370285015 374.395325017923 2575.55405115224 100 102 101
-42.3451913626332 374.089534525321 2567.98447198853 146 148 147
-46.6670874486494 373.731742272945 2561.14422062903 144 146 145
-48.2974909637692 373.57360210624 2551.31565995683 138 140 139
-50.6339701095886 373.362729601105 2542.21001952104 155 157 154
-44.2616031338599 373.797980159579 2523.36422614776 148 150 147
535.217956946658 412.731995188879 3060.97555402579 171 167 164
539.828935164184 413.018157085972 3049.49798254678 146 141 137
551.557338077849 413.820660249935 3033.30171750603 98 89 84
211.073175388388 387.234601290835 2907.38524202274 112 114 111
205.85278147693 386.81194326388 2902.36368959217 29 28 23
199.027563583974 386.274208706439 2898.64825638185 36 33 28
189.813169413813 385.565321546388 2896.90539574359 55 48 40
176.638002377612 384.572862593124 2898.46562208066 63 56 46
165.881284511239 383.753920205258 2898.07450836419 74 70 59
151.194797057185 382.653869937223 2901.00867456436 70 66 55
141.288686297595 381.896344018565 2899.99945854978 57 55 42
132.190518728967 381.196812765619 2898.34090044488 57 55 42
123.10891445928 380.498600920675 2896.69435611192 38 38 26
110.132358860099 379.522030073412 2898.39864059465 25 27 16
64.4300139619389 376.206555137517 2928.24252715194 23 26 19
109.444422911372 379.325975953849 2870.72608090984 27 29 24
80.7692358957755 377.130152712986 2867.2193943227 28 31 24
59.7102783836068 375.52849577143 2866.76681135202 27 30 23
46.9312334764318 374.567604369914 2868.61435496996 26 29 22
32.860933437274 373.465108828712 2862.11431420385 25 28 21
26.2121825150232 372.941423620676 2858.52687682932 29 32 25
28.6117807134656 373.061901070833 2846.68072066311 32 35 28
25.7012122723523 372.804001795672 2839.62874570403 23 26 19
7.03499150248277 371.425031913663 2847.08760871528 27 30 23
2.63887243117367 371.061504898716 2841.42855911124 27 30 23
2.70255692131505 371.014898165107 2831.5936072973 26 29 22
15.3571350804413 371.862709400795 2809.89320385183 26 29 22
18.2732923173252 372.017710574284 2797.18635611974 27 30 23
-7.66103426894982 370.123409939456 2811.72505358682 27 30 23
-15.809286847787 369.492672661411 2809.52012647903 22 25 18
-19.541979988525 369.175334031505 2803.10750029138 24 27 20
-18.8981761126104 369.168250758669 2792.45795848845 25 28 21
-13.9177132024768 369.468243220303 2777.54290003821 25 28 21
-19.1875228600269 369.041044272478 2772.48550207805 20 23 16
-25.187951069682 368.561970035076 2768.13323700794 17 20 13
-34.8041650690141 367.826738688294 2767.33399179095 20 26 16
-33.5882759559614 367.858508507062 2755.8643269547 20 26 16
-43.9142989468411 367.072986015907 2755.78560242332 17 23 13
-52.7822566262108 366.390760095523 2754.29401603499 16 22 12
-31.6399918252286 367.83076284834 2722.69315772852 18 21 12
-68.3327002899865 365.181065956501 2749.19081232095 24 27 18
-48.7685267371134 366.50794125704 2718.91546223615 22 25 16
-30.7793619159782 367.722008925694 2689.96815105188 23 26 17
31.4936435632154 372.060957534965 2615.32577198264 22 25 16
-39.5497862822174 366.987781074762 2677.43079214981 20 21 13
-7.84463052360085 369.106667831169 2622.61236605696 91 93 88
8.55725559631626 370.080304465146 2571.51579527886 201 203 200
-10.2728967272836 368.692932699835 2580.09081488034 204 206 203
-20.7727183337358 367.892337341633 2579.88602367645 108 110 107
-27.8197316734008 367.334693205482 2576.00970536753 106 108 107
-34.8633221417596 366.777244212334 2572.1358693595 109 111 110
-39.8605685544293 366.363483665932 2566.0410897513 151 153 152
-45.5462575903298 365.901164576453 2560.681739587 144 146 145
-47.8545775179948 365.675780692383 2551.59673334343 138 140 139
-48.8413353944062 365.542736753952 2540.99956114193 138 143 139
-43.1428699690133 365.878052917805 2522.90006707185 146 151 147
538.347194712362 405.26434123623 3059.50077575929 174 170 167
539.359851432745 405.267167021406 3050.35400455258 144 141 136
553.782322377951 406.202164104319 3032.40599366536 103 94 89
214.712639088058 379.959237202227 2905.0462747814 98 100 97
210.285887183777 379.587351288362 2899.36497644353 19 18 13
201.849698374119 378.941692328877 2896.95153711293 49 46 41
188.63901769255 377.970433131802 2898.48612623151 70 63 55
173.875835281876 376.893780245359 2901.36481313323 66 59 49
162.333637699581 376.037240419904 2901.63913459848 63 56 46
151.612443073797 375.237007921718 2901.2738672065 64 60 49
141.705655054789 374.492555840883 2900.26422645368 57 55 43
132.606865783824 373.803354711004 2898.6052699876 51 49 37
128.232636522428 373.435798396731 2892.96206836472 37 37 25
112.894155483872 372.322514356928 2896.65885457581 23 25 14
99.9482398429814 371.372472573608 2898.38548499314 26 27 19
87.8190377030257 370.47838026544 2899.46912074572 20 23 16
101.327867978527 371.325577333415 2878.38797977916 19 24 18
81.4575172929484 369.906041974986 2886.20877447417 20 23 16
91.7531684695882 370.533738819585 2867.73795506515 20 23 16
68.1069953863682 368.859039250575 2878.99576069005 20 23 16
61.4368860219949 368.335908971462 2875.39284293583 20 23 16
48.6507789997095 367.398567025248 2877.23538635845 18 21 14
34.3779444645991 366.361025411136 2880.46973500601 17 20 13
29.2783926395859 365.944729139455 2875.53581580634 18 21 14
29.4817322075489 365.886961991738 2865.80175193199 18 21 14
23.5998901428478 365.417427342796 2861.535500809 20 23 16
23.7482042906145 365.355205412782 2851.76181974591 31 34 27
27.6189404678369 365.543856117473 2838.51210047172 25 28 21
30.6820116498576 365.677250146603 2825.91164434932 27 30 23
12.0188755339554 364.344559875173 2833.37268343039 26 29 22
5.35128827013054 363.821390361494 2829.77188827898 26 29 22
13.5455630378756 364.299512329561 2812.24705189771 24 27 20
8.32209288078234 363.873027931467 2807.2232500497 24 27 20
6.78580140263119 363.694575999595 2798.69784694765 24 27 20
-8.76814090854428 362.572890193669 2803.47343475665 26 29 22
-16.1904966064788 361.99849988216 2800.55997456853 25 28 21
-22.1414325931666 361.523024328043 2796.2436056951 25 28 21
-20.0666544267825 361.586367392444 2784.16169115872 25 28 21
-23.134000627977 361.30394845325 2776.99623493564 27 30 23
-32.7476731511891 360.582178653372 2776.19890027432 29 32 25
-28.6015199467489 360.782953076464 2761.91386146067 24 29 22
-31.0061938457737 360.543997089429 2753.99367957376 24 29 22
-34.871583539646 360.206894710727 2747.48475871557 25 30 23
-31.5862413893497 360.347987547152 2733.81043392835 26 31 24
-39.0735206444148 359.767889624853 2730.84988035795 28 31 24
-49.4015457061485 358.997962374889 2730.76978347566 30 33 26
-48.3460874234811 358.988596170265 2719.18361054463 27 30 23
-36.0130007507065 359.731342534762 2696.01458225624 25 28 21
-49.1925545312715 358.770590042962 2698.80682577738 24 27 20
-57.1950329506867 358.07356977959 2685.59131911551 8 9 3
-25.5766671134077 360.096200770396 2641.82570269592 0 1 0
5.54167556765428 361.90864672613 2575.46411800301 206 208 205
-11.2101408156526 360.708431922148 2581.84131130378 154 156 153
-20.3308689147155 360.015429680784 2580.16643165963 96 98 95
-26.6925671321774 359.50552773658 2575.55211810256 119 121 120
-32.3717608043115 359.040762589199 2570.19746417631 117 119 118
-37.375373054175 358.620579169264 2564.09803730376 132 134 133
-43.7466614494251 358.109631466538 2559.47676632516 132 134 133
-45.3817062932518 357.911818806003 2549.64464010573 145 147 146
-43.0013135124734 357.978838917571 2535.31392301501 142 147 143
-32.6114282856236 358.573904347477 2511.97051512465 152 157 153
550.572038786833 398.298582364857 3043.6250437319 181 178 173
560.489998584555 398.870699580477 3028.58525614779 96 85 79
581.954620663722 400.209162798547 3005.8634125524 110 86 82
223.179954388223 372.975194111716 2898.79778706576 82 83 78
213.91771235656 372.283184249072 2897.02032597841 15 14 9
202.2717892023 371.436903969778 2897.21950652957 53 50 43
185.868040743365 370.282780775959 2901.37888742452 52 45 37
170.316068881692 369.184687298077 2904.92098652501 53 46 36
165.926046750456 368.809772652025 2899.26629904234 52 45 35
156.778007145069 368.126992055599 2897.57167247906 53 49 38
149.224899475306 367.547560973421 2894.5636963407 51 49 37
137.744795290455 366.714609328238 2894.88315011369 46 44 32
131.003303869502 366.187988975376 2891.22846830538 34 34 22
125.830407130764 365.76261439742 2886.24133382908 19 20 12
94.1181183619304 363.626400894074 2904.00075211805 22 23 15
84.3398349579205 362.905353399983 2903.08438565191 20 23 16
91.6552460189921 363.284985774577 2887.39201660298 20 25 19
81.0967825416351 362.513634001684 2887.14486277992 20 23 16
79.0516831112265 362.289964817924 2879.4857160067 20 23 16
70.0587297365596 361.619576172289 2877.90357752944 22 25 18
67.9876272182152 361.393790090035 2870.22527536332 23 26 19
52.1224659764106 360.282730901055 2874.77530775367 24 27 20
39.3647356600493 359.371742138079 2876.63855554006 24 27 20
48.7047913515539 359.876927790635 2858.70942065631 22 25 18
45.0620206420918 359.549597559537 2852.36163607167 20 23 16
30.060967854376 358.495447616796 2856.30333074873 20 23 16
24.1604766854113 358.023834616183 2852.0235499648 29 32 25
27.281393001545 358.128398465961 2839.46488098406 24 27 20
33.3471437229287 358.42002490577 2824.10149182463 31 34 27
26.6343190738283 357.895453456383 2820.46789602614 30 33 26
10.9816006519075 356.801156426429 2825.17201765402 30 33 26
7.2741779279788 356.468454237556 2818.77733823432 29 32 25
10.9611686862188 356.606022230092 2805.39415924058 29 32 25
10.1578496649215 356.457075522119 2796.16521633549 29 32 25
-6.87972071720666 355.276066931985 2802.33506327046 23 26 19
-25.3210190294719 354.006962399554 2809.95723938394 27 30 23
-35.6357754972529 353.254584410715 2809.88685007903 28 31 24
-37.8966927536779 353.013095517218 2802.07116209762 26 29 22
-42.3635997169147 352.631451987877 2796.36070507631 25 28 21
-46.1149619758616 352.29487655161 2789.93415333121 25 28 21
-15.8874521891779 354.106728548351 2750.09964903486 28 33 26
-39.2395117042463 352.529342162947 2762.80619340167 27 32 25
-45.2344313853477 352.049481961603 2758.4579176004 24 29 22
-33.3143550931172 352.699658076371 2736.22435149273 24 29 22
-49.3687474979625 351.584666997417 2741.872222888 27 30 23
-61.0890175116334 350.743597442479 2743.25257083667 35 38 31
-64.2547429774563 350.441334602423 2736.01569687187 32 35 28
-62.4844811880254 350.449001404143 2723.71274990389 28 31 24
-42.417477221055 351.605083896006 2692.56571611173 25 28 21
-2.81944194132677 353.984057343184 2641.00025095809 27 30 23
-25.2155240509491 352.470455047386 2653.16509019746 12 13 7
-66.3840619849403 349.78237686159 2685.06377143833 104 106 103
-73.8867770815093 349.205479378216 2682.09204430787 78 80 77
0.447256129700868 353.634183955718 2581.61003483457 196 198 195
-10.7680251490883 352.820627648092 2582.12185710199 203 205 202
-19.8893840283656 352.138119089878 2580.44657334438 71 73 70
-24.1938485632618 351.75598193522 2573.61883517657 138 140 139
-29.1960834379956 351.330059781719 2567.5200832478 123 125 124
-34.889583677522 350.860875027323 2562.15533027638 104 106 105
-40.588471677055 350.391171656534 2556.78666897585 110 112 111
-42.9081685611901 350.131055690288 2547.69294493187 134 136 135
-35.8096852148875 350.45444734878 2528.13792559513 136 141 137
578.854443105365 392.240485756629 3017.16195111133 175 172 167
584.181785675657 392.470247533542 3004.96836513268 88 69 65
593.913971225998 392.978260713461 2989.79387560946 107 83 79
612.468358167902 394.043650384532 2968.66606717182 92 78 75
217.970413512115 365.094786181298 2903.62720924625 204 205 200
208.723053462846 364.414347477132 2901.86059503573 20 21 15
201.893240187411 363.882730314386 2898.1418615204 25 24 19
182.297144029761 362.567715392847 2904.926961963 32 28 19
172.325925936097 361.844298273798 2903.87042654327 30 23 13
166.344283691855 361.365707860313 2899.53178227105 23 19 8
157.987173451132 360.741712223625 2897.17577841169 31 28 19
148.853052504981 360.070432213736 2895.49130003425 37 34 25
137.374087830755 359.256160676125 2895.81167448124 28 28 18
132.989411156304 358.875647836752 2890.16112815535 36 36 26
115.288259077957 357.682560507823 2895.849869376 15 16 8
99.2130125696482 356.589813068028 2900.24769922584 18 19 11
80.0803830264902 355.31193048186 2907.36867011373 21 23 18
81.9782649802985 355.315091413931 2896.39325153254 23 25 20
93.1189329530913 355.879245739372 2877.29964434802 20 23 16
77.1495173263128 354.794944825634 2881.77423604574 20 23 14
72.7801962215415 354.41563572837 2876.13453292018 20 23 14
68.4010534294046 354.035530964895 2870.48770581364 19 22 13
57.8903454573627 353.283820287729 2870.27527046156 18 21 12
45.8788744818563 352.441776131766 2871.44481015893 17 20 11
54.4436339389871 352.844388977851 2854.18816356694 16 19 10
52.3032686299638 352.59871306528 2846.45955057981 15 18 9
28.9600795354366 351.07308709312 2857.93775085127 15 18 9
14.7673769470376 350.101059372182 2861.2308151749 31 34 25
22.4309567358896 350.44635864621 2844.55563053392 27 30 21
23.2656521786305 350.379121875491 2834.04445988931 25 28 21
29.2932236417025 350.623213439062 2818.65315299723 25 27 22
7.66853183947758 349.205193920468 2828.90730594291 25 27 22
10.6616893974221 349.265943881541 2816.25579998586 25 27 22
9.15453314944159 349.055831015886 2807.75165174209 26 28 23
-1.98467914180966 348.268403624424 2808.31845591306 28 30 25
-12.3575682092101 347.527379865012 2808.20598255749 29 31 26
-32.9871775858543 346.173937562112 2817.94678245672 29 31 26
-41.8141597915289 345.526770013889 2816.4850776413 27 29 24
-35.2941650037262 345.795076263064 2800.21582494911 27 29 24
-31.0334331726421 345.927194135412 2786.01320439115 30 32 27
-43.5248821346852 345.061077219715 2788.06971249877 33 35 30
-49.4669850757199 344.585040216755 2783.75974404479 28 33 26
-41.707130367256 344.922588693205 2765.91927525912 27 32 25
-57.0403244688591 343.888477114532 2770.85533173696 22 27 20
-59.4149578316232 343.623332880901 2762.95708870427 18 23 16
-70.387766532604 342.848721386092 2763.6445873041 15 18 11
-79.9059584791861 342.160682605337 2762.9166394047 20 23 16
-62.4161751648429 343.068108045939 2734.84079933469 20 23 16
-46.4890455153926 343.880178705969 2708.10204301897 24 27 20
-17.9957409910663 345.429769716584 2668.24408454377 24 27 20
-39.6730734671016 344.021560087075 2679.69545793684 37 38 32
-55.6434534901644 342.950871659989 2685.40445610225 31 32 26
-68.057322406391 342.090285327533 2687.51723165421 113 115 112
-6.72772308525404 345.281561313091 2589.95301242892 197 199 196
-7.56481604447323 345.093900592515 2579.46405887513 109 111 108
-14.6314460658505 344.541682607082 2575.57384197654 70 75 71
-20.3226897758739 344.069653235697 2570.21041592594 114 116 115
-24.6520670599657 343.676737933616 2563.36456338113 122 124 123
-28.9958797845364 343.282596346453 2556.50853454309 96 98 97
-34.712170862075 342.808313819656 2551.12693970857 103 105 104
-34.3405313966598 342.687055419428 2539.04448516747 122 124 123
-27.2655402381061 342.953161432036 2519.47214567939 129 131 128
607.985119382846 386.151326136298 2998.7247348028 197 197 197
603.40493127353 385.746032631547 2992.93203806938 103 92 90
603.278488435449 385.609255891129 2984.19383879804 70 56 53
619.144821587783 386.435533139236 2964.82159601549 95 84 82
200.685944993269 356.550610437626 2918.22691839506 215 217 214
202.722889901979 356.536815535216 2907.35222363298 31 33 28
193.509189002991 355.869461681559 2905.61007593617 21 23 18
186.706988713035 355.342232255933 2901.91138188806 26 26 18
173.539695565303 354.446658461724 2903.47780691734 24 24 14
168.349878558193 354.013233891581 2898.47807132559 25 25 15
159.987965365901 353.396481434644 2896.11862239227 29 29 21
150.059311262325 352.68961419536 2895.09332082273 34 34 26
138.577104030568 351.893682704882 2895.41143756652 33 34 26
127.124747850379 351.100154546536 2895.75120614799 29 30 22
115.702099523071 350.3089957157 2896.11252258712 20 21 13
81.6683348365643 348.219585504639 2915.89469487313 22 23 15
63.3620828946491 347.036233615012 2922.38016670735 24 25 19
71.5202984765617 347.371362246436 2906.06379706952 24 25 19
81.921252254106 347.833075201498 2887.66817854502 22 25 18
82.1935159634668 347.71338405713 2877.98406007145 23 26 19
