ply
format ascii 1.0
comment KinectMotionCapture
element vertex 757
property float x
property float y
property float z
property uchar red
property uchar green
property uchar blue
end_header
26.2444596737623 612.394690513611 2622.99990653992 130 131 126
33.4143377840519 613.092601299286 2625.99992752075 137 138 133
40.5077785253525 612.389206886292 2622.99990653992 134 133 129
47.6211123168468 612.15215921402 2621.99997901917 145 144 140
54.7706335783005 612.381398677826 2622.99990653992 146 145 141
61.9726367294788 613.077104091644 2625.99992752075 141 140 136
69.1644623875618 613.53874206543 2628.00002098084 144 143 139
76.3379335403442 613.766252994537 2628.99994850159 152 151 147
83.548367023468 614.226698875427 2631.00004196167 149 150 145
90.9073650836945 615.620493888855 2637.00008392334 147 148 143
98.187118768692 616.31315946579 2640.00010490417 145 146 141
105.482913553715 617.005228996277 2642.99988746643 150 151 146
112.879984080791 618.163704872131 2648.00000190735 158 159 154
120.349295437336 619.555056095123 2654.00004386902 165 165 163
127.802774310112 620.712280273438 2658.99991989136 163 163 161
135.333895683289 622.102379798889 2664.99996185303 178 180 177
143.164753913879 624.659061431885 2676.00011825562 186 188 185
151.39228105545 628.615617752075 2693.00007820129 189 191 188
159.476056694984 631.637752056122 2706.00008964539 198 200 197
167.506754398346 634.192407131195 2717.00000762939 201 203 200
175.918608903885 637.913465499878 2733.00004005432 206 211 207
-115.145370364189 598.778426647186 2595.00002861023 187 189 184
-107.175171375275 593.710958957672 2572.99995422363 185 187 182
-99.7915044426918 591.411828994751 2562.99996376038 167 168 163
-92.4257040023804 588.881313800812 2552.00004577637 167 168 163
-85.2869302034378 587.503969669342 2546.0000038147 164 165 160
-78.1805589795113 586.126029491425 2539.99996185303 161 162 156
-71.3591203093529 586.824297904968 2542.99998283386 160 161 155
-64.4198060035706 586.599051952362 2542.00005531311 158 159 153
-57.5083680450916 586.603999137878 2542.00005531311 158 157 152
-50.5967661738396 586.608409881592 2542.00005531311 159 158 153
-43.7193848192692 587.073743343353 2543.99991035461 160 159 154
-36.8165448307991 587.307810783386 2545.00007629395 164 165 160
-29.9081522971392 587.541282176971 2546.0000038147 160 161 156
-23.05743470788 589.389562606812 2553.99990081787 174 175 170
-16.1442197859287 590.545117855072 2559.00001525879 156 157 152
-9.22889355570078 593.315422534943 2571.00009918213 149 150 145
-2.25611124187708 598.162055015564 2592.00000762939 164 165 160
4.84197540208697 604.392826557159 2618.99995803833 108 109 104
11.9955241680145 606.007516384125 2625.99992752075 123 124 119
19.1433876752853 606.2371134758 2627.00009346008 126 127 122
26.2866243720055 606.235206127167 2627.00009346008 132 133 128
33.4934145212173 607.386589050293 2631.99996948242 136 137 132
40.6037382781506 606.691241264343 2628.99994850159 136 135 131
47.7158017456532 606.226146221161 2627.00009346008 149 148 144
54.8586174845696 606.222093105316 2627.00009346008 145 144 140
62.0484761893749 606.678783893585 2628.99994850159 139 138 134
69.1963955760002 606.6734790802 2628.99994850159 149 148 144
76.4021947979927 607.129096984863 2631.00004196167 156 155 151
83.6503952741623 607.814908027649 2634.0000629425 147 148 143
90.9491777420044 608.730912208557 2638.00001144409 144 145 140
98.1578305363655 608.953952789307 2638.99993896484 148 149 144
105.571240186691 610.330283641815 2644.99998092651 154 155 150
113.102219998837 612.167537212372 2653.00011634827 161 162 157
120.585680007935 613.542556762695 2658.99991989136 164 164 162
127.957209944725 614.224910736084 2661.99994087219 163 163 161
135.4970484972 615.598738193512 2667.99998283386 179 181 178
143.283143639565 617.895007133484 2677.99997329712 187 189 186
151.123195886612 620.190620422363 2687.99996376038 190 192 189
159.135073423386 622.946977615356 2700.00004768372 199 201 198
167.150050401688 625.471949577332 2710.99996566772 200 202 199
175.481855869293 628.919184207916 2726.0000705719 206 211 207
-115.731477737427 594.735026359558 2608.00004005432 205 207 202
-107.392057776451 587.902545928955 2578.00006866455 170 172 167
-99.9552756547928 585.402369499207 2566.99991226196 162 163 158
-92.6142483949661 583.129644393921 2556.99992179871 162 163 158
-85.427813231945 581.540405750275 2549.99995231628 171 172 167
-78.3099979162216 580.178618431091 2543.99991035461 161 162 156
-71.3929608464241 580.184698104858 2543.99991035461 159 160 154
-64.4757077097893 580.190181732178 2543.99991035461 158 159 153
-57.5582757592201 580.195128917694 2543.99991035461 160 159 154
-50.6207756698132 579.971492290497 2542.99998283386 163 162 157
-43.7401235103607 580.431461334229 2545.00007629395 163 162 157
-36.8195362389088 580.434739589691 2545.00007629395 162 163 158
-29.9340840429068 581.121623516083 2548.00009727478 166 167 162
-23.0683423578739 582.720279693604 2555.0000667572 163 164 159
-16.1644611507654 584.318339824677 2562.00003623962 170 171 166
-9.24400333315134 587.284326553345 2575.00004768372 144 145 140
-2.26151803508401 592.530429363251 2598.00004959106 161 162 157
4.85161412507296 598.46019744873 2624.00007247925 107 108 103
12.0147755369544 599.828004837036 2630.00011444092 123 124 119
19.1595181822777 599.598586559296 2628.99994850159 136 137 132
26.3187848031521 599.824845790863 2630.00011444092 140 141 136
33.5088633000851 600.506603717804 2632.99989700317 132 133 128
40.6533814966679 600.27551651001 2631.99996948242 142 141 137
47.7741733193398 599.815785884857 2630.00011444092 148 147 143
54.988369345665 600.4958152771 2632.99989700317 136 135 131
62.1479116380215 600.491046905518 2632.99989700317 136 135 131
69.3072825670242 600.485801696777 2632.99989700317 157 156 152
76.4664486050606 600.4798412323 2632.99989700317 152 151 147
83.7524309754372 601.385653018951 2637.00008392334 144 145 140
90.9909829497337 601.834714412689 2638.99993896484 144 145 140
98.2401221990585 602.283179759979 2641.00003242493 158 159 154
105.659559369087 603.643357753754 2647.0000743866 162 163 158
113.196559250355 605.458974838257 2654.99997138977 163 164 159
120.595321059227 606.36168718338 2658.99991989136 162 162 160
127.919360995293 606.807947158813 2661.00001335144 164 164 162
135.355487465858 607.709527015686 2664.99996185303 180 182 179
143.134027719498 609.978795051575 2674.99995231628 188 190 187
150.85406601429 611.791372299194 2683.00008773804 192 194 191
158.911883831024 614.74335193634 2696.00009918213 201 203 200
166.793271899223 616.782665252686 2704.99992370605 200 202 199
175.238132476807 620.645403862 2721.99988365173 206 211 207
185.653612017632 630.891561508179 2766.99995994568 209 214 210
-115.829482674599 588.141262531281 2609.99989509583 211 213 208
-107.483975589275 581.389904022217 2579.99992370605 166 168 163
-99.9632924795151 578.468680381775 2566.99991226196 162 163 158
-92.6579162478447 576.448321342468 2558.00008773804 161 162 157
-85.468202829361 574.877977371216 2551.00011825562 170 171 166
-78.4086585044861 573.983132839203 2546.99993133545 162 163 157
-71.4267939329147 573.538541793823 2545.00007629395 160 161 155
-64.5062699913979 573.544025421143 2545.00007629395 158 159 153
-57.5629286468029 573.323488235474 2543.99991035461 160 159 154
-50.6447851657867 573.327898979187 2543.99991035461 162 161 156
-43.7264777719975 573.331713676453 2543.99991035461 162 161 156
-36.8225239217281 573.560357093811 2545.00007629395 161 162 157
-29.9012642353773 573.563039302826 2545.00007629395 164 165 160
-23.0340976268053 574.917435646057 2551.00011825562 163 164 159
-16.146844252944 576.721966266632 2559.00001525879 172 173 168
-9.25552472472191 581.005036830902 2578.00006866455 146 147 142
-2.2677956148982 587.09055185318 2605.00001907349 159 160 155
4.86125331372023 592.499256134033 2628.99994850159 110 111 106
12.0385941118002 593.85085105896 2634.99999046326 128 129 124
19.1902276128531 593.398869037628 2632.99989700317 133 134 129
26.370957493782 593.847692012787 2634.99999046326 136 137 132
33.5370376706123 593.845307826996 2634.99999046326 137 138 133
40.7030135393143 593.842267990112 2634.99999046326 147 146 142
47.850713133812 593.613386154175 2634.0000629425 144 143 139
55.034589022398 593.834519386292 2634.99999046326 138 137 133
62.1765442192554 593.604445457459 2634.0000629425 143 142 138
69.365531206131 593.824505805969 2634.99999046326 157 156 152
76.5888020396233 594.269335269928 2637.00008392334 151 150 146
83.7909504771233 594.488203525543 2638.00001144409 143 144 139
90.9293368458748 594.255864620209 2637.00008392334 145 146 141
98.2852205634117 595.375001430511 2641.99995994568 159 160 155
105.668023228645 596.493542194366 2647.0000743866 162 163 158
113.077700138092 597.611546516418 2651.99995040894 163 164 159
120.423525571823 598.278164863586 2654.99997138977 161 161 159
127.833396196365 599.169671535492 2658.99991989136 164 164 162
135.264664888382 600.06058216095 2663.00010681152 183 185 182
143.038362264633 602.302849292755 2673.00009727478 190 192 189
150.809764862061 604.319095611572 2681.99992179871 192 194 191
159.219175577164 608.588039875031 2700.99997520447 200 202 199
166.929736733437 609.92705821991 2707.00001716614 200 202 199
175.123140215874 612.842679023743 2720.00002861023 206 211 207
184.728726744652 620.263695716858 2753.00002098084 209 214 210
-116.282559931278 583.316743373871 2619.99988555908 215 217 212
-107.617564499378 575.08784532547 2582.99994468689 179 181 176
-100.088134407997 572.201788425446 2569.9999332428 157 158 153
-92.7377864718437 569.983005523682 2559.99994277954 164 165 160
-85.5755805969238 568.654239177704 2553.99990081787 170 171 166
-78.5689055919647 568.215548992157 2552.00004577637 165 166 160
-71.4886710047722 567.108273506165 2546.99993133545 163 164 158
-64.4861161708832 566.445767879486 2543.99991035461 159 160 154
-57.4996918439865 565.78266620636 2540.99988937378 160 159 154
-50.6488680839539 566.455006599426 2543.99991035461 160 159 154
-43.7300130724907 566.458880901337 2543.99991035461 160 159 154
-36.8399694561958 566.907465457916 2546.0000038147 160 161 156
-29.9154333770275 566.910147666931 2546.0000038147 159 160 155
-23.0449922382832 568.248331546783 2552.00004577637 162 163 158
-16.1670837551355 570.476531982422 2562.00003623962 179 180 175
-9.27781779319048 575.376331806183 2584.00011062622 150 151 146
-2.2723323199898 581.16614818573 2609.99989509583 156 157 152
4.86534647643566 585.842132568359 2631.00004196167 115 116 111
12.0441382750869 586.954772472382 2635.99991798401 134 135 130
19.2209389060736 587.176203727722 2637.00008392334 129 130 125
26.4131259173155 587.619662284851 2638.99993896484 131 132 127
33.5652120411396 587.171971797943 2637.00008392334 144 145 140
40.7372079789639 587.16893196106 2637.00008392334 150 149 145
47.8909052908421 586.942613124847 2635.99991798401 138 137 133
55.0808161497116 587.161183357239 2637.00008392334 140 139 135
62.2523911297321 587.156474590302 2637.00008392334 151 150 146
69.4764256477356 587.596476078033 2638.99993896484 154 153 149
76.7401829361916 588.258504867554 2641.99995994568 147 146 142
83.8612169027328 587.806820869446 2640.00010490417 143 144 139
91.0056084394455 587.577104568481 2638.99993896484 147 148 143
98.3302965760231 588.460147380829 2642.99988746643 162 163 158
105.636551976204 589.119911193848 2645.99990844727 163 164 159
113.001458346844 590.001821517944 2650.00009536743 162 163 158
120.297059416771 590.437769889832 2651.99995040894 160 160 158
127.843573689461 591.986358165741 2658.99991989136 166 166 164
135.326206684113 593.08910369873 2664.00003433228 184 186 183
142.942667007446 594.636499881744 2671.0000038147 189 191 188
150.765463709831 596.851170063019 2680.99999427795 195 197 194
159.113809466362 600.8460521698 2698.99988174438 200 202 199
166.881203651428 602.391541004181 2706.00008964539 200 202 199
175.008073449135 605.04949092865 2717.99993515015 204 209 205
183.870807290077 609.932839870453 2740.00000953674 208 213 209
-107.709482312202 568.548440933228 2585.00003814697 198 200 195
-100.174024701118 565.697491168976 2572.00002670288 154 155 150
-92.7814543247223 563.285827636719 2561.00010871887 169 170 165
-85.5154171586037 561.313331127167 2552.00004577637 168 169 164
-78.5136297345161 560.88000535965 2549.99995231628 166 167 161
-71.4663490653038 560.006201267242 2546.0000038147 163 164 158
-64.4659548997879 559.351742267609 2542.99998283386 159 160 154
-57.5269535183907 559.136688709259 2542.00005531311 160 159 154
-50.6330393254757 559.360980987549 2542.99998283386 160 159 154
-43.750736862421 559.804797172546 2545.00007629395 159 158 153
-36.8284694850445 559.807956218719 2545.00007629395 160 161 156
-29.9178492277861 560.0306391716 2546.0000038147 158 159 154
-23.02878908813 560.912609100342 2549.99995231628 163 164 159
-16.1620806902647 563.333868980408 2561.00010871887 181 182 177
-9.28933918476105 569.053947925568 2586.99989318848 152 153 148
-2.2751281503588 574.773609638214 2612.99991607666 153 154 149
4.87498566508293 579.832673072815 2635.99991798401 121 122 117
12.0633887127042 580.711960792542 2640.00010490417 134 135 130
19.266227260232 581.370532512665 2642.99988746643 130 131 126
26.4352802187204 580.928802490234 2641.00003242493 132 133 128
33.6315631866455 581.14629983902 2641.99995994568 145 146 141
40.8177375793457 581.143319606781 2641.99995994568 141 140 136
48.0037853121758 581.139743328094 2641.99995994568 141 140 136
55.1688075065613 580.915689468384 2641.00003242493 153 152 148
62.3518265783787 580.910921096802 2641.00003242493 159 158 154
69.6136578917503 581.56555891037 2644.00005340576 145 144 140
76.833501458168 581.779599189758 2644.99998092651 142 141 137
83.9314609766006 581.113278865814 2641.99995994568 149 150 145
91.1163464188576 581.106305122375 2641.99995994568 155 156 151
98.4497740864754 581.978440284729 2645.99990844727 163 164 159
105.724833905697 582.410216331482 2648.00000190735 159 160 155
113.010458648205 582.841455936432 2650.00009536743 156 157 152
120.306618511677 583.272039890289 2651.99995040894 161 161 159
127.75756418705 584.361910820007 2657.00006484985 168 168 166
135.336920619011 585.891008377075 2664.00003433228 181 183 180
142.846897244453 586.979627609253 2668.99991035461 184 186 183
150.664836168289 589.167237281799 2678.99990081787 193 195 192
158.772587776184 592.234015464783 2693.00007820129 198 200 197
166.832610964775 594.860196113586 2704.99992370605 200 202 199
174.828588962555 597.0458984375 2714.99991416931 201 206 202
183.415368199348 600.990235805511 2733.00004005432 205 210 206
-107.759714126587 561.779677867889 2585.99996566772 212 214 209
-100.259892642498 559.181034564972 2573.99988174438 155 156 151
-92.8250700235367 556.581854820251 2562.00003623962 176 177 172
-85.4552164673805 553.982019424438 2549.99995231628 169 170 165
-78.4891173243523 553.771257400513 2549.00002479553 166 167 161
-71.5282112360001 553.560018539429 2548.00009727478 164 165 159
-64.5725280046463 553.348183631897 2546.99993133545 160 161 155
-57.5994737446308 552.918612957001 2545.00007629395 160 159 154
-50.6769344210625 552.922904491425 2545.00007629395 160 159 154
-43.7542460858822 552.926659584045 2545.00007629395 160 159 154
-36.8314348161221 552.929997444153 2545.00007629395 161 162 157
-29.9320090562105 553.36719751358 2546.99993133545 158 159 154
-23.0487082153559 554.455578327179 2552.00004577637 164 165 160
-16.1760039627552 556.847095489502 2562.99996376038 182 183 178
-9.30086057633162 562.714219093323 2589.99991416931 153 154 149
-2.27879453450441 568.580865859985 2617.00010299683 149 150 145
4.88277710974216 573.57782125473 2640.00010490417 121 122 117
12.0780700817704 574.228942394257 2642.99988746643 131 132 127
19.2823596298695 574.662148952484 2644.99998092651 132 133 128
26.4474172145128 574.008524417877 2641.99995994568 134 135 130
33.6342714726925 574.006140232086 2641.99995994568 141 142 137
40.8364683389664 574.220359325409 2642.99988746643 138 137 133
48.0621606111526 574.65136051178 2644.99998092651 140 139 135
55.2985817193985 575.081765651703 2647.0000743866 159 158 154
62.5221133232117 575.294256210327 2648.00000190735 158 157 153
69.7508826851845 575.506150722504 2648.9999294281 144 143 139
76.9268050789833 575.283169746399 2648.00000190735 146 145 141
84.0652585029602 574.842095375061 2645.99990844727 153 154 149
91.2960767745972 575.052440166473 2647.0000743866 158 159 154
98.5692515969276 575.479328632355 2648.9999294281 161 162 157
105.932891368866 576.340198516846 2653.00011634827 156 157 152
113.190017640591 576.548755168915 2654.00004386902 154 155 150
120.49762159586 576.973915100098 2655.99989891052 163 163 161
127.863824367523 577.615857124329 2658.99991989136 169 169 167
135.296806693077 578.474402427673 2663.00010681152 177 179 176
142.751097679138 579.332292079926 2667.00005531311 180 182 179
150.339230895042 580.624103546143 2673.00009727478 191 193 190
158.195406198502 582.784175872803 2683.00008773804 194 196 193
166.16715490818 585.160851478577 2694.00000572205 200 202 199
174.455866217613 588.405728340149 2709.00011062622 199 204 200
183.026939630508 592.301428318024 2726.99999809265 203 208 204
-107.601553201675 553.931653499603 2582.00001716614 214 216 211
-100.189939141273 551.794469356537 2572.00002670288 163 164 159
-92.7962064743042 549.442231655121 2561.00010871887 182 183 178
-85.4620188474655 547.089278697968 2549.99995231628 176 177 172
-78.4029960632324 546.237647533417 2546.0000038147 166 167 161
-71.4496895670891 546.029031276703 2545.00007629395 164 165 159
-64.501628279686 545.819878578186 2543.99991035461 160 161 155
-57.581439614296 545.824766159058 2543.99991035461 161 160 155
-50.6212487816811 545.400023460388 2542.00005531311 161 160 155
-43.7061712145805 545.403778553009 2542.00005531311 160 159 154
-36.7909669876099 545.407056808472 2542.00005531311 163 164 159
-29.9109034240246 546.053349971771 2545.00007629395 160 161 156
-23.0505578219891 547.557413578033 2552.00004577637 166 167 162
-16.1899253726006 550.348281860352 2565.00005722046 181 182 177
-9.31238103657961 556.356906890869 2592.99993515015 154 155 150
-2.28333147242665 562.579691410065 2621.99997901917 139 140 135
4.8924176953733 567.514538764954 2644.99998092651 119 120 115
12.1018914505839 568.157553672791 2648.00000190735 130 131 126
19.2911978811026 567.727148532867 2645.99990844727 134 135 130
26.4595504850149 567.08163022995 2642.99988746643 135 136 131
33.6496978998184 567.079186439514 2642.99988746643 138 139 134
40.855199098587 567.290842533112 2644.00005340576 139 138 134
48.0841733515263 567.716300487518 2645.99990844727 153 152 148
55.3447902202606 568.355917930603 2648.9999294281 154 153 149
62.5271052122116 568.136632442474 2648.00000190735 147 146 142
69.756455719471 568.345904350281 2648.9999294281 143 142 138
76.9038796424866 567.910969257355 2647.0000743866 150 149 145
84.1354951262474 568.11910867691 2648.00000190735 156 157 152
91.4068296551704 568.54122877121 2650.00009536743 161 162 157
98.7631604075432 569.391846656799 2654.00004386902 159 160 155
106.101036071777 570.027351379395 2657.00006484985 154 155 150
113.369591534138 570.233166217804 2657.99999237061 154 155 150
120.643265545368 570.438504219055 2658.99991989136 167 167 165
127.922013401985 570.643246173859 2660.00008583069 170 170 168
135.256633162498 571.061968803406 2661.99994087219 170 172 169
142.708778381348 571.909129619598 2665.99988937378 175 177 174
150.407254695892 573.613822460175 2674.00002479553 188 190 187
158.207774162292 575.53231716156 2683.00008773804 188 190 187
166.118443012238 577.664852142334 2693.00007820129 197 199 196
174.147397279739 580.011129379272 2703.9999961853 195 200 196
182.705476880074 583.858191967011 2721.99988365173 199 204 200
-107.526689767838 546.527564525604 2579.99992370605 210 212 209
-100.158907473087 544.629275798798 2571.00009918213 169 171 168
-92.7310883998871 542.094826698303 2559.00001525879 191 193 190
-85.5358392000198 540.619075298309 2552.00004577637 166 168 163
-78.4708112478256 539.778172969818 2548.00009727478 163 164 159
-71.4834555983543 539.360404014587 2546.0000038147 162 163 158
-64.4813999533653 538.730204105377 2542.99998283386 158 159 154
-57.4954822659492 538.099586963654 2539.99996185303 157 158 152
-50.5655370652676 537.891983985901 2539.00003433228 158 159 153
-43.6924621462822 538.319408893585 2540.99988937378 159 160 154
-36.7794297635555 538.322627544403 2540.99988937378 161 161 159
-29.9132950603962 539.172768592834 2545.00007629395 161 161 159
-23.0523999780416 540.657937526703 2552.00004577637 163 163 161
-16.19753241539 543.62541437149 2565.99998474121 178 178 176
-9.32031031697989 549.770355224609 2595.00002861023 158 159 154
-2.28786887601018 556.550264358521 2627.00009346008 131 130 126
4.89835813641548 560.999155044556 2648.00000190735 131 130 126
12.102859094739 560.998439788818 2648.00000190735 130 129 125
19.292738288641 560.57345867157 2645.99990844727 138 137 132
26.4716818928719 560.147941112518 2644.00005340576 144 143 138
33.6523875594139 559.933662414551 2642.99988746643 134 133 128
40.8120974898338 559.507012367249 2641.00003242493 143 142 138
48.0516664683819 560.139060020447 2644.00005340576 154 153 149
55.349200963974 561.194181442261 2648.9999294281 153 152 148
62.532089650631 560.977637767792 2648.00000190735 146 145 141
69.709338247776 560.76055765152 2647.0000743866 146 145 141
76.8518894910812 560.331046581268 2644.99998092651 154 153 149
84.1104164719582 560.748338699341 2647.0000743866 159 158 154
91.4140716195107 561.376988887787 2650.00009536743 163 162 158
98.7709760665894 562.216758728027 2654.00004386902 160 159 155
106.109425425529 562.844216823578 2657.00006484985 152 151 147
113.378532230854 563.047349452972 2657.99999237061 156 155 151
120.698146522045 563.46184015274 2660.00008583069 167 168 163
128.076359629631 564.087569713593 2663.00010681152 168 169 164
135.419681668282 564.500868320465 2664.99996185303 172 173 168
142.88055896759 565.337240695953 2668.99991035461 175 176 171
150.531500577927 566.808462142944 2676.00011825562 187 187 185
158.338025212288 568.702757358551 2684.99994277954 191 191 189
166.069641709328 570.172786712646 2691.99991226196 195 197 194
173.903241753578 571.854054927826 2700.00004768372 199 201 198
182.316854596138 575.229048728943 2716.00008010864 201 203 200
192.283645272255 583.050787448883 2753.00002098084 205 207 204
-107.743553817272 540.597021579742 2585.00003814697 210 212 209
-100.16680508852 537.677347660065 2571.00009918213 191 193 190
-92.7746444940567 535.384476184845 2559.99994277954 189 191 188
-85.5761170387268 533.9275598526 2552.99997329712 167 169 164
-78.5078108310699 533.097445964813 2549.00002479553 164 165 160
-71.4610442519188 532.266795635223 2545.00007629395 163 164 159
-64.4611641764641 531.644761562347 2542.00005531311 159 160 155
-57.4774071574211 531.022131443024 2539.00003433228 158 159 153
-50.5695566534996 531.026422977448 2539.00003433228 159 160 154
-43.6787456274033 531.239330768585 2539.99996185303 159 160 154
-36.7968305945396 531.660854816437 2542.00005531311 162 162 160
-29.9156773835421 532.290935516357 2545.00007629395 162 162 160
-23.0632685124874 533.966243267059 2552.99997329712 162 162 160
-16.2051357328892 536.895930767059 2566.99991226196 179 179 177
-9.33901220560074 543.798983097076 2599.99990463257 170 171 166
-2.29676114395261 551.538169384003 2637.00008392334 168 169 164
4.90614818409085 554.675340652466 2651.99995040894 123 122 118
12.1129658073187 554.25637960434 2650.00009536743 131 130 126
19.3088613450527 553.836822509766 2648.00000190735 141 140 135
26.5038255602121 553.625822067261 2647.0000743866 140 139 134
33.6932688951492 553.414285182953 2645.99990844727 141 140 135
40.8617071807384 552.993059158325 2644.00005340576 147 146 142
48.0736643075943 553.198635578156 2644.99998092651 150 149 145
55.3535968065262 554.031133651733 2648.9999294281 141 140 136
62.5134333968163 553.608238697052 2647.0000743866 140 139 135
69.7148665785789 553.602933883667 2647.0000743866 156 155 151
76.8870189785957 553.387999534607 2645.99990844727 153 152 148
84.2124074697495 554.218292236328 2650.00009536743 163 162 158
91.5247872471809 554.838716983795 2653.00011634827 164 163 159
98.9276468753815 555.876910686493 2657.99999237061 152 151 147
106.117777526379 555.659711360931 2657.00006484985 154 153 149
113.344788551331 555.651128292084 2657.00006484985 162 161 157
120.571479201317 555.641949176788 2657.00006484985 162 163 158
127.990171313286 556.468665599823 2661.00001335144 163 164 159
135.4810744524 557.503998279572 2665.99988937378 168 169 164
142.891675233841 558.120489120483 2668.99991035461 172 173 168
150.543212890625 559.572875499725 2676.00011825562 185 185 183
158.232361078262 561.02466583252 2683.00008773804 189 189 187
166.144207119942 563.103139400482 2693.00007820129 194 196 193
173.981070518494 564.762771129608 2700.99997520447 198 200 197
182.062357664108 567.049086093903 2711.99989318848 200 202 199
191.390365362167 572.88920879364 2740.00000953674 209 211 208
-108.377240598202 536.702275276184 2599.99990463257 208 210 207
-100.252583622932 531.136989593506 2572.99995422363 187 189 186
-92.8544253110886 528.873801231384 2562.00003623962 186 188 185
-85.5828374624252 527.022898197174 2552.99997329712 173 175 170
-78.606404364109 526.822924613953 2552.00004577637 164 165 160
-71.5228393673897 525.79665184021 2546.99993133545 163 164 159
-64.5423382520676 525.389194488525 2545.00007629395 159 160 155
-57.5498752295971 524.774670600891 2542.00005531311 158 159 153
-50.6133921444416 524.572432041168 2540.99988937378 158 159 153
-43.7165983021259 524.782657623291 2542.00005531311 158 159 153
-36.7997474968433 524.785816669464 2542.00005531311 162 162 160
-29.9415569752455 525.820672512054 2546.99993133545 163 163 161
-23.0470299720764 526.648640632629 2551.00011825562 164 164 162
-16.2253621965647 530.572652816772 2569.9999332428 177 177 175
-9.35771502554417 537.79935836792 2605.00001907349 175 176 171
-2.3021693341434 545.644879341125 2642.99988746643 167 168 163
4.91023808717728 547.915697097778 2654.00004386902 123 122 118
12.1276406571269 547.708630561829 2653.00011634827 133 132 128
19.3322710692883 547.294497489929 2651.00002288818 141 140 135
26.5359692275524 547.086179256439 2650.00009536743 137 136 131
33.7086729705334 546.464502811432 2647.0000743866 146 145 140
40.9113131463528 546.461582183838 2647.0000743866 151 150 146
48.16834628582 547.077298164368 2650.00009536743 147 146 142
55.4415732622147 547.692596912384 2653.00011634827 142 141 137
62.5892281532288 547.068655490875 2650.00009536743 145 144 140
69.7730481624603 546.856939792633 2648.9999294281 158 157 153
76.9221484661102 546.438276767731 2647.0000743866 157 156 152
84.187239408493 546.844780445099 2648.9999294281 165 164 160
91.4974734187126 547.457218170166 2651.99995040894 162 161 157
98.8609567284584 548.275470733643 2655.99989891052 149 148 144
106.086134910583 548.267424106598 2655.99989891052 157 156 152
113.353662192822 548.465371131897 2657.00006484985 166 165 161
120.580896735191 548.456251621246 2657.00006484985 161 162 157
128.000140190125 549.272179603577 2661.00001335144 163 164 159
135.491624474525 550.294041633606 2665.99988937378 169 170 165
142.956331372261 551.10889673233 2670.00007629395 174 175 170
150.498598814011 552.129507064819 2674.99995231628 186 186 184
158.185601234436 553.562462329865 2681.99992179871 190 190 188
166.095271706581 555.613875389099 2691.99991226196 192 194 191
173.930034041405 557.252049446106 2700.00004768372 198 200 197
181.87490105629 559.095859527588 2709.00011062622 199 201 198
190.706416964531 563.415706157684 2730.00001907349 207 209 206
-109.094358980656 533.132612705231 2617.00010299683 210 212 209
-100.299373269081 524.380743503571 2573.99988174438 177 179 176
-92.8979218006134 522.147357463837 2562.99996376038 183 185 182
-85.5895578861237 520.117044448853 2552.99997329712 167 169 164
-78.5509571433067 519.512236118317 2549.99995231628 163 164 159
-71.5284496545792 518.906950950623 2546.99993133545 162 163 158
-64.5474046468735 518.504798412323 2545.00007629395 157 158 153
-57.5770400464535 518.102169036865 2542.99998283386 156 157 151
-50.617378205061 517.698884010315 2540.99988937378 156 157 151
-43.7372364103794 518.110036849976 2542.99998283386 156 157 151
-36.8171259760857 518.113255500793 2542.99998283386 163 163 161
-29.9439169466496 518.930792808533 2546.99993133545 167 167 165
-23.0488479137421 519.747912883759 2551.00011825562 165 165 163
-16.2266418337822 523.620545864105 2569.9999332428 172 172 170
-9.37282294034958 531.567573547363 2608.99996757507 181 182 177
-2.30496446602046 539.106488227844 2645.99990844727 155 156 151
4.91432659327984 541.143894195557 2655.99989891052 132 131 127
12.1560264378786 541.754424571991 2658.99991989136 139 138 134
19.3702597171068 541.141986846924 2655.99989891052 139 138 133
26.5981461852789 541.140139102936 2655.99989891052 137 136 131
33.7750092148781 540.322840213776 2651.99995040894 150 149 144
40.9918203949928 540.319919586182 2651.99995040894 151 150 146
48.2266843318939 540.520191192627 2653.00011634827 142 141 137
55.4668307304382 540.71980714798 2654.00004386902 147 146 142
62.6177713274956 540.10397195816 2651.00002288818 151 150 146
69.8048695921898 539.895057678223 2650.00009536743 155 154 150
77.0153701305389 539.889276027679 2650.00009536743 159 158 154
84.3209847807884 540.494203567505 2653.00011634827 164 163 159
91.6081517934799 540.894746780396 2654.99997138977 159 158 154
98.8686755299568 541.090965270996 2655.99989891052 149 148 144
106.094419956207 541.082978248596 2655.99989891052 160 159 155
113.405153155327 541.481971740723 2657.99999237061 168 167 163
120.771802961826 542.084038257599 2661.00001335144 161 162 157
128.154411911964 542.685568332672 2664.00003433228 163 164 159
135.60377061367 543.490171432495 2667.99998283386 169 170 165
142.967373132706 543.886840343475 2670.00007629395 174 175 170
150.510191917419 544.893980026245 2674.99995231628 186 186 184
158.256754279137 546.511769294739 2683.00008773804 190 190 188
166.169732809067 548.53618144989 2693.00007820129 191 193 190
173.814490437508 549.541652202606 2697.99995422363 198 200 197
181.351631879807 550.139188766479 2700.99997520447 199 201 198
189.882606267929 553.58761548996 2717.99993515015 206 208 205
-108.560860157013 523.439288139343 2604.00009155273 210 212 209
-100.229233503342 517.014801502228 2572.00002670288 177 179 176
-92.9051488637924 515.213131904602 2562.99996376038 179 181 178
-85.6297388672829 513.410866260529 2553.99990081787 161 163 158
-78.6187052726746 513.01521062851 2552.00004577637 164 165 160
-71.5902075171471 512.41797208786 2549.00002479553 162 163 158
-64.5270794630051 511.418163776398 2543.99991035461 158 159 154
-57.5362592935562 510.819852352142 2540.99988937378 156 157 151
-50.5814999341965 510.421991348267 2539.00003433228 156 157 151
-43.7406674027443 511.229813098907 2542.99998283386 156 157 151
-36.820013076067 511.232972145081 2542.99998283386 162 162 160
-29.9345124512911 511.838674545288 2546.0000038147 168 168 166
-23.0235513299704 512.24285364151 2548.00009727478 167 167 165
-16.2152871489525 516.265153884888 2568.00007820129 171 171 169
-9.37355868518353 524.508655071259 2608.99996757507 184 185 180
-2.30514560826123 531.947553157806 2645.99990844727 151 152 147
4.91471216082573 533.957839012146 2655.99989891052 135 134 130
12.1569829061627 534.560322761536 2658.99991989136 140 139 135
19.3863697350025 534.358024597168 2657.99999237061 137 136 131
26.6202669590712 534.356236457825 2657.99999237061 145 144 139
33.8031351566315 533.549726009369 2654.00004386902 147 146 141
41.041411459446 533.747792243958 2654.99997138977 141 140 136
48.3031757175922 534.146368503571 2657.00006484985 145 144 140
55.53387850523 534.142315387726 2657.00006484985 151 150 146
62.7171620726585 533.735692501068 2654.99997138977 152 151 147
69.8630139231682 533.127427101135 2651.99995040894 155 154 150
77.1085843443871 533.322751522064 2653.00011634827 162 161 157
84.3911096453667 533.718407154083 2654.99997138977 157 156 152
91.6152894496918 533.711671829224 2654.99997138977 152 151 147
98.8019183278084 533.503234386444 2654.00004386902 158 157 153
106.102660298347 533.897340297699 2655.99989891052 166 165 161
113.456606864929 534.491837024689 2658.99991989136 166 165 161
120.962716639042 535.688877105713 2664.99996185303 158 159 154
128.212422132492 535.679280757904 2664.99996185303 160 161 156
135.715872049332 536.67414188385 2670.00007629395 167 168 163
143.031910061836 536.864399909973 2671.0000038147 172 173 168
150.634288787842 538.059175014496 2677.00004577637 182 182 180
158.327862620354 539.454281330109 2684.00001525879 186 186 184
166.182428598404 541.250824928284 2693.00007820129 189 191 188
173.827707767487 542.242765426636 2697.99995422363 197 199 196
181.36540055275 542.83219575882 2700.99997520447 198 200 197
189.547643065453 545.229852199554 2713.00005912781 203 205 202
-107.943817973137 513.418257236481 2588.99998664856 206 208 205
-100.081086158752 509.261786937714 2568.00007820129 192 194 191
-92.8398370742798 507.881045341492 2561.00010871887 174 176 173
-85.6699123978615 506.698071956635 2555.0000667572 161 163 158
-78.6556079983711 506.307780742645 2552.99997329712 165 166 161
-71.6238543391228 505.718588829041 2549.99995231628 163 164 159
-64.5321011543274 504.53394651413 2543.99991035461 158 159 154
-57.5180910527706 503.745377063751 2539.99996185303 157 158 152
-50.5455955862999 503.154635429382 2536.99994087219 156 157 151
-43.6752699315548 503.554940223694 2539.00003433228 157 158 152
-36.7939285933971 503.954708576202 2540.99988937378 161 161 159
-29.9015734344721 504.354000091553 2542.99998283386 170 170 168
-23.0072755366564 504.951000213623 2546.0000038147 169 169 167
-16.1912962794304 508.522510528564 2563.99989128113 172 172 170
-9.37069952487946 517.250120639801 2608.00004005432 187 188 183
-2.30532581917942 524.787247180939 2645.99990844727 149 150 145
4.92249941453338 527.563810348511 2660.00008583069 135 134 130
12.1625047177076 527.563095092773 2660.00008583069 141 140 136
19.387885928154 527.165234088898 2657.99999237061 138 137 132
26.6423765569925 527.56005525589 2660.00008583069 148 147 142
33.8567234575748 527.161121368408 2657.99999237061 144 143 138
41.1064475774765 527.356505393982 2658.99991989136 139 138 134
48.3251214027405 527.154624462128 2657.99999237061 151 150 146
55.5382035672665 526.95232629776 2657.00006484985 151 150 146
62.6984238624573 526.352763175964 2654.00004386902 151 150 146
69.8947906494141 526.149272918701 2653.00011634827 160 159 155
77.2017613053322 526.738524436951 2655.99989891052 164 163 159
84.5248103141785 527.327179908752 2658.99991989136 154 153 149
91.7604193091393 527.320444583893 2658.99991989136 149 148 144
98.9212468266487 526.916444301605 2657.00006484985 162 161 157
106.230705976486 527.305126190186 2658.99991989136 168 167 163
113.508030772209 527.49502658844 2660.00008583069 165 164 160
121.017396450043 528.67579460144 2665.99988937378 158 159 154
128.270357847214 528.666257858276 2665.99988937378 161 162 157
135.827928781509 529.845952987671 2671.99993133545 168 169 164
143.149957060814 530.033588409424 2673.00009727478 172 173 168
150.81462264061 531.410455703735 2680.0000667572 182 182 180
158.457919955254 532.588422298431 2686.00010871887 186 186 184
166.195049881935 533.964037895203 2693.00007820129 188 190 187
173.905327916145 535.140812397003 2698.99988174438 197 199 196
181.446254253387 535.722255706787 2701.99990272522 197 199 196
189.4221752882 537.492632865906 2710.99996566772 202 204 201
199.406415224075 544.615507125854 2746.99997901917 207 209 208
-108.410760760307 508.562862873077 2599.99990463257 209 211 208
-100.049801170826 502.115964889526 2566.99991226196 180 182 179
-92.7382186055183 500.362932682037 2558.00008773804 167 169 166
-85.7435688376427 500.174105167389 2556.99992179871 170 172 167
-78.6924958229065 499.593645334244 2553.99990081787 168 169 164
-71.7136636376381 499.403774738312 2552.99997329712 165 166 161
-64.6132007241249 498.235374689102 2546.99993133545 158 159 154
-57.5678423047066 497.26203083992 2542.00005531311 158 159 153
-50.5694411695004 496.483683586121 2538.00010681152 157 158 152
-43.6958633363247 496.878564357758 2539.99996185303 156 157 151
-36.8112660944462 497.272938489914 2542.00005531311 159 159 157
-29.903894290328 497.47109413147 2542.99998283386 163 163 161
-23.0090636759996 498.060047626495 2546.0000038147 173 173 171
-16.1862391978502 501.387238502502 2562.99996376038 176 176 174
-9.36783384531736 509.995758533478 2607.00011253357 177 178 173
-2.30463384650648 517.429947853088 2644.99998092651 177 178 173
4.92288172245026 520.364224910736 2660.00008583069 133 132 128
12.1543044224381 519.972324371338 2657.99999237061 136 135 131
19.382094964385 519.775450229645 2657.00006484985 148 147 142
26.6143977642059 519.773721694946 2657.00006484985 146 145 140
33.872090280056 520.162582397461 2658.99991989136 145 144 139
41.1251001060009 520.355343818665 2660.00008583069 148 147 143
48.3470521867275 520.15620470047 2658.99991989136 152 151 147
55.5425100028515 519.761025905609 2657.00006484985 151 150 146
62.7268925309181 519.365131855011 2654.99997138977 153 152 148
69.9528902769089 519.360065460205 2654.99997138977 160 159 155
77.2949308156967 520.136833190918 2658.99991989136 158 157 153
84.5631286501884 520.326256752014 2660.00008583069 151 150 146
91.8020009994507 520.31946182251 2660.00008583069 152 151 147
99.0033224225044 520.11650800705 2658.99991989136 167 166 162
106.318771839142 520.499885082245 2661.00001335144 166 165 161
113.602079451084 520.68704366684 2661.99994087219 161 160 156
121.072061359882 521.656095981598 2667.00005531311 160 161 156
128.328278660774 521.646559238434 2667.00005531311 162 163 158
135.736614465714 522.223293781281 2670.00007629395 168 169 164
143.107295036316 522.603869438171 2671.99993133545 171 172 167
150.826051831245 524.157404899597 2680.0000667572 181 181 179
158.351898193359 524.928033351898 2684.00001525879 185 185 183
166.084155440331 526.28481388092 2690.99998474121 187 189 186
173.918411135674 527.836561203003 2698.99988174438 197 199 196
181.997135281563 529.974460601807 2710.00003814697 198 200 197
189.855650067329 531.32951259613 2717.00000762939 198 200 197
198.985725641251 536.008298397064 2740.9999370575 204 206 205
-99.9794900417328 494.781345129013 2565.00005722046 183 185 182
-92.7453190088272 493.438363075256 2558.00008773804 189 191 188
-85.7501477003098 493.252277374268 2556.99992179871 187 189 184
-78.6369070410728 492.294013500214 2552.00004577637 167 168 163
-71.6910809278488 492.299824953079 2552.00004577637 164 165 160
-64.6435469388962 491.533398628235 2548.00009727478 158 159 154
-57.6175637543201 490.766406059265 2543.99991035461 157 158 152
-50.6131798028946 489.998877048492 2539.99996185303 158 159 153
-43.7164343893528 490.195453166962 2540.99988937378 158 159 153
-36.7996208369732 490.198522806168 2540.99988937378 159 159 157
-29.9062039703131 490.586966276169 2542.99998283386 162 162 160
-23.0108387768269 491.16775393486 2546.0000038147 173 173 171
-16.1938015371561 494.641691446304 2563.99989128113 178 178 176
-9.35777649283409 502.359509468079 2604.00009155273 181 182 177
-2.30394047684968 510.076701641083 2644.00005340576 182 183 178
4.92326216772199 513.163268566132 2660.00008583069 134 133 129
12.1643897145987 513.162612915039 2660.00008583069 143 142 138
19.4054786115885 513.161361217499 2660.00008583069 148 147 142
26.6364850103855 512.966692447662 2658.99991989136 142 141 136
33.887442201376 513.157308101654 2660.00008583069 147 146 141
41.1282740533352 513.154447078705 2660.00008583069 150 149 145
48.3144111931324 512.572228908539 2657.00006484985 152 151 147
55.4840676486492 511.989533901215 2654.00004386902 153 152 148
62.6608356833458 511.599123477936 2651.99995040894 157 156 152
69.9582695960999 512.172818183899 2654.99997138977 160 159 155
77.2717967629433 512.74585723877 2657.99999237061 158 157 153
84.5378264784813 512.932598590851 2658.99991989136 151 150 146
91.8090268969536 513.118803501129 2660.00008583069 156 155 151
99.0108922123909 512.918591499329 2658.99991989136 167 166 162
106.366842985153 513.489484786987 2661.99994087219 164 163 159
113.696105778217 513.866901397705 2664.00003433228 160 159 155
121.172085404396 514.822423458099 2668.99991035461 159 160 155
128.434255719185 514.81294631958 2668.99991035461 161 162 157
135.746911168098 514.995872974396 2670.00007629395 166 167 162
143.118113279343 515.371084213257 2671.99993133545 170 171 166
150.837451219559 516.903102397919 2680.0000667572 179 179 177
158.24581682682 517.277181148529 2681.99992179871 183 183 181
166.034907102585 518.808007240295 2690.00005722046 186 188 185
173.802554607391 520.145297050476 2697.00002670288 196 198 195
181.943580508232 522.44633436203 2709.00011062622 197 199 196
189.869776368141 523.975372314453 2717.00000762939 198 200 197
198.855325579643 528.20360660553 2739.00008201599 203 205 204
-100.415863096714 489.928632974625 2575.99997520447 175 177 174
-93.1149572134018 488.414436578751 2568.00007820129 148 150 147
-85.8572944998741 486.899703741074 2559.99994277954 151 153 148
-78.6429047584534 485.384404659271 2552.00004577637 155 156 151
-71.6403648257256 485.009700059891 2549.99995231628 156 157 152
-64.6231099963188 484.444260597229 2546.99993133545 158 159 154
-57.6446317136288 484.068542718887 2545.00007629395 158 159 153
-50.6369806826115 483.311772346497 2540.99988937378 156 157 151
-43.754193931818 483.695805072784 2542.99998283386 156 157 151
-36.83140873909 483.698904514313 2542.99998283386 159 159 157
-29.9320202320814 484.081894159317 2545.00007629395 161 161 159
-23.0397190898657 484.844714403152 2549.00002479553 172 172 170
-16.1887295544147 487.509191036224 2562.99996376038 176 176 174
-9.36208851635456 495.498985052109 2605.00001907349 178 179 174
-2.30411696247756 502.917647361755 2644.00005340576 179 180 175
4.92734182626009 506.341397762299 2661.99994087219 146 145 141
12.1790440753102 506.530940532684 2663.00010681152 153 152 148
19.4215588271618 506.339550018311 2661.99994087219 140 139 134
26.6385283321142 505.767166614532 2658.99991989136 144 143 138
33.8645577430725 505.574584007263 2657.99999237061 149 148 143
41.1004945635796 505.571722984314 2657.99999237061 149 148 144
48.3363009989262 505.568325519562 2657.99999237061 149 148 144
55.5510371923447 505.374193191528 2657.00006484985 155 154 150
62.7837777137756 505.369663238525 2657.00006484985 162 161 157
70.0426623225212 505.554795265198 2657.99999237061 159 158 154
77.3358419537544 505.929589271545 2660.00008583069 155 154 150
84.5760703086853 505.923449993134 2660.00008583069 155 154 150
91.8505266308784 506.106913089752 2661.00001335144 163 162 158
99.0929007530212 506.099700927734 2661.00001335144 164 163 159
106.37491941452 506.282091140747 2661.99994087219 161 160 156
113.747388124466 506.844341754913 2664.99996185303 159 158 154
121.135838329792 507.406055927277 2667.99998283386 160 161 156
128.395840525627 507.396697998047 2667.99998283386 162 163 158
135.604605078697 507.196605205536 2667.00005531311 166 167 162
142.968147993088 507.566452026367 2668.99991035461 168 169 164
150.511041283607 508.506417274475 2674.00002479553 176 176 174
157.962620258331 509.065330028534 2677.00004577637 179 179 177
165.862113237381 510.954856872559 2687.00003623962 183 185 182
173.686608672142 512.463510036469 2694.9999332428 191 193 190
181.755572557449 514.542043209076 2706.00008964539 193 195 192
189.744040369987 516.239583492279 2714.99991416931 195 197 194
198.579549789429 520.028054714203 2734.99989509583 201 203 202
-100.774295628071 484.640181064606 2585.00003814697 170 172 169
-93.4120938181877 482.960104942322 2575.99997520447 115 117 114
-85.9979391098022 480.717033147812 2563.99989128113 152 154 149
-78.6796733736992 478.66091132164 2552.99997329712 149 150 145
-71.6457888484001 478.104054927826 2549.99995231628 152 153 148
-64.6787583827972 477.92175412178 2549.00002479553 157 158 153
-57.7169619500637 477.73888707161 2548.00009727478 157 158 152
-50.7205575704575 477.180510759354 2545.00007629395 154 155 149
-43.7747314572334 476.996541023254 2543.99991035461 154 155 149
-36.819726228714 476.624637842178 2542.00005531311 155 155 153
-29.9107749015093 476.814657449722 2542.99998283386 158 158 156
-23.0053160339594 477.191686630249 2545.00007629395 170 170 168
-16.1583796143532 479.630708694458 2558.00008773804 176 176 174
-9.3304542824626 486.756712198257 2595.99995613098 179 180 175
-2.30342126451433 495.569795370102 2642.99988746643 142 141 137
4.93141962215304 499.507278203964 2664.00003433228 150 149 145
12.1891191229224 499.694138765335 2664.99996185303 150 149 145
19.4303374737501 499.317944049835 2663.00010681152 140 139 134
26.6706142574549 499.128639698029 2661.99994087219 149 148 143
33.8926240801811 498.751401901245 2660.00008583069 149 148 143
41.1036238074303 498.373538255692 2657.99999237061 152 151 147
48.3217835426331 498.182594776154 2657.00006484985 152 151 147
55.5552579462528 498.178720474243 2657.00006484985 158 157 153
62.8121718764305 498.361676931381 2657.99999237061 162 161 157
70.1270401477814 498.919188976288 2661.00001335144 154 153 149
77.370785176754 498.913645744324 2661.00001335144 150 149 145
84.6460610628128 499.094992876053 2661.99994087219 159 158 154
91.8919816613197 499.088287353516 2661.99994087219 165 164 160
99.2121025919914 499.456107616425 2664.00003433228 162 161 157
106.462858617306 499.448388814926 2664.00003433228 160 159 155
113.713264465332 499.440133571625 2664.00003433228 160 159 155
121.054112911224 499.806255102158 2665.99988937378 161 162 157
128.26107442379 499.609500169754 2664.99996185303 162 163 158
135.614737868309 499.974548816681 2667.00005531311 165 166 161
143.032416701317 500.526607036591 2670.00007629395 167 168 163
150.522232055664 501.265525817871 2674.00002479553 175 175 173
157.856315374374 501.441538333893 2674.99995231628 178 178 176
165.750935673714 503.304123878479 2684.99994277954 185 187 184
173.634991049767 504.978656768799 2694.00000572205 189 191 188
181.6346347332 506.84005022049 2703.9999961853 191 193 190
189.478427171707 508.138477802277 2710.99996566772 193 195 192
197.94063270092 510.93578338623 2726.0000705719 195 197 196
-101.444631814957 480.77979683876 2601.99999809265 195 197 194
-93.9268097281456 478.569805622101 2589.99991416931 119 121 118
-86.3062888383865 475.43528676033 2572.99995422363 148 150 145
-78.9013281464577 473.039358854294 2559.99994277954 146 147 142
-71.7354789376259 471.751570701599 2552.99997329712 149 150 145
-64.7343844175339 471.38711810112 2551.00011825562 152 153 148
-57.7439665794373 471.022129058838 2549.00002479553 152 153 148
-50.7642440497875 470.65657377243 2546.99993133545 155 156 151
-43.7780395150185 470.105826854706 2543.99991035461 156 157 152
-36.8369966745377 469.924032688141 2542.99998283386 156 156 154
-29.9012735486031 469.741761684418 2542.00005531311 156 156 154
-23.0160988867283 470.482975244522 2546.0000038147 165 165 163
-16.1406509578228 472.147554159164 2555.0000667572 173 173 171
-9.31318942457438 478.801101446152 2591.00008010864 179 180 175
-2.30185268446803 488.041251897812 2641.00003242493 163 162 158
4.93179308250546 492.291390895844 2664.00003433228 145 144 140
12.1900420635939 492.475539445877 2664.99996185303 135 134 130
19.4318071007729 492.104798555374 2663.00010681152 154 153 149
26.6726315021515 491.918236017227 2661.99994087219 152 151 146
33.9079275727272 491.731137037277 2661.00001335144 152 151 146
41.09126329422 490.989148616791 2657.00006484985 150 149 145
48.3254380524158 490.985810756683 2657.00006484985 154 153 149
55.5594526231289 490.981906652451 2657.00006484985 160 159 155
62.8641843795776 491.531819105148 2660.00008583069 163 162 158
