ply
format ascii 1.0
comment KinectMotionCapture
element vertex 761
property float x
property float y
property float z
property uchar red
property uchar green
property uchar blue
end_header
18.7195520848036 732.518315315247 2572.99995422363 150 149 147
25.7046557962894 732.516527175903 2572.99995422363 156 155 153
32.7405259013176 733.653008937836 2576.99990272522 185 184 182
39.8288741707802 735.35829782486 2582.99994468689 180 181 176
46.9497106969357 737.063109874725 2588.99998664856 178 179 174
54.1238710284233 739.051938056946 2595.99995613098 178 178 176
61.2887814640999 740.470886230469 2601.0000705719 180 180 178
68.3755949139595 740.750551223755 2601.99999809265 182 182 182
75.5546614527702 741.883635520935 2605.99994659424 182 182 182
82.8503891825676 743.870258331299 2612.99991607666 186 186 184
90.3216302394867 746.994972229004 2624.00007247925 187 187 185
97.8523790836334 750.119090080261 2634.99999046326 188 189 184
105.362951755524 752.673327922821 2644.00005340576 188 189 184
113.049797713757 756.080865859985 2655.99989891052 186 185 180
120.756290853024 759.203314781189 2667.00005531311 180 177 172
128.858163952827 764.317631721497 2684.99994277954 167 164 159
136.702507734299 767.438650131226 2696.00009918213 158 155 150
144.819930195808 771.697700023651 2710.99996566772 194 193 189
153.074592351913 776.240766048431 2726.99999809265 201 200 196
161.592334508896 781.637191772461 2746.00005149841 217 217 215
169.843450188637 785.325050354004 2759.0000629425 234 236 235
178.678944706917 791.289210319519 2779.99997138977 242 244 243
190.173476934433 808.068692684174 2838.99998664856 239 241 240
-115.635715425014 735.952496528625 2609.99989509583 206 208 205
-107.969269156456 732.013523578644 2595.99995613098 198 200 197
-100.145287811756 726.381957530975 2575.99997520447 198 200 197
-92.7551537752151 723.287761211395 2565.00005722046 187 187 185
-85.6586322188377 722.166776657104 2561.00010871887 177 178 173
-78.6758437752724 721.891164779663 2559.99994277954 162 163 158
-71.6422721743584 721.051037311554 2556.99992179871 171 172 167
-64.5995289087296 719.928503036499 2552.99997329712 156 157 152
-57.6461181044579 719.651341438293 2552.00004577637 153 152 147
-50.7178790867329 719.655573368073 2552.00004577637 159 158 153
-43.7723696231842 719.377338886261 2551.00011825562 167 166 161
-36.8755199015141 719.944477081299 2552.99997329712 155 154 149
-29.9442708492279 719.947099685669 2552.99997329712 153 152 147
-23.058021441102 721.359193325043 2558.00008773804 154 153 148
-16.1256734281778 721.924662590027 2559.99994277954 152 151 147
-9.17884614318609 722.20778465271 2561.00010871887 153 152 148
-2.22917320206761 723.336219787598 2565.00005722046 157 156 152
4.74222423508763 724.464058876038 2569.00000572205 148 147 143
11.730769649148 725.309550762177 2572.00002670288 154 153 151
18.7137518078089 725.308299064636 2572.00002670288 149 148 146
25.7166679948568 725.870430469513 2573.99988174438 155 154 152
32.7558070421219 726.996183395386 2578.00006866455 182 181 179
39.8165844380856 728.121340274811 2582.00001716614 179 180 175
46.917125582695 729.52789068222 2586.99989318848 177 178 173
54.0447123348713 730.933964252472 2592.00000762939 177 178 173
61.1521936953068 731.775403022766 2595.00002861023 179 179 177
68.2495385408401 732.33425617218 2596.99988365173 182 182 182
75.4735767841339 734.020531177521 2602.9999256134 182 182 182
82.8251466155052 736.552357673645 2611.99998855591 185 185 185
90.2598202228546 739.36539888382 2621.99997901917 186 186 184
97.6371541619301 741.331934928894 2628.99994850159 188 188 186
105.052284896374 743.297874927521 2635.99991798401 189 190 185
112.632885575294 746.109306812286 2645.99990844727 189 190 185
120.448656380177 750.047922134399 2660.00008583069 189 188 184
128.38813662529 754.267811775208 2674.99995231628 182 181 177
136.307343840599 757.923185825348 2687.99996376038 183 182 178
144.136533141136 760.732054710388 2697.99995422363 199 198 196
152.41265296936 765.513956546783 2714.99991416931 192 191 189
160.545319318771 769.167482852936 2727.9999256134 219 219 217
168.809741735458 773.102164268494 2742.00010299683 228 228 228
177.214056253433 777.318239212036 2756.99996948242 234 234 234
187.106221914291 787.454307079315 2792.99998283386 235 235 235
571.350514888763 917.516350746155 3257.99989700317 180 161 144
-123.622611165047 734.220623970032 2628.99994850159 208 213 209
-115.245945751667 726.410210132599 2601.0000705719 203 205 202
-107.811294496059 723.905265331268 2592.00000762939 200 202 199
-100.191988050938 719.724059104919 2576.99990272522 195 197 194
-92.9070562124252 717.4973487854 2569.00000572205 180 180 178
-85.7322365045547 715.828537940979 2562.99996376038 171 172 167
-78.6820277571678 714.997231960297 2559.99994277954 161 162 157
-71.6759264469147 714.44445848465 2558.00008773804 170 171 166
-64.5793080329895 712.774157524109 2552.00004577637 158 159 154
-57.6054789125919 712.220311164856 2549.99995231628 153 152 147
-50.6821312010288 712.224662303925 2549.99995231628 157 156 151
-43.7929853796959 712.786912918091 2552.00004577637 167 166 161
-36.9073264300823 713.628113269806 2555.0000667572 156 155 150
-29.981829226017 713.909983634949 2555.99999427795 151 150 145
-23.0688620358706 714.750051498413 2559.00001525879 154 153 148
-16.1206498742104 714.751601219177 2559.00001525879 152 151 147
-9.1724032536149 714.752614498138 2559.00001525879 152 151 147
-2.22761160694063 715.870320796967 2562.99996376038 161 160 156
4.74075367674232 717.266798019409 2568.00007820129 148 147 143
11.7408214136958 718.941986560822 2573.99988174438 146 145 143
18.7443364411592 719.499289989471 2575.99997520447 151 150 148
25.7486812770367 719.77686882019 2576.99990272522 156 155 153
32.7711030840874 720.333218574524 2578.9999961853 178 177 173
39.8197323083878 721.168220043182 2582.00001716614 177 178 172
46.9026938080788 722.2820520401 2585.99996566772 175 176 170
54.0072657167912 723.395228385925 2589.99991416931 176 177 171
61.0627420246601 723.670065402985 2591.00008010864 178 179 174
68.2023465633392 724.782109260559 2595.00002861023 181 181 181
75.3925144672394 726.172924041748 2599.99990463257 182 182 182
82.7682167291641 728.959679603577 2609.99989509583 185 183 184
90.1636034250259 731.466472148895 2618.99995803833 187 185 186
97.4962264299393 733.134984970093 2625 189 188 186
104.861207306385 734.802782535553 2631.00004196167 190 190 188
112.386226654053 737.307846546173 2640.00010490417 190 190 188
120.231576263905 741.487920284271 2654.99997138977 186 186 184
128.062069416046 745.108902454376 2667.99998283386 184 184 182
135.760024189949 747.612237930298 2677.00004577637 190 190 188
143.559947609901 750.394105911255 2687.00003623962 198 198 196
151.806801557541 755.130171775818 2703.9999961853 189 189 187
160.027921199799 759.307205677032 2719.00010108948 216 216 214
168.022230267525 762.087166309357 2729.00009155273 223 223 221
175.941869616508 764.308035373688 2736.99998855591 227 227 225
185.244530439377 772.113263607025 2765.00010490417 238 238 238
196.511134505272 787.177860736847 2819.00000572205 232 232 232
438.65978717804 873.142659664154 3128.99994850159 202 208 206
444.846779108047 868.649482727051 3112.99991607666 207 213 209
452.839314937592 867.783606052399 3109.99989509583 172 177 173
461.111515760422 867.475688457489 3108.99996757507 195 196 190
472.247064113617 872.468769550323 3127.00009346008 179 179 171
510.635197162628 880.16015291214 3154.99997138977 157 139 125
520.818889141083 882.919013500214 3164.99996185303 148 129 114
522.525608539581 871.451020240784 3124.00007247925 160 141 126
530.638515949249 870.862364768982 3121.99997901917 150 133 117
539.430558681488 871.389389038086 3124.00007247925 156 139 123
549.986660480499 874.70543384552 3135.99991798401 156 139 123
559.360325336456 876.068830490112 3141.00003242493 155 136 121
572.014570236206 882.452249526978 3164.00003433228 151 132 118
-122.691720724106 721.608102321625 2608.99996757507 208 213 209
-115.166313946247 718.851566314697 2598.99997711182 198 200 197
-107.694931328297 716.094315052032 2588.99998664856 197 199 196
-100.238732993603 713.060081005096 2578.00006866455 192 194 191
-92.9143652319908 710.578262805939 2569.00000572205 177 177 175
-85.7389941811562 708.925724029541 2562.99996376038 169 170 165
-78.6882266402245 708.102405071259 2559.99994277954 163 164 159
-71.6255456209183 707.001924514771 2555.99999427795 171 172 167
-64.5337998867035 705.34759759903 2549.99995231628 159 160 155
-57.6100386679173 705.352485179901 2549.99995231628 154 153 148
-50.7259033620358 705.910086631775 2552.00004577637 156 155 150
-43.8307784497738 706.466972827911 2553.99990081787 167 166 161
-36.9391478598118 707.300126552582 2556.99992179871 158 157 152
-30.0194043666124 707.855999469757 2559.00001525879 152 151 146
-23.0797100812197 708.134651184082 2559.99994277954 152 151 146
-16.1156337708235 707.583010196686 2558.00008773804 151 150 146
-9.1731334105134 707.860589027405 2559.00001525879 150 149 145
-2.22778879106045 708.967566490173 2562.99996376038 159 158 154
4.7429776750505 710.627198219299 2569.00000572205 155 154 150
11.7417555302382 712.00954914093 2573.99988174438 143 142 140
18.7603831291199 713.114857673645 2578.00006866455 157 156 154
25.7607214152813 713.113009929657 2578.00006866455 150 149 147
32.8118316829205 714.217245578766 2582.00001716614 175 176 171
39.8537404835224 714.767575263977 2584.00011062622 168 169 161
46.9064116477966 715.317249298096 2585.99996566772 167 170 161
53.9698451757431 715.866565704346 2588.00005912781 169 172 165
61.0440038144588 716.415107250214 2589.99991416931 174 175 170
68.2077407836914 717.793107032776 2595.00002861023 180 179 177
75.4274725914001 719.447016716003 2601.0000705719 181 180 178
82.7430263161659 721.653580665588 2608.99996757507 184 182 183
90.0329798460007 723.306357860565 2615.00000953674 186 184 185
97.2067341208458 723.852157592773 2617.00010299683 188 186 187
104.510702192783 725.227236747742 2621.99997901917 190 189 187
112.09699511528 728.261172771454 2632.99989700317 191 190 188
119.969218969345 732.677519321442 2648.9999294281 193 193 193
127.688020467758 735.710382461548 2660.00008583069 185 187 186
135.314106941223 737.912774085999 2667.99998283386 184 186 185
143.143594264984 740.94420671463 2678.99990081787 189 189 187
151.537790894508 746.464312076569 2698.99988174438 194 194 192
159.687072038651 750.324189662933 2713.00005912781 201 201 199
167.604103684425 752.800703048706 2721.99988365173 212 212 210
175.698190927505 755.829632282257 2733.00004005432 222 222 220
184.320613741875 760.79386472702 2750.99992752075 232 232 232
395.549178123474 863.191306591034 3122.99990653992 221 223 222
401.94034576416 858.742117881775 3107.00011253357 211 213 212
409.828931093216 857.609331607819 3102.9999256134 217 219 218
418.234378099442 857.581675052643 3102.9999256134 195 197 196
426.63910984993 857.553839683533 3102.9999256134 182 186 185
434.622496366501 856.696605682373 3099.99990463257 170 179 174
442.731827497482 856.115400791168 3098.00004959106 180 189 184
450.975209474564 855.810225009918 3096.99988365173 139 146 139
459.657490253448 856.333911418915 3098.99997711182 156 157 151
468.802928924561 857.686161994934 3104.00009155273 156 156 148
478.435963392258 859.866976737976 3111.99998855591 146 139 131
488.580971956253 862.876355648041 3122.99990653992 74 64 54
497.193247079849 863.122344017029 3124.00007247925 83 70 61
505.16277551651 862.262964248657 3121.00005149841 83 65 53
512.950837612152 861.127316951752 3117.00010299683 96 77 63
521.050989627838 860.54402589798 3115.00000953674 73 54 40
529.989540576935 861.341774463654 3118.00003051758 86 69 53
538.770914077759 861.863076686859 3119.99988555908 88 71 55
548.088669776917 863.213062286377 3125 88 71 55
557.610869407654 864.839017391205 3131.00004196167 84 65 51
567.707240581512 867.293298244476 3140.00010490417 85 65 54
578.402042388916 870.575904846191 3151.99995040894 78 60 48
-122.513204813004 713.484644889832 2605.00001907349 207 212 208
-114.865146577358 709.933459758759 2592.00000762939 194 196 193
-107.370615005493 706.929326057434 2581.00008964539 195 197 194
-99.8577773571014 703.376770019531 2568.00007820129 190 192 189
-92.6685109734535 701.740980148315 2562.00003623962 175 175 173
-85.545040667057 700.37853717804 2556.99992179871 168 169 164
-78.5714983940125 700.111091136932 2555.99999427795 164 165 160
-71.5471506118774 699.295282363892 2552.99997329712 171 172 167
-64.5389258861542 698.478937149048 2549.99995231628 159 160 155
-57.6372183859348 698.757767677307 2551.00011825562 155 154 149
-50.7299415767193 699.036002159119 2552.00004577637 156 155 150
-43.8514389097691 699.861586093903 2555.0000667572 166 165 160
-36.9565449655056 700.686633586884 2558.00008773804 161 160 155
-30.0217997282743 700.963139533997 2559.00001525879 153 152 147
-23.0545029044151 700.417399406433 2556.99992179871 153 152 147
-16.1106195300817 700.418889522552 2556.99992179871 152 151 147
-9.18462220579386 701.789677143097 2562.00003623962 151 150 146
-2.23057460971177 702.885746955872 2565.99998474121 156 155 151
4.74704941734672 704.255342483521 2571.00009918213 158 157 153
11.7426933720708 705.076336860657 2573.99988174438 144 143 141
18.769159913063 706.44474029541 2578.9999961853 158 157 155
25.7827639579773 706.716895103455 2579.99992370605 146 145 143
32.81444683671 707.262396812439 2582.00001716614 176 177 172
39.856918156147 707.807302474976 2584.00011062622 165 166 158
46.9282865524292 708.625614643097 2586.99989318848 165 166 158
53.994994610548 709.169387817383 2588.99998664856 168 169 163
61.0252879559994 709.16485786438 2588.99998664856 172 173 168
68.1605860590935 710.25538444519 2592.99993515015 178 177 175
75.4044428467751 712.167024612427 2599.99990463257 179 178 176
82.7495828270912 714.625954627991 2608.99996757507 183 181 182
89.971236884594 715.714693069458 2612.99991607666 185 183 184
97.2515493631363 717.07683801651 2618.00003051758 187 185 186
104.479067027569 717.890620231628 2621.00005149841 190 189 187
112.105801701546 721.16881608963 2632.99989700317 190 189 187
119.752183556557 724.172532558441 2644.00005340576 190 192 191
127.505987882614 727.449476718903 2655.99989891052 190 192 191
135.020330548286 729.082584381104 2661.99994087219 194 196 195
142.994448542595 732.906222343445 2676.00011825562 188 188 186
151.156485080719 737.276673316956 2691.99991226196 194 194 192
159.287378191948 741.098999977112 2706.00008964539 200 200 198
167.24756360054 743.825018405914 2716.00008010864 211 211 209
175.261661410332 746.550440788269 2726.0000705719 221 221 219
183.798670768738 751.192212104797 2743.00003051758 221 221 221
193.055048584938 758.298099040985 2769.00005340576 235 235 235
220.8571434021 804.820597171783 2938.99989128113 227 228 230
359.870344400406 850.50094127655 3107.00011253357 247 249 248
367.579936981201 848.833084106445 3101.0000705719 237 239 238
375.620067119598 847.986042499542 3098.00004959106 235 237 236
384.387016296387 848.781049251556 3101.0000705719 228 230 229
392.662823200226 848.480701446533 3099.99990463257 197 199 198
400.932461023331 848.179936408997 3098.99997711182 198 200 199
408.931851387024 847.331643104553 3095.99995613098 209 211 210
417.318642139435 847.303867340088 3095.99995613098 174 176 175
425.842195749283 847.549557685852 3096.99988365173 168 173 169
434.230268001556 847.521126270294 3096.99988365173 168 174 170
442.903488874435 848.039865493774 3098.99997711182 177 183 179
451.149880886078 847.737193107605 3098.00004959106 139 146 139
459.686785936356 847.981572151184 3098.99997711182 147 148 142
468.983620405197 849.593818187714 3105.00001907349 152 151 146
478.312134742737 851.20564699173 3111.00006103516 132 128 119
487.672507762909 852.817118167877 3117.00010299683 60 51 44
496.905386447906 854.154586791992 3121.99997901917 81 71 62
505.517184734344 854.397416114807 3122.99990653992 108 94 85
514.133632183075 854.640126228333 3124.00007247925 138 121 113
521.91835641861 853.514730930328 3119.99988555908 79 63 50
530.870616436005 854.304194450378 3122.99990653992 68 54 41
539.665699005127 854.81983423233 3125 67 51 36
548.64639043808 855.608880519867 3128.00002098084 69 53 38
557.464420795441 856.124222278595 3130.00011444092 66 50 37
566.835045814514 857.459962368011 3134.99999046326 64 47 37
577.883541584015 861.257016658783 3148.9999294281 55 38 28
589.752078056335 866.147577762604 3167.00005531311 159 146 138
-130.092531442642 709.16873216629 2615.00000953674 210 215 211
-122.569859027863 706.737875938416 2605.99994659424 183 188 184
-115.007147192955 703.764081001282 2595.00002861023 187 188 183
-107.379093766212 699.976086616516 2581.00008964539 195 196 191
-99.8267829418182 696.187376976013 2566.99991226196 186 187 182
-92.6034972071648 694.296538829803 2559.99994277954 173 174 169
-85.4849293828011 692.947626113892 2555.0000667572 168 169 164
-78.5777494311333 693.225383758545 2555.99999427795 159 158 154
-71.496807038784 691.875278949738 2551.00011825562 167 166 162
-64.5693838596344 691.880702972412 2551.00011825562 155 154 150
-57.6644167304039 692.156791687012 2552.00004577637 155 154 150
-50.7737584412098 692.703604698181 2553.99990081787 154 153 149
-43.8549518585205 692.978620529175 2555.0000667572 159 158 154
-36.9450524449348 693.524241447449 2556.99992179871 164 165 160
-30.0242062658072 694.069445133209 2559.00001525879 152 153 148
-23.0834055691957 694.342792034149 2559.99994277954 157 158 153
-16.1308161914349 694.344341754913 2559.99994277954 150 151 146
-9.19969938695431 695.972681045532 2565.99998474121 154 155 150
-2.23336182534695 696.786940097809 2569.00000572205 148 149 144
4.75481664761901 698.414206504822 2575.00004768372 159 160 155
11.7573235183954 698.955953121185 2576.99990272522 143 144 139
18.7779441475868 699.768424034119 2579.99992370605 153 154 149
25.7948245853186 700.037837028503 2581.00008964539 144 145 140
32.8425019979477 700.849235057831 2584.00011062622 164 165 160
39.9063862860203 701.659917831421 2586.99989318848 160 159 154
46.9139069318771 701.385259628296 2585.99996566772 162 161 156
53.9367347955704 701.381146907806 2585.99996566772 164 163 158
60.9830096364021 701.647818088531 2586.99989318848 168 167 163
68.1923106312752 703.541219234467 2594.00010108948 175 174 170
75.4104480147362 705.162644386292 2599.99990463257 176 175 171
82.7878713607788 707.86851644516 2609.99989509583 180 181 176
89.9783670902252 708.67532491684 2612.99991607666 182 182 180
97.2220972180367 709.752798080444 2617.00010299683 185 185 183
104.407593607903 710.2872133255 2618.99995803833 187 187 185
111.859165132046 712.448239326477 2627.00009346008 190 190 188
119.399234652519 714.879989624023 2635.99991798401 193 195 192
127.227932214737 718.666970729828 2650.00009536743 193 195 192
134.929463267326 721.368730068207 2660.00008583069 193 195 192
143.05904507637 725.96800327301 2677.00004577637 193 195 192
150.943651795387 728.939473628998 2687.99996376038 195 197 194
159.005388617516 732.452750205994 2700.99997520447 200 202 199
167.0141518116 735.423028469086 2711.99989318848 205 207 206
175.275191664696 739.206254482269 2726.0000705719 210 212 211
183.477744460106 742.446303367615 2737.99991607666 220 222 221
192.372590303421 748.126208782196 2759.0000629425 222 224 223
230.717390775681 803.392469882965 2963.00005912781 223 224 228
327.043771743774 844.39492225647 3115.00000953674 238 240 239
332.473814487457 836.781203746796 3086.99989318848 224 226 225
340.290814638138 835.401773452759 3082.00001716614 239 244 240
349.098175764084 836.46148443222 3085.99996566772 239 244 240
357.694834470749 836.978495121002 3088.00005912781 227 232 228
366.064608097076 836.953103542328 3088.00005912781 224 229 225
374.676138162613 837.469279766083 3089.99991416931 224 229 225
384.041607379913 839.611172676086 3098.00004959106 202 207 203
392.563045024872 839.855372905731 3098.99997711182 167 172 168
400.830328464508 839.557290077209 3098.00004959106 195 200 196
409.091502428055 839.25873041153 3096.99988365173 184 189 185
417.750984430313 839.772820472717 3098.99997711182 163 168 164
426.283061504364 840.015590190887 3099.99990463257 167 172 168
434.81981754303 840.258061885834 3101.0000705719 147 152 148
443.647056818008 841.042041778564 3104.00009155273 157 162 156
452.052921056747 841.01277589798 3104.00009155273 138 143 137
460.90304851532 841.796100139618 3107.00011253357 132 134 129
469.768643379211 842.579066753387 3109.99989509583 140 141 136
479.111045598984 844.174385070801 3115.9999370575 143 140 135
488.798201084137 846.311271190643 3124.00007247925 79 76 71
498.20950627327 847.905993461609 3130.00011444092 100 95 91
507.490694522858 849.229395389557 3134.99999046326 152 143 138
515.9752368927 849.198162555695 3134.99999046326 154 145 140
524.458944797516 849.166691303253 3134.99999046326 109 100 93
533.622026443481 850.218415260315 3138.99993896484 60 50 40
541.942477226257 849.91580247879 3138.00001144409 61 51 39
550.958454608917 850.696444511414 3141.00003242493 64 54 42
559.633731842041 850.935041904449 3141.99995994568 75 65 55
569.398522377014 852.798521518707 3148.9999294281 39 29 20
579.751133918762 855.474174022675 3158.99991989136 47 38 29
590.715706348419 858.961939811707 3171.99993133545 184 177 169
601.372122764587 861.907839775085 3183.00008773804 180 175 169
-130.00325858593 701.58588886261 2612.99991607666 210 215 211
-122.720651328564 700.521945953369 2608.99996757507 171 176 172
-114.927589893341 696.235179901123 2592.99993515015 190 191 186
-107.262775301933 692.216455936432 2578.00006866455 193 194 189
-99.7180417180061 688.465476036072 2563.99989128113 184 185 180
-92.6108732819557 687.39914894104 2559.99994277954 171 172 167
-85.5251923203468 686.332166194916 2555.99999427795 167 168 163
-78.5840153694153 686.338663101196 2555.99999427795 160 159 155
-71.5865939855576 685.807585716248 2553.99990081787 167 166 162
-64.6758079528809 686.081647872925 2555.0000667572 156 155 151
-57.736836373806 686.086595058441 2555.0000667572 156 155 151
-50.8175939321518 686.359405517578 2555.99999427795 153 152 148
-43.9099669456482 686.900317668915 2558.00008773804 158 157 153
-36.9913727045059 687.440633773804 2559.99994277954 166 167 162
-30.0383530557156 687.443315982819 2559.99994277954 152 153 148
-23.0852607637644 687.445461750031 2559.99994277954 158 159 154
-16.1447189748287 687.984108924866 2562.00003623962 150 151 146
-9.20402444899082 689.327776432037 2566.99991226196 153 154 149
-2.23528034985065 690.402388572693 2571.00009918213 146 147 142
4.76073939353228 692.28208065033 2578.00006866455 154 155 150
11.7719583213329 692.818462848663 2579.99992370605 143 144 139
18.8012924045324 693.622887134552 2582.99994468689 151 152 147
25.8168913424015 693.621039390564 2582.99994468689 144 145 140
32.8578501939774 694.155693054199 2585.00003814697 157 158 153
39.8787371814251 694.152772426605 2585.00003814697 154 153 148
46.8632392585278 693.612217903137 2582.99994468689 157 156 151
53.899347782135 693.87674331665 2584.00011062622 160 159 154
60.964323580265 694.409191608429 2585.99996566772 164 163 159
68.1451857089996 696.015119552612 2592.00000762939 172 171 167
75.3584653139114 697.620570659637 2598.00004959106 174 173 169
82.6993212103844 700.030863285065 2607.00011253357 178 179 174
89.9510979652405 701.366603374481 2611.99998855591 180 180 178
97.2298383712769 702.701807022095 2617.00010299683 184 184 182
104.336142539978 702.693700790405 2617.00010299683 186 186 184
111.697688698769 704.296112060547 2622.99990653992 189 189 187
119.182176887989 706.435143947601 2631.00004196167 194 196 193
127.045899629593 710.452854633331 2645.99990844727 194 196 193
134.787887334824 713.396072387695 2657.00006484985 195 197 194
142.856478691101 717.681109905243 2673.00009727478 195 197 194
150.674670934677 720.354437828064 2683.00008773804 196 198 195
158.664554357529 723.564207553864 2694.9999332428 200 202 199
166.657626628876 726.504802703857 2706.00008964539 202 204 203
174.967229366302 730.518579483032 2720.99995613098 207 209 208
183.156818151474 733.726382255554 2733.00004005432 217 219 218
191.550612449646 737.47044801712 2746.99997901917 219 221 220
201.903536915779 748.193860054016 2786.99994087219 227 229 228
229.566872119904 791.38171672821 2947.99995422363 215 216 220
242.239981889725 806.933522224426 3006.00004196167 219 220 224
263.281971216202 821.659207344055 3061.00010871887 240 241 243
272.650718688965 824.860274791718 3072.99995422363 249 250 252
281.352490186691 825.91313123703 3076.99990272522 232 233 235
289.8870408535 826.428771018982 3078.9999961853 233 234 236
297.947555780411 825.601816177368 3075.99997520447 218 220 219
306.588619947433 826.384723186493 3078.9999961853 234 236 235
314.938426017761 826.361954212189 3078.9999961853 221 223 222
323.077589273453 825.801968574524 3076.99990272522 220 222 221
330.774426460266 824.168145656586 3071.00009918213 211 213 212
339.431822299957 824.949026107788 3073.99988174438 199 201 198
348.104804754257 825.729429721832 3076.99990272522 207 209 206
356.793373823166 826.509475708008 3079.99992370605 204 206 203
365.260452032089 826.752424240112 3081.00008964539 213 215 212
374.581038951874 828.873038291931 3088.99998664856 213 215 212
384.068220853806 831.261515617371 3098.00004959106 155 157 154
392.336666584015 830.966293811798 3096.99988365173 155 157 154
400.598973035812 830.670714378357 3095.99995613098 165 167 164
408.987194299698 830.643117427826 3095.99995613098 153 155 152
418.183535337448 832.224786281586 3101.99999809265 155 157 154
426.724046468735 832.464694976807 3102.9999256134 147 149 146
435.549736022949 833.240747451782 3105.99994659424 139 144 138
444.247931241989 833.7482213974 3108.00004005432 147 152 146
452.956199645996 834.255218505859 3109.99989509583 131 136 130
461.674511432648 834.76197719574 3111.99998855591 136 138 133
470.856159925461 836.073100566864 3117.00010299683 149 150 145
480.371683835983 837.920367717743 3124.00007247925 190 191 186
490.080654621124 840.035200119019 3131.99996948242 164 165 160
500.469028949738 843.222737312317 3144.00005340576 172 171 167
508.49324464798 842.386782169342 3141.00003242493 188 184 181
518.969416618347 845.573484897614 3153.00011634827 194 190 187
528.003931045532 846.346080303192 3155.99989891052 202 197 193
536.71407699585 846.582233905792 3157.00006484985 77 70 62
545.083343982697 846.281766891479 3155.99989891052 131 124 114
552.92022228241 845.176875591278 3151.99995040894 162 155 145
562.337815761566 846.485018730164 3157.00006484985 58 51 43
571.962654590607 848.061084747314 3163.00010681152 89 84 78
581.619143486023 849.636912345886 3168.99991035461 134 131 124
590.562403202057 850.140273571014 3171.0000038147 212 209 204
600.649356842041 852.251887321472 3178.99990081787 210 207 202
613.462090492249 858.116447925568 3200.99997520447 170 169 164
-130.113035440445 695.076167583466 2615.00000953674 213 218 214
-122.777387499809 693.757116794586 2609.99989509583 158 163 159
-115.069687366486 690.045177936554 2595.99995613098 195 196 191
-107.312917709351 685.535252094269 2578.9999961853 187 188 183
-99.8815670609474 682.619571685791 2568.00007820129 179 180 175
-92.7629768848419 681.563973426819 2563.99989128113 169 170 165
-85.6993496417999 680.773675441742 2561.00010871887 164 165 160
-78.7440612912178 680.780291557312 2561.00010871887 160 159 155
-71.7605352401733 680.520474910736 2559.99994277954 168 167 163
-64.7316351532936 679.728448390961 2556.99992179871 157 156 152
-57.7414743602276 679.201722145081 2555.0000667572 158 157 153
-50.8415661752224 679.737746715546 2556.99992179871 153 152 148
-43.9306758344173 680.273234844208 2559.00001525879 155 154 150
-36.9943529367447 680.542349815369 2559.99994277954 165 166 161
-30.0525147467852 680.810987949371 2561.00010871887 152 153 148
-23.1141801923513 681.34468793869 2562.99996376038 156 157 152
-16.1649286746979 681.877970695496 2565.00005722046 150 151 146
-9.21194162219763 682.942390441895 2569.00000572205 149 150 145
-2.23719980567694 684.006154537201 2572.99995422363 148 149 144
4.76851128041744 686.39862537384 2582.00001716614 148 149 144
11.7865977808833 686.663866043091 2582.99994468689 140 141 136
18.8173707574606 687.194287776947 2585.00003814697 142 143 138
25.8289705961943 686.926662921906 2584.00011062622 141 142 137
32.8859202563763 687.721729278564 2586.99989318848 143 144 139
39.9282351136208 687.984645366669 2588.00005912781 148 147 142
46.9214469194412 687.449395656586 2585.99996566772 151 150 145
53.9662577211857 687.711179256439 2586.99989318848 154 153 148
61.0163845121861 687.972486019135 2588.00005912781 158 157 153
68.1506544351578 689.030528068542 2592.00000762939 166 165 161
75.3354951739311 690.35392999649 2596.99988365173 168 167 163
82.5473070144653 691.676735877991 2601.99999809265 173 174 169
89.7860899567604 692.999005317688 2607.00011253357 176 176 174
96.9031751155853 693.257331848145 2608.00004005432 181 181 179
104.145087301731 694.312572479248 2611.99998855591 185 185 183
111.365877091885 695.10143995285 2615.00000953674 189 189 187
118.87451261282 697.484612464905 2624.00007247925 193 195 192
126.575767993927 700.664460659027 2635.99991798401 194 196 193
134.494110941887 704.641282558441 2651.00002288818 195 197 194
142.54704117775 708.883225917816 2667.00005531311 195 197 194
150.405675172806 711.795389652252 2677.99997329712 195 197 194
158.618092536926 716.035902500153 2694.00000572205 198 200 197
166.547432541847 718.681037425995 2703.9999961853 201 203 202
174.916535615921 722.92023897171 2720.00002861023 211 213 212
182.902947068214 725.298345088959 2729.00009155273 215 217 216
191.216737031937 728.738903999329 2742.00010299683 217 219 218
200.542509555817 735.633671283722 2767.99988746643 223 225 224
213.992610573769 756.612777709961 2846.99988365173 226 228 227
227.403819561005 775.995969772339 2920.00007629395 206 207 209
240.324169397354 792.454600334167 2982.00011253357 212 213 217
250.83139538765 800.142526626587 3010.99991798401 215 216 218
260.549247264862 804.906368255615 3029.00004386902 227 228 230
270.985275506973 811.529517173767 3053.99990081787 239 240 242
280.367612838745 814.697563648224 3065.99998474121 220 221 223
289.24947977066 816.270649433136 3072.00002670288 229 230 232
297.19465970993 815.186023712158 3068.00007820129 192 194 193
305.416196584702 814.898073673248 3066.99991226196 238 240 239
313.631653785706 814.60964679718 3065.99998474121 203 205 204
322.261065244675 815.38337469101 3069.00000572205 195 197 196
330.152034759521 814.296901226044 3065.00005722046 200 202 201
339.014530181885 815.601110458374 3069.9999332428 190 192 189
347.677171230316 816.373467445374 3072.99995422363 189 191 188
356.587082147598 817.676603794098 3078.00006866455 195 197 194
365.286260843277 818.447947502136 3081.00008964539 208 210 207
374.364763498306 820.015609264374 3086.99989318848 199 201 198
383.846998214722 822.379767894745 3095.99995613098 146 148 145
392.237186431885 822.352766990662 3095.99995613098 152 154 151
401.144057512283 823.387861251831 3099.99990463257 154 156 153
409.675657749176 823.625683784485 3101.0000705719 145 147 144
419.020801782608 825.456559658051 3108.00004005432 151 153 150
427.577883005142 825.693488121033 3108.99996757507 141 143 140
436.27992272377 826.195776462555 3111.00006103516 135 140 134
444.992005825043 826.697528362274 3112.99991607666 147 152 146
453.859835863113 827.464520931244 3115.9999370575 137 142 136
462.594717741013 827.965617179871 3118.00003051758 154 156 151
471.339672803879 828.466475009918 3119.99988555908 170 172 167
480.402261018753 829.497992992401 3124.00007247925 195 196 191
489.329248666763 830.263733863831 3127.00009346008 190 191 186
499.386012554169 832.887589931488 3137.00008392334 194 193 189
531.214952468872 842.880547046661 3174.99995231628 215 212 207
540.486633777618 843.909859657288 3178.99990081787 147 143 134
546.324849128723 839.629948139191 3163.00010681152 159 152 144
555.935084819794 841.190040111542 3168.99991035461 189 185 176
564.686357975006 841.4226770401 3170.00007629395 93 89 80
573.803901672363 842.185795307159 3173.00009727478 129 126 119
581.101477146149 840.294778347015 3165.99988937378 165 162 155
585.939228534698 834.953486919403 3145.99990844727 213 212 207
597.848355770111 839.697599411011 3164.00003433228 210 209 204
610.429048538208 845.237374305725 3184.99994277954 159 160 155
-130.322381854057 689.080953598022 2618.99995803833 213 218 214
-122.787155210972 686.722993850708 2609.99989509583 158 163 159
-115.034528076649 682.78580904007 2595.00002861023 196 197 192
-107.363075017929 678.847789764404 2579.99992370605 184 185 180
-99.9284535646439 675.961852073669 2569.00000572205 178 179 174
-92.7342176437378 674.390733242035 2562.99996376038 168 169 164
-85.6727510690689 673.608541488647 2559.99994277954 163 164 159
-78.7503868341446 673.878371715546 2561.00010871887 160 159 155
-71.7663019895554 673.62117767334 2559.99994277954 167 166 162
-64.7115334868431 672.574162483215 2555.99999427795 157 156 152
-57.7687360346317 672.579109668732 2555.99999427795 160 159 155
-50.8655607700348 673.109829425812 2558.00008773804 153 152 148
-43.985728174448 674.166202545166 2562.00003623962 155 154 150
-37.0262525975704 674.169480800629 2562.00003623962 163 164 159
-30.0784148275852 674.435377120972 2562.99996376038 153 154 149
-23.1340900063515 674.96383190155 2565.00005722046 153 154 149
-16.1788426339626 675.491690635681 2566.99991226196 151 152 147
-9.22344531863928 676.808476448059 2572.00002670288 148 149 144
-2.24085920490325 678.1245470047 2576.99990272522 150 151 146
4.7744382172823 680.229663848877 2585.00003814697 147 148 143
11.7966802790761 680.229008197784 2585.00003814697 137 138 133
18.8407339155674 681.017220020294 2588.00005912781 137 138 133
25.8510541170836 680.489122867584 2585.99996566772 141 142 137
32.9140089452267 681.276082992554 2588.99998664856 141 142 137
39.9468950927258 681.27316236496 2588.99998664856 148 147 142
47.0159649848938 681.79589509964 2591.00008010864 150 149 144
54.054070264101 681.79190158844 2591.00008010864 152 151 146
61.1156076192856 682.050287723541 2592.00000762939 156 155 151
68.1561380624771 682.045102119446 2592.00000762939 163 162 158
75.3415524959564 683.355033397675 2596.99988365173 165 164 160
82.4904814362526 684.138000011444 2599.99990463257 169 170 165
89.6555110812187 684.920489788055 2602.9999256134 173 173 171
96.7622995376587 685.176193714142 2604.00009155273 179 179 177
103.993900120258 686.220586299896 2608.00004005432 182 182 180
111.28956079483 687.527596950531 2612.99991607666 186 186 184
118.793338537216 689.886450767517 2621.99997901917 191 193 190
126.297682523727 691.981613636017 2630.00011444092 193 195 192
134.251073002815 696.181118488312 2645.99990844727 197 199 196
142.237573862076 700.116693973541 2661.00001335144 198 200 197
150.249004364014 703.788578510284 2674.99995231628 198 200 197
158.395007252693 707.722902297974 2690.00005722046 199 201 198
166.498869657516 711.130321025848 2703.00006866455 202 204 203
174.544289708138 714.010953903198 2713.99998664856 207 209 208
182.649046182632 716.890871524811 2724.99990463257 210 212 211
190.952599048615 720.296382904053 2737.99991607666 212 214 213
199.905887246132 725.805759429932 2759.0000629425 218 220 219
210.927113890648 738.153874874115 2805.99999427795 221 223 222
239.53652381897 781.786859035492 2971.99988365173 199 200 202
249.600812792778 788.081347942352 2996.00005149841 191 192 194
259.450614452362 793.322801589966 3016.00003242493 201 202 204
270.118296146393 800.667703151703 3043.99991035461 223 224 226
280.022859573364 805.381596088409 3062.00003623962 212 213 215
288.611948490143 806.149423122406 3065.00005722046 218 220 219
296.82919383049 805.86439371109 3063.99989128113 159 161 160
304.940819740295 805.316150188446 3062.00003623962 197 199 198
313.347816467285 805.556356906891 3062.99996376038 220 222 221
322.074592113495 806.585013866425 3066.99991226196 172 174 173
330.714672803879 807.350158691406 3069.9999332428 154 156 155
339.701622724533 808.903574943542 3075.99997520447 173 173 171
348.381012678146 809.667766094208 3078.9999961853 170 170 168
357.191771268845 810.694217681885 3082.99994468689 161 161 159
366.142123937607 811.983287334442 3088.00005912781 163 163 161
374.633699655533 812.219977378845 3088.99998664856 158 158 156
383.625894784927 813.507974147797 3094.00010108948 153 153 151
392.011016607285 813.480854034424 3094.00010108948 146 146 144
401.301145553589 815.293729305267 3101.0000705719 139 139 137
409.967929124832 815.791606903076 3102.9999256134 139 139 137
419.318914413452 817.603588104248 3109.99989509583 139 139 137
427.881836891174 817.837774753571 3111.00006103516 141 143 140
437.01034784317 819.122910499573 3115.9999370575 149 154 148
446.022242307663 820.144832134247 3119.99988555908 177 184 177
455.49201965332 821.955144405365 3127.00009346008 179 186 179
463.366806507111 820.873498916626 3122.99990653992 191 196 190
471.672356128693 820.580184459686 3121.99997901917 197 202 196
478.895246982574 818.44687461853 3114.00008201599 206 208 203
537.798941135406 831.133306026459 3163.00010681152 192 191 186
548.084914684296 833.7282538414 3173.00009727478 201 198 193
557.196080684662 834.483504295349 3176.00011825562 212 211 206
566.144526004791 834.975719451904 3177.99997329712 184 183 178
573.294579982758 832.840621471405 3170.00007629395 182 181 176
578.19789648056 827.553033828735 3150.00009536743 198 199 194
-130.282983183861 681.761145591736 2618.00003051758 213 218 214
-122.655786573887 678.906559944153 2607.00011253357 163 168 164
-114.95503038168 675.270140171051 2592.99993515015 195 196 191
-107.454910874367 672.414422035217 2582.00001716614 181 182 177
-100.053153932095 669.818460941315 2572.00002670288 177 178 173
-92.8502231836319 668.263673782349 2565.99998474121 168 169 164
-85.813507437706 667.74994134903 2563.99989128113 162 163 158
-78.756719827652 666.975319385529 2561.00010871887 159 158 154
-71.7720910906792 666.720926761627 2559.99994277954 166 165 161
-64.7167563438416 665.684700012207 2555.99999427795 158 157 153
-57.7734038233757 665.689706802368 2555.99999427795 161 160 156
-50.8696772158146 666.215002536774 2558.00008773804 155 154 150
-43.9721271395683 667.000114917755 2561.00010871887 155 154 150
-37.0292514562607 667.263865470886 2562.00003623962 162 163 158
-30.0573837012053 667.006134986877 2561.00010871887 158 159 154
-23.1359675526619 668.050050735474 2565.00005722046 150 151 146
-16.1927621811628 669.093489646912 2569.00000572205 152 153 148
-9.24212578684092 671.178042888641 2576.99990272522 148 149 144
-2.24538962356746 672.480821609497 2582.00001716614 150 151 146
4.78221429511905 674.303889274597 2588.99998664856 145 146 141
11.8250213563442 674.824059009552 2591.00008010864 132 133 128
18.8859477639198 675.604224205017 2594.00010108948 133 134 129
25.9131360799074 675.081491470337 2592.00000762939 142 143 138
32.967533916235 675.33951997757 2592.99993515015 143 144 139
40.0272868573666 675.596952438354 2594.00010108948 147 146 141
47.1286550164223 676.374793052673 2596.99988365173 149 148 143
54.1210360825062 675.589382648468 2594.00010108948 151 150 145
61.1677169799805 675.58479309082 2594.00010108948 154 153 149
68.2142376899719 675.579428672791 2594.00010108948 159 158 154
75.4056572914124 676.8758893013 2598.99997711182 161 160 156
82.4971273541451 677.129924297333 2599.99990463257 165 166 161
89.6627232432365 677.904307842255 2602.9999256134 169 169 167
96.732884645462 677.896738052368 2602.9999256134 175 175 173
104.04209792614 679.451286792755 2608.99996757507 179 179 177
111.255846917629 680.223941802979 2611.99998855591 183 183 181
118.802815675735 682.819008827209 2621.99997901917 189 191 188
126.115620136261 683.850824832916 2625.99992752075 192 194 191
134.008020162582 687.74676322937 2641.00003242493 197 199 196
141.874626278877 691.121160984039 2654.00004386902 198 200 197
149.980008602142 695.276141166687 2670.00007629395 198 200 197
158.054158091545 698.90958070755 2684.00001525879 200 202 199
166.080728173256 702.021539211273 2696.00009918213 202 204 203
174.107745289803 704.872488975525 2707.00001716614 205 207 206
182.328134775162 708.243548870087 2720.00002861023 207 209 208
190.758183598518 712.134718894959 2734.99989509583 209 211 210
199.486598372459 716.806352138519 2753.00002098084 216 218 217
209.364712238312 725.122392177582 2785.00008583069 219 221 220
240.763947367668 777.68075466156 2986.99998855591 189 190 192
249.453186988831 779.484450817108 2993.99995803833 193 194 196
258.954137563705 783.630669116974 3009.99999046326 196 197 199
269.69501376152 791.160404682159 3039.00003433228 211 212 214
279.31222319603 795.044600963593 3053.99990081787 209 211 210
287.880152463913 795.804262161255 3056.99992179871 216 218 217
296.27001285553 796.042859554291 3058.00008773804 159 161 160
304.664611816406 796.280682086945 3059.00001525879 175 177 176
313.370913267136 797.299087047577 3062.99996376038 200 202 199
322.098195552826 798.316776752472 3066.99991226196 168 170 167
330.73878288269 799.073815345764 3069.9999332428 146 148 145
339.726269245148 800.611019134521 3075.99997520447 163 162 160
348.745584487915 802.147805690765 3082.00001716614 163 162 160
358.028441667557 804.204523563385 3089.99991416931 156 155 153
366.879671812058 805.21959066391 3094.00010108948 151 150 148
375.145316123962 804.932951927185 3092.99993515015 148 147 145
383.900821208954 805.686831474304 3095.99995613098 149 148 146
392.671883106232 806.44029378891 3098.99997711182 143 142 140
402.10548043251 808.494448661804 3107.00011253357 135 134 132
411.053150892258 809.507131576538 3111.00006103516 142 141 139
420.29145359993 811.039805412292 3117.00010299683 153 152 150
429.148763418198 811.79141998291 3119.99988555908 163 163 161
437.741041183472 812.02232837677 3121.00005149841 177 182 178
446.623951196671 812.773168087006 3124.00007247925 192 198 194
454.793810844421 812.22277879715 3121.99997901917 190 196 192
555.299282073975 823.057413101196 3164.99996185303 211 212 207
565.999805927277 826.144695281982 3177.00004577637 190 191 186
570.795893669128 820.650517940521 3155.99989891052 197 198 193
-130.392879247665 675.21870136261 2619.99988555908 213 218 214
-122.571468353271 671.362996101379 2605.00001907349 167 172 168
-114.875562489033 667.76442527771 2591.00008010864 188 189 184
-107.338652014732 664.680540561676 2578.9999961853 181 182 177
-100.022286176682 662.627100944519 2571.00009918213 176 177 172
-92.8215011954308 661.088407039642 2565.00005722046 168 169 164
-85.7869610190392 660.580158233643 2562.99996376038 159 160 155
-78.7015706300735 659.555852413177 2559.00001525879 159 158 154
-71.7498511075974 659.561932086945 2559.00001525879 168 167 163
-64.7473111748695 659.051954746246 2556.99992179871 165 164 160
-57.8459016978741 659.572422504425 2559.00001525879 157 156 152
-50.9533546864986 660.35008430481 2562.00003623962 155 154 150
-44.0271981060505 660.869359970093 2563.99989128113 155 154 150
-37.090077996254 661.388218402863 2565.99998474121 160 161 156
-30.0832986831665 660.617709159851 2562.99996376038 157 158 153
-23.1468696147203 661.393165588379 2565.99998474121 153 154 149
-16.2003822624683 662.425696849823 2569.9999332428 157 158 153
-9.24646481871605 664.488852024078 2578.00006866455 144 145 140
-2.24818149581552 666.293561458588 2585.00003814697 155 156 151
4.78814542293549 668.097734451294 2592.00000762939 144 145 140
11.8488036096096 669.128060340881 2595.99995613098 120 121 116
18.9093258231878 669.38453912735 2596.99988365173 140 141 136
25.9452387690544 668.867290019989 2595.00002861023 136 137 132
32.9956449568272 668.864846229553 2595.00002861023 144 145 140
40.0459691882133 668.861865997314 2595.00002861023 141 140 135
47.1506342291832 669.631600379944 2598.00004959106 148 147 142
54.1671551764011 669.111967086792 2595.99995613098 149 148 143
61.2434148788452 669.365048408508 2596.99988365173 149 148 144
68.3249458670616 669.617474079132 2598.00004959106 154 153 149
75.4407569766045 670.127153396606 2599.99990463257 157 156 152
82.535520195961 670.378565788269 2601.0000705719 162 163 158
89.7043943405151 671.144843101501 2604.00009155273 164 164 162
96.8893393874168 671.910524368286 2607.00011253357 169 169 167
104.13022339344 672.933399677277 2611.00006103516 176 176 174
111.34997010231 673.697948455811 2614.00008201599 179 179 177
118.767000734806 675.492763519287 2621.00005149841 185 187 184
126.221746206284 677.287042140961 2628.00002098084 188 190 187
133.967950940132 680.369317531586 2640.00010490417 193 195 192
141.778960824013 683.450818061829 2651.99995040894 195 197 194
149.767160415649 687.047243118286 2665.99988937378 195 197 194
157.595485448837 689.612150192261 2676.00011825562 198 200 197
165.724158287048 693.207204341888 2690.00005722046 197 199 198
173.864081501961 696.543872356415 2703.00006866455 204 206 205
182.275354862213 700.65301656723 2719.00010108948 206 208 207
190.494030714035 703.730583190918 2730.99994659424 206 208 207
198.849871754646 707.065343856812 2743.99995803833 210 212 211
208.177983760834 713.491320610046 2769.00005340576 213 215 214
239.492654800415 765.505194664001 2970.99995613098 174 175 177
249.638885259628 771.927833557129 2996.00005149841 191 192 194
258.973836898804 775.515615940094 3009.99999046326 190 192 191
269.449204206467 782.194137573242 3036.00001335144 190 192 191
278.967469930649 785.780370235443 3049.99995231628 201 203 202
287.430912256241 786.274254322052 3052.00004577637 208 210 209
296.195238828659 787.540435791016 3056.99992179871 155 157 154
304.786860942841 788.290858268738 3059.99994277954 158 160 157
313.701033592224 789.813578128815 3065.99998474121 164 166 163
322.331935167313 790.562927722931 3069.00000572205 164 166 163
330.870747566223 791.054129600525 3071.00009918213 146 148 145
339.751005172729 792.317509651184 3075.99997520447 148 147 145
348.883956670761 794.095575809479 3082.99994468689 146 145 143
358.170062303543 796.130537986755 3091.00008010864 148 147 145
366.905838251114 796.877264976501 3094.00010108948 146 145 143
375.414580106735 797.108292579651 3095.00002861023 144 143 141
384.175926446915 797.854006290436 3098.00004959106 134 133 131
393.33301782608 799.371838569641 3104.00009155273 136 135 133
402.521699666977 800.889194011688 3109.99989509583 156 155 153
411.610096693039 802.148520946503 3115.00000953674 172 171 169
420.859634876251 803.664922714233 3121.00005149841 195 194 192
429.177969694138 803.378164768219 3119.99988555908 197 197 195
436.087399721146 800.516486167908 3108.99996757507 205 210 206
-130.80145418644 670.194685459137 2628.00002098084 212 217 213
-122.581258416176 664.339303970337 2605.00001907349 173 178 174
-114.884756505489 660.77846288681 2591.00008010864 188 189 184
-107.347272336483 657.727003097534 2578.9999961853 181 182 177
-100.030340254307 655.695140361786 2571.00009918213 176 177 172
-92.8289964795113 654.172718524933 2565.00005722046 169 170 165
-85.8608335256577 654.179811477661 2565.00005722046 159 160 155
-78.7694454193115 653.1662940979 2561.00010871887 159 158 154
-71.755662560463 652.662336826324 2559.00001525879 167 166 162
-64.8032128810883 652.667939662933 2559.00001525879 165 164 160
-57.8732006251812 652.927935123444 2559.99994277954 158 157 153
-50.9773790836334 653.697431087494 2562.99996376038 155 154 150
-44.0307818353176 653.956353664398 2563.99989128113 155 154 150
-37.1075496077538 654.724836349487 2566.99991226196 159 160 155
-30.1209650933743 654.472529888153 2565.99998474121 158 159 154
-23.1758169829845 655.239820480347 2569.00000572205 154 155 150
-16.2269193679094 656.51673078537 2573.99988174438 156 157 152
-9.26515273749828 658.813238143921 2582.99994468689 145 146 141
-2.25271331146359 660.599112510681 2589.99991416931 151 152 147
4.79777297005057 662.384390830994 2596.99988365173 136 137 132
11.8725942447782 663.404047489166 2601.0000705719 118 119 114
