ply
format ascii 1.0
comment KinectMotionCapture
element vertex 762
property float x
property float y
property float z
property uchar red
property uchar green
property uchar blue
end_header
178.294354734477 796.101235431782 2941.72232311788 251 252 255
170.825970281459 797.235458827257 2944.71983576508 250 251 255
165.066183109613 798.009235222451 2948.90811644101 252 253 255
155.855439227014 799.508266773215 2950.74808063711 252 253 255
145.7617400211 801.191288395335 2952.02039170984 252 253 255
133.047873868995 803.422105468311 2951.56253756976 252 253 255
122.902388769257 805.111655525192 2952.88530790079 252 253 255
110.995029404663 807.1684149236 2953.06955340635 252 253 255
88.5985418801285 811.417363721325 2946.34139041609 253 254 255
62.6310359603726 816.406244644948 2937.38162688172 247 249 248
45.3250104366525 819.578378336608 2934.25984426651 254 254 255
29.7195898045426 822.391262540073 2932.33625140727 244 244 246
16.705887537475 824.660160525763 2932.17084846147 255 255 255
6.30082928771358 826.383082559743 2933.74644640402 243 243 245
257.471983544408 781.015235176459 2841.23832388739 195 197 194
264.034488844899 779.182219990389 2854.83065977238 237 239 238
268.182333873828 777.863826669905 2866.49400016211 247 248 252
268.247615435044 777.410431735753 2874.99831777034 237 236 242
264.201295389241 777.825577969137 2880.37192427716 239 238 244
259.330355694535 778.41451659362 2885.12179452822 244 245 247
256.952601388739 778.479097882333 2891.72446041243 247 248 250
253.753864024662 778.717144087677 2897.69948941123 254 255 255
249.728782077479 779.129246070402 2903.05279395306 251 252 254
244.034288652188 779.891796779127 2907.17755828302 251 252 254
238.336520032085 780.654629402636 2911.30587110495 253 254 255
234.316266232857 781.066135758505 2916.65413141589 253 254 255
230.300475360883 781.476948515917 2921.99840032963 252 253 255
225.44435504845 782.063783046489 2926.73386569919 252 253 255
220.588617928913 782.650510300681 2931.46896640794 253 254 255
213.18829433506 783.767838938882 2934.4013906536 253 254 255
204.926509439678 785.063663412712 2936.74596778215 251 252 255
194.945248820186 786.715999093023 2937.91116104521 250 251 255
187.503385966673 787.838564414936 2940.88406041022 249 250 254
183.474372556662 788.251292996581 2946.24083849972 247 248 252
176.017756250639 789.375718225605 2949.2281133677 246 247 251
168.549786248919 790.501751674855 2952.2264249291 247 248 252
158.484978882902 792.164678718895 2953.47301594758 248 249 253
148.397464367077 793.830514290887 2954.74206346431 249 250 254
137.420985391363 795.678280015621 2955.4493916322 250 251 255
128.153221233268 797.171054985689 2957.34690252468 250 251 255
116.257709201258 799.20467928026 2957.52280281209 249 250 254
96.4877188402871 802.859287831208 2952.52506049373 248 249 251
70.5384016988599 807.781350836235 2943.55744873477 245 246 248
53.2501953704556 810.913498086242 2940.42388137381 254 255 255
35.0306336054795 814.232788569603 2936.77025688146 250 250 252
15.8741436672702 817.739970749237 2932.60233628709 251 251 253
3.7053717311375 819.80827967195 2933.04446132594 255 255 255
2.98574037261146 819.526750881659 2940.8855601659 250 250 250
255.912892799349 774.956295554349 2832.34608244919 171 173 170
261.612769812691 773.336596990959 2845.34658355391 206 208 205
266.542111191459 771.88158592298 2857.67065003475 231 232 234
269.04904237934 770.934153960656 2868.07445772165 232 233 237
269.94113527711 770.325088612214 2877.19765678714 234 233 239
265.898597899283 770.742234670907 2882.56721147542 233 232 237
261.860565965866 771.158681771182 2887.93273333855 236 237 239
259.488458057277 771.230453064558 2894.52872958731 233 234 236
257.128383580344 771.300589415017 2901.1130181044 236 237 239
253.945479523193 771.541769868346 2907.07186115488 251 252 254
248.260852216519 772.300233254473 2911.18777022969 254 255 255
241.733986787238 773.2321285298 2914.69715389362 253 254 255
236.880929863939 773.81834099619 2919.42966921329 253 254 255
232.870918350668 774.231078770799 2924.76791462171 252 253 255
228.020625580899 774.816883802889 2929.49774531468 249 250 252
221.4779241272 775.750598554239 2933.0225854672 246 247 249
214.079546679212 776.859426214123 2935.95433360213 247 248 250
204.969732746849 778.318431374289 2937.69998874868 247 248 252
197.544994663253 779.430582211145 2940.65742222035 245 246 250
190.10911816227 780.544019284842 2943.62572619989 243 244 248
186.941900780991 780.783458058733 2949.5692495688 240 241 245
176.919292585629 782.424671893033 2950.77714538991 239 240 244
168.593490907121 783.717716435489 2953.18570300309 237 238 242
158.528917742049 785.364279589844 2954.43448003231 238 239 243
151.032916841525 786.485578105663 2957.46166435369 240 241 245
141.793936630108 787.961056672061 2959.33281092052 244 245 249
131.66830721607 789.615493843221 2960.6410539313 244 245 249
119.780816511273 791.626406393898 2960.81234570804 245 246 250
98.2761707027109 795.588064910894 2954.65794140573 247 248 250
74.9515442691107 799.913348766491 2947.42324246666 248 249 251
53.2966024744552 803.893718605333 2941.41531877512 242 243 245
35.0775376772337 807.172493823046 2937.76718892501 250 251 255
16.8008602236158 810.458460024789 2934.17554431206 252 253 255
4.63416020256702 812.504761290622 2934.61852678868 255 255 255
-2.26457294001259 813.484643769739 2938.49042594336 252 252 252
-10.9412764728907 814.823058512151 2941.24039074747 191 191 189
265.765050333711 766.096085927739 2840.87620482791 188 190 187
266.57227943037 765.516294190198 2850.07934827551 216 218 217
269.870613988338 764.42832890796 2861.13496079785 227 228 230
271.56204374155 763.672350896597 2870.90336733664 232 233 237
269.98448259801 763.5872120432 2878.15046747103 240 239 245
267.595911627933 763.669019558639 2884.76132843398 234 233 239
263.561451689167 764.087565049679 2890.12265527038 242 243 245
262.02413111964 763.997281225796 2897.3308941863 235 236 238
258.836842385574 764.244262662877 2903.29323390291 223 224 226
255.657841507118 764.490245214986 2909.24782913314 238 239 241
250.813670669047 765.075337449139 2913.97168600866 249 250 252
244.292617472395 766.000897961674 2917.47623431484 250 251 253
238.604870821695 766.756806149356 2921.59561860159 252 253 255
233.756131005071 767.342297469374 2926.32395355564 252 253 255
230.5964369811 767.585682217132 2932.25942290632 248 249 251
224.059778076409 768.513138070394 2935.77952562274 242 243 245
215.819110868751 769.784481858343 2938.10675080988 242 243 245
204.162390774506 771.744673585358 2938.05604263252 244 245 249
196.73581481005 772.848800480591 2941.01648708212 242 243 247
191.006296670864 773.609797721639 2945.17659891457 240 241 245
185.273206013709 774.371363272994 2949.34017431416 237 238 242
177.820694585187 775.478759745571 2952.32588982087 236 237 241
169.497077486685 776.760442747626 2954.73395734452 235 236 240
161.158112530944 778.044250535344 2957.1566136329 236 237 241
153.667844253962 779.15658376508 2960.17909259773 237 238 242
144.435066478434 780.617586610228 2962.04655740131 241 242 246
135.183030344494 782.081089284193 2963.93243872389 243 244 248
120.694923294886 784.591572812427 2962.36127880774 245 246 250
100.064270530821 788.327500758866 2956.78959653171 241 242 244
73.2503021678883 793.293848946675 2947.25680372722 247 248 250
54.2180698822836 796.699095081685 2942.98055954984 243 244 246
37.7559531114673 799.587091731735 2940.47966771611 245 246 250
20.3647388878552 802.65650879046 2937.4576602127 247 248 252
7.32504964263203 804.855456603083 2937.3280634834 255 255 255
-4.86607262932415 806.883182084469 2937.79838095102 253 253 255
-9.12312548709071 807.331499045773 2943.37634563621 252 252 250
268.261172660208 758.785166824116 2843.72913490407 216 218 217
271.531691438185 757.72736207249 2854.80791119388 228 230 229
274.841367976681 756.664679831785 2865.84852413939 233 234 236
274.074798260361 756.425969814781 2873.73024270853 235 236 240
270.852701671513 756.682823435894 2879.725688035 235 234 240
266.812092578741 757.104784684784 2885.09295406671 239 238 244
266.091211072586 756.86021004319 2892.92983251471 235 236 240
264.559366308332 756.779804364895 2900.13083604745 245 246 250
261.377958877647 757.031220589055 2906.08701792526 228 229 233
257.369858215743 757.448919765128 2911.42229469506 211 212 216
253.366306053909 757.865855586104 2916.75350540259 240 241 245
248.528281098653 758.449937158769 2921.47140870095 244 245 249
242.850022814087 759.201831721373 2925.58162626991 248 249 253
235.483533049845 760.290364035938 2928.48470910667 251 252 255
232.32784957447 760.538419409142 2934.41584344889 247 248 252
224.94860574098 761.628441639136 2937.33137105611 239 240 244
218.406576518853 762.551031436553 2940.85752577806 239 240 244
207.605956870019 764.319840318942 2941.40189282149 238 239 243
201.039481361237 765.245394021575 2944.95188500358 237 238 242
194.465482767114 766.171909166561 2948.50886777787 235 236 240
188.74024165321 766.929595685767 2952.66522178423 232 233 237
179.579658377314 768.367770568453 2954.46403250334 231 232 236
172.119823278024 769.467952608044 2957.45808681343 229 230 234
164.648931267688 770.56951550905 2960.46325455092 229 230 234
157.166604055314 771.672592005707 2963.4792160623 229 230 234
146.21032773099 773.460892909762 2964.17560941523 233 234 238
135.227141576019 775.252481325806 2964.89790089296 237 238 242
121.608814236726 777.561778791492 2963.90968139667 243 244 248
103.594905067519 780.734126427623 2960.07389676725 250 251 255
76.7893312426007 785.632191888344 2950.54286021966 238 239 243
55.1392358755232 789.509580875213 2944.54534447885 241 242 246
40.4340546955249 792.017473882897 2943.19012526093 242 243 247
26.5657281050142 794.358110820043 2942.44552675657 244 245 249
10.8966110125532 797.049293556174 2940.60317284779 244 245 249
-4.81851370723518 799.74644015333 2938.805961579 247 246 251
-16.1550683053626 801.58321189561 2939.87281291064 251 251 251
-37.274602661864 805.331957984367 2934.78436492507 234 234 232
258.551557994764 754.300638264048 2828.52768023513 185 187 186
271.574342944604 751.327415113832 2847.20933539271 222 223 225
275.671626914192 750.13268481413 2858.90460632134 230 231 235
277.348298979157 749.421214743315 2868.68075136655 232 233 237
275.764122267033 749.358315571468 2875.93113384312 232 233 237
271.721044743555 749.783182633637 2881.30042158507 233 232 237
269.336006648741 749.880407388336 2887.90549568943 234 233 238
268.620765052745 749.64838973241 2895.73491770627 233 234 238
267.094606228583 749.577822670961 2902.92882087317 236 237 241
263.918890686528 749.833769567675 2908.87868099001 243 244 248
257.412412589288 750.746760330922 2912.37061381047 216 217 221
253.408772957384 751.166301807256 2917.70152626235 222 223 227
248.570706561989 751.750270666455 2922.41948737038 242 243 247
244.57355432407 752.168889403954 2927.74375628254 243 244 248
238.895872159926 752.917867795844 2931.85417060615 247 248 252
234.05910361475 753.501555102748 2936.57088454304 248 249 253
226.683782436289 754.582886152867 2939.48380144841 235 236 240
219.297279784779 755.665567836504 2942.40762209877 244 245 249
210.199106381047 757.08248903954 2944.1476001768 240 241 246
202.78632974376 758.168306070081 2947.09704788054 235 236 241
197.070425734998 758.921984995153 2951.24472232412 228 229 234
189.639068024307 760.010262402891 2954.21225766575 231 232 237
183.054488310404 760.932555358553 2957.78070952813 229 230 235
175.602508702906 762.023550421705 2960.76832104985 223 224 229
167.277349022873 763.283740400438 2963.18075919723 228 229 234
158.937305887914 764.545793637243 2965.60803928863 228 229 234
147.119585105529 766.482808996168 2965.7209704737 229 230 235
137.00626440041 768.08680930184 2967.02444530126 234 235 240
124.261493772601 770.199869686 2966.61468414959 239 240 245
107.996573014343 772.99301064832 2963.93199338952 240 244 247
82.0746985806689 777.653448541656 2954.97579869334 238 242 245
59.5614959146342 781.647682569306 2948.40118229574 235 238 243
43.9890188728511 784.294249436937 2946.46945759392 237 238 243
28.3705794134321 786.946479622062 2944.58287505839 239 240 245
12.7057540356939 789.604806402448 2942.74111550936 240 241 245
-3.00524443300532 792.268895065784 2940.94435491843 240 241 245
-18.7622930461875 794.938952950108 2939.19277839546 245 245 245
-23.0361418203446 795.394222747321 2944.78639404781 244 244 242
270.010555712215 745.210688420359 2838.33029853976 217 218 220
276.521886311348 743.570937860818 2851.94488723229 224 225 229
278.991993631804 742.724031443948 2862.37040393218 224 225 229
279.034012500353 742.353353964064 2870.8855961345 226 227 231
275.807311623262 742.621461386461 2876.88395028035 228 229 233
274.239087370033 742.566975598074 2884.11758607702 230 229 234
271.85980250382 742.671317920816 2890.71589516687 230 229 234
271.978951556578 742.290753087094 2899.15561946067 224 225 229
269.629620025504 742.391319316003 2905.72474255096 224 225 229
266.459617630658 742.65179420529 2911.66826019284 248 249 253
258.289671960126 743.882261315813 2913.93129940323 241 242 246
253.451181470204 744.466165701212 2918.6496911726 204 205 209
250.290047968487 744.72535865703 2924.58425349971 218 219 223
247.977729774181 744.821022891416 2931.11734631208 237 238 242
243.150210325568 745.403367296256 2935.82507423969 238 239 243
235.789970939591 746.474777286392 2938.72448103051 245 246 250
228.418572416158 747.547417156635 2941.63478723404 239 240 244
221.884339499884 748.457996935269 2945.15497518456 241 242 246
215.342584575284 749.369420082829 2948.682170109 233 234 239
207.089460016129 750.609724556829 2951.02635322738 229 230 235
200.52912509514 751.523490008158 2954.57165217141 228 229 234
193.961644302784 752.438202241033 2958.12424497944 224 225 230
185.670936194832 753.683067812057 2960.50507498922 222 223 228
175.645392511172 755.259668064519 2961.72543565278 221 222 227
164.735338995205 757.004165924877 2962.38240314444 226 227 232
157.253333172116 758.090631665067 2965.40050057406 226 227 232
146.297488142559 759.840961242136 2966.10207779046 228 229 234
136.1824463878 761.4287851797 2967.40965250589 233 234 239
125.175070028836 763.185670068467 2968.16143222195 238 239 244
110.655169535074 765.610954868959 2966.63409815861 238 242 245
88.2329753938595 769.540113162717 2959.97872711555 236 240 243
64.8585862648701 773.645465978386 2952.82594898028 233 236 241
46.6664669081851 776.759033835311 2949.17547948517 235 236 241
30.1749121468875 779.545423287718 2946.7188375106 237 238 243
15.3956136598756 782.003219382534 2945.44462217605 238 239 244
-0.30917928365426 784.634151855083 2943.64659987741 237 238 242
-16.0599362603429 787.270924755266 2941.89369517251 245 245 247
-20.3278552502346 787.727923699664 2947.48116689423 241 241 241
260.345041602792 740.612392487883 2823.10186613472 186 190 189
274.946568620732 737.449590975688 2843.07798315712 221 222 224
279.834566860411 736.159892231201 2855.41867089703 223 224 228
281.493052627296 735.493454193516 2865.20655733224 220 221 225
279.898329125345 735.453113389641 2872.46407881009 222 223 227
276.673554917785 735.726213112378 2878.4601197268 226 227 231
273.456905014648 735.99818373771 2884.44792212722 231 230 235
271.902551792202 735.952445736604 2891.66649086612 230 229 234
272.85053406709 735.429387452316 2900.72147914741 224 225 229
270.503002207783 735.537510689099 2907.28769821457 219 220 224
267.334633225787 735.803099893035 2913.22850011788 243 244 248
259.166636136882 737.022471089809 2915.49124432912 251 252 255
253.493446558062 737.7654579879 2919.59808298926 204 205 209
250.332265129158 738.029905211258 2925.53191633032 204 205 209
248.01985405475 738.133424008578 2932.06394047304 231 232 236
244.034791701741 738.555576905151 2937.37601944559 239 240 244
236.676604754514 739.618472517062 2940.27464655577 243 244 248
229.307129502846 740.682791199113 2943.18427278999 242 243 247
221.078213167991 741.90926558445 2945.50612302285 240 241 245
216.234943267775 742.493359708674 2950.22923277398 229 230 235
206.279782484519 744.044975550663 2951.38373270394 226 227 232
200.57154427107 744.791922173346 2955.52445208882 228 229 234
192.292202294403 746.024504598849 2957.89581080575 222 223 228
186.571418531002 746.773078718361 2962.04908540586 220 221 226
176.547978726056 748.3331973162 2963.26979286812 221 222 227
165.640010804497 750.05856222977 2963.92751717488 221 222 227
155.568995919516 751.624501515905 2965.19460709971 222 223 228
146.340882406228 753.030429161017 2967.06558031245 224 225 230
137.093468017373 754.438861994909 2968.95501147214 228 229 234
125.218871354425 756.339823312489 2969.12975001896 233 234 239
111.570799125164 758.571847426597 2968.18248860573 232 235 240
91.770878159986 761.955375505558 2963.25453339517 230 233 238
69.279959364787 765.839182188885 2956.67410989768 229 232 237
51.0981123933565 768.911107333205 2953.01993238888 228 231 238
32.858276090062 771.99017908565 2949.42194503631 231 232 237
18.0851153012034 774.417599075196 2948.14612445185 231 232 237
1.50370206792072 777.180230164033 2945.78222474408 231 232 237
-15.1278405056958 779.949357759221 2943.4671440315 231 232 234
-19.3935701438774 780.408439454108 2949.05213386499 236 238 237
270.963031791526 731.742540645707 2832.28983979953 196 200 199
275.80583705572 730.490546228735 2844.67016999102 217 218 222
280.695580181145 729.232752486197 2857.00474733023 216 217 222
282.355510369626 728.587492109315 2866.78773154243 216 217 222
282.404805420445 728.247858454994 2875.29111012434 218 219 224
280.008685020091 728.370480622776 2881.90343539536 227 228 232
276.799807895189 728.646706553553 2887.88322822181 232 231 236
272.772074746554 729.077377167639 2893.23608316828 233 232 237
272.893034614819 728.728473149066 2901.66966768284 225 226 231
270.545345022662 728.844577062155 2908.23486384058 217 218 223
268.209730302301 728.959158745792 2914.78829445698 234 235 240
261.712861977015 729.85454471083 2918.27328661332 252 253 255
256.881940617558 730.437376949413 2922.98432058707 219 220 225
252.051510359406 731.019911401567 2927.69491090268 196 197 202
249.742852591827 731.130976795325 2934.22209257257 239 240 245
244.076790841653 731.870057707207 2938.32243049655 239 240 245
235.029858090715 733.240125565639 2940.01845075275 236 237 242
229.349193313595 733.980870514621 2944.13304375441 241 242 247
221.968653958604 735.03832836699 2947.05467083442 238 239 244
217.127341463005 735.62199882278 2951.77589947183 226 227 232
208.026010705797 736.998629570119 2953.52496776029 224 225 230
202.321919515215 737.742268821921 2957.66239576013 227 228 233
194.902351028185 738.804470010051 2960.62207828226 220 221 226
185.756078803549 740.18657639906 2962.41530265678 219 220 225
176.590590737657 741.571177256923 2964.22690212233 220 221 226
164.821209616441 743.437173955517 2964.30232783625 220 221 226
156.475599898427 744.667273256605 2966.73952056266 222 223 228
146.384024798016 746.219575019391 2968.02938054734 224 225 230
137.136861817399 747.61441332919 2969.92057131966 226 227 232
126.131916136467 749.332956899289 2970.67560416666 230 231 236
111.614765284024 751.69861835528 2969.15468981511 229 232 239
91.8152616623242 755.036392980941 2964.23308251672 228 231 238
68.4496424361805 759.027655939471 2957.08845816934 226 229 236
49.3889786310109 762.220955258494 2952.87177255802 226 229 236
33.7830777064938 764.774555111587 2950.98697874999 226 229 236
19.8932471645543 767.00975413573 2950.27931766478 226 229 234
2.43309211682519 769.899221004848 2947.35236597829 229 230 235
-15.0808896481305 772.795473586944 2944.4778620923 222 223 225
-23.7804189167821 774.070648783643 2947.2601778087 235 237 236
-2.27741683891214 769.805813831866 2969.04803972543 161 163 160
269.457671473917 725.517434711499 2823.36880256094 188 192 191
274.260812366611 724.302578629228 2835.78303103003 201 205 204
275.84973475646 723.687675597643 2845.63204023359 214 215 219
277.470373030903 723.068702268124 2855.45049452514 213 214 219
279.941333027844 722.293879239357 2865.86417276941 216 217 222
283.268860405553 721.36233410223 2876.86767756106 218 219 224
282.520667161886 721.187824275128 2884.72165926116 224 225 229
280.142354141859 721.315985424767 2891.31548288118 229 228 233
274.46838370264 722.054071450377 2895.42348345206 232 231 236
271.277720845299 722.333131471219 2901.38477036429 228 229 234
269.756744581291 722.304309651954 2908.56735724377 226 227 232
269.084510387648 722.119988104351 2916.34736065233 211 212 217
265.093448541292 722.548335502334 2921.66414382386 222 223 228
258.597224163446 723.438025211139 2925.14967627705 244 245 250
252.093497958835 724.328673682317 2928.64217860846 215 216 221
247.263472690663 724.911039141396 2933.35239174013 216 217 222
243.276176304994 725.338616999097 2938.66554949125 232 233 238
235.916075903917 726.385478436161 2941.56844653343 216 217 222
230.237392225753 727.123202101297 2945.68151881897 237 238 243
221.162331759633 728.483135137415 2947.40696823447 230 231 236
214.61898142441 729.378294071336 2950.9384891109 221 222 227
208.068151598014 730.274291014221 2954.47697553328 222 223 228
201.510133383096 731.171240098614 2958.02279724762 221 222 227
195.800458227483 731.912765832173 2962.16574474236 221 222 227
186.656222593053 733.281111615363 2963.95898056423 220 221 226
178.352716457864 734.495039788856 2966.35709173808 222 223 228
168.310653775555 736.024955304074 2967.60075599527 219 220 225
159.109363648146 737.400388812919 2969.44926236734 224 225 230
149.889320466273 738.77823237317 2971.31637243717 226 227 232
138.915201975992 740.47401966159 2972.04415679663 224 225 230
128.783726256891 742.015148141985 2973.37495224977 223 224 229
115.143927401408 744.19217278964 2972.4276041512 224 227 234
95.3527893800712 747.483178920019 2967.50493989316 222 225 232
65.8686618281057 752.527864383194 2956.36101062535 221 224 231
45.9255292885379 755.837560087078 2951.58651686 221 224 231
29.4332770559871 758.518837080377 2949.14610306025 219 222 229
17.2962792815743 760.409359233497 2949.5829526937 219 222 229
-0.169395499038494 763.261735972786 2946.66662624655 223 224 229
-16.8039526467219 765.960952761769 2944.36487183721 223 224 228
-28.1674868294055 767.70595002343 2945.4720785233 224 225 227
-18.2281350411055 765.606676646004 2960.00157456648 199 201 198
274.37058082405 717.770394945667 2828.13735163452 190 194 193
280.811496832173 716.289184145773 2841.7984309496 205 209 210
279.970023569848 716.140114514925 2849.74128103727 213 214 218
280.782690932453 715.690430054685 2858.91979440763 211 212 217
280.803886816223 715.386417788453 2867.44581105219 216 217 222
284.954104961395 714.331918679502 2879.06745361121 217 218 223
283.386429195434 714.320011245034 2886.2939138478 221 222 226
283.484689036728 714.006106935982 2894.74486688293 227 226 232
277.818564074286 714.740478310656 2898.84596364517 230 229 235
272.977840895261 715.32472313082 2903.56652219171 231 232 237
269.79897412764 715.607498361761 2909.51520846404 233 234 239
268.29399122416 715.587261676134 2916.68098266309 205 206 211
265.969968830737 715.716257614999 2923.22043366486 207 208 213
259.475664211878 716.60033914447 2926.70488865545 243 244 249
252.973858843269 717.485261362887 2930.19632990597 228 229 234
247.3053604593 718.219106381486 2934.29986130607 208 209 214
243.318019120714 718.649284534581 2939.61267937358 229 230 235
238.490822858819 719.231116445989 2944.32016211831 211 212 217
232.817882509251 719.965403507279 2948.4280391222 238 239 244
225.445187925808 721.00553803661 2951.34443660767 229 230 235
216.361025094 722.353055740464 2953.08075978754 219 220 225
208.962309176753 723.396280727994 2956.02287791577 221 222 227
202.406086697328 724.287532368442 2959.56742067595 217 218 223
195.842551267379 725.179705922502 2963.11908904568 221 222 227
185.840727900156 726.688319167486 2964.32628137638 220 221 226
176.675530064966 728.045757776976 2966.141607207 222 223 228
166.629789466906 729.559861555806 2967.39126065663 219 220 225
158.288543226907 730.76757926745 2969.82776621601 226 227 232
149.066457439388 732.132189507244 2971.69852266043 228 229 234
139.825705247234 733.499021968376 2973.58782451923 224 225 230
130.565694696669 734.868354258325 2975.49554289703 222 223 228
117.801580731132 736.862305388274 2975.12293210342 222 225 230
98.8898727370988 739.951026817963 2970.77378773604 221 224 231
66.7884018883806 745.387592001861 2957.91993360662 220 223 230
45.093529768935 748.963738998925 2952.01174311935 219 222 229
28.5997271936886 751.610124985799 2949.57802570833 217 220 227
12.9368918409987 754.106154556739 2947.75827749169 217 220 227
-1.88893968866699 756.45087675795 2946.54698242847 221 222 227
-16.7572880756186 758.801207797803 2945.37674040715 229 230 234
-29.0072279805704 760.684503448214 2945.92681131976 219 220 222
-17.29232676445 758.31546928591 2961.56718753729 208 210 209
272.792209079741 711.219671818074 2827.83873564924 198 199 201
280.855536624083 709.484703443515 2842.76039806135 210 211 213
283.274714207056 708.764631872969 2853.21774260855 210 211 215
282.460440041533 708.625355418834 2861.13179832178 211 210 218
283.30450323324 708.190393095561 2870.2772970863 215 214 222
283.354850490129 707.898640456611 2878.77221617687 217 216 224
282.60617945812 707.750903740717 2886.62271527372 222 221 229
282.702316316153 707.453247619414 2895.07337498756 225 224 232
279.514555360732 707.742687173739 2901.02990833578 228 227 233
273.848882495218 708.474053113088 2905.13100036111 232 231 236
270.672048151507 708.761866281175 2911.07726164354 232 231 236
268.336003288257 708.900325597056 2917.62759029456 226 225 230
265.177370353022 709.185680319827 2923.55580282446 209 208 213
260.354041536638 709.767201584756 2928.25949105204 215 214 219
253.854302286104 710.64648413504 2931.75005199925 235 234 239
246.506827682393 711.675655400102 2934.6430260377 194 193 198
242.517529195967 712.108556973492 2939.95738506162 218 217 222
238.532588179339 712.540968187404 2945.26748952853 221 220 225
233.705818166003 713.122628425755 2949.97457437534 225 224 229
224.638867020484 714.454577361548 2951.69644499539 219 218 223
216.40295011949 715.63841528554 2954.03154854428 207 208 212
207.300116649851 716.974651883129 2955.78841712809 210 211 215
200.740118246272 717.860836469125 2959.33745834521 212 213 217
191.605397987993 719.20097496543 2961.12541428258 216 217 221
183.309446029828 720.392191317906 2963.51938084421 217 218 222
173.278947111133 721.88815721359 2964.75657985213 221 222 226
165.810622881665 722.931973805935 2967.76739478247 216 217 221
158.331117717655 723.977081995083 2970.78912164865 228 229 233
149.974919490485 725.175834378216 2973.24179982396 223 224 228
140.736036270873 726.528940402308 2975.13093668481 218 219 223
132.347693998108 727.731862990788 2977.61491801804 217 218 222
120.458963266341 729.548157832703 2977.81620557226 216 220 223
100.680100035902 732.74616891869 2972.89475905036 216 219 224
67.7082648701801 738.252185499005 2959.47835319228 215 218 223
46.015519179873 741.777069428892 2953.57528994639 214 217 224
29.524035322964 744.388076652721 2951.14449897951 215 215 223
12.9825932713539 747.005440869621 2948.76237767769 215 215 223
-0.960025919626517 749.166212605342 2948.11813682206 215 215 223
-17.595644006315 751.795508176686 2945.82777026627 218 219 224
-28.0736790287071 753.347952078123 2947.50103181637 215 216 221
-27.0215750782099 752.888898827236 2956.4431658186 224 225 229
282.572880252775 702.656170049669 2836.39632959164 200 201 203
287.405901846426 701.533961061553 2848.76719288291 210 211 213
289.024934648205 700.979538154974 2858.57736306625 211 212 216
287.406869210863 700.995683667388 2865.84971477811 210 209 217
287.443099580528 700.721855106926 2874.3563408174 214 213 221
285.860898978284 700.733302380528 2881.59377261548 216 215 223
284.294750217275 700.742549158009 2888.81558993029 221 220 228
282.74484109673 700.749676664036 2896.02193211144 224 223 231
281.210688109786 700.754712959325 2903.21259945705 231 230 236
278.035122255145 701.047791346246 2909.15682291403 226 225 230
272.375493327766 701.775636854224 2913.25209569568 229 228 233
268.378022352956 702.212622040698 2918.57430440714 228 227 232
265.21925537921 702.503359824362 2924.50185442521 216 215 220
259.559372129001 703.230870542905 2928.59776707692 196 195 200
253.896110380554 703.958630268354 2932.6969978242 222 221 226
245.708076461231 705.126171205869 2934.98696155193 193 192 197
242.559281078749 705.415226092317 2940.90519620594 208 207 212
238.574295109205 705.850237601623 2946.21496098923 213 212 217
234.593749731323 706.284676265882 2951.5207387076 217 216 221
225.528667558346 707.602898764635 2953.24244432971 202 201 206
216.444709384424 708.923323976756 2954.98256853971 200 201 205
206.49011844215 710.39384481365 2956.14848841549 204 205 209
199.074334695038 711.422900145306 2959.10931157804 210 211 215
190.791619084435 712.60165655061 2961.49197582562 214 215 219
183.35160163644 713.633648987667 2964.47642930849 217 218 222
174.180825587657 714.964783097087 2966.30118218129 218 219 223
166.71461757267 716.000077271264 2969.31115528905 216 217 221
158.373654537818 717.186058752254 2971.75059222693 227 228 232
150.01759845173 718.373883983346 2974.20474428235 220 221 225
141.64640464322 719.563794471356 2976.67362011984 214 215 219
131.521411167389 721.055397511315 2978.00529844806 215 216 220
117.016825336547 723.30090167454 2976.48932819771 214 218 221
96.3576275985325 726.604530603162 2971.00988510882 213 216 221
66.8772610632482 731.42312720031 2959.89563693151 213 216 221
46.0602864740309 734.746174657385 2954.56999853821 212 215 222
31.3273434035568 737.019923121765 2953.27695374918 211 211 219
13.0281703812924 739.904389042109 2949.7666512927 211 211 219
0.851798840409757 741.735009174986 2950.25145315074 211 211 219
-15.779545277355 744.328738461708 2947.96209916196 215 216 221
-25.3667763130943 745.712314370604 2950.19264711808 214 215 220
-24.3087620394755 745.271091209918 2959.12627680253 222 223 225
288.296427998349 694.857396857911 2841.78445825059 202 203 205
289.076181937566 694.468294824603 2850.98670108068 209 210 212
288.253347119419 694.357033292547 2858.90545489726 210 211 216
286.633122130201 694.384124408382 2866.17833332066 211 210 218
287.486157615742 693.985430258806 2875.30922420254 215 214 222
286.724911588003 693.866109636981 2883.16801056975 216 215 223
287.629372648573 693.4608145389 2892.24881071272 218 217 225
285.261991747568 693.619617594012 2898.8272497167 220 219 225
283.733501826615 693.634672296269 2906.01081283789 225 224 229
279.734667087014 694.074790886198 2911.33357483029 218 217 222
274.909634891922 694.656821733212 2916.03887922209 222 221 226
270.085114518204 695.238611150529 2920.74371105091 222 221 226
266.095594266421 695.677201688309 2926.05744946465 220 219 224
258.764759264673 696.688340646091 2928.93690314151 193 192 197
253.937860622858 697.270135037759 2933.6440958905 192 191 196
246.590407095814 698.283028249663 2936.53945488865 194 193 198
244.285639166472 698.433230318899 2943.05698950813 188 187 192
237.771718919542 699.303109569984 2946.56268435592 182 181 186
232.942952215481 699.884844616448 2951.27174088953 188 187 192
223.874039803937 701.189987147542 2952.99918320866 171 170 175
215.636488769674 702.352494420422 2955.33939997895 189 190 194
207.383845222684 703.516786406689 2957.69434005763 194 195 199
199.970091040222 704.537507150244 2960.65437968096 199 200 204
191.689387786977 705.705159601855 2963.03668678744 204 205 209
184.25140044214 706.728758414098 2966.02036492195 206 207 211
175.942550294303 707.900018197835 2968.43008914873 211 212 216
169.341793067966 708.780372879345 2972.02046613672 213 214 218
159.279574911395 710.247904634396 2973.29336537031 222 223 227
152.656663258256 711.131098164341 2976.90566029305 212 213 217
141.689144480792 712.750514387374 2977.63817865024 206 207 211
130.69480090699 714.37320740247 2978.39651227631 209 210 214
112.703683955958 717.179197870921 2974.5922420667 212 216 219
92.9083484797606 720.287870826263 2969.70069470703 211 214 219
65.1712802490372 724.73622067572 2959.74420432764 210 213 218
46.9819556226105 727.566680689515 2956.13280283964 210 213 220
30.4931932378989 730.107466769152 2953.70968806508 208 208 216
17.4784727945903 732.059653607455 2953.59210595261 207 207 215
2.66314915816102 734.314198138163 2952.3833667744 210 210 218
-12.1941413604238 736.574020223284 2951.2158591523 214 215 220
-25.3202559123271 738.540440003344 2951.2064515718 213 214 218
-23.3733993227894 737.968205223268 2960.69405831688 221 222 224
294.019725287925 687.095392819007 2847.16740115131 204 205 207
293.999535757779 686.86122767561 2855.72419074943 208 209 211
289.927156009582 687.31421488087 2861.11808204683 210 211 216
289.944894473527 687.074973467034 2869.63795885669 211 210 218
289.167411126077 686.971203678622 2877.51057071602 215 214 222
290.872662568407 686.448487035163 2887.23043834289 216 215 223
290.963638445998 686.199835975162 2895.67898005995 216 215 223
287.779044903555 686.504902709647 2901.63039627184 217 216 222
283.775699294322 686.948361501212 2906.95714394413 222 221 226
278.948072475809 687.530837379388 2911.66495905993 218 217 222
277.443678422719 687.553409834574 2918.82348350753 219 218 223
272.624898403327 688.134416620191 2923.52273075227 218 217 222
268.64107193743 688.575001931807 2928.83052032575 213 212 217
258.806515430562 689.999196011642 2929.8840913072 195 194 199
254.817950994509 690.440083775547 2935.19654105278 188 187 192
248.312688398492 691.303623366614 2938.69457572421 203 202 207
246.011716293134 691.461366672324 2945.2072264429 191 190 195
237.813334377962 692.608439604258 2947.51082888776 176 175 180
231.292173058811 693.473688637863 2951.02439857143 178 177 182
221.371381033201 694.907882580574 2952.16178688042 165 164 169
212.278100146655 696.202521277141 2953.91531775961 187 188 192
204.869734922534 697.214424958816 2956.87130922554 190 191 195
200.011889177532 697.799531036305 2961.60874343976 194 195 199
192.587070353241 698.813449986892 2964.58077571802 199 200 204
186.008978806191 699.685568098266 2968.15020055488 201 202 206
174.265185391351 701.419092430164 2968.21945881406 206 207 211
167.660693680999 702.294492770686 2971.81427644931 209 210 214
158.458403119126 703.602402118309 2973.67409415113 217 218 222
152.699107529958 704.336253614994 2977.86778756076 208 209 213
140.864200930665 706.081146273868 2978.02584232524 204 205 209
129.868284025057 707.685154570054 2978.78883772834 205 206 210
111.875578547192 710.451128557893 2974.99205936772 207 211 214
95.5715716814609 712.934008567574 2972.39403812347 205 208 213
68.7159259355705 717.166495580625 2963.0110959375 206 209 214
50.5347928047946 719.955588248924 2959.39767424882 206 209 214
29.6591364507064 723.189147692968 2954.14353400476 204 204 212
14.8808591096019 725.409288623054 2952.90342998679 201 201 209
0.943145432317216 727.488536710896 2952.2663670431 205 206 211
-14.8026073654717 729.865641737997 2950.54653407082 207 208 212
-27.0475025747263 731.661748224995 2951.10414420431 206 207 211
-22.4384200655403 730.670392965933 2962.26113287516 213 214 216
295.726684549254 680.259971872787 2840.81466248913 193 195 194
290.007268435209 680.988972834454 2844.9694718974 208 209 211
290.790379952952 680.636833761013 2854.16291749305 209 210 214
289.155544554635 680.687349341556 2861.44684214302 211 212 217
289.988147116891 680.328853197921 2870.59208197205 210 209 215
288.391260971243 680.374289828044 2877.83907311978 213 212 220
289.273333857943 680.009380257481 2886.93613608703 213 212 220
291.006150534211 679.504640193219 2896.62631194056 211 210 216
287.821380436103 679.81509534856 2902.57710706859 211 210 216
283.81788304256 680.261226872141 2907.90361043631 208 208 210
278.990192986823 680.843651753547 2912.61149588491 210 210 212
276.655045117188 681.014135999563 2919.15620053733 208 208 210
273.499256680179 681.320537812147 2925.07847768776 219 219 221
267.013871120295 682.176605167641 2928.55821640362 206 206 208
259.684674221011 683.171393196033 2931.43812223874 193 193 195
254.021274200858 683.891032654774 2935.53869046375 188 188 190
249.194781087531 684.472599016653 2940.24551421966 209 209 211
244.368841774224 685.053977625586 2944.95181579376 198 198 200
235.32225989127 686.329710097992 2946.66143036173 176 176 178
227.103122935886 687.468490299629 2948.98686853025 169 169 171
217.172785088738 688.88767121754 2950.13595489965 159 159 161
210.619787062163 689.751331735464 2953.68137368635 182 183 185
203.207541518258 690.755645863876 2956.64234009985 185 186 188
197.492021929139 691.481148196513 2960.79379729711 187 188 190
189.205733975253 692.627863129058 2963.18474465005 192 193 195
182.619744252537 693.495505868019 2966.7623361082 195 196 198
172.587837770556 694.926960406771 2968.01046759765 199 200 202
165.118193771549 695.938261609256 2971.02773668106 202 203 205
156.773533292903 697.092230426306 2973.47523885104 210 211 213
150.145024503535 697.965161362482 2977.09460861967 202 203 205
138.304575182248 699.689170179041 2977.26125401181 202 203 205
128.172329831861 701.133097119995 2978.60718006527 199 200 202
111.918722903877 703.574877739994 2975.96552325163 203 207 210
95.6150353732204 706.022748978311 2973.37235918405 201 205 208
70.5102117528411 709.902851802139 2965.13706345225 203 207 210
51.4563388517386 712.793964316486 2960.95829745056 204 207 212
29.7039378455368 716.121923825417 2955.14357815864 202 203 208
14.0449611186488 718.455656495402 2953.34398568062 199 200 205
-2.54294874131666 720.938827754997 2951.02784125989 204 205 210
-20.0654449003461 723.571973369122 2948.20067938804 203 204 208
-34.981547088937 725.77982799146 2947.09925339196 202 203 207
-32.1673248258278 725.108386771286 2957.15678734541 209 210 212
296.580225097684 673.335261448042 2842.40746260123 203 205 204
293.296480142971 673.66462155879 2848.45374708083 208 209 211
292.460459975999 673.595428933508 2856.37903853567 210 211 215
291.644571384622 673.52344949003 2864.28508877085 209 210 215
290.848478056496 673.448869639342 2872.17152851405 208 207 213
290.072429115628 673.371749837238 2880.0387771301 210 209 215
290.958135503669 673.025193261745 2889.12951941215 211 210 216
291.871500377537 672.675031956985 2898.19332918633 212 211 217
287.863702249181 673.12446415346 2903.52395325127 212 211 216
283.033395772937 673.707395782724 2908.23436194701 204 204 206
278.203643635221 674.290080622329 2912.94425665179 208 208 210
275.866172108823 674.468831631685 2919.48970906372 201 201 203
271.876022907526 674.915567149862 2924.80320605108 219 219 221
266.220959520789 675.63175095952 2928.8956687773 210 210 212
259.726440875323 676.483426615882 2932.38512587337 189 189 191
254.062980592216 677.200361105707 2936.4861537336 183 183 185
246.715428974678 678.18908946462 2939.38518169179 188 188 190
240.199041473878 679.043122293802 2942.89566865338 201 201 203
231.142847019384 680.306503753497 2944.61665412127 187 187 189
222.914029126936 681.435772064656 2946.95311145666 149 149 151
212.974144919742 682.83999899448 2948.11388769562 157 157 159
206.411628163736 683.699362360723 2951.66973168049 164 165 167
198.98980553989 684.696746134181 2954.64123257938 163 164 166
194.118441493881 685.283320533003 2959.39187364908 173 174 176
187.535903224719 686.145044060539 2962.96691261969 174 175 177
181.803997323938 686.869840613283 2967.13474598062 174 175 177
171.770282603978 688.285365650708 2968.38702745046 180 181 183
163.437070301466 689.427086910097 2970.82530943797 179 180 182
154.225206825949 690.7092673598 2972.69809806243 199 200 202
146.725620030135 691.71620562954 2975.74574562526 190 191 193
137.479785886914 693.002609652853 2977.6516433826 190 191 193
127.345817332855 694.430596372554 2979.00163656052 184 185 187
114.575339788904 696.279768738004 2978.65640529052 195 199 200
95.6584183387323 699.111027815264 2974.3508286274 198 202 205
67.9287890404399 703.349100535081 2964.41803014607 201 205 208
47.9925320005603 706.338023589325 2959.68411896542 206 209 214
27.1118104640093 709.475348836104 2954.44889405276 197 198 203
10.5664825289082 711.918124484542 2952.09643560486 199 200 205
-3.38017776056043 713.944602927603 2951.47605610977 205 206 211
-20.9042861407625 716.540329676529 2948.65602568932 200 201 205
-36.7087585486932 718.860030503202 2947.0029864737 200 201 205
-38.3414156721407 718.920826897527 2954.28322856473 203 205 204
294.196475534067 666.932317442595 2841.46984768876 204 205 207
292.52929600687 667.008656973572 2848.78241161023 208 209 213
292.504225385751 666.82335670722 2857.33648815436 210 211 215
293.318432858665 666.504847599093 2866.49442235466 208 209 214
291.708934071657 666.573515812384 2873.75050442385 209 208 214
292.572487307012 666.248563049434 2882.86005207995 211 210 216
292.642869554198 666.050744643827 2891.32153053231 212 211 217
292.737018890587 665.849930018982 2899.75985075365 211 210 216
288.730835352267 666.301884274656 2905.08816090558 210 209 214
282.248733114721 667.147467083781 2908.5658510032 209 209 211
278.245738604551 667.598711429743 2913.89143716938 208 208 210
275.077564701572 667.917406953529 2919.82419626546 199 199 201
270.252662211974 668.499185573798 2924.52940913679 212 212 214
262.924779931513 669.47788629045 2927.41038723364 208 208 210
257.258856627732 670.192477685975 2931.51420721813 188 188 190
251.589510693038 670.90750055851 2935.6213621536 190 190 192
244.236208539438 671.888816165811 2938.52719608056 158 158 160
236.871767429943 672.871477046667 2941.44389232454 176 176 178
226.96378785701 674.255878244902 2942.57591702451 203 203 205
217.87908249444 675.509232158662 2944.32669631249 141 141 143
209.623770822977 676.630813261083 2946.6905985282 150 150 152
204.753384133008 677.217323417473 2951.44027856391 158 159 161
199.031621547776 677.93818764693 2955.59862065822 161 162 164
192.452491137998 678.794115396432 2959.17113218754 164 165 167
184.15470752202 679.920755918178 2961.57646189203 163 164 166
177.557253295794 680.778875738244 2965.16684525489 162 163 165
169.233408279811 681.908624807079 2967.59759487294 166 167 169
160.032975234627 683.175847370243 2969.4615815222 167 168 170
151.677157318679 684.309627131148 2971.92348496803 188 189 191
141.575351732853 685.7174017392 2973.24452718432 174 175 177
134.052882977291 686.719041014574 2976.3153422185 189 190 192
123.911409425096 688.131757431259 2977.67504491463 185 186 188
111.133329512933 689.957710977161 2977.34079464004 192 196 197
88.7162798856389 693.294940300078 2970.767801862 195 199 202
61.8469939099988 697.327814269309 2961.4282451885 198 202 205
45.4056830335614 699.722685307116 2958.97957654422 203 206 211
25.3984611017213 702.674689904485 2954.32125324015 195 196 201
13.2541992023576 704.39317224791 2954.7907436658 197 198 203
1.07932387494891 706.115631838019 2955.29004584272 205 206 210
-16.4348715881748 708.672440864027 2952.46558592952 200 201 205
-36.6625867016417 711.651875279564 2948.02249934114 198 199 201
-40.0721531215718 712.000871190118 2954.19082423305 202 204 203
293.502437826663 660.422170117586 2833.20219341549 194 196 195
295.050264169632 660.005734670994 2843.06301602071 208 209 211
294.195736786902 659.965823928027 2851.00235756497 210 211 215
295.800899666351 659.541924424666 2860.80734732621 210 211 215
294.992059658355 659.495959218039 2868.70221547905 207 208 213
294.203392127587 659.447378943395 2876.57777641171 209 208 214
295.072513394799 659.140535297204 2885.67911841031 211 210 216
294.327366776345 659.086245682647 2893.51196842964 211 210 216
292.779547647583 659.157562639345 2900.70674804528 208 207 212
287.12350531424 659.869329261139 2904.80083573839 206 205 210
280.637644883149 660.70994768033 2908.28332935442 204 204 206
278.28788470716 660.906392289772 2914.83870731268 199 199 201
274.289035634716 661.359721703715 2920.15953098378 195 195 197
270.294545647594 661.812383648037 2925.47612467044 201 201 203
263.801293155256 662.653285296912 2928.96591685134 207 207 209
257.300603688901 663.495019594787 2932.46263315022 176 176 178
249.954452263002 664.467590885319 2935.36265870506 175 175 177
240.916569927518 665.702127839529 2937.06972317338 146 146 148
231.860085501638 666.938819938419 2938.79527910501 162 162 164
221.940561800919 668.308460030108 2939.94094897962 178 178 180
212.844517855588 669.549844390867 2941.7050945846 119 119 121
206.27355614945 670.399494119923 2945.27042235914 158 158 160
202.245295437942 670.855410930599 2950.62006980651 148 149 151
195.665914499841 671.705932093231 2954.19396704733 148 149 151
189.932827595251 672.425465436145 2958.36341322062 145 146 148
182.485048605358 673.409787057037 2961.36261975515 148 149 151
174.168529513993 674.527880250251 2963.78781735508 147 148 150
165.83695935004 675.647870870316 2966.22768045373 142 143 145
156.628996535365 676.902538819303 2968.1009998419 171 172 174
149.992391574177 677.760110110728 2971.73034153562 158 159 161
141.617752610026 678.88541229974 2974.21218754197 150 151 153
135.830032239294 679.611715121498 2978.43488502876 152 153 155
125.69274291691 681.007733553165 2979.79323851972 171 172 174
110.305179532803 683.211249009201 2977.74337462744 185 189 190
81.774663951748 687.435254881192 2967.19103782042 188 192 195
55.7652100462755 691.268327821539 2958.44375717114 192 196 199
40.187854096926 693.495048982276 2956.57926815076 198 202 205
21.9274558629374 696.132618660575 2953.06695291308 191 192 197
9.77573743113203 697.830517396728 2953.54689003384 194 195 200
1.12457012706102 698.990326563883 2956.29823265327 200 201 205
-15.5043892145463 701.373826189406 2954.03758239862 197 198 200
-35.7298982745986 704.307235725419 2949.5987697817 189 190 192
-42.6917210147963 705.205969753955 2953.545311545 194 196 195
295.969202511315 653.231297505838 2836.06653324492 197 199 198
295.903866596538 653.083552105021 2844.65538107015 209 210 212
294.239808764499 653.181093725124 2851.96137360067 210 211 215
295.844648075677 652.778699665522 2861.76350617479 209 210 214
296.665827382145 652.496946796203 2870.90874684327 206 207 212
296.697753227173 652.336527223352 2879.40288554031 207 206 212
295.934349724183 652.298043040445 2887.25152887997 209 208 214
294.370086115161 652.382296387153 2894.46038827282 210 209 215
292.822062685111 652.464371425694 2901.65378072286 207 206 211
287.165895774574 653.173500155231 2905.74838200228 205 205 207
281.506603556282 653.882773966254 2909.84640315752 202 202 204
277.501202790805 654.339700860051 2915.17320105071 198 198 200
272.669751043936 654.922482024742 2919.8847692557 193 193 195
267.838832377017 655.505019079756 2924.59584418373 197 197 199
260.505082008857 656.468243134819 2927.48493682223 204 204 206
253.996828525147 657.30555179615 2930.99015625131 178 178 180
245.804464178963 658.398453399016 2933.29545181799 179 179 181
236.757092756926 659.62078764184 2935.01408048694 137 137 139
226.848662081991 660.973166667045 2936.15128600106 161 161 163
217.761795993249 662.200067058366 2937.90845858313 152 152 154
209.501984644007 663.300763801739 2940.27957790254 126 126 128
202.075365784127 664.274574998101 2943.25932555131 145 145 147
198.037555084784 664.734277326941 2948.61823462184 143 144 146
192.300113684665 665.451647057189 2952.79232465457 139 140 142
184.852065882142 666.427910799047 2955.79332691701 143 144 146
176.536837730452 667.535121960292 2958.21851311234 145 146 148
169.064431126536 668.514351616368 2961.24292782183 140 141 143
162.440712899168 669.364919129114 2964.86084579579 143 144 146
154.948026689711 670.346587414045 2967.90503802509 180 181 183
147.444242425991 671.32977272271 2970.96002657088 139 140 142
139.063962731441 672.444935751344 2973.44897246938 148 149 151
131.535902249683 673.431063525372 2976.52763276346 146 147 149
121.38898344539 674.81221045452 2977.89740863189 181 182 184
104.24974309803 677.247377702292 2974.71892918958 182 186 187
74.832979121791 681.532190129369 2963.62041579813 186 190 191
