ply
format ascii 1.0
comment KinectMotionCapture
element vertex 795
property float x
property float y
property float z
property uchar red
property uchar green
property uchar blue
end_header
219.369719478064 44.9340717989035 2989.28381916403 12 20 9
196.867826675813 43.1420697941204 2982.13626574542 12 19 11
165.901119129804 40.2106319331698 2969.39269991907 12 19 11
151.62250087667 39.5888236460464 2968.0761280516 12 19 11
144.040824596701 39.8881781751222 2971.30953441156 11 16 9
111.965602095079 36.8762398199283 2958.26172894317 10 15 8
91.6136386232807 35.4757207518965 2953.17213086369 14 15 7
102.573335054092 38.2923392429043 2968.79599939953 15 18 9
80.4555821522581 36.6732844967242 2962.6583371696 17 20 11
90.6365760189733 39.3673583172295 2977.65633375199 17 20 11
70.1473193108071 37.9844511626742 2972.70080469467 16 19 12
45.310072529166 36.046517887161 2965.05970440112 15 18 11
116.358083894474 -4.24406860994803 2748.84246413966 11 14 7
127.717582458765 -0.979213727300976 2766.8372305813 10 13 6
159.198308794644 5.3342312885511 2799.82583794595 18 21 14
169.164249850486 8.32783502012019 2816.41002407629 22 25 18
194.508438245583 13.6275052034703 2844.30618958261 24 27 20
214.349320277315 18.0570154248652 2867.87645017392 25 28 21
218.12527526306 20.043746178458 2879.42058697935 24 27 20
217.888444215014 21.419357454805 2887.95458055548 22 25 18
210.356908284906 21.7040247938265 2891.14036756709 19 22 15
215.041712569472 23.7995949403845 2903.18248864451 22 25 18
218.139988319907 25.6484360571148 2914.00270381694 21 24 17
243.39178940461 30.7360644056921 2940.60504166107 18 21 14
235.94926185788 31.0096508746667 2943.70407977997 19 22 15
215.329527740043 29.3703220419976 2937.49876857158 20 23 16
197.11149984895 28.0984991438144 2933.10527615483 20 21 13
184.619869693886 27.6685702400264 2932.81999547781 18 19 11
201.92847243857 31.523650532218 2953.32211005692 13 16 7
211.035885202453 34.1787197515724 2967.97504409017 11 17 7
205.223187016936 34.6938934505417 2972.25374970843 11 19 8
198.573279523855 35.0913511905047 2975.96464343693 12 18 8
191.916359151282 35.4897060532675 2979.68203062208 11 19 8
160.100346873806 32.3587580643746 2966.39407729917 12 19 11
147.489470264186 31.9443576391503 2966.22525285396 13 18 11
107.891437356621 27.7844892943643 2948.06383764994 12 17 10
108.658069563428 29.2576037637263 2957.00387576845 12 15 8
127.222056971499 33.1776324733633 2977.66668478881 12 15 6
115.364054403473 32.8918525382754 2978.14780671422 16 19 10
94.1141418126055 32.6797661748195 2980.85979566396 17 20 13
58.2629871367142 29.1651436413088 2965.96753021031 15 18 11
38.5340592901944 27.8617912448587 2961.66179667087 13 16 9
112.442869169318 -12.4374993295808 2746.8564312908 16 18 13
161.674194173295 -1.67397055725121 2802.65412213198 26 28 23
187.714891348351 3.8671422167445 2831.23953048979 24 27 20
209.075641771977 8.64155203848904 2856.08371976729 24 27 20
219.26257922142 11.6590793682066 2872.44525515648 23 26 19
221.431310816071 13.4263741282081 2882.78366461498 23 26 19
221.202108278815 14.8176824030386 2891.3077629576 26 29 22
234.821121450645 18.3069179415145 2909.85945326468 24 27 20
214.295286338502 16.6045519635922 2903.5702158181 21 24 17
223.110756900185 19.3427820050217 2918.50076164065 21 24 17
230.355245905842 21.8269053120691 2932.19505360064 22 25 18
234.374869394975 23.8131670827643 2943.49695545359 20 23 16
220.334968767668 23.102231183725 2941.95684431889 19 22 15
189.756654735877 19.9545781105861 2928.85921666335 12 15 8
181.381689428815 20.1123314510021 2931.48439003032 10 13 6
187.908621082785 22.4609387942019 2944.49400908854 13 16 9
188.676521204935 23.9530673666949 2953.43031571423 15 18 11
182.811588823174 24.4727031383146 2957.76023116913 15 18 11
183.619882962028 25.9597229566642 2966.65684316874 18 21 14
176.928394861415 26.3576387468469 2970.40895935557 18 21 14
159.330818894364 25.191541759237 2966.80063208059 17 20 13
121.508535697465 21.1496663836737 2949.69258833158 16 19 12
140.809582400578 25.2789975156679 2971.00946108733 14 17 10
141.675444870138 28.1219770346005 2988.15062822226 15 18 11
121.370189399435 26.6195259090378 2983.03005176281 14 16 11
111.19592214756 26.5525955096311 2984.64101024073 13 15 10
103.555155512291 26.8445023171101 2987.93419496702 19 21 16
34.4255689085253 18.6126993074308 2951.52158408272 18 20 17
59.1445989819377 23.4151262782903 2975.86096757851 14 16 13
92.5758926989566 -23.2230767913625 2732.7533005734 13 15 10
140.906742240863 -12.3710662680884 2788.01518997803 28 31 24
208.675009001133 -0.0861771330017413 2847.85246768313 24 27 20
216.393907083265 2.60782377978269 2862.46155391638 23 26 19
191.882805151841 0.212604419713713 2853.14726433112 24 27 20
231.211724634335 7.84519423388697 2890.90072824393 25 28 21
242.362620813952 11.0217412920446 2907.69844463543 26 29 22
234.076466971131 11.1574114166481 2910.23869079518 23 26 19
220.069917471622 10.4126817650387 2908.67011835743 22 25 18
214.192038668528 10.9313346013994 2913.01337291949 22 25 18
225.509558902351 14.0869497610103 2929.64872288748 21 24 17
218.84544026892 14.4759809875356 2933.37463608144 19 22 15
204.768986347386 13.7404636429335 2931.87445603518 18 21 14
193.125128152861 13.384767176674 2932.15360090683 13 16 9
179.797647938297 12.7838330843145 2931.3066968695 12 15 8
182.176910314962 14.5496987387273 2941.43591952843 16 19 12
178.777989301061 15.4426447362716 2947.51327778948 18 21 14
175.387468414576 16.3344858333658 2953.58212006164 16 19 12
165.330118684505 16.2367488216738 2955.08186875788 18 21 14
164.450787023089 17.4984438690542 2962.85346455017 18 21 14
146.824788590215 16.2960466491618 2959.27906420439 17 20 13
140.905515662928 16.8206016809137 2963.66221355979 16 19 12
152.670230853511 19.9198924083125 2979.86181705144 14 17 10
152.695037812095 21.2964861007198 2988.1358550186 14 17 10
120.592109796587 18.030536638443 2975.15276642377 14 17 8
106.175168339826 17.3390561943805 2973.98418689865 14 17 10
89.1666352961047 16.2881231550083 2971.1911572716 10 13 6
66.1413161480397 14.3945236199661 2964.57805218065 20 22 17
49.0127550239592 13.3589579025968 2961.90194092827 20 22 17
54.936787644662 15.5933758188302 2974.11021546873 13 15 10
63.1395597679125 -35.7153315454469 2711.40100310241 11 13 8
219.993140939993 -5.46123524440573 2857.24624625461 24 27 20
207.292095752387 -4.54146147690621 2865.47156392555 30 33 26
215.095968774758 -1.81442550738981 2879.99138622002 29 32 25
239.186565004407 3.48950652348062 2906.2976009015 23 26 19
233.331989478831 4.00275058753047 2910.61817653669 23 26 19
222.584218685403 3.74399282615207 2911.41007519192 23 26 19
228.967254725318 6.18715672592601 2924.5486093043 23 26 19
227.216247048492 7.34085442479077 2931.78518275085 19 22 15
219.735279878385 7.59645851212126 2934.92504977215 17 20 13
205.660902823252 6.83140698996831 2933.4268346634 16 19 12
191.544918733564 6.07175719309594 2931.96947542439 14 17 10
176.560426892477 5.19022548113979 2929.97532415553 14 17 10
178.103326918959 6.8549344686949 2939.53344642736 15 18 11
187.15325984782 9.65655641602775 2954.2217983573 15 18 11
178.787154902394 9.79273058428565 2956.8413626464 13 16 9
170.406341405251 9.93077940820974 2959.4749178295 16 19 12
172.047901612996 11.5831465366138 2968.93689320426 16 19 12
161.984638680515 11.4705044214184 2970.44437892371 17 20 13
161.982294915807 12.8672017006944 2978.7424066591 16 19 12
138.422382884232 10.7527733602484 2971.27588928749 14 17 10
125.751997200424 10.2746831793202 2971.17523370873 14 17 10
98.6646846577757 7.67947681210507 2961.61489870069 10 13 4
96.9177541454194 8.83343278115567 2968.84704744844 13 16 9
90.0874503737494 9.23950760017472 2972.73546590581 8 11 4
74.731791342705 8.40598534645959 2971.10313120846 22 24 19
40.546576937504 4.8545169744364 2957.39582687318 22 24 19
64.8104615004463 -43.1939594266851 2713.68126739375 15 18 11
74.4423640774805 -39.950792505651 2730.56027334112 8 11 2
150.669346455477 -25.6626165807059 2797.28919034524 22 25 16
202.388656069171 -15.5460153456263 2845.04391618442 26 29 22
206.87002432122 -13.293326151769 2857.26516796488 28 31 24
228.922609218476 -6.69074138369946 2891.07119283222 29 32 25
228.710573521725 -5.25160643923567 2899.57117548756 23 26 19
235.840443790923 -2.63019588687541 2913.35865671034 22 25 18
235.694287751482 -1.1992924089671 2921.79443649926 24 27 20
237.206124940691 0.491009253332508 2931.37928419955 23 26 19
236.293290796003 1.78446796732523 2939.17979163892 18 21 14
228.012999316938 1.89899583386588 2941.71734120131 16 19 12
206.553295538837 -0.0719437934952882 2934.97823489552 15 18 11
189.965187553773 -1.25178004687121 2931.78643096694 13 16 9
181.590632312784 -1.12501492239153 2934.41577717701 14 17 10
182.316273330426 0.430597382513775 2943.38432700827 16 19 12
181.408983972121 1.72376249876188 2951.17937178641 17 20 13
189.679273439376 4.4358720712499 2965.23824177117 17 20 13
190.502639732083 5.97920877906238 2974.11156328753 15 18 11
172.117586265581 4.55816962212424 2969.90598383413 15 18 11
175.467343126853 6.48557925448162 2980.46486215363 17 20 13
183.898241413381 9.17741204891792 2994.36724210555 16 19 12
158.705044114827 6.74167140181436 2985.73627233161 14 17 10
114.005104193278 1.37958167568736 2964.31668241735 13 16 7
80.968952032979 -2.17438657655789 2950.88595892753 12 15 6
89.3571181562436 0.523098645762998 2964.8299371229 15 18 9
75.710234153413 -0.089476833477653 2964.30192636087 14 17 8
60.3218750558221 -0.950706852611616 2962.70582066664 18 21 14
67.2788048753836 -50.5250321268931 2716.56442323024 18 21 12
57.7289381579074 -50.4980547111902 2718.95871037282 17 20 11
157.153684298998 -31.9873359744924 2803.1212258425 20 23 12
233.790884495217 -17.4752026309341 2869.40968968032 30 33 26
236.737078476039 -15.4700719268904 2880.35782476541 30 33 26
252.638964032638 -11.3075374210636 2900.79414154918 26 29 22
230.610707042428 -13.4982622334512 2893.23485398242 25 28 21
223.102204111417 -13.2548356782607 2896.40386425528 28 31 24
213.956929421738 -13.2787308365049 2898.4039044775 22 25 18
220.278296475627 -10.7512068177708 2911.5912084159 25 28 21
236.458350244375 -6.62371035058312 2931.75647865973 24 27 20
241.275770408296 -4.38039278144636 2943.64541104598 17 20 13
223.977943864587 -5.74528495629267 2939.76881000437 15 18 11
188.521996590723 -10.0324641930391 2923.1813719839 14 17 10
185.911932256588 -8.9845620036812 2929.86939076074 17 20 13
174.221141411966 -9.39760237657061 2930.2032780101 16 19 12
165.814748815374 -9.27701051231705 2932.86515159009 17 20 13
169.021077946003 -7.30401057798613 2943.55971753964 17 20 13
173.93213891102 -5.07214410675977 2955.35735569341 19 22 15
175.552848082088 -3.37303402485928 2964.83279002572 15 18 11
168.005836376744 -3.12371350121815 2968.0391689548 16 19 12
160.448088349514 -2.87295841147384 2971.25599718198 18 21 14
168.843723064182 -0.132932585344248 2985.18627147302 17 20 13
130.141987538197 -4.71966285133529 2967.61515688462 14 17 10
108.167939762177 -6.67777175012474 2961.38490539609 13 16 7
59.0447714951701 -12.7924109786022 2937.38398867341 14 17 8
75.8616901206759 -8.74524567259466 2956.92871561042 15 18 9
63.8840224116271 -9.12091009319765 2957.54228951954 16 19 10
45.0616980642864 -10.5283752170166 2953.7689202787 17 20 13
61.772433273716 -59.2303678632932 2713.39993554186 22 25 16
62.6020366434075 -57.4097208970872 2723.6433243732 19 22 13
209.761078045542 -28.7390988960911 2852.42612154999 29 32 25
253.717946207699 -19.6558760367234 2893.87135482798 28 31 24
236.564049368125 -21.0797691590756 2889.86088761876 25 28 21
259.001602519946 -15.7535625474902 2914.97114986225 25 28 21
215.872651869226 -21.5702352374006 2892.05906938409 27 30 23
210.775259309059 -20.9194459862832 2897.02466918254 29 32 25
217.903466058644 -18.2157632276926 2910.80164250873 22 25 18
234.893932472194 -13.8801329641939 2931.54830824969 21 24 17
236.431745089223 -12.1488775931465 2941.10164686789 18 21 14
224.047631426428 -12.7356622786027 2940.73278394069 16 19 12
201.756694776626 -14.948472634483 2933.43794323471 17 20 13
190.105936704841 -15.3878254075326 2933.73596631009 16 19 12
179.251840960057 -15.6878654348161 2934.63954871466 13 16 9
172.51442565209 -15.3088161309652 2938.44005975576 14 17 10
170.753031256941 -14.1195645795361 2945.68135468128 15 18 11
170.673019618337 -12.663063094705 2954.04766872812 13 16 9
171.45151564132 -11.0752166908871 2962.95896857199 15 18 11
178.948450391367 -8.41779682250215 2976.37662717789 19 22 15
168.06301539781 -8.71343640221584 2977.31067953554 17 20 13
143.708496771987 -11.1439433817717 2969.26302522557 16 19 12
118.423741824087 -13.6965094965286 2960.740240304 13 16 9
103.175509384489 -14.6395038218081 2959.01707149567 9 12 3
114.107659013023 -11.4567322225073 2974.61417714388 11 14 5
64.911403093006 -17.701758916597 2950.70510875155 16 19 10
61.407433968288 -16.7712526657185 2956.8812299505 15 18 9
20.432977649302 -21.6567333729633 2938.77695941386 17 20 13
64.2773270418409 -64.8547313087466 2725.91392416511 28 31 22
254.01444007421 -28.1752613468431 2886.33396187351 29 32 25
246.540476764005 -27.951874767511 2889.471635692 26 29 22
233.405418469796 -28.7109111942938 2888.45702129922 26 29 22
210.52295563491 -31.1487023940689 2880.36591759214 27 30 23
232.976013194816 -25.7320904350026 2905.44742185833 26 29 22
207.593892072248 -28.5814445424138 2895.64794096353 27 30 23
219.603967754608 -24.9983027352846 2912.94963204119 21 24 17
230.879395420962 -21.5649525314843 2929.58573143267 21 24 17
223.400004576876 -21.3401593571421 2932.72858697842 18 21 14
216.730541359782 -20.9751107014963 2936.46335203646 16 19 12
214.168025845879 -19.9161829189053 2943.10252455405 16 19 12
198.423370633216 -21.072051247575 2940.48686426486 14 17 10
192.54852358948 -20.5645203101768 2944.82875205687 12 15 8
191.641957000141 -19.2295415881233 2952.61689908207 14 17 10
181.620363100454 -19.4105333913304 2954.09310889002 15 18 11
169.079189310015 -20.0006044476815 2953.88069471552 14 17 10
176.528552497316 -17.2961286781976 2967.33897558682 14 17 10
173.164993584543 -16.3780915865079 2973.37717246396 17 20 13
168.972135876053 -15.5976450951127 2978.84263965943 17 20 13
160.583044333575 -15.4995286553422 2981.49031705286 16 19 12
161.442527694454 -13.9024101662534 2990.31982486283 13 16 9
120.9727244745 -18.9653922570825 2971.74099880768 10 13 6
113.333733779553 -18.7191964136262 2975.0391760595 16 19 10
71.7680717325564 -23.8857408619383 2956.14661333087 12 15 6
75.9279358026363 -21.7353356394532 2967.28499388332 14 17 8
63.0958708046654 -22.2876295715274 2967.3558555356 11 14 7
130.478001858442 -10.1821126423319 3019.10128909077 28 30 25
54.7491686510062 -76.0307555889303 2710.10437156047 11 14 7
41.1718111355484 -76.7603774942595 2709.52461937935 12 15 6
243.64196923178 -37.0891049421441 2879.53026844555 30 33 26
243.390020402845 -35.5785762700745 2888.05933346942 25 28 21
231.054879735458 -36.219961224201 2887.65024737168 27 30 23
221.112798251934 -36.4278566574456 2889.05147651973 28 31 24
233.046589944863 -32.7780474060228 2906.41872746543 25 28 21
226.363994741031 -32.4166357069667 2910.16707032103 22 25 18
222.934442151704 -31.4851323293437 2916.26914742536 19 22 15
226.865231575692 -29.2764379056655 2927.62638736924 21 24 17
222.651688316815 -28.4909512078717 2933.11165068173 17 20 13
217.622014947773 -27.8475344024864 2938.01109396658 15 18 11
223.288317932631 -25.3674827471855 2950.43899328602 13 16 9
215.81173702771 -25.1504443980465 2953.58020468041 13 16 9
200.885293999702 -26.1990037806681 2951.55309669883 12 15 8
190.884316564461 -26.3984130045041 2953.01155613953 13 16 9
184.182896587444 -26.0337124225672 2956.77844401972 14 17 10
174.144948601842 -26.2282545301997 2958.27289640581 14 17 10
166.587728798143 -26.0004901627188 2961.49259811793 12 15 8
166.546123627258 -24.5153877276796 2969.81654676663 15 18 11
162.337614505387 -23.7298002568105 2975.29645837045 15 18 11
178.297115883401 -19.607615874581 2994.26461620476 15 18 11
178.355107146248 -18.1350691525358 3002.49151985135 15 18 11
103.320865562305 -28.9966144136044 2960.99470533777 12 15 8
85.4901844394877 -30.4124225438769 2957.65509996822 12 15 6
95.5819800617563 -27.2651030284728 2972.67468221018 13 16 9
92.9973745476751 -26.1938227582671 2979.33396473221 10 13 6
114.274078569198 -21.2724478430017 3001.40607331736 13 15 12
217.205487529601 -49.0021571183943 2860.78144358316 30 33 26
223.331045690539 -46.2970109216546 2874.1372740085 26 29 22
225.475841719669 -44.3287199437905 2884.46940684218 28 31 24
228.465759564458 -42.219139208364 2895.35868581496 29 32 25
229.062456406443 -40.5509146745124 2904.43897292253 25 28 21
230.499923438582 -38.7409878800124 2914.07999074589 22 25 18
231.154509433092 -37.0800039291278 2923.10352538224 18 21 14
216.317012197119 -38.1723566187564 2920.99456554595 20 23 16
219.447401037411 -36.0801437092562 2931.74725954274 17 20 13
220.975746467266 -34.2814524476872 2941.2996943806 14 17 10
228.294877289736 -31.4788280258072 2954.8727915874 13 16 9
203.513348713773 -34.2893663124377 2945.88808577179 14 17 10
181.119420877935 -36.6575268791474 2938.71847752934 14 17 10
180.185411766777 -35.2911243295134 2946.5288931144 13 16 9
182.593443170003 -33.355250054151 2956.60475834674 13 16 9
176.713723629004 -32.8512916477321 2960.95201261908 13 16 9
154.145025962043 -35.1968022318694 2953.95226790298 12 15 8
140.694574480786 -35.9671895663853 2953.25252126651 15 18 11
152.351171079212 -32.4727699495954 2969.50108824117 15 18 11
158.205540027047 -29.9805592084663 2981.74043817167 15 18 11
146.428435270907 -30.4663565462996 2982.17112770075 15 18 11
122.805462166529 -32.9257855763154 2974.8182218579 12 15 8
94.8688058450182 -36.0793740557852 2964.7665792505 11 14 7
77.0025220957891 -37.530588024707 2961.46722294078 16 18 13
71.825956119917 -36.8667808119625 2966.50951906238 13 15 10
34.2853439303554 -41.5329031306785 2950.63128242451 7 9 6
196.393598463969 -60.049085424126 2846.23834326412 29 32 25
228.233663351249 -52.5337132067532 2878.69247781976 30 33 26
229.583150942704 -50.6907718402782 2888.41631883097 29 32 25
227.728197851155 -49.4455285931341 2895.74224337688 28 31 24
231.566621933511 -47.1650123630947 2907.1805882388 24 27 20
232.197049171566 -45.4816540799162 2916.2251438029 25 28 21
229.595973019455 -44.3925232629958 2922.89814360897 19 22 15
217.205440451089 -45.074072468931 2922.54966090463 19 22 15
213.787176939246 -44.1321559712818 2928.63865089155 15 18 11
249.77134014595 -36.1383404893517 2962.57523380427 14 17 10
249.75403540108 -34.6236344835562 2970.87033853389 13 16 9
212.65528274981 -39.7015708121202 2953.19728545571 14 17 10
182.01799100933 -43.5906707909542 2940.26780906561 16 19 12
184.399754751619 -41.626747636846 2950.36561286153 14 17 10
195.951538738829 -38.0647159825804 2966.70826727893 13 16 9
187.605927179282 -38.0033031748513 2969.31853102934 14 17 10
150.046363675985 -43.0217776526153 2952.09394366168 13 16 9
133.24175082844 -44.3972573432709 2949.14638611866 15 18 11
139.013523285717 -41.8589578620818 2961.46094368963 14 17 10
133.075362206254 -41.3494911934728 2965.86507931285 14 17 10
134.712659441472 -39.5417123979979 2975.30831810583 14 17 10
122.878393069377 -40.0412687279903 2975.7974656956 12 15 8
86.4836949059278 -44.70434334701 2960.19777835912 13 15 10
57.5771688481352 -48.0579857922395 2949.72188930821 19 21 18
54.9052047804581 -46.9583427153878 2956.46339031294 13 15 12
213.813144901793 -62.3764644457165 2868.9609632202 31 34 27
228.04071432056 -58.0849599131378 2888.20668248871 30 33 26
229.418125203757 -56.2234401535462 2897.90004938004 27 30 23
233.260164697536 -53.9132761176449 2909.33042215222 24 27 20
242.836329083469 -50.5540895252108 2924.83105781482 26 29 22
226.407822279443 -52.0161993326374 2921.52248746215 19 22 15
205.025291366465 -54.3721233242857 2914.76364788138 18 21 14
215.496530784275 -50.8725209431782 2930.77161673117 15 18 11
259.689717248334 -41.2472374169852 2970.4851567944 14 17 10
200.467916475631 -50.4748542321571 2937.13434634687 14 17 10
209.428407066976 -47.2909985118177 2951.85502185545 14 17 10
192.83477288512 -48.7312577307424 2948.70753376455 16 19 12
180.329760311288 -49.4213727553036 2948.47399742221 15 18 11
181.907143628702 -47.5842961037318 2957.97240141093 14 17 10
183.516205080833 -45.7512441730962 2967.43960555358 16 19 12
174.312302070547 -45.8448795249987 2969.50817213501 13 16 9
165.089714548805 -45.9360726484045 2971.59459391023 15 18 11
149.982118649205 -47.0565855174318 2969.75834594393 14 17 10
133.988737339708 -48.3183626553406 2967.4053276215 13 16 9
109.526184810594 -51.0427726748943 2959.50839131549 14 17 10
105.229510126724 -50.2360753179537 2965.07273259375 11 14 7
89.0956472931559 -51.4796118081555 2962.85651854166 9 11 6
66.1302542439137 -53.8860018100256 2956.26003399776 21 23 20
31.18817455894 -58.3247907451182 2942.0185443478 5 7 4
202.965641307069 -73.288555704754 2853.00528356155 31 34 27
209.860205290998 -70.309783916417 2866.97360956945 32 35 28
228.112876045257 -65.1812991667319 2889.18386067191 26 29 22
249.715032111557 -59.4518795605018 2913.64718054853 27 30 23
252.794505173623 -57.2713271702465 2924.4370402871 26 29 22
233.153099722048 -59.3891521917213 2918.74820293821 22 25 18
219.146413041549 -60.4264071933601 2917.22333968419 19 22 15
209.181667020681 -60.6939818420304 2918.65589561484 17 20 13
217.206057731952 -57.6016004649363 2932.9027426927 14 17 10
205.597829335334 -58.173392600375 2933.17810765186 13 16 9
186.556418409669 -60.110019890554 2928.28359524136 13 16 9
203.728770985281 -55.3571022359519 2948.78797044046 10 13 6
192.080760897261 -55.9234058021755 2949.10236584113 11 14 7
180.402501631839 -56.4858092300053 2949.44588484138 14 17 10
163.712244185642 -57.9508020365561 2946.39800069377 15 18 11
161.949507849628 -56.6935819039123 2953.63058245978 16 19 12
169.37961034118 -53.7817760878762 2967.07734619635 15 18 11
174.36023224132 -51.3285309191498 2978.77318963843 13 16 9
190.283134475863 -46.9299765008108 2997.73650575061 13 16 9
142.462496744131 -53.9327295292277 2973.99066694295 15 18 11
118.019979677578 -56.7212730186532 2966.08331402527 15 18 11
91.8014736394084 -59.7971230421024 2957.14785171318 13 16 9
91.7077878238155 -58.2382600364958 2965.51261543185 9 14 7
203.842186892582 -80.3468854260594 2854.59498820543 30 33 26
230.865697690498 -73.4014952318802 2883.41414367736 31 34 27
233.027529622554 -71.3363857629314 2893.71538771889 26 29 22
244.123889431277 -67.5538033961168 2910.47768777894 26 29 22
237.458781125983 -67.2195088233679 2914.21301162721 25 28 21
226.722203050647 -67.6644728689871 2915.02097911341 21 24 17
218.403924541611 -67.6384964149449 2917.6093382182 19 22 15
216.604825218685 -66.3661956989032 2924.87580006412 17 20 13
216.459551884345 -64.7853057232956 2933.28853537496 13 16 9
206.490993530291 -65.0679233103634 2934.72710034855 12 15 8
192.387394666211 -66.1215166456138 2933.30088712403 11 14 7
181.539941236442 -66.5514841745161 2934.21707683959 11 14 7
175.624909229379 -66.0521700121425 2938.60008332999 12 15 8
166.393314939544 -66.1685867547555 2940.69917699897 14 17 10
148.009880866541 -67.9743436661447 2936.54885057998 16 19 12
137.055596893986 -68.3901653661569 2937.56903385645 17 20 13
150.2664747578 -64.3567911929292 2955.02867578744 15 18 11
153.529978864061 -62.171015865564 2965.63501803082 15 18 11
174.432176244959 -56.7814222052215 2988.00947687829 13 16 9
148.41607076104 -59.9503203787762 2978.88711814174 13 16 9
131.564945177264 -61.4315071239708 2976.00103404789 15 18 11
102.846789485096 -65.034496634777 2965.37494382669 15 20 13
101.086453959637 -63.7657853971549 2972.60344317203 13 20 12
81.5402053396621 -65.6818760865825 2968.20720675423 20 25 19
183.459229111439 -93.3511392476419 2831.41345088826 10 12 7
233.631274703972 -81.6396189365972 2877.6344101109 32 35 28
215.642448472161 -83.5403055954231 2873.10660068944 30 33 26
232.293199679239 -78.5748731335091 2894.09752416246 25 28 21
224.781416166455 -78.4001297312885 2897.27994344154 26 29 22
223.745820422486 -76.9519712720811 2905.17915256697 23 26 19
230.858957900466 -73.9187710303479 2918.92272520452 20 23 16
216.847278189572 -75.0138936570382 2917.4113729132 17 20 13
219.127697894235 -72.9386592719448 2927.59302324331 15 18 11
218.169561780845 -71.4998218594594 2935.41702929914 11 14 7
218.872752570799 -69.7480353068116 2944.37887807022 9 12 5
203.975995213325 -70.9921773746376 2942.35119881442 9 12 5
185.735960132954 -72.8592786796977 2938.06787959251 13 16 9
163.302467045266 -75.5035132912553 2930.9780260113 14 17 10
150.728632497285 -76.2562455236537 2930.82208570264 16 19 12
148.084207899892 -75.126489783638 2937.53212680979 18 21 14
152.942416640111 -72.5919443118597 2949.33751217999 19 22 15
154.511203766189 -70.6874752327018 2958.83415390041 16 19 12
167.817306415423 -66.6064144621308 2976.19218815354 16 19 12
171.15315882954 -64.4024129952581 2986.72399364225 14 17 10
146.809813551861 -67.3268951604764 2978.73825334911 12 15 8
123.220184084682 -70.0849590363867 2971.39637488141 15 18 11
122.3300016799 -68.6535973453215 2979.15400680842 18 21 14
81.7086918961092 -74.4867201043508 2960.83911762327 9 14 7
48.5552361485357 -78.9106391636431 2947.65345667904 16 21 15
243.892059933626 -85.0093589985507 2894.86664889372 28 31 24
239.628959453547 -84.1962928526134 2900.39704702906 26 29 22
220.000997224581 -86.460715459068 2894.71618957844 27 30 23
222.197303440696 -84.3502855272956 2904.97650180167 23 26 19
222.803742307621 -82.5672254420588 2914.02980444812 19 22 15
225.882482717465 -80.3040243322769 2924.80817627652 15 18 11
221.65071498442 -79.4943644196121 2930.30762612868 13 16 9
216.605154579832 -78.8458636797777 2935.22209407139 10 13 6
234.53620459434 -73.704738373707 2956.33294173641 9 12 5
213.91924658588 -76.1070094142232 2950.23763633551 12 15 8
171.794089332935 -82.6585750366838 2929.27120966449 12 15 8
159.245066872588 -83.4383601240239 2929.09496682815 13 16 9
148.318378375946 -83.8948274794352 2930.09341695723 15 18 11
145.66817799239 -82.7557489033406 2936.80781559432 16 19 12
162.170860990951 -77.9622351892925 2956.55427318539 17 20 13
167.931529733725 -75.2448775764804 2968.85339219535 16 19 12
162.038622276051 -74.7523919297159 2973.21543793276 14 17 10
147.762735195058 -75.8415095859833 2971.96555993365 13 16 9
144.364156559523 -74.871749960755 2978.0308873453 12 15 8
135.92317647043 -74.8492487584055 2980.74160457364 13 16 9
103.840939902284 -79.2336222121634 2967.9032716432 15 18 11
62.3326954943013 -85.3313876083251 2949.09132639965 21 26 19
18.9636981692538 -91.7216935751958 2929.33655504288 8 13 7
265.900298074158 -89.2465135977083 2903.39585324398 34 37 30
234.30498668233 -94.050431467771 2888.71909557917 30 33 26
229.211597306423 -93.39621071247 2893.68021298165 23 26 19
225.736747313973 -92.4126638263271 2899.81924122708 26 29 22
224.703189927349 -90.936838890816 2907.71267498241 21 24 17
225.31536245206 -89.1352040757814 2916.75753868497 19 22 15
225.140935942 -87.5009134162198 2925.1913309325 14 17 10
228.257223291967 -85.2149809639033 2935.92905841182 11 14 7
216.678404842053 -85.8753073473212 2936.18830418233 9 12 5
231.326655506804 -81.3106928287948 2954.97625306011 9 12 5
212.347431766657 -83.4370950780179 2950.04769866918 13 16 9
180.937220034248 -87.9947868978456 2936.5679893633 13 16 9
167.583367852424 -88.9636198896001 2935.80164837597 13 16 9
160.817896830141 -88.6302522782708 2939.63643304834 14 17 10
159.85724640059 -87.1625274998528 2947.45866631722 15 18 11
163.077588427268 -84.8890493935987 2958.09490671126 16 19 12
170.507984327462 -81.813584808371 2971.51685255211 15 18 11
159.604736035904 -82.2910351884821 2972.4954653349 13 16 9
163.758616113039 -79.868707440034 2983.59959805022 12 15 8
143.598937390124 -82.1109428220407 2978.44380151821 13 16 9
139.365299954355 -81.296506604 2983.94440207697 12 15 8
141.042970151197 -79.3614471885957 2993.32873790219 12 15 8
94.546805780467 -86.5452837187753 2971.12826016565 20 25 18
56.338387708351 -92.108134994455 2954.62845362966 16 21 15
244.290651546292 -100.787586812112 2888.30072511996 33 36 29
232.768475185045 -101.477298116305 2888.50840537955 29 32 25
232.512820641544 -99.8165804295986 2897.01895236199 25 28 21
237.134405183334 -97.1547014675159 2909.04015138292 26 29 22
233.695574155997 -96.1697525306786 2915.14354288304 13 16 9
225.388922024576 -96.1869179843853 2917.72673317812 16 19 12
226.843635007288 -94.2028190403919 2927.32488294999 12 15 8
219.347490931428 -94.0525733294115 2930.49539278507 10 13 6
222.481915871367 -91.741433193159 2941.21138368474 9 12 5
207.60508016933 -93.0840715052018 2939.17881747447 10 13 6
186.925358504897 -95.5799450243951 2933.15967171723 11 14 7
176.06546153307 -96.0820401379953 2934.09887847953 15 18 11
180.879405083639 -93.4436133019737 2945.93286621714 17 20 13
170.003650183348 -93.9435340695364 2946.88716092744 18 21 14
173.215153877297 -91.6415802155194 2957.52796921345 14 17 10
172.305715823632 -90.1663949277635 2965.298245176 17 20 13
167.246107929788 -89.5142805028757 2970.22612838213 15 18 11
176.399467759493 -86.0766420289157 2984.71777290572 14 17 10
169.698768118633 -85.7559935169384 2988.49045635817 13 16 9
152.912442438228 -87.3947468414694 2985.56331327396 13 16 9
147.858422049863 -86.7429535130568 2990.48569546247 13 16 9
147.867677758402 -85.1140840411758 2998.73788980078 13 16 9
128.450385717406 -87.228232648459 2994.24287046749 11 16 10
40.3110319679194 -102.485074934713 2945.1542579105 57 62 58
246.773214030517 -107.34988258375 2891.05647411842 32 35 28
237.672014397862 -107.549930918264 2893.03878251998 27 30 23
240.6555553663 -105.192864932875 2903.89781561339 25 28 21
251.767033544662 -101.140209506839 2920.60518622869 24 27 20
249.173925631442 -99.9841658671421 2927.26038376976 23 26 19
217.335579191471 -104.933599934622 2912.8464707309 15 18 11
182.926061595429 -110.374431151388 2896.80733114783 11 14 7
199.82317809203 -105.146701779268 2917.51484287763 9 12 5
207.003590419377 -101.958093490255 2931.16864135374 10 13 6
196.192590294114 -102.48520811057 2932.06299069673 12 15 8
173.019099823471 -105.533436258714 2924.35076620653 13 16 9
177.789039318686 -102.856721275713 2936.22245380821 14 17 10
175.996412225985 -101.5283740919 2943.47454283237 17 20 13
186.643216786628 -97.688763885335 2959.25758204988 19 22 15
176.610783927697 -98.041254676036 2960.77024042203 15 18 11
166.555775968446 -98.3907832832819 2962.3045405511 16 19 12
181.499587594521 -93.7331095179757 2980.78490106707 11 14 7
166.442101540701 -95.0835067969675 2978.93253225655 11 14 7
181.504066560501 -90.4408148932634 2997.29811686052 10 13 6
161.385937733516 -92.7846155822053 2992.11573413365 10 13 6
135.306773029063 -96.280094291666 2983.10426259586 10 13 6
143.724052863977 -92.9752148508921 2996.92955784495 11 14 7
135.290967974481 -92.9845955910675 2999.63680931856 11 16 10
75.9881449187878 -102.895474253049 2969.30159747577 28 33 29
243.635035875754 -115.109809338854 2889.65167008952 26 29 22
236.941122764573 -114.802208181651 2893.419542811 29 32 25
236.694883738934 -113.109582921012 2901.91568627753 28 31 24
249.41396550863 -108.655694313008 2919.80153715025 8 11 4
241.139818257779 -108.697965167825 2922.35616018573 16 19 12
203.594383977431 -114.939463106129 2903.88139530644 12 15 8
169.967596290767 -120.300915642409 2888.47017053589 9 12 5
183.566715088414 -115.682867516181 2906.87477824313 8 11 4
207.896551549642 -108.846657491444 2932.71695381971 12 15 8
193.806078644951 -110.077529469904 2931.30390802952 16 19 12
178.028973229947 -111.644948708404 2928.78129831571 18 21 14
168.796841303203 -111.839770439181 2930.89251408909 19 22 15
188.465447014193 -106.064254851687 2953.01799929062 19 22 15
180.092539806121 -106.092556997384 2955.66862785445 16 19 12
175.025463689621 -105.438793458447 2960.60368337774 12 15 8
159.974351344811 -106.822161739579 2958.74985847967 7 10 3
137.371664731001 -109.72507858704 2951.86658753453 10 13 6
189.087904656621 -97.5534937742805 2995.06957014886 9 12 5
150.576823033611 -103.668848601758 2977.53506345904 9 12 5
155.582218988468 -100.988838330534 2989.17245227345 10 13 6
148.850675625425 -100.673883911592 2992.97660558244 11 14 7
147.174207382703 -99.3484767887479 3000.11344384916 12 15 8
112.510658080102 -102.910818785033 2993.96796252758 6 11 7
255.527907747714 -117.836225058133 2908.00229613039 26 29 22
235.962353113416 -120.349786087057 2902.29628956574 26 29 22
220.371718712522 -121.97694930366 2899.59734151224 25 28 21
212.027936221352 -122.020613652545 2902.22131932857 15 18 11
197.980977362916 -123.286986400624 2900.77031044543 11 14 7
164.341697671127 -128.740860430578 2885.38515027704 9 12 5
177.926724791679 -124.058484641855 2903.79424362753 9 12 5
199.786607130789 -117.645497067462 2927.90060645819 13 16 9
184.856587720029 -119.077168322054 2925.9336736449 16 19 12
188.795314446873 -116.507463191458 2937.23001234689 18 21 14
182.061469029764 -116.198249828827 2941.03696231321 20 23 16
159.622591360663 -119.178958189446 2934.00252421611 18 21 14
172.714299904432 -114.711942835016 2951.51607322435 13 16 9
160.989066920302 -115.437162071898 2951.93063976914 11 14 7
153.393885842733 -115.296116959157 2955.20085465536 8 11 4
166.637612424299 -110.848323158388 2972.56662628406 11 14 7
126.468503388647 -117.416918839965 2953.91139764801 11 14 7
118.81404868617 -117.267885367754 2957.23929144395 11 14 7
152.298648099576 -108.715885463371 2987.90716578503 11 14 7
155.660037640978 -106.350432909214 2998.38975012865 12 15 8
136.282170899668 -108.605872886581 2993.87646369275 13 16 9
127.832178794659 -108.633626908708 2996.60355768634 9 14 8
127.842680985778 -106.954895972997 3004.84680690445 13 18 14
271.885770462534 -122.999248350748 2912.35987104482 30 33 26
243.528755940667 -127.534405532491 2900.09568911782 25 28 21
219.094007312898 -131.162905186883 2890.88785786223 15 18 11
201.845558800299 -133.175905294479 2887.0580137752 17 20 13
199.942813881331 -131.800979498978 2894.41222928822 9 12 5
213.496405287663 -127.052413884842 2912.84275594035 10 13 6
204.332353666039 -127.282838980268 2914.89196696808 11 14 7
197.59911159166 -126.979244748265 2918.69914831121 13 16 9
191.677510245585 -126.497677596668 2923.0913012528 14 17 10
202.160671743483 -122.482347863922 2939.01120702347 14 17 10
197.916420010035 -121.651919791624 2944.51998414766 15 18 11
194.501284093778 -120.645780781181 2950.59671416857 16 19 12
183.658751229079 -121.223821880407 2951.52956505732 14 17 10
162.024292892035 -124.081949141071 2945.09511855665 14 17 10
177.666841241568 -119.036557968193 2964.2415658732 17 20 13
165.11842315705 -119.959140253296 2964.08549040421 14 17 10
143.362677637028 -122.801210742627 2957.7691106854 11 14 7
120.694432324385 -125.807903644729 2950.96627855289 11 14 7
164.971816275648 -114.851455722974 2988.98255443263 11 14 7
149.855336970304 -116.289783299873 2987.20176285258 11 14 7
126.276315183721 -119.461184890884 2979.91044193502 12 15 8
142.263893874576 -114.459688314416 2998.72075662433 12 15 8
142.28325579614 -112.765502343964 3006.95326159375 4 9 3
123.681582723063 -114.883790499619 3003.06584170941 5 10 6
215.434025143221 -140.940246800456 2880.38000721884 18 21 14
213.522015433389 -139.553227351453 2887.74197321144 17 20 13
214.860993308736 -137.444752945521 2897.43666701685 16 19 12
216.231879500554 -135.340212636643 2907.10025685013 12 15 8
220.885273768476 -132.518099167723 2919.06652359464 10 13 6
218.255159466551 -131.322996716678 2925.75269615149 12 15 8
192.77599052146 -135.165505411113 2916.19637299332 14 17 10
198.300718405742 -132.170203913486 2928.68870477882 14 17 10
189.930714642789 -132.230479375567 2931.34117582092 14 17 10
204.570272519745 -127.273615729061 2950.07944467368 15 18 11
201.170708883903 -126.263660907003 2956.14014721466 16 19 12
196.127327330124 -125.611926200758 2961.05197354748 16 19 12
196.053600682372 -123.890009642846 2969.37281827361 15 18 11
196.833926581826 -121.992962378179 2978.2366012709 18 21 14
172.68263178092 -125.435224635193 2970.13667968673 11 14 7
154.280595819214 -127.622670965394 2966.06123874762 15 18 11
151.698832394523 -126.432307627679 2972.70009860751 14 17 10
148.291799055129 -125.420541340608 2978.76795094079 13 16 9
141.534374156369 -125.117259702452 2982.59919238726 13 16 9
166.753518171494 -118.101899249205 3007.53179406134 13 16 9
164.273986705587 -116.924364905467 3014.0710321946 13 16 9
145.741584129076 -119.094388724588 3010.12247219163 20 25 19
135.622919980001 -119.497868694282 3011.72795784602 8 13 9
191.365693419845 -153.614132767572 2863.64309111698 20 21 16
216.017907345007 -146.142561808894 2890.48814435542 19 20 15
241.623489272142 -138.505828328551 2917.77932528567 13 14 9
223.603249661783 -140.787121738062 2913.33862548302 15 16 11
216.085228605604 -140.680467583716 2916.53730229599 11 13 8
197.967767598565 -142.9488560343 2912.19123743015 15 18 11
197.751014502986 -141.192751261586 2920.64905653008 15 18 11
195.103217188434 -139.986559519649 2927.35114958752 13 16 9
202.311970543722 -136.5970349195 2940.94710966088 14 17 10
169.28840219898 -142.123843275224 2926.3782280022 16 19 12
199.597908551561 -133.653313525815 2955.95999214736 16 19 12
193.724665646783 -133.181970541981 2960.3056355694 17 20 13
187.020249041226 -132.891194613065 2964.08608733547 20 23 16
196.079509087807 -129.163933747031 2978.62870611369 19 22 15
195.221758291171 -127.612016922813 2986.33597713636 15 18 11
184.377705200064 -128.226204208366 2987.27601786495 18 21 14
173.507311520283 -128.836938164323 2988.24170478687 15 18 11
151.719716513786 -131.7816239003 2981.9721185676 14 17 10
144.970117758148 -131.484311737673 2985.79647082412 15 18 11
175.24587212975 -123.296526144317 3014.0366313304 16 19 12
169.411375533417 -122.829183215919 3018.34439030183 16 19 12
140.745015838736 -127.189111940888 3007.77840333273 23 28 22
108.581416145257 -132.249242122751 2995.12074173782 2 7 3
197.076097102341 -159.538929731746 2868.76729915683 11 12 7
216.093939125662 -153.274416427463 2891.46672867128 20 21 16
230.377371515547 -148.142378920512 2910.53308261912 7 8 3
213.951667393304 -150.090995798222 2907.29363469453 14 15 10
196.660155266512 -152.218257324248 2903.52377904273 13 16 9
197.229780208048 -150.256612962856 2912.58724378327 17 20 13
193.745377028897 -149.224699722461 2918.72894780027 17 20 13
205.818315071851 -144.678547948815 2935.8255453301 16 19 12
208.950371208954 -142.175224625959 2946.51548389496 15 18 11
176.765799657006 -147.610905391538 2932.51724456007 15 18 11
162.586095731787 -148.976225610064 2931.2126778835 12 15 8
167.365016056098 -146.103834344892 2943.04652652008 10 13 6
178.815986309615 -141.767260506121 2959.37481346872 12 15 8
197.815249738036 -135.78915852689 2980.71811395359 15 18 11
201.953133032327 -133.124190129035 2991.80260737072 19 22 15
195.294061939075 -132.843892455193 2995.53957905427 18 21 14
182.777460792179 -133.841867535288 2995.36305191805 18 21 14
169.389187532168 -135.017823414968 2994.66150424257 19 22 15
146.726730970587 -138.193557854103 2987.87790806004 21 24 17
156.806434604406 -134.260664434536 3002.79339034532 20 23 16
148.398786982419 -134.335373900862 3005.48537563545 18 21 14
210.029108465056 -163.719887255873 2879.19494938259 18 19 14
218.590356143948 -159.837795383962 2894.20888000686 15 16 11
219.132152161964 -157.853861173343 2903.29668484986 0 1 0
197.816508789147 -160.968684172432 2896.5835898948 15 16 11
187.799382300774 -161.434865242737 2898.09785218839 15 18 11
195.677549206277 -157.757287602311 2912.40307207281 17 20 13
210.966384863148 -152.395901300383 2931.85405737993 18 21 14
206.712944919314 -151.552182072124 2937.3699941058 15 18 11
189.34002960485 -153.70830724927 2933.68523905775 13 16 9
185.887227431664 -152.674290990759 2939.79491414152 12 15 8
183.267290196587 -151.454230392913 2946.46729191736 10 13 6
174.051218842042 -151.729312000243 2948.57475952183 8 11 4
188.001255674993 -146.781006393452 2966.5820885211 10 13 6
200.381306658019 -142.216636683759 2983.37102575848 12 15 8
210.347955004325 -138.220648213998 2998.38978603666 15 18 11
188.699460422985 -141.29056158814 2992.00057962915 16 19 12
174.49608162087 -142.681336633123 2990.72294682556 18 21 14
135.11996106778 -149.62272083334 2972.75261404377 21 24 17
153.521187300128 -143.781720484714 2993.29279070636 22 25 18
117.329170742113 -149.960459101326 2977.71585201642 20 23 16
109.674169574485 -149.849288436133 2981.04988456667 18 21 14
-9.04881122227463 -172.064409756534 2920.84937626964 5 10 6
246.567509496921 -164.049497235598 2898.22401072714 9 10 5
225.395669119757 -167.237083504959 2891.37887165117 9 10 5
230.766831955643 -164.081177611306 2903.99995854024 6 7 2
220.825836585698 -164.573424967854 2905.44213625153 19 20 15
199.514806611096 -167.742402737949 2898.73246417535 9 10 5
196.001665273613 -166.695603550208 2904.90050547188 9 12 5
206.342144575992 -162.404196352589 2920.92095480121 11 14 7
198.797311328411 -162.316879835889 2924.149114611 14 17 10
178.149000424185 -165.274560187208 2918.16737019464 18 21 14
179.574158750693 -163.088290565882 2927.7649874392 17 20 13
190.075369549571 -158.816923289919 2943.62912775011 15 18 11
194.05800869763 -156.07237008185 2954.8556804572 14 17 10
185.693376174799 -156.174438688358 2957.50899478696 14 17 10
183.938050168581 -154.761207213852 2964.71115957774 14 17 10
190.498511068512 -151.460829816768 2977.54715024276 14 17 10
176.317086076662 -152.883945354846 2976.25249689179 11 14 7
187.108307730659 -148.64928597732 2991.83407754778 12 15 8
135.293172179629 -158.535808049127 2965.39583165684 15 18 11
146.088027165534 -154.301400319926 2980.97384155405 18 21 14
130.929083630125 -155.893811570492 2979.25799108187 19 22 15
126.664800709997 -155.043948937838 2984.78378705101 15 18 11
102.161569590508 -158.686210846792 2977.06290329499 13 16 9
224.166424965599 -176.57555430853 2882.64380094855 0 1 0
228.690906780081 -173.573906400292 2894.71120671128 21 22 17
226.003310138085 -172.329748488949 2901.44720970597 8 9 4
216.050979456571 -172.83637049486 2902.90276811611 6 7 2
205.26567754135 -173.533960374778 2903.79679492557 15 16 10
211.515549380806 -170.156763657947 2916.92951341508 10 13 6
220.26398072761 -166.205642273111 2931.74770320016 11 14 7
169.486664718655 -176.378646205966 2904.3212290561 13 16 9
159.406578861647 -176.867806359051 2905.90106938986 16 19 10
181.292420625141 -169.832181516109 2929.88962861198 18 21 12
202.484819840252 -163.005779458572 2953.18046241221 16 19 12
182.597868901623 -165.813322340472 2947.83739536035 15 18 11
179.162536072938 -164.769580220959 2953.92862349078 15 18 11
174.079847801497 -164.110605236369 2958.87841186532 15 18 11
169.827831337134 -163.259989201137 2964.39191570998 14 17 10
178.890017781828 -159.348113749711 2978.90400473452 12 15 8
126.319545439179 -169.586498368367 2951.85091525663 12 15 8
172.978952355102 -157.084711216984 2991.52447245158 14 17 10
144.490747473626 -161.768267725963 2980.8294071645 16 19 12
126.809823778611 -163.963166528338 2977.45623971641 17 20 13
105.705528250644 -166.910937577596 2971.92549233961 13 16 9
155.378799661266 -153.901914682196 3012.78233411192 10 13 6
124.992185222099 -158.937321136055 3001.19026437004 9 14 8
210.156775351692 -189.1301633323 2864.40262948551 9 9 7
192.134308777484 -191.625910979262 2859.99583733352 10 11 6
205.432357502668 -186.40821537216 2878.61078443755 12 13 7
218.014002246977 -181.399219688025 2896.55106772475 11 12 6
208.851239820044 -181.722093520368 2898.61266244604 11 12 6
198.048656424649 -182.436037453137 2899.52592930065 15 16 10
246.526898449845 -168.796903478491 2942.89323209386 15 18 11
191.023543115901 -180.319323292801 2911.85743419287 15 18 9
158.136740913129 -186.320705927614 2897.22288360463 14 17 8
185.669055613857 -177.814705216134 2925.30613172666 14 17 8
197.774027735766 -173.044454495398 2942.33813505802 13 16 7
193.518693036121 -172.190884484345 2947.85449736303 16 19 12
181.027461422399 -173.288383375258 2947.66748748112 15 18 11
180.892238828881 -171.459174897152 2956.03354089152 13 16 9
197.339885859631 -165.741801999724 2975.69810402837 13 16 9
186.503247799094 -166.449578836308 2976.64461401676 14 17 10
201.42638062518 -161.138120171072 2995.04887976412 13 16 9
198.934738496417 -159.908581770384 3001.59245778771 16 19 12
158.849743452261 -167.390328730803 2982.98866607489 13 16 9
147.919708384892 -168.085446858261 2984.02604972004 13 16 9
116.814131267028 -173.410148938413 2971.77410683783 14 17 10
111.675540464435 -172.742622846441 2976.77814340226 14 17 10
125.936562369299 -167.646561184957 2994.45482134756 10 13 6
102.246203545341 -171.215322991276 2987.33278942026 11 16 10
-18.1199106855874 -196.665858056668 2917.90617942614 15 20 16
220.64415608619 -193.721797272395 2873.08831937358 11 12 7
206.661137853409 -195.261045009829 2871.61414730821 11 12 7
200.682487875466 -194.791937333144 2876.06479188953 12 13 7
197.926817440355 -193.522201578595 2882.86427493104 10 11 5
202.460580259868 -190.455839062828 2894.91323756985 11 12 6
181.10705390432 -193.780031603372 2888.26870570345 15 16 10
184.860959430748 -190.916803880726 2899.70485423669 16 19 12
195.987468255189 -186.267863530638 2916.30916854687 14 17 8
195.764620412045 -184.411598461119 2924.7582361731 13 16 7
195.565836201167 -182.55824905715 2933.18383919086 13 16 7
200.312117515686 -179.518294577086 2945.02567091867 14 17 8
192.774357575471 -179.454513792538 2948.25028540061 16 19 12
177.80946043264 -181.168951597572 2946.35977946353 15 18 11
183.448183145985 -177.939629520108 2958.70432455912 13 16 9
190.79404843613 -174.322315615115 2972.1304632945 15 18 11
204.007531439469 -169.333490083612 2989.44596514795 16 19 12
193.185580732247 -170.061487283902 2990.38087893831 15 18 11
192.342137558157 -168.427916826872 2998.062211751 15 18 11
169.791588222414 -171.899381027317 2991.21086092649 12 15 8
126.220964272648 -180.260141953061 2970.53029301133 13 16 9
120.251810673354 -179.789224035646 2974.97123999548 14 17 10
94.926083898248 -183.814125803553 2966.70675127053 14 17 10
85.5326065196467 -184.117424777897 2968.99421835197 12 15 8
16.102285638091 -198.262557839424 2932.33731933265 8 13 7
-12.1051450093237 -202.827218912071 2922.76311554669 12 17 13
-142.320168362879 -230.716915591097 2847.88977106335 6 11 7
249.547595100458 -193.562472878224 2895.375680785 13 14 9
231.621555201126 -196.15626473548 2890.88762641087 12 13 7
211.220322298835 -199.350851876944 2884.69520676424 10 11 5
194.778958237539 -201.522090384071 2881.50455061222 11 12 6
190.411434434786 -200.649171450726 2887.12979643481 12 13 7
186.858800487522 -199.574471165013 2893.33259286457 15 16 10
208.498188516205 -192.239734112042 2917.5216756346 14 17 8
198.508550358441 -192.788356228353 2919.02048851815 12 15 6
195.842652932084 -191.520692720144 2925.73146975397 11 14 5
189.098486043258 -191.260462134487 2929.55624656933 13 16 7
193.008749049837 -188.386753717474 2940.83558077135 14 17 8
192.030339941418 -186.722723767463 2948.64643485224 15 18 11
197.663875671708 -183.457559845463 2960.99049544771 13 16 9
185.178326782049 -184.603346530505 2960.80531729368 12 15 8
180.937282116847 -183.745061950027 2966.30679257194 12 15 8
180.020391561013 -182.088374609274 2974.05764305514 15 18 11
171.637663394762 -182.229279690961 2976.73432879839 15 18 11
144.801186347253 -184.892274308961 2975.43672325782 12 15 8
150.589945448541 -181.646220046571 2987.62980699261 13 16 9
127.887112849929 -185.153753350372 2980.935344539 14 17 10
113.517988696347 -186.668814811012 2979.84066879754 14 17 10
67.059482300011 -195.700040170584 2957.87617723993 13 16 9
-22.6983746845746 -214.788727266688 2908.12695083329 12 17 11
-54.3828179447359 -220.203945143215 2896.46320878277 10 15 9
-86.1865659274592 -225.603667459681 2884.91531000639 5 10 6
215.569668105376 -211.402889363777 2862.31944614436 0 0 0
242.418038820473 -202.485659958339 2891.02108133329 11 12 7
226.8830447395 -204.502338814322 2888.32445186098 11 12 6
220.148780615482 -204.24993165367 2892.1405513833 10 11 5
