ply
format ascii 1.0
comment KinectMotionCapture
element vertex 758
property float x
property float y
property float z
property uchar red
property uchar green
property uchar blue
end_header
-64.397357404232 683.127820491791 2543.99991035461 156 157 151
-57.4204660952091 682.327151298523 2540.99988937378 156 155 150
-50.4796057939529 681.794464588165 2539.00003433228 158 157 153
-43.5666516423225 681.529700756073 2538.00010681152 161 160 156
-36.6879291832447 681.801497936249 2539.00003433228 156 157 152
-29.8740826547146 683.6838722229 2546.0000038147 157 158 153
-22.9860655963421 684.491574764252 2549.00002479553 155 156 151
-16.0880032926798 685.567319393158 2552.99997329712 172 172 170
-9.16458386927843 686.373889446259 2555.99999427795 165 165 165
-2.22310842946172 686.64288520813 2556.99992179871 162 162 162
4.72934590652585 687.716960906982 2561.00010871887 160 160 160
11.7172058671713 689.596116542816 2568.00007820129 151 151 149
18.7940150499344 693.354368209839 2582.00001716614 148 149 144
25.8668661117554 694.963693618774 2588.00005912781 140 141 136
32.9341180622578 695.766925811768 2591.00008010864 153 154 149
39.9867258965969 696.032524108887 2592.00000762939 153 154 148
47.0628142356873 696.566104888916 2594.00010108948 149 150 144
54.1913732886314 697.636127471924 2598.00004959106 153 154 148
61.2707957625389 697.900056838989 2598.99997711182 158 159 154
68.4343799948692 698.968887329102 2602.9999256134 167 169 164
75.5615085363388 699.500203132629 2605.00001907349 172 174 169
82.7944800257683 700.836360454559 2609.99989509583 184 186 181
90.123288333416 702.709197998047 2617.00010299683 190 192 189
97.4155962467194 704.044342041016 2621.99997901917 195 197 194
104.854434728622 706.184327602386 2630.00011444092 203 205 202
112.293869256973 708.055257797241 2637.00008392334 206 211 207
120.586447417736 714.75875377655 2661.99994087219 215 215 215
129.974782466888 726.831436157227 2707.00001716614 213 213 213
138.795509934425 734.60727930069 2736.00006103516 214 216 215
147.50611782074 741.039931774139 2759.99999046326 218 220 219
157.132968306541 751.230597496033 2798.00009727478 223 225 224
-130.958899855614 699.594855308533 2631.99996948242 210 215 211
-121.742494404316 687.909364700317 2588.00005912781 200 205 201
-114.449128508568 686.323821544647 2582.00001716614 183 185 184
-106.980040669441 683.408737182617 2571.00009918213 192 194 191
-99.6093079447746 680.758833885193 2561.00010871887 183 185 182
-92.4735516309738 679.437458515167 2555.99999427795 172 173 168
-85.3312537074089 677.849590778351 2549.99995231628 168 169 163
-78.3443450927734 677.324593067169 2548.00009727478 164 165 157
-71.2840035557747 676.001369953156 2542.99998283386 160 161 153
-64.3772184848785 676.006853580475 2542.99998283386 156 157 151
-57.4250817298889 675.480008125305 2540.99988937378 156 155 150
-50.5035519599915 675.21858215332 2539.99996185303 156 155 151
-43.5873344540596 674.956560134888 2539.00003433228 160 159 155
-36.6908870637417 674.95983839035 2539.00003433228 163 164 159
-29.8647601157427 676.557600498199 2545.00007629395 156 157 152
-22.9698847979307 677.091240882874 2546.99993133545 155 156 151
-16.0830020904541 678.422093391418 2552.00004577637 169 169 167
-9.1653261333704 679.486513137817 2555.99999427795 171 171 171
-2.22589634358883 680.550217628479 2559.99994277954 167 167 167
4.73526818677783 681.613504886627 2563.99989128113 164 164 164
11.7455292493105 684.271275997162 2573.99988174438 151 151 149
18.8246499747038 687.460124492645 2585.99996566772 155 156 151
25.9189307689667 689.319133758545 2592.99993515015 127 128 123
32.962191849947 689.316749572754 2592.99993515015 151 152 147
40.0208048522472 689.579665660858 2594.00010108948 144 145 139
47.0484606921673 689.310252666473 2592.99993515015 146 147 141
54.1540049016476 690.103650093079 2595.99995613098 150 151 145
61.2757243216038 690.89663028717 2598.99997711182 154 155 150
68.4135854244232 691.68883562088 2601.99999809265 161 162 157
75.5095481872559 691.948890686035 2602.9999256134 165 166 161
82.6742053031921 692.740023136139 2605.99994659424 176 178 173
89.9927318096161 694.593846797943 2612.99991607666 181 183 180
97.3862037062645 696.712970733643 2621.00005149841 191 193 190
104.743167757988 698.299825191498 2627.00009346008 200 202 199
112.13244497776 699.886083602905 2632.99989700317 204 209 205
120.097689330578 704.66148853302 2651.00002288818 214 214 214
129.120722413063 714.752197265625 2688.99989128113 213 213 213
138.24836909771 724.310576915741 2724.99990463257 214 216 215
147.090166807175 731.476068496704 2752.00009346008 215 217 216
156.415164470673 740.235328674316 2785.00008583069 221 223 222
-130.919516086578 692.23827123642 2631.00004196167 211 216 212
-121.846258640289 681.460797786713 2589.99991416931 199 204 200
-114.458248019218 679.365277290344 2582.00001716614 188 190 189
-106.905333697796 675.953507423401 2569.00000572205 190 192 189
-99.5783656835556 673.593759536743 2559.99994277954 181 183 180
-92.4809500575066 672.548890113831 2555.99999427795 172 173 168
-85.3380933403969 670.977234840393 2549.99995231628 168 169 163
-78.3198773860931 670.194447040558 2546.99993133545 164 165 157
-71.2336599826813 668.62165927887 2540.99988937378 160 161 153
-64.382404088974 669.153392314911 2542.99998283386 156 157 151
-57.452317327261 668.895184993744 2542.00005531311 156 155 150
-50.5474023520947 668.899595737457 2542.00005531311 157 156 152
-43.6251871287823 668.640196323395 2540.99988937378 160 159 155
-36.708302795887 668.380320072174 2539.99996185303 166 167 162
-29.8437029123306 669.172525405884 2542.99998283386 157 158 153
-22.9627266526222 669.964075088501 2546.0000038147 155 156 151
-16.0780008882284 671.281397342682 2551.00011825562 167 167 165
-9.15889535099268 672.071874141693 2553.99990081787 173 173 173
-2.22607678733766 673.651099205017 2559.99994277954 165 165 165
4.7393455170095 675.229907035828 2565.99998474121 164 164 164
11.773862875998 678.913235664368 2579.99992370605 153 153 151
18.8552923500538 681.543469429016 2589.99991416931 150 151 146
25.9710140526295 683.646857738495 2598.00004959106 128 129 124
33.0157093703747 683.381199836731 2596.99988365173 145 146 141
40.0857590138912 683.64143371582 2598.00004959106 144 145 139
47.1429862082005 683.637857437134 2598.00004959106 146 147 141
54.2626939713955 684.423267841339 2601.0000705719 150 151 145
61.3749697804451 684.944748878479 2602.9999256134 153 154 149
68.5242637991905 685.728967189789 2605.99994659424 158 159 154
75.6026580929756 685.72324514389 2605.99994659424 163 164 159
82.7760249376297 686.50621175766 2608.99996757507 171 173 168
90.0688320398331 688.078045845032 2615.00000953674 177 179 176
97.4683165550232 690.175533294678 2622.99990653992 186 188 185
104.791395366192 691.483020782471 2628.00002098084 192 194 191
112.141378223896 692.789971828461 2632.99989700317 198 200 197
119.926005601883 696.464359760284 2647.0000743866 207 207 207
128.45866382122 703.82159948349 2674.99995231628 209 209 209
137.548997998238 713.283061981201 2710.99996566772 214 216 215
146.727591753006 722.217321395874 2744.99988555908 209 211 210
155.753463506699 729.572236537933 2773.00000190735 214 216 215
166.756376624107 745.082259178162 2832.00001716614 220 222 221
-121.903009712696 674.739897251129 2591.00008010864 199 204 200
-114.46737498045 672.405481338501 2582.00001716614 194 196 195
-106.955498456955 669.289350509644 2569.9999332428 187 189 186
-99.5474457740784 666.432917118073 2559.00001525879 178 180 177
-92.4160033464432 665.13854265213 2553.99990081787 173 174 169
-85.2780193090439 663.583040237427 2548.00009727478 169 170 164
-78.2954320311546 663.068771362305 2546.0000038147 163 164 156
-71.2674483656883 662.033081054688 2542.00005531311 159 160 152
-64.3622800707817 662.038564682007 2542.00005531311 156 157 151
-57.4343577027321 661.783039569855 2540.99988937378 156 155 150
-50.5316033959389 661.787390708923 2540.99988937378 157 156 152
-43.6458960175514 662.051677703857 2542.00005531311 161 160 156
-36.7546379566193 662.315368652344 2542.99998283386 171 172 167
-29.8578590154648 662.578523159027 2543.99991035461 159 160 155
-22.9826308786869 663.622438907623 2548.00009727478 156 157 152
-16.0856079310179 664.665818214417 2552.00004577637 164 164 162
-9.16681159287691 665.708601474762 2555.99999427795 175 175 175
-2.22886656410992 667.53226518631 2562.99996376038 162 162 162
4.74711880087852 669.35533285141 2569.9999332428 166 166 166
11.788509786129 672.740399837494 2582.99994468689 153 153 151
18.8641063868999 674.822866916656 2591.00008010864 140 141 136
25.9831175208092 676.904618740082 2598.99997711182 137 138 133
33.0565348267555 677.162647247314 2599.99990463257 140 141 136
40.1044376194477 676.899194717407 2598.99997711182 146 145 140
47.183096408844 677.156090736389 2599.99990463257 148 147 142
54.2670823633671 677.412509918213 2601.0000705719 151 150 145
61.4035204052925 678.189158439636 2604.00009155273 151 152 147
68.5560926795006 678.965151309967 2607.00011253357 155 156 151
75.6957903504372 679.480254650116 2608.99996757507 160 161 156
82.8144177794456 679.734289646149 2609.99989509583 169 170 165
90.0416374206543 680.769145488739 2614.00008201599 173 175 172
97.3646342754364 682.32399225235 2619.99988555908 181 183 180
104.680150747299 683.618128299713 2625 187 189 186
112.10773140192 685.432374477386 2631.99996948242 193 195 192
119.844943284988 688.808679580688 2644.99998092651 204 204 204
128.228753805161 695.309162139893 2670.00007629395 206 206 206
137.103244662285 703.63187789917 2701.99990272522 211 213 212
146.471917629242 713.516175746918 2740.00000953674 209 211 210
155.372560024261 720.274806022644 2766.00003242493 212 214 213
165.297329425812 730.938613414764 2806.99992179871 218 220 219
-122.336201369762 670.074343681335 2599.99990463257 208 213 209
-114.520862698555 665.70258140564 2582.99994468689 188 190 189
-106.797590851784 661.330044269562 2565.99998474121 180 182 179
-99.3220061063766 657.987892627716 2552.99997329712 184 185 180
-92.2425016760826 656.964659690857 2549.00002479553 171 172 167
-85.2179527282715 656.198680400848 2546.0000038147 166 167 161
-78.2402455806732 655.689775943756 2543.99991035461 167 168 160
-71.2171196937561 654.664814472198 2539.99996185303 162 163 155
-64.3168464303017 654.670298099518 2539.99996185303 157 158 152
-57.4164055287838 654.675245285034 2539.99996185303 158 157 152
-50.5357012152672 654.937326908112 2540.99988937378 158 157 153
-43.6322614550591 654.941141605377 2540.99988937378 160 159 155
-36.7720797657967 655.717670917511 2543.99991035461 179 180 175
-29.8720244318247 655.978202819824 2545.00007629395 158 159 154
-23.002540692687 657.26912021637 2549.99995231628 158 159 154
-16.0869173705578 657.786190509796 2552.00004577637 168 168 166
-9.16755758225918 658.818244934082 2555.99999427795 171 171 171
-2.22730869427323 660.107493400574 2561.00010871887 164 164 164
4.74935257807374 662.684917449951 2571.00009918213 164 164 164
11.7894681170583 665.777266025543 2582.99994468689 158 158 156
18.8656412065029 667.838096618652 2591.00008010864 137 138 133
25.9752329438925 669.64054107666 2598.00004959106 136 137 132
33.0592170357704 670.153558254242 2599.99990463257 142 143 138
40.1385612785816 670.408427715302 2601.0000705719 146 145 140
47.2413748502731 670.920312404633 2602.9999256134 148 147 142
54.3758124113083 671.689450740814 2605.99994659424 149 148 143
61.4792443811893 671.942532062531 2607.00011253357 151 150 146
68.6405301094055 672.710359096527 2609.99989509583 152 153 148
75.8179649710655 673.47776889801 2612.99991607666 152 153 148
83.0114930868149 674.244582653046 2615.9999370575 162 163 158
90.1522263884544 674.495458602905 2617.00010299683 164 164 162
97.3724722862244 675.2610206604 2619.99988555908 176 178 175
104.648679494858 676.283895969391 2624.00007247925 178 180 177
112.159319221973 678.594708442688 2632.99989700317 181 183 180
119.809210300446 681.4204454422 2644.00005340576 195 195 195
127.902790904045 686.3072514534 2663.00010681152 201 201 201
136.657446622849 694.028258323669 2693.00007820129 207 209 208
145.681619644165 702.263712882996 2724.99990463257 209 211 210
154.935419559479 710.756301879883 2757.99989700317 209 211 210
164.250299334526 718.732535839081 2789.00003433228 211 213 212
-122.910656034946 666.12446308136 2611.99998855591 208 213 209
-114.618718624115 659.248232841492 2585.00003814697 186 188 187
-106.806166470051 654.411554336548 2565.99998474121 179 181 178
-99.2521941661835 650.594413280487 2551.00011825562 183 184 179
-92.1051800251007 649.071931838989 2545.00007629395 171 172 167
-85.1244032382965 648.568868637085 2542.99998283386 167 168 162
-78.2158076763153 648.575484752655 2542.99998283386 166 167 159
-71.2509304285049 648.071527481079 2540.99988937378 162 163 155
-64.3473863601685 648.077011108398 2540.99988937378 157 158 152
-57.4210658669472 647.826910018921 2539.99996185303 158 157 152
-50.5795851349831 648.596405982971 2542.99998283386 158 157 153
-43.6529852449894 648.345232009888 2542.00005531311 160 159 155
-36.8039831519127 649.368703365326 2546.0000038147 177 178 173
-29.9096740782261 649.881541728973 2548.00009727478 162 163 158
-23.0224560946226 650.903880596161 2552.00004577637 157 158 153
-16.0945318639278 651.160538196564 2552.99997329712 164 164 162
-9.17189102619886 652.1817445755 2556.99992179871 172 172 172
-2.23096902482212 654.222667217255 2565.00005722046 164 164 164
4.75897686555982 657.028198242188 2575.99997520447 164 164 164
11.8178185075521 660.34334897995 2588.99998664856 158 158 156
18.9035851508379 662.127494812012 2595.99995613098 137 138 133
26.0273423045874 663.911044597626 2602.9999256134 136 137 132
33.0873429775238 663.653612136841 2601.99999809265 144 145 140
40.188129991293 664.160788059235 2604.00009155273 147 146 141
47.2996719181538 664.667308330536 2605.99994659424 148 147 142
54.4219575822353 665.173232555389 2608.00004005432 149 148 143
61.5313947200775 665.423572063446 2608.99996757507 150 149 145
68.6198025941849 665.418326854706 2608.99996757507 151 152 147
75.8241042494774 666.432619094849 2612.99991607666 152 153 148
82.9864665865898 666.936278343201 2615.00000953674 160 161 156
90.1939496397972 667.694449424744 2618.00003051758 161 161 159
97.3431468009949 667.941868305206 2618.99995803833 173 175 172
104.736864566803 669.719040393829 2625.99992752075 176 178 175
112.083114683628 670.985460281372 2631.00004196167 180 182 179
119.773477315903 674.036502838135 2642.99988746643 193 193 193
127.768889069557 678.362011909485 2660.00008583069 197 197 197
136.516079306602 686.002135276794 2690.00005722046 203 205 204
145.479336380959 693.896353244781 2720.99995613098 208 210 209
154.27353978157 700.259804725647 2746.00005149841 209 211 210
163.144260644913 706.367492675781 2769.99998092651 210 212 211
-122.920498251915 659.080743789673 2611.99998855591 209 214 210
-114.406198263168 651.015758514404 2579.99992370605 179 181 180
-106.689870357513 646.734952926636 2562.99996376038 175 177 174
-99.2212742567062 643.462955951691 2549.99995231628 180 181 176
-92.1487957239151 642.461240291595 2546.0000038147 172 173 168
-85.2317214012146 642.468452453613 2546.0000038147 168 169 163
-78.2836675643921 642.222762107849 2545.00007629395 165 166 158
-71.284756064415 641.471743583679 2542.00005531311 160 161 153
-64.3526092171669 641.22486114502 2540.99988937378 157 158 152
-57.4257299304008 640.977501869202 2539.99996185303 159 158 153
-50.5837015807629 641.738951206207 2542.99998283386 158 157 153
-43.67371276021 641.742825508118 2542.99998283386 160 159 155
-36.7925278842449 642.250776290894 2545.00007629395 168 169 164
-29.8886336386204 642.505884170532 2546.0000038147 172 173 168
-23.0062901973724 643.517434597015 2549.99995231628 154 155 150
-16.0832367837429 643.771409988403 2551.00011825562 156 156 154
-9.17264074087143 645.286619663239 2556.99992179871 173 173 173
-2.23202141933143 647.558331489563 2565.99998474121 165 165 165
4.76860348135233 651.343584060669 2581.00008964539 161 161 161
11.8324775248766 654.118955135345 2592.00000762939 152 152 150
18.9269725233316 655.884146690369 2598.99997711182 134 135 130
26.0394662618637 657.14418888092 2604.00009155273 136 137 132
33.0900400876999 656.637012958527 2601.99999809265 145 146 141
40.2068346738815 657.39119052887 2605.00001907349 147 146 141
47.3216734826565 657.892346382141 2607.00011253357 146 145 140
54.4889941811562 658.897519111633 2611.00006103516 146 145 140
61.6071447730064 659.14511680603 2611.99998855591 147 146 142
68.7042772769928 659.139931201935 2611.99998855591 150 149 145
75.8882910013199 659.891068935394 2615.00000953674 151 150 146
83.0883905291557 660.641610622406 2618.00003051758 154 155 150
90.2701392769814 661.139309406281 2619.99988555908 154 154 152
97.3881706595421 661.131680011749 2619.99988555908 165 165 163
104.745291173458 662.637650966644 2625.99992752075 167 167 165
112.177334725857 664.395213127136 2632.99989700317 170 170 168
119.828417897224 667.161643505096 2644.00005340576 184 184 184
127.538934350014 669.927299022675 2654.99997138977 186 186 186
136.019453406334 676.224946975708 2680.0000667572 198 200 199
144.742354750633 683.026373386383 2707.00001716614 205 207 206
154.004856944084 691.593170166016 2740.9999370575 209 211 210
162.744849920273 697.131454944611 2763.00001144409 209 211 210
-114.371046423912 643.807709217072 2578.9999961853 174 176 175
-106.823354959488 640.571355819702 2565.99998474121 173 175 172
-99.423848092556 637.833714485168 2555.0000667572 179 180 175
-92.2648310661316 636.343538761139 2549.00002479553 173 174 169
-85.2386206388474 635.601758956909 2546.0000038147 168 169 163
-78.2900154590607 635.35875082016 2545.00007629395 164 165 157
-71.2905451655388 634.615898132324 2542.00005531311 160 161 153
-64.4084960222244 634.871065616608 2542.99998283386 157 158 152
-57.4530139565468 634.376704692841 2540.99988937378 159 158 153
-50.5878180265427 634.880363941193 2542.99998283386 158 157 153
-43.6772704124451 634.884178638458 2542.99998283386 160 159 155
-36.8099883198738 635.636508464813 2546.0000038147 164 165 160
-29.9262925982475 636.388182640076 2549.00002479553 174 175 170
-23.0262149125338 637.139320373535 2552.00004577637 156 157 152
-16.116077080369 638.139665126801 2555.99999427795 156 156 154
-9.19132772833109 639.638602733612 2562.00003623962 172 172 172
-2.23742285743356 642.135739326477 2572.00002670288 168 168 168
4.7782314941287 645.630896091461 2585.99996566772 161 161 161
11.8608353659511 648.626208305359 2598.00004959106 149 149 147
18.9722198992968 650.372624397278 2605.00001907349 133 134 129
26.0815937072039 651.119768619537 2608.00004005432 137 138 133
33.1690534949303 651.117384433746 2608.00004005432 145 146 141
40.2718558907509 651.363968849182 2608.99996757507 146 145 140
47.3618358373642 651.36045217514 2608.99996757507 146 145 140
54.472554475069 651.605904102325 2609.99989509583 145 144 139
61.635747551918 652.350127696991 2612.99991607666 146 145 141
68.736158311367 652.344822883606 2612.99991607666 148 147 143
75.9815126657486 653.587281703949 2618.00003051758 149 148 144
83.1268578767776 653.830409049988 2618.99995803833 154 153 149
90.3463661670685 654.572367668152 2621.99997901917 153 153 151
97.5075587630272 654.81436252594 2622.99990653992 160 160 158
104.913294315338 656.55380487442 2630.00011444092 160 160 158
112.399391829967 658.542096614838 2638.00001144409 161 161 159
119.973994791508 660.779416561127 2647.0000743866 179 179 179
127.645224332809 663.265883922577 2657.00006484985 182 182 182
135.979548096657 668.747067451477 2678.99990081787 195 197 196
144.753888249397 675.725400447845 2707.00001716614 204 206 205
153.623774647713 682.453155517578 2733.99996757507 209 211 210
162.168696522713 687.183380126953 2753.00002098084 209 211 210
172.233730554581 697.653770446777 2795.00007629395 211 213 210
-114.335894584656 636.604070663452 2578.00006866455 166 168 167
-106.831967830658 633.64964723587 2565.99998474121 171 173 170
-99.5486229658127 631.682455539703 2558.00008773804 180 181 176
-92.4170911312103 630.455493927002 2552.99997329712 175 176 171
-85.3459686040878 629.474878311157 2549.00002479553 168 169 163
-78.2963633537292 628.49372625351 2545.00007629395 162 163 155
-71.2682753801346 627.511918544769 2540.99988937378 159 160 152
-64.4137263298035 628.011345863342 2542.99998283386 157 158 152
-57.4803054332733 627.769410610199 2542.00005531311 159 158 153
-50.5720488727093 627.773821353912 2542.00005531311 158 157 153
-43.680839240551 628.024637699127 2542.99998283386 159 158 154
-36.7840714752674 628.274857997894 2543.99991035461 160 161 156
-29.9169942736626 629.265427589417 2548.00009727478 172 173 168
-23.0371206998825 630.50240278244 2552.99997329712 165 166 161
-16.1236990243196 631.491899490356 2556.99992179871 162 162 160
-9.19925421476364 633.221626281738 2563.99989128113 167 167 167
-2.23847618326545 635.44487953186 2572.99995422363 175 175 175
4.78970957919955 640.137076377869 2592.00000762939 160 160 160
11.880069039762 642.606019973755 2601.99999809265 141 141 139
18.9956203103065 644.08665895462 2608.00004005432 132 133 128
26.1037275195122 644.578695297241 2609.99989509583 141 142 137
33.1971943378448 644.576251506805 2609.99989509583 141 142 137
40.290579199791 644.573271274567 2609.99989509583 146 143 138
47.3838448524475 644.56969499588 2609.99989509583 147 144 139
54.5187406241894 645.059466362 2611.99998855591 148 145 140
61.7115311324596 646.042585372925 2615.9999370575 146 145 141
68.8995942473412 646.778166294098 2618.99995803833 144 143 139
76.1037841439247 647.513091564178 2621.99997901917 143 142 138
83.2288414239883 647.506654262543 2621.99997901917 152 151 147
90.4225930571556 647.993505001068 2624.00007247925 151 151 149
97.6269692182541 648.479759693146 2625.99992752075 147 147 145
105.001546442509 649.953246116638 2631.99996948242 146 146 144
112.536288797855 652.167022228241 2641.00003242493 155 155 153
119.938313961029 653.392314910889 2645.99990844727 174 174 174
127.607405185699 655.851721763611 2655.99989891052 177 177 177
135.787397623062 660.532832145691 2674.99995231628 192 194 193
144.711971282959 668.176412582397 2706.00008964539 201 203 202
153.467401862144 674.337446689606 2730.99994659424 207 209 208
161.945939064026 678.769528865814 2749.00007247925 208 210 209
171.754330396652 688.138902187347 2786.99994087219 210 212 209
-114.478155970573 630.38158416748 2581.00008964539 164 166 163
-106.882214546204 626.971125602722 2566.99991226196 170 172 169
-99.6345058083534 625.269711017609 2559.99994277954 180 181 176
-92.4245789647102 623.567759990692 2552.99997329712 175 176 171
-85.3528827428818 622.597992420197 2549.00002479553 168 169 163
-78.2411843538284 621.139049530029 2542.99998283386 162 163 157
-71.2179765105248 620.168089866638 2539.00003433228 158 159 151
-64.3683075904846 620.662093162537 2540.99988937378 157 158 152
-57.4623681604862 620.667040348053 2540.99988937378 159 158 153
-50.5761690437794 620.915770530701 2542.00005531311 158 157 153
-43.6844006180763 621.163845062256 2542.99998283386 159 158 154
-36.787074059248 621.411383152008 2543.99991035461 159 160 155
-29.942924156785 622.87974357605 2549.99995231628 170 171 166
-23.0570528656244 624.103248119354 2555.0000667572 168 169 164
-16.143936663866 625.326156616211 2559.99994277954 165 165 163
-9.21077188104391 627.037107944489 2566.99991226196 165 165 163
-2.24300939589739 629.724562168121 2578.00006866455 175 175 175
4.8048859462142 635.098338127136 2599.99990463257 158 158 156
11.9175706058741 637.540280818939 2609.99989509583 136 136 134
19.0408788621426 638.516128063202 2614.00008201599 130 131 126
26.135865598917 638.26996088028 2612.99991607666 139 140 135
33.2380682229996 638.267517089844 2612.99991607666 138 137 133
40.3710603713989 638.753175735474 2615.00000953674 143 142 137
47.4421791732311 638.260960578918 2612.99991607666 147 144 139
54.5649379491806 638.501167297363 2614.00008201599 146 145 140
61.7165565490723 638.984858989716 2615.9999370575 146 145 141
68.9841285347939 640.445113182068 2621.99997901917 143 142 138
76.1970356106758 641.171991825104 2625 142 141 137
83.3625569939613 641.409695148468 2625.99992752075 151 150 146
90.5677750706673 641.891300678253 2628.00002098084 149 149 147
97.8207737207413 642.616391181946 2631.00004196167 142 142 140
105.129711329937 643.58514547348 2634.99999046326 142 142 140
112.587951123714 645.286023616791 2641.99995994568 152 152 150
120.038613677025 646.742105484009 2648.00000190735 166 166 166
127.809852361679 649.663031101227 2660.00008583069 171 171 171
135.950550436974 654.048621654511 2677.99997329712 188 190 189
144.616544246674 660.387337207794 2703.9999961853 196 198 197
153.311043977737 666.236877441406 2727.9999256134 201 203 202
161.605313420296 669.887661933899 2743.00003051758 206 208 207
171.274900436401 678.666174411774 2779.00004386902 208 210 207
-114.620439708233 624.141752719879 2584.00011062622 170 172 167
-107.015751302242 620.769083499908 2569.9999332428 176 178 173
-99.5647013187408 617.87885427475 2558.00008773804 177 178 173
-92.3958420753479 616.437315940857 2552.00004577637 173 174 169
-85.3932946920395 615.96143245697 2549.99995231628 167 168 163
-78.3090740442276 614.760339260101 2545.00007629395 160 161 155
-71.3079199194908 614.041686058044 2542.00005531311 160 161 155
-64.3482133746147 613.564133644104 2539.99996185303 157 158 152
-57.4670508503914 613.81059885025 2540.99988937378 158 157 152
-50.5802929401398 614.056587219238 2542.00005531311 159 158 153
-43.687965720892 614.301979541779 2542.99998283386 160 159 154
-36.8045419454575 614.788413047791 2545.00007629395 165 166 161
-29.9453679472208 615.998923778534 2549.99995231628 162 163 158
-23.0769868940115 617.692112922668 2556.99992179871 171 172 167
-16.1452572792768 618.418455123901 2559.99994277954 150 151 146
-9.20434854924679 619.627296924591 2565.00005722046 165 166 161
-2.24493304267526 623.25131893158 2579.99992370605 174 173 171
4.81636775657535 629.532039165497 2605.99994659424 161 160 156
11.9413770735264 631.705522537231 2615.00000953674 112 111 107
19.0642904490232 632.18742609024 2617.00010299683 133 132 128
26.1580087244511 631.702363491058 2615.00000953674 139 138 134
33.2662276923656 631.699979305267 2615.00000953674 142 141 137
40.4206737875938 632.421672344208 2618.00003051758 141 140 136
47.55499958992 632.659614086151 2618.99995803833 143 142 138
54.7155067324638 633.138597011566 2621.00005149841 145 146 141
61.8395507335663 633.133828639984 2621.00005149841 143 144 139
69.0686702728271 634.094774723053 2625 138 139 134
76.2903243303299 634.813547134399 2628.00002098084 139 140 135
83.528071641922 635.531723499298 2631.00004196167 152 153 148
90.7474234700203 636.007726192474 2632.99989700317 150 151 146
97.9774072766304 636.483252048492 2634.99999046326 140 141 136
105.297788977623 637.441158294678 2638.99993896484 150 151 146
112.639635801315 638.39852809906 2642.99988746643 161 162 157
120.27495354414 640.804708003998 2653.00011634827 166 166 164
127.82010436058 642.485499382019 2660.00008583069 167 167 165
135.961443185806 646.822512149811 2677.99997329712 182 184 181
144.200220704079 651.158928871155 2696.00009918213 190 192 189
153.154641389847 658.151209354401 2724.99990463257 200 202 199
162.030577659607 664.17670249939 2750 206 208 205
171.288445591927 671.167492866516 2779.00004386902 209 211 208
-114.762738347054 617.884635925293 2586.99989318848 175 177 172
-107.06602036953 614.07208442688 2571.00009918213 183 185 180
-99.5727404952049 610.975444316864 2558.00008773804 178 179 174
-92.2584906220436 608.594655990601 2548.00009727478 166 167 162
-85.2997228503227 608.362913131714 2546.99993133545 168 169 164
-78.2846435904503 607.652962207794 2543.99991035461 158 159 153
-71.2856575846672 606.942534446716 2540.99988937378 158 159 153
-64.2774403095245 605.992615222931 2536.99994087219 158 159 153
-57.4264973402023 606.475293636322 2539.00003433228 159 158 153
-50.5844168365002 607.196271419525 2542.00005531311 159 158 153
-43.7087081372738 607.677817344666 2543.99991035461 159 158 153
-36.8075482547283 607.920050621033 2545.00007629395 163 164 159
-29.9595650285482 609.356045722961 2551.00011825562 162 163 158
-23.0788700282574 610.791265964508 2556.99992179871 172 173 168
-16.1654986441135 612.226188182831 2562.99996376038 149 150 145
-9.22304484993219 613.899290561676 2569.9999332428 155 156 151
-2.25120782852173 617.960572242737 2586.99989318848 172 171 167
4.82230680063367 623.215675354004 2608.99996757507 129 128 124
11.9560537859797 625.36484003067 2618.00003051758 119 118 114
19.0731342881918 625.36358833313 2618.00003051758 135 134 130
26.1901598423719 625.361740589142 2618.00003051758 139 138 134
33.3325564861298 625.836968421936 2619.99988555908 141 140 136
40.5166186392307 626.789450645447 2624.00007247925 135 136 131
47.6678311824799 627.02476978302 2625 149 150 145
54.7826029360294 626.781702041626 2624.00007247925 144 145 140
61.8917718529701 626.538038253784 2622.99990653992 138 139 134
69.0742880105972 627.010405063629 2625 145 146 141
76.3545855879784 628.198862075806 2630.00011444092 147 148 143
83.6300849914551 629.147827625275 2634.0000629425 150 151 146
90.8926576375961 629.857361316681 2637.00008392334 145 146 141
98.1340706348419 630.327343940735 2638.99993896484 145 146 141
105.465918779373 631.274580955505 2642.99988746643 156 157 152
112.819202244282 632.221102714539 2647.0000743866 162 163 158
120.329953730106 633.883595466614 2654.00004386902 162 162 160
127.830356359482 635.306715965271 2660.00008583069 164 164 162
135.819986462593 638.878643512726 2674.99995231628 180 182 179
143.783792853355 641.972243785858 2687.99996376038 187 189 186
152.548551559448 648.169994354248 2713.99998664856 196 198 195
161.45421564579 654.366910457611 2740.00000953674 203 205 202
170.870542526245 661.995947360992 2772.0000743866 208 210 207
-114.727608859539 610.665678977966 2585.99996566772 180 182 177
-107.157938182354 607.604682445526 2572.99995422363 187 189 184
-99.580779671669 604.070842266083 2558.00008773804 177 178 173
-92.2659412026405 601.717054843903 2548.00009727478 160 161 156
-85.172675549984 600.543439388275 2542.99998283386 163 164 159
-78.1986713409424 600.077748298645 2540.99988937378 158 159 153
-71.2633952498436 599.847674369812 2539.99996185303 158 159 153
-64.3080025911331 599.380850791931 2538.00010681152 157 158 152
-57.4085563421249 599.385797977448 2538.00010681152 158 157 152
-50.5885370075703 600.334823131561 2542.00005531311 159 158 153
-43.7294580042362 601.047158241272 2545.00007629395 160 159 154
-36.8394739925861 601.522743701935 2546.99993133545 160 161 156
-29.9502611160278 602.233946323395 2549.99995231628 161 162 157
-23.0536796152592 603.180885314941 2553.99990081787 173 174 169
-16.1542054265738 604.835689067841 2561.00010871887 152 153 148
-9.23097599297762 607.434570789337 2572.00002670288 152 153 148
-2.25835433229804 612.867057323456 2595.00002861023 172 171 167
4.83748875558376 618.062734603882 2617.00010299683 114 113 109
11.9798658415675 619.479060173035 2622.99990653992 126 125 121
19.0965496003628 619.005501270294 2621.00005149841 135 134 130
26.2323170900345 619.239807128906 2621.99997901917 136 135 131
33.3861671388149 619.709670543671 2624.00007247925 137 136 132
40.5971296131611 620.887458324432 2628.99994850159 138 139 134
47.7806814014912 621.356308460236 2631.00004196167 146 147 142
54.9332164227962 621.352076530457 2631.00004196167 139 140 135
61.9911998510361 620.402634143829 2627.00009346008 136 137 132
69.106213748455 620.161116123199 2625.99992752075 150 151 146
76.3898119330406 621.336042881012 2631.00004196167 151 152 147
83.7003663182259 622.510313987732 2635.99991798401 148 149 144
90.968944132328 623.211681842804 2638.99993896484 142 143 138
98.2535630464554 623.912513256073 2641.99995994568 149 150 145
105.634048581123 625.085115432739 2647.0000743866 159 160 155
112.99879103899 626.020908355713 2651.00002288818 163 164 159
120.384961366653 626.956045627594 2654.99997138977 162 162 160
127.840608358383 628.126859664917 2660.00008583069 165 165 163
135.678514838219 630.949854850769 2671.99993133545 182 184 181
143.581300973892 633.772313594818 2684.00001525879 188 190 187
152.111008763313 638.955354690552 2706.00008964539 197 199 196
160.936653614044 644.846022129059 2730.99994659424 203 205 202
170.082658529282 651.44419670105 2759.0000629425 208 210 207
-114.95865881443 604.851543903351 2591.00008010864 193 195 190
-107.249870896339 601.125359535217 2575.00004768372 180 182 177
-99.6277332305908 597.398519515991 2559.00001525879 167 168 163
-92.3096165060997 595.071732997894 2549.00002479553 158 159 154
-85.1460695266724 593.44470500946 2542.00005531311 164 165 160
-78.1742334365845 592.98437833786 2539.99996185303 162 163 157
-71.2411105632782 592.756986618042 2539.00003433228 160 161 155
-64.3385648727417 592.762529850006 2539.00003433228 156 157 151
-57.4584528803825 593.000888824463 2539.99996185303 157 156 151
-50.6125576794147 593.705713748932 2542.99998283386 161 160 155
-43.7673814594746 594.643414020538 2546.99993133545 163 162 157
-36.8280149996281 594.413220882416 2546.0000038147 159 160 155
-29.9292113631964 594.882905483246 2548.00009727478 160 161 156
-23.0284780263901 595.585465431213 2551.00011825562 167 168 163
-16.1555204540491 597.92172908783 2561.00010871887 166 167 162
-9.24967601895332 601.658344268799 2576.99990272522 151 152 147
-2.26463074795902 607.495605945587 2601.99999809265 156 155 151
4.84712654724717 612.164974212646 2621.99997901917 105 104 100
12.0036834850907 613.56520652771 2628.00002098084 128 127 123
19.1418267786503 613.330364227295 2627.00009346008 133 132 128
26.3145007193089 614.028990268707 2630.00011444092 135 134 130
33.4652401506901 614.026486873627 2630.00011444092 139 138 134
40.6776592135429 614.957392215729 2634.0000629425 148 149 144
47.8390604257584 614.953815937042 2634.0000629425 144 145 140
55.0212077796459 615.182995796204 2634.99999046326 135 136 131
62.1142350137234 614.477872848511 2631.99996948242 141 142 137
69.243423640728 614.239156246185 2631.00004196167 154 155 150
76.5121504664421 615.167021751404 2634.99999046326 150 151 146
83.8024094700813 616.094350814819 2638.99993896484 144 145 140
91.0797268152237 616.787731647491 2641.99995994568 144 145 140
98.3358845114708 617.246985435486 2644.00005340576 156 157 152
105.682469904423 618.172526359558 2648.00000190735 162 163 158
113.007873296738 618.864059448242 2651.00002288818 163 164 159
120.258592069149 619.088172912598 2651.99995040894 161 161 159
127.754718065262 620.478868484497 2657.99999237061 165 165 163
135.587811470032 623.269557952881 2670.00007629395 184 186 183
143.699750304222 626.993358135223 2686.00010871887 189 191 188
151.785790920258 630.249559879303 2700.00004768372 196 198 195
160.360068082809 635.139048099518 2720.99995613098 202 204 201
169.04804110527 640.02788066864 2742.00010299683 207 209 206
-115.411601960659 600.162923336029 2601.0000705719 197 199 194
-107.383444905281 594.864726066589 2578.00006866455 171 173 168
-99.7915044426918 591.411828994751 2562.99996376038 160 161 156
-92.4981310963631 589.342832565308 2553.99990081787 161 162 157
-85.2869302034378 587.503969669342 2546.0000038147 165 166 161
-78.1805589795113 586.126029491425 2539.99996185303 162 163 157
-71.2749361991882 586.132049560547 2539.99996185303 161 162 156
-64.3691197037697 586.137533187866 2539.99996185303 158 159 153
-57.4857443571091 586.373209953308 2540.99988937378 158 157 152
-50.6166703999043 586.839139461517 2542.99998283386 160 159 154
-43.7365733087063 587.304532527924 2545.00007629395 161 160 155
-36.831010133028 587.538599967957 2546.0000038147 162 163 158
-29.9081522971392 587.541282176971 2546.0000038147 161 162 157
-23.0393800884485 588.928043842316 2552.00004577637 163 164 159
-16.1442197859287 590.545117855072 2559.00001525879 172 173 168
-9.2540206387639 594.930827617645 2578.00006866455 151 152 147
-2.26481538265944 600.469768047333 2601.99999809265 148 147 143
4.85491706058383 606.008231639862 2625.99992752075 112 111 107
12.0229329913855 607.392132282257 2631.99996948242 127 126 122
19.1871095448732 607.621669769287 2632.99989700317 132 131 127
26.3466611504555 607.619822025299 2632.99989700317 135 134 130
33.4934145212173 607.386589050293 2631.99996948242 140 139 135
40.7118499279022 608.306586742401 2635.99991798401 146 147 142
47.87927120924 608.303010463715 2635.99991798401 141 142 137
55.1092065870762 608.991205692291 2638.99993896484 139 140 135
62.1900856494904 608.063399791718 2634.99999046326 147 148 143
69.4069564342499 608.519554138184 2637.00008392334 151 152 147
76.6635462641716 609.205961227417 2640.00010490417 148 149 144
83.9997306466103 610.353171825409 2644.99998092651 143 144 139
91.1560356616974 610.115468502045 2644.00005340576 147 148 143
98.3810052275658 610.338509082794 2644.99998092651 158 159 154
105.690978467464 611.022531986237 2648.00000190735 161 162 157
113.059587776661 611.936748027802 2651.99995040894 162 163 158
120.449624955654 612.850368022919 2655.99989891052 162 162 160
127.909138798714 613.994181156158 2661.00001335144 167 167 165
135.750979185104 616.752445697784 2673.00009727478 186 188 185
143.711179494858 619.740903377533 2686.00010871887 190 192 189
151.741623878479 622.728586196899 2698.99988174438 197 199 196
160.137042403221 626.869261264801 2717.00000762939 202 204 201
168.629795312881 631.009161472321 2734.99989509583 207 209 206
-115.50959199667 593.594789505005 2602.9999256134 212 214 209
-107.392057776451 587.902545928955 2578.00006866455 153 155 150
-99.9163463711739 585.174322128296 2565.99998474121 155 156 151
-92.6504731178284 583.357751369476 2558.00008773804 162 163 158
-85.427813231945 581.540405750275 2549.99995231628 173 174 169
-78.2484337687492 579.722583293915 2542.00005531311 163 164 158
-71.2807103991508 579.272508621216 2539.99996185303 161 162 156
-64.3743276596069 579.27793264389 2539.99996185303 159 160 154
-57.4904009699821 579.510927200317 2540.99988937378 161 160 155
-50.6207756698132 579.971492290497 2542.99998283386 162 161 156
-43.7401235103607 580.431461334229 2545.00007629395 162 161 156
-36.8195362389088 580.434739589691 2545.00007629395 165 166 161
-29.898839071393 580.437421798706 2545.00007629395 161 162 157
-23.0412557721138 582.036018371582 2552.00004577637 161 162 157
-16.1518435925245 583.86218547821 2559.99994277954 181 182 177
-9.26554296165705 588.652729988098 2581.00008964539 150 151 146
-2.26674089208245 593.898892402649 2604.00009155273 147 146 142
4.85716108232737 599.144399166107 2627.00009346008 122 121 117
12.0284799486399 600.512146949768 2632.99989700317 126 125 121
19.1886704415083 600.510835647583 2632.99989700317 127 126 122
26.3588130474091 600.73709487915 2634.0000629425 138 137 133
33.5215926170349 600.734710693359 2634.0000629425 142 141 137
40.7306104898453 601.415932178497 2637.00008392334 140 141 136
47.9194894433022 601.640284061432 2638.00001144409 137 138 133
55.1554448902607 602.320373058319 2641.00003242493 149 150 145
62.3367428779602 602.315604686737 2641.00003242493 154 155 150
69.5968344807625 602.994501590729 2644.00005340576 147 148 143
76.8439844250679 603.444635868073 2645.99990844727 144 145 140
84.0382650494576 603.438138961792 2645.99990844727 147 148 143
91.163381934166 602.975010871887 2644.00005340576 152 153 148
98.3889177441597 603.195369243622 2644.99998092651 162 163 158
105.779312551022 604.327499866486 2650.00009536743 163 164 159
113.153927028179 605.230927467346 2654.00004386902 162 163 158
120.504625141621 605.905652046204 2657.00006484985 161 161 159
127.871289849281 606.579899787903 2660.00008583069 169 169 167
135.711014270782 609.305739402771 2671.99993133545 189 191 188
143.669098615646 612.259089946747 2684.99994277954 193 195 192
151.866123080254 615.895748138428 2700.99997520447 199 201 198
159.913912415504 618.619680404663 2713.00005912781 204 206 203
168.026491999626 621.342957019806 2724.99990463257 207 209 206
177.813276648521 629.765868186951 2762.00008392334 208 210 207
-116.31765961647 590.620100498199 2621.00005149841 212 214 209
-107.400663197041 580.93923330307 2578.00006866455 165 167 162
-100.119069218636 579.370141029358 2571.00009918213 154 155 150
-92.6941409707069 576.673686504364 2559.00001525879 164 165 160
-85.434690117836 574.65261220932 2549.99995231628 173 174 169
-78.2239511609077 572.631001472473 2540.99988937378 163 164 158
-71.2864622473717 572.411715984344 2539.99996185303 161 162 156
-64.3288418650627 571.966469287872 2538.00010681152 159 160 154
-57.4271716177464 571.971356868744 2538.00010681152 160 159 154
-50.5651533603668 572.426497936249 2539.99996185303 162 161 156
-43.6749123036861 572.655618190765 2540.99988937378 162 161 156
-36.8225239217281 573.560357093811 2545.00007629395 163 164 159
-29.9012642353773 573.563039302826 2545.00007629395 161 162 157
-23.052154108882 575.368165969849 2552.99997329712 161 162 157
-16.1594655364752 577.172696590424 2561.00010871887 181 182 177
-9.28065553307533 582.582652568817 2585.00003814697 152 153 148
-2.27214838378131 588.217377662659 2609.99989509583 147 146 142
4.86864987760782 593.400716781616 2632.99989700317 123 122 118
12.0523003861308 594.527006149292 2638.00001144409 127 126 122
19.219383597374 594.300389289856 2637.00008392334 130 129 125
26.3809636235237 594.073057174683 2635.99991798401 141 140 136
33.5243083536625 593.6199426651 2634.0000629425 142 141 137
40.7493561506271 594.5183634758 2638.00001144409 138 139 134
47.9597114026546 594.965577125549 2640.00010490417 138 139 134
55.1807917654514 595.412015914917 2641.99995994568 152 153 148
62.4125972390175 595.858037471771 2644.00005340576 155 156 151
69.68142837286 596.528828144073 2647.0000743866 145 146 141
76.9373252987862 596.973598003387 2648.9999294281 142 143 138
84.0132907032967 596.065700054169 2644.99998092651 150 151 146
91.1707133054733 595.833301544189 2644.00005340576 156 157 152
98.4340235590935 596.27640247345 2645.99990844727 162 163 158
105.867616832256 597.620248794556 2651.99995040894 162 163 158
113.205619156361 598.287582397461 2654.99997138977 162 163 158
120.695672929287 599.630236625671 2661.00001335144 166 166 164
128.073781728745 600.296378135681 2664.00003433228 179 179 177
135.721802711487 602.088510990143 2671.99993133545 191 193 190
143.46644282341 604.105412960052 2680.99999427795 193 195 192
151.709452271461 607.924342155457 2697.99995422363 199 201 198
160.044446587563 611.742496490479 2714.99991416931 203 205 202
168.224722146988 614.658653736115 2727.9999256134 204 206 203
177.440941333771 620.953857898712 2756.00004196167 210 215 211
-117.791578173637 590.886533260345 2654.00004386902 213 215 210
-107.409246265888 573.974609375 2578.00006866455 206 208 203
-100.088134407997 572.201788425446 2569.9999332428 160 161 156
-92.6653444766998 569.537758827209 2558.00008773804 177 178 173
-85.408054292202 567.541003227234 2549.00002479553 172 173 168
-78.3226042985916 566.434264183044 2543.99991035461 164 165 159
-71.3764056563377 566.217660903931 2542.99998283386 162 163 157
-64.3847212195396 565.555155277252 2539.99996185303 159 160 154
-57.4091784656048 564.892053604126 2536.99994087219 160 159 154
-50.5294166505337 565.119087696075 2538.00010681152 162 161 156
-43.661255389452 565.568268299103 2539.99996185303 161 160 155
-36.8255004286766 566.68484210968 2545.00007629395 162 163 158
-29.9154333770275 566.910147666931 2546.0000038147 161 162 157
-23.0540204793215 568.47095489502 2552.99997329712 160 161 156
-16.173392534256 570.699214935303 2562.99996376038 180 181 176
-9.29935928434134 576.712250709534 2589.99991416931 154 155 150
-2.27842689491808 582.724869251251 2617.00010299683 143 142 138
4.87829092890024 587.400794029236 2638.00001144409 123 122 118
12.0715526863933 588.290810585022 2641.99995994568 128 127 123
19.2428063601255 587.844252586365 2640.00010490417 134 133 129
26.4131259173155 587.619662284851 2638.99993896484 143 142 138
33.5652120411396 587.171971797943 2637.00008392334 141 140 136
40.7526567578316 587.39161491394 2638.00001144409 135 136 131
47.9454100131989 587.61066198349 2638.99993896484 150 151 146
55.1643632352352 588.051855564117 2641.00003242493 156 157 152
62.464851886034 589.16038274765 2645.99990844727 154 155 150
69.792352616787 590.26837348938 2651.00002288818 143 144 139
77.0306438207626 590.485095977783 2651.99995040894 142 143 138
84.0835720300674 589.365363121033 2647.0000743866 154 155 150
91.2470072507858 589.135706424713 2645.99990844727 160 161 156
98.5163226723671 589.573383331299 2648.00000190735 161 162 157
105.955943465233 590.901076793671 2654.00004386902 160 161 156
113.299950957298 591.560363769531 2657.00006484985 161 162 157
120.750665664673 592.664182186127 2661.99994087219 170 170 168
128.180131316185 593.544781208038 2665.99988937378 181 181 179
135.783389210701 595.0927734375 2673.00009727478 192 194 191
143.477827310562 596.862733364105 2680.99999427795 194 196 193
151.608988642693 600.19052028656 2696.00009918213 198 200 197
159.762308001518 603.294849395752 2710.00003814697 203 205 202
167.744591832161 605.508089065552 2720.00002861023 203 205 202
176.553413271904 610.392093658447 2742.00010299683 209 214 210
-107.459478080273 567.2287940979 2578.9999961853 216 218 213
-99.940337240696 564.377784729004 2565.99998474121 168 169 164
-92.5278440117836 561.746120452881 2553.99990081787 182 183 178
-85.2138325572014 559.333741664886 2542.99998283386 171 172 167
-78.3288925886154 559.560239315033 2543.99991035461 164 165 159
-71.4102014899254 559.566259384155 2543.99991035461 162 163 157
-64.4152462482452 558.911859989166 2540.99988937378 159 160 154
-57.3685392737389 557.596981525421 2535.00008583069 160 159 154
-50.4737570881844 557.60133266449 2535.00008583069 161 160 155
-43.5960181057453 557.825088500977 2536.00001335144 161 160 155
-36.7995239794254 559.368014335632 2542.99998283386 162 163 158
-29.9178492277861 560.0306391716 2546.0000038147 163 164 159
-23.0558831244707 561.572551727295 2552.99997329712 161 162 157
-16.1936338990927 564.433693885803 2565.99998474121 179 180 175
-9.31806582957506 570.813715457916 2595.00002861023 155 156 151
-2.28557642549276 577.413260936737 2625 162 163 158
4.88608190789819 581.152498722076 2641.99995994568 123 122 118
12.0816668495536 581.591784954071 2644.00005340576 131 130 126
19.258938729763 581.150591373444 2641.99995994568 138 137 133
26.4252703636885 580.708861351013 2640.00010490417 143 142 138
33.593375235796 580.486416816711 2638.99993896484 139 138 134
40.7868400216103 580.703437328339 2640.00010490417 141 142 137
48.0037853121758 581.139743328094 2641.99995994568 155 156 151
55.2105829119682 581.355571746826 2642.99988746643 152 153 148
62.5170916318893 582.45062828064 2648.00000190735 145 146 141
69.7453022003174 582.665324211121 2648.9999294281 144 145 140
76.9787430763245 582.879424095154 2650.00009536743 149 150 145
84.0903073549271 582.213044166565 2647.0000743866 160 161 156
91.2887901067734 582.206070423126 2647.0000743866 163 164 159
98.5613986849785 582.638323307037 2648.9999294281 156 157 152
105.924472212791 583.509981632233 2653.00011634827 155 156 151
113.266319036484 584.161043167114 2655.99989891052 159 160 155
120.760262012482 585.471391677856 2661.99994087219 168 168 166
128.286480903625 586.781144142151 2667.99998283386 175 175 173
135.895743966103 588.310182094574 2674.99995231628 186 188 185
143.489152193069 589.618742465973 2680.99999427795 189 191 188
151.283472776413 591.586410999298 2690.00005722046 194 196 193
159.480065107346 594.872951507568 2704.99992370605 202 204 201
167.387694120407 596.839427947998 2713.99998664856 202 204 201
176.245242357254 601.883888244629 2736.99998855591 206 211 207
-107.343010604382 559.607267379761 2575.99997520447 215 217 212
-99.7535362839699 556.356966495514 2561.00010871887 176 177 172
-92.4627557396889 554.409384727478 2552.00004577637 185 186 181
