ply
format ascii 1.0
comment KinectMotionCapture
element vertex 798
property float x
property float y
property float z
property uchar red
property uchar green
property uchar blue
end_header
243.512082161067 298.12839182822 2888.45536714201 23 28 22
226.161939774844 297.288078224786 2893.16531301867 36 41 34
204.863802702369 296.329559901376 2901.18844666272 36 41 34
190.843419036383 295.597685718453 2903.37231396947 32 35 28
177.663560108178 294.89356883509 2904.93030508631 31 34 27
169.292547229889 294.337077637416 2902.56456483156 33 36 29
145.075864234144 293.303399110131 2913.41204254354 37 40 33
140.72670604108 292.87110180695 2907.78698202429 37 40 33
116.655086289759 291.849161017797 2918.73967863192 35 38 31
111.555234212993 291.396357398321 2913.80506237941 32 35 28
107.234048622287 290.966325254393 2908.20029127006 31 34 27
100.55757052224 290.466450540632 2904.59287447746 31 34 27
85.3071141881174 289.715546344167 2908.35530720068 29 32 25
77.88408742968 289.195507747978 2905.44163584864 27 30 23
83.6496692711388 289.058421579127 2891.09380745458 25 28 21
90.1217861801626 288.938250187717 2876.02291597966 28 31 24
94.2096795191145 288.745904713277 2862.92868874561 34 37 30
94.3955095196935 288.43906613531 2853.18096469331 29 32 25
63.1156112834788 287.236332851059 2871.25856036838 23 26 19
57.2041223004987 286.758102833573 2866.97077351787 26 29 22
58.1513737844128 286.472616109865 2856.53979719351 26 29 22
19.5385476767669 285.079003542042 2881.65187984401 23 26 19
25.8233298271691 284.943665280939 2866.44510858146 26 29 22
13.1467926030515 284.280263414905 2868.36846904961 32 35 28
18.5904197748323 284.117103638834 2853.78682229966 30 33 26
16.4549056037373 283.743160639433 2846.06137078488 18 21 14
17.292385545582 283.448776529124 2835.55077366001 16 19 12
11.3679464476042 282.969478737957 2831.25359358629 15 18 11
4.69787361097218 282.470088382573 2827.65082255921 18 21 14
0.258203169513749 282.030434306926 2821.96011051597 16 19 12
7.65197245361726 281.904308379216 2805.08694662046 16 19 12
-16.7687448214089 280.934556095101 2818.25720706353 17 20 13
-24.1569354031528 280.417287341889 2815.36880322921 19 22 15
-30.0703718041633 279.938854753963 2811.07960362776 21 24 17
-33.790839059856 279.517127802063 2804.67531149765 23 26 19
-44.817373538617 278.906688153787 2805.32469469737 24 27 20
-23.0995331386457 279.134624025269 2774.13464959128 25 28 21
-28.3675017432075 278.668154507205 2769.07838733654 28 29 24
-43.0344308075874 277.964367476841 2773.2637756114 27 29 24
-44.6829467378416 277.589523608077 2764.65631832218 24 29 22
-34.8679992509613 277.49827208656 2744.59805382829 26 31 24
-34.4587721666101 277.169165780372 2733.77683119289 24 29 22
-34.8042495941501 276.819239634059 2723.64373280026 24 27 18
-42.3015109773108 276.293082653702 2720.67621619369 28 31 22
-47.663096649345 275.818994569733 2715.55205033932 37 34 25
41.6989212520358 277.254072528457 2602.48152155508 31 24 14
43.7374047101815 276.936020706548 2589.13632774065 42 29 20
41.518841760591 276.514976978523 2580.11510271328 51 34 24
37.1777281363648 276.042922117368 2573.26034138758 56 38 26
26.5572610224152 275.424993557301 2572.96901692394 44 20 10
13.1865905715833 274.745510681364 2575.62414057822 45 16 8
3.31760356031241 274.148116477391 2574.64235298274 88 55 48
-1.70416484793789 273.661206090501 2568.52942633825 115 82 75
-5.36098441985922 273.204224096137 2560.93546961544 130 102 98
275.577753757159 292.06842946657 2882.02652697633 57 62 56
260.057564023997 290.983554690947 2875.71085058774 33 38 32
228.189469333429 289.780021135765 2892.12671494056 36 41 34
196.460567953391 288.58777251582 2908.64383513216 34 39 32
184.861705451376 287.949667378971 2908.87818540259 40 43 36
165.318345161528 287.098611561543 2915.70357076851 34 37 30
157.777192159611 286.573909389546 2912.70453803672 41 44 37
137.55530559611 285.710945443094 2920.27302153858 53 56 49
124.529006265285 285.043332961573 2921.94281066369 38 41 34
121.793943717835 284.649590066507 2915.01767007471 23 26 19
95.4461352061529 283.634875213711 2928.02574983909 29 32 25
92.7399599938248 283.243472164889 2921.12156214761 28 31 24
102.528864522304 283.175283536057 2903.51490311091 28 31 24
81.0331255007308 282.295251724667 2912.63022506387 28 31 24
87.621611232179 282.140048538807 2897.64351438882 27 30 23
87.9348229988661 281.820986542882 2887.98777570619 21 24 17
90.5317075931391 281.557745331708 2876.28269304795 23 26 19
87.6814808694117 281.154674254261 2869.27402024078 29 32 25
78.6613226698356 280.596276882919 2867.67272766325 26 29 22
67.3575443112759 279.982073001886 2868.12111179124 21 24 17
63.7287930364296 279.558993169789 2861.78300520334 24 27 20
44.0765211947634 278.742175741798 2869.76494279148 26 29 22
53.3878218186636 278.635301004538 2851.81186253901 25 28 21
-5.60478109255436 276.870783567745 2895.49667615688 30 33 26
-15.9230570180895 276.293351173907 2895.42462165587 30 33 26
1.66538545117767 276.383309121778 2869.88623433715 27 30 23
17.6136840661782 276.426529717358 2845.62900273758 17 20 13
16.9520864618606 276.071568299093 2836.50175320701 15 18 11
2.81327065396164 275.399952132009 2839.83540285158 15 18 11
-11.2780781171606 274.732170032396 2843.20318730739 15 18 11
-19.3816781871106 274.204957257164 2841.03144860526 14 17 10
-20.0697075951042 273.847852934406 2831.8850272419 18 21 14
-12.6699035283255 273.672248124711 2815.01598746885 20 23 16
-29.6369487360104 272.94376154126 2821.23954619806 20 23 16
-20.1240274394845 272.810161894358 2802.19745307784 20 23 16
-31.1879201587821 272.215381390292 2802.81983380838 20 23 16
-24.7177213110994 272.007528723629 2786.5117766607 20 23 16
-15.4151478576618 271.856889255694 2767.31711158993 20 23 16
-18.5301265274864 271.43236483372 2760.11640578153 23 24 19
-42.6230548306952 270.557219428262 2773.5244721711 22 24 19
-45.711577443555 270.134836608328 2766.34295577063 18 23 16
-30.1423415678421 270.104294429298 2740.57552324955 20 25 18
-33.3256627026444 269.674231521803 2733.32524647627 18 25 17
-37.9553944493276 269.213112773044 2727.49635173694 21 24 15
-56.8294888986216 268.459313755011 2736.0427259246 23 26 17
-33.7642727414933 268.562328697272 2702.12338514553 27 24 15
11.0452192030479 269.091921514657 2645.68030883326 26 22 11
44.9593748898671 269.384824073161 2599.86479369004 30 21 12
48.3967415134678 269.060480022338 2585.06328052909 45 32 23
46.1658775306595 268.621445575193 2576.03304709369 40 26 15
38.3195790470001 268.072007580019 2572.81268259824 52 36 23
30.4811238448668 267.523193452871 2569.59771254794 49 27 14
15.7098339972457 266.843381114671 2573.70786337743 45 18 7
5.14151524797546 266.245674960482 2573.45444480672 85 52 43
0.805410687307884 265.765277387775 2566.6032724006 112 79 70
0.579597022390299 265.35947903594 2555.32130671329 131 104 97
253.684444898298 283.521923257058 2890.81480986545 27 32 26
255.643732554668 283.222104106205 2879.88237093466 25 30 24
241.475326127219 282.531815095326 2881.95914401976 21 26 19
211.31032951096 281.461703329856 2897.14051753886 20 25 18
181.276139373294 280.402185457547 2912.41647464897 21 24 17
153.765450732886 279.409697051459 2925.81670700148 26 29 22
151.824767287113 279.02294814115 2918.23213309588 28 31 24
126.065119285677 278.080725463079 2930.43191352406 22 25 18
128.890563549824 277.805269875943 2918.89245678 21 24 17
107.213594238576 276.964771218435 2927.87660127155 25 28 21
91.1297137413056 276.256753618238 2932.27012089102 27 30 23
82.9463475937588 275.730720975254 2930.04056403456 26 29 22
79.4686821974162 275.31107277227 2923.81200020619 25 28 21
97.8183632128924 275.377132036084 2898.8253299037 24 27 20
93.4730537427688 274.933000324706 2893.20299946224 22 25 18
84.4641660953251 274.385890880686 2891.60993432404 22 25 18
79.3390250234474 273.924387493558 2886.65723595027 21 24 17
74.2087279023114 273.462455583812 2881.70050319879 24 27 20
72.9183169628089 273.082573282664 2873.35232386202 23 26 19
58.5633782305703 272.423032555486 2876.52936255093 19 22 15
35.8444519553869 271.589777667112 2887.22828015238 20 23 16
64.3075894536835 271.833819745859 2852.28257556432 22 25 18
37.8311097058384 270.925207143606 2866.43295286164 26 29 22
-9.75458131668772 269.589127974086 2899.8623231214 29 32 25
-4.18660561339812 269.352596975714 2885.37044763596 26 29 22
2.82168081738465 269.141135312995 2869.45273785737 22 25 18
29.2931951007351 269.315410590052 2835.53298297326 13 16 9
31.5968396208404 268.997656799704 2823.61504821024 14 17 10
0.231395229057352 268.013680197048 2842.86677432641 20 23 16
-5.65884620299695 267.536021866452 2838.59439317473 19 22 15
-10.8075799238114 267.072631482572 2833.62458242824 17 20 13
-23.3666170187676 266.466999412984 2835.63311938599 25 28 21
-23.3361673388934 266.102528793277 2825.77246490557 22 25 18
-19.6614985231625 265.80423034149 2812.37814572327 22 25 18
-34.3927168725435 265.160079228642 2816.51752586814 22 25 18
-5.17015257975739 265.32812287187 2778.41626218168 22 25 18
-17.7414873587369 264.721523114299 2780.41617386132 23 26 19
-17.9101721567414 264.340911422941 2770.41078631343 23 26 19
-18.8404131350077 263.944424528147 2761.08858113323 26 27 21
-34.9832006221527 263.277555806377 2766.67464287498 25 27 22
-55.3896626782251 262.540165460982 2776.58062193073 20 25 18
-39.7847955442587 262.429574220567 2750.83831932787 22 27 20
-28.6111005689025 262.234879581565 2729.2944426673 21 29 18
-41.1087025117183 261.634289879152 2731.34783529553 18 24 14
-45.0252171139636 261.179139471651 2724.80096048664 22 25 16
-33.3435243983933 260.979779441425 2702.38998749182 23 23 13
12.8916966168826 261.334909567647 2644.50949566316 26 22 13
55.9783232488873 261.618192316763 2589.28659764443 29 22 12
59.3848839208779 261.252355241773 2574.46224794435 33 24 15
54.3183993112613 260.749860045137 2568.31682663107 41 33 22
45.0503868449665 260.181859885385 2566.5358105661 33 25 12
38.5845383237657 259.657629771533 2561.84592365616 39 23 10
20.3161423677956 258.956068040959 2569.59631509382 49 27 14
10.4256407071164 258.383483392219 2568.59935121215 65 37 26
4.00521625208716 257.862955538242 2563.94241192985 95 67 56
5.83468719694658 257.461016201488 2550.44498110017 120 96 86
225.801543967344 275.327774715289 2913.78991622143 29 34 28
218.160863803717 274.804782164443 2910.71874278567 26 31 25
253.961058514395 275.179718101088 2872.44635071917 31 34 27
220.550442382138 274.122386377452 2890.2151166364 32 35 28
191.287635591039 273.158390542644 2904.81571320532 36 37 31
182.89210499962 272.622779148545 2902.43230529742 36 37 31
176.100059173704 272.119975822239 2898.74109616 37 38 32
139.164009748828 271.019840653702 2920.12975553909 24 25 19
131.670991553312 270.508816903527 2917.16568603961 27 28 22
110.773556995196 269.737128546121 2925.47994934132 27 28 22
97.8260111897673 269.124047976553 2927.20710479256 29 30 24
81.778807160354 268.45404459413 2931.6274045158 27 28 22
96.3010496446355 268.36723060171 2910.04114010732 25 26 20
97.4447384056205 268.021877215998 2899.75255659786 25 26 20
100.882244243555 267.716688491581 2887.42131464026 24 25 19
79.4400194947378 266.949466747983 2896.57600163683 21 24 17
68.1415996916406 266.372904764357 2897.02846095967 20 23 16
69.2157141791769 266.021895393232 2886.6891184489 23 26 19
70.2491022099339 265.667594282799 2876.32053026418 23 26 19
57.4356836349406 265.065399961755 2878.14467807115 21 24 17
50.0143047446659 264.560202198178 2875.23257094267 23 26 19
27.3479294478611 263.790982036116 2885.97020269537 24 27 20
23.0279856107316 263.342841603494 2880.36594556061 28 31 24
6.56612182026572 262.687880366923 2885.72076239442 29 32 25
10.5780778821023 262.380676453925 2872.57090482697 22 25 18
20.5625873356632 262.168904889283 2853.8702800698 17 20 13
25.9438981707083 261.875511098205 2839.24279921649 17 20 13
20.0163279180794 261.394247614888 2834.94333934533 18 21 14
12.5929732043879 260.888923393476 2832.02979925975 20 23 16
-11.213738000742 260.124524515489 2844.41087485569 19 22 15
-2.97334644658509 259.868552964319 2826.9160456657 20 23 16
-6.66800008614121 259.422546753371 2820.53004892057 22 25 18
-7.42312623271491 259.020467642811 2811.33475989332 21 24 17
-33.9789771091725 258.22763147955 2826.66322242533 23 26 19
-25.9122267446135 257.957579896653 2809.04215123616 23 26 19
-26.7125141685394 257.551856221431 2799.81410537474 22 25 18
-23.1667990739177 257.206875989439 2786.32606843557 21 24 17
-24.0441917645282 256.794909661702 2777.04209570056 22 25 18
-26.404057039231 256.359967540843 2769.1536983103 25 26 18
-41.8015072694089 255.742839414274 2774.04499177561 25 28 21
-39.1221691189374 255.376250345194 2761.16412135343 20 26 16
-31.4663164906908 255.072906795708 2743.24501299584 21 27 17
-21.7459578245835 254.79113257597 2723.11721401212 23 29 19
-27.8366508455692 254.296757947398 2718.69943655442 22 28 18
-38.912506104769 253.738447412754 2719.31333011208 20 23 14
-16.5976245421726 253.602926000495 2686.08417864507 21 22 14
59.2422209705008 253.675035081428 2586.67169762966 28 25 16
57.0165097011137 253.202414379033 2577.64502938517 28 25 16
56.8660449614766 252.752251865861 2566.41775550562 31 28 21
46.8921187054447 252.186113121265 2565.36005352716 32 29 20
41.8149391070495 251.676772929008 2559.20684451702 32 19 10
23.5351774067007 251.020534026338 2566.94922625308 42 24 14
14.3273660842502 250.467954680504 2565.2119293915 46 22 12
6.51594697807667 249.931400151842 2562.01691495845 82 55 46
6.27748791697869 249.474168771197 2550.72552183515 110 88 77
225.408080995206 267.808788048452 2914.70163799541 34 39 33
200.91157875876 266.229460954303 2906.81677760453 32 35 28
190.100892424665 265.659663797466 2906.38780296378 32 33 27
162.986279030634 264.434028940615 2910.19280131765 32 33 27
153.85415380755 263.897669406107 2908.51074755829 39 40 34
133.660588742592 263.183172279041 2916.10051393257 28 29 23
108.810154020376 262.399149547886 2927.72487267812 31 32 26
102.163343914952 261.910296407807 2924.13931315144 26 27 21
101.013232831058 261.507728318714 2915.89272526616 24 25 19
102.183588749085 261.139272881358 2905.62306185449 24 25 19
105.65438784014 260.803314566674 2893.31609350956 24 25 19
106.737312823457 260.427751977624 2882.98301354832 23 24 18
97.6921328855589 259.898444292423 2881.36372952368 20 23 16
78.6045941772113 259.222356575494 2888.52043592967 19 22 15
75.0220311445879 258.776575800169 2882.21569719951 23 26 19
69.1172198287289 258.296536202462 2877.93274196652 24 27 20
69.3487116538307 257.903287198755 2868.21768145945 23 26 19
64.1892255694274 257.432342847683 2863.2400378328 24 27 20
18.1060330802163 256.003916716929 2885.40658938862 29 32 25
22.892519041557 255.671932795984 2871.58304292978 26 29 22
30.6414742899395 255.374742498192 2854.96649444507 16 19 12
22.4759896210927 254.865490210977 2852.74998524993 15 18 11
20.3370380469248 254.434104180921 2845.02175092803 21 24 17
16.6758515130154 253.981987631054 2838.65998425193 22 25 18
10.0108341812386 253.491716356002 2835.06092425814 24 27 20
7.82022173524721 253.056158288149 2827.29521873556 23 26 19
-5.5385604700029 252.485318318097 2829.95951073051 23 26 19
2.62905457388696 252.170724250661 2812.41133288348 24 27 20
-20.3096088319499 251.490721316268 2824.18706570707 22 25 18
-28.4200440430422 250.986018264784 2822.01048608146 21 24 17
-11.5552818062887 250.760386409668 2795.94588899351 20 23 16
-16.0563987407767 250.29158810957 2790.2104854549 22 25 18
-10.3500774979695 249.931493386057 2774.58323709967 23 26 19
-15.6294529575831 249.450963614156 2769.51863455432 23 26 19
-35.4219783924794 248.820751135281 2778.63458666259 24 25 17
-41.3914108046147 248.335653872552 2774.30476059977 25 28 19
-47.3619272131955 247.850481862982 2769.97414834618 20 26 16
-28.8950682266118 247.600693001327 2741.36571313503 21 27 17
-29.2101774100044 247.163250968792 2731.25418604545 21 27 17
-34.5621164983207 246.676901454123 2726.1366566219 18 24 14
-30.6615089430022 246.273164571651 2711.67055455806 15 21 11
-19.0142441944534 245.93263210312 2689.234203406 21 24 15
-36.4960589049128 245.335865130318 2696.32000407489 23 23 15
62.3832005170151 245.236760966569 2572.84926512511 32 32 24
59.4141894977387 244.738248485008 2564.51896298839 58 55 48
48.7338814921991 244.179444702471 2564.18455806403 42 38 29
44.3494431653884 243.668912188902 2557.29819483992 32 19 11
30.2275984718841 243.087896652499 2560.64431164053 37 18 11
18.9224439470959 242.529856693326 2561.09198263759 48 24 14
11.0975311934252 241.997234977185 2557.88720629197 63 36 25
7.40771693888442 241.491761296702 2550.26937987666 120 98 87
193.722016692412 260.247323147994 2949.74457218547 33 40 33
263.036358463307 260.836696863118 2885.12805672142 33 38 32
260.944272139473 260.394809999221 2877.43374283084 29 34 28
202.506817621639 259.169637511853 2915.34824963201 27 30 23
172.438114303748 258.352046022788 2930.60041280605 29 32 25
164.106110193114 257.836857662344 2928.26316004649 30 31 25
154.190521890695 257.301411098273 2927.24790395754 33 34 28
152.254184797075 256.872169663902 2919.66656005939 30 31 25
138.390428227925 256.286997801529 2921.9647127674 44 45 39
135.650070745258 255.846624501763 2915.03549757469 26 27 21
113.948756660212 255.166792647232 2924.00280782921 30 31 25
113.585549131698 254.75690628549 2915.09129494986 25 26 20
117.899771946187 254.401793005286 2902.16060880874 24 25 19
111.198531480428 253.910650281028 2898.53528547802 24 25 19
109.9641455732 253.484192531166 2890.22748396896 24 25 19
112.593968908041 253.100627746775 2878.54566984409 23 24 18
111.294058486886 252.668833775621 2870.1903411875 19 22 15
88.2969718616016 251.992193251001 2880.68870217458 18 21 14
76.1996964307112 251.442147537077 2881.79722494374 22 25 18
71.8318458299589 250.977962654955 2876.15815790534 23 26 19
78.1967495615925 250.626784128215 2861.00837521341 21 24 17
99.7930243844083 250.428827174701 2832.19870960742 23 26 19
54.091364798261 249.533997452907 2863.29039063643 24 27 20
25.3534712341956 248.824739153898 2879.50783493087 28 31 24
18.744092191096 248.341134469454 2875.94943656455 23 26 19
37.0978016014223 248.096573645429 2849.72907655027 12 15 8
26.6518473009856 247.572342661374 2849.56473474614 14 17 10
16.2312163094902 247.050185551687 2849.41876085366 22 25 18
11.834041679017 246.583686706937 2843.75842447964 23 26 19
6.6793093266404 246.109871423246 2838.78421239294 25 28 21
-5.18904454562152 245.578559474993 2840.0587801756 24 27 20
3.04195321484979 245.216398601488 2822.55630887722 23 26 19
-0.667227138067217 244.751640704525 2816.15998090359 24 27 20
-4.39056688260786 244.285727247547 2809.75308815463 22 25 18
-21.3862394081004 243.717425086257 2815.95641121888 19 22 15
-14.0833784534249 243.334119630693 2799.0163377473 19 22 15
-16.378671497892 242.875833210597 2791.17433742428 22 25 18
-6.28798234147743 242.502158236698 2771.31453342079 23 26 19
-2.84528520197291 242.076357642549 2757.7517016734 24 27 20
-3.81392427107308 241.617452578968 2748.40105026035 24 25 17
-45.3218244749194 240.901212829201 2778.82867167067 23 26 17
-39.0197575636941 240.490886923591 2762.39800100429 19 25 15
-41.4209947708315 240.024108483924 2754.47945096006 20 26 16
-39.5448253398647 239.579540580764 2742.25069356665 19 25 15
-47.0072297628847 239.081140267198 2739.30888058438 21 27 17
-29.5307018860125 238.711229553431 2711.21696140542 18 24 14
-34.214210030842 238.22175293906 2705.34893936925 22 25 16
-32.5366619090992 237.761130991061 2692.97641031012 23 23 15
8.61042280433999 237.470897617648 2640.04999635513 27 27 19
51.571291364338 237.165353550196 2584.73265662526 32 29 22
57.0539000272756 236.688593845766 2567.7076066863 58 54 45
50.5760263350004 236.16187962737 2563.00898989074 46 37 28
42.703225010019 235.63031286862 2559.76950344135 40 23 15
30.6704064695662 235.086104989759 2560.92478195575 37 17 8
22.8264168378707 234.556933910292 2557.70619385228 54 27 16
15.6805241715219 234.030280955301 2553.7583527857 63 36 25
8.53802390793801 233.503936428664 2549.81297250653 111 91 80
160.864807746766 252.506195789395 2976.52650539844 33 40 33
231.901062450078 252.86637721412 2910.687007204 31 36 30
212.14236008127 252.227682388805 2917.35736215154 26 31 25
165.900082393652 251.31657159923 2945.58727633324 25 28 21
148.768761796538 250.720531681301 2950.45708808909 29 32 25
153.308224332136 250.347577175676 2937.6892981823 28 29 23
156.991711694777 249.962000231333 2925.53596629928 32 33 27
151.069681330643 249.479385758334 2921.24051556848 32 33 27
134.033451207498 248.891085725571 2926.1795941193 38 39 33
117.849625925103 248.315072040127 2930.50103577994 23 24 18
125.404388009166 247.959234302339 2914.97874657149 25 26 20
124.224050784669 247.52015900653 2906.71035667266 24 25 19
108.101080209625 246.949097634982 2911.0759382938 23 24 18
110.039402348516 246.535576726113 2900.12772509014 24 25 19
113.494162246795 246.131346241108 2887.80878378008 25 26 20
108.33248966296 245.653523093519 2882.82922579384 24 25 19
102.389132274882 245.169154755815 2878.51830576458 18 21 14
95.6704448794028 244.678763505389 2874.88063306556 16 19 12
84.3240221229373 244.154113470586 2875.29855696732 19 22 15
66.8500411627218 243.587266845472 2881.15515141221 20 23 16
87.8148849637252 243.295662226578 2853.12231026841 18 21 14
91.0235253793945 242.87139334458 2840.6245557175 20 23 16
70.5224057812939 242.286477477741 2849.22735670801 25 28 21
11.2979612320681 241.460309558291 2892.74885630004 26 29 22
-5.1327173270812 240.921387922111 2898.12686773701 13 16 9
32.9650951343874 240.711701801482 2854.10659233345 10 13 6
19.5142789531917 240.187063467006 2856.70440095553 13 16 9
19.6444045380493 239.740560408291 2846.91529367834 22 25 18
7.73953684807793 239.227648003934 2848.16377948963 23 26 19
4.09366911706499 238.759190963326 2841.81303497286 25 28 21
4.90654454072148 238.311236085525 2831.28382364146 24 27 20
7.16532535299796 237.866842787004 2819.33272476513 22 25 18
19.0089880168323 237.46068344598 2798.27345086935 22 25 18
13.7512089162017 236.97522022427 2793.2241845196 22 25 18
1.12063835693244 236.460410654098 2795.18161985335 18 21 14
-23.2235189062522 235.905371990104 2808.40948088912 18 21 14
-22.5602579750417 235.44533774374 2797.77174963483 22 25 18
-13.9066386347464 235.007897972322 2779.3402278072 23 26 19
-3.88636408901677 234.56755566725 2759.42904106653 22 25 18
-17.9121269775644 234.053442200712 2762.84514849021 23 24 16
-33.3375982132438 233.539575998662 2767.71694644966 21 24 15
-9.03601428928491 233.120267717497 2733.45648722789 16 22 12
-35.9754954364844 232.582438294841 2749.74317627818 20 26 16
-7.58872268800825 232.153246888124 2711.03329882833 21 27 17
-25.8684065874535 231.635459377939 2718.77643824752 21 27 17
-21.2751837853475 231.153071443316 2703.57669826791 19 25 15
-21.0109774967096 230.660809294619 2692.64981502332 22 25 16
-9.45847549973644 230.174185612137 2670.14373387249 22 22 14
27.3930438537904 229.692148656886 2621.51321012248 25 25 17
48.4941885502748 229.183766001075 2588.63734291229 31 28 19
64.5119928280207 228.66117469823 2560.72222713753 59 50 41
55.9143992670124 228.132651799061 2558.19237537536 45 31 22
42.4498265372035 227.607533808766 2560.78020915222 42 22 13
29.7231300674916 227.085433588285 2562.66792383348 42 19 11
19.1129530930452 226.564423502056 2562.38454982275 54 27 16
14.0514156975997 226.03848794553 2556.24230164354 61 34 23
7.60357765883501 225.513900762982 2551.56546910806 104 84 73
192.913029792198 245.488326823365 2951.55343634922 34 41 34
233.125211127997 245.351442294174 2910.30131744914 29 34 28
198.833883682823 244.652324932211 2928.66878247291 29 32 25
193.67205501891 244.171214432524 2923.68909468981 25 28 21
174.055968368282 243.590098212507 2930.46312646202 27 30 23
158.516091572591 243.041750182347 2934.01677810303 28 29 23
166.179856494333 242.647664763674 2918.57331364581 31 32 26
153.864729382696 242.122543703365 2919.5240373307 35 36 30
133.644074812798 241.552034961506 2927.0951897513 31 32 26
121.419266851661 241.034264365552 2928.11142494744 25 26 20
133.705269126569 240.657515083866 2908.60799807268 25 26 20
123.055504377653 240.148330983907 2908.29598594034 22 23 17
106.14967647047 239.608406195553 2913.32954639356 22 23 17
106.530057239789 239.159708345616 2903.72213780027 23 24 18
109.997832426623 238.723039211331 2891.41217276546 25 26 20
105.625650854652 238.24635783122 2885.7701972934 24 25 19
96.5853955668448 237.748568157336 2884.15464289765 19 22 15
96.0780670877131 237.287402866227 2875.13868840464 17 20 13
83.9587420547074 236.778248509611 2876.23143406945 20 23 16
68.0242478425348 236.257644088965 2880.73419627975 20 23 16
55.2162444494964 235.752287060767 2882.56305464469 17 20 13
88.3733765132533 235.399481277901 2843.6060005336 18 21 14
54.903067609692 234.827285851055 2863.80431893341 25 28 21
22.3508457185231 234.270056142928 2883.43321737656 20 23 16
15.7523917826654 233.79167251819 2879.88247082231 15 18 11
17.4803744763308 233.333076983206 2868.78154975407 10 13 6
22.1811720081191 232.877197224619 2854.89525836712 13 16 9
8.01298733307476 232.380869016335 2858.20821128418 21 24 15
8.89307812491058 231.913105525491 2847.72791995011 23 26 17
5.24552971797965 231.435718788593 2841.37591184483 24 27 18
3.82063392410537 230.959809111516 2832.92975516949 23 26 17
6.08549457395924 230.485166420737 2820.98291047804 21 24 15
12.7486206554135 230.009604467428 2804.81335439907 19 22 13
20.0746743909592 229.528213413991 2787.88959704641 21 24 15
19.9518838243389 229.038705376054 2777.91692762481 17 20 11
-6.6549897337278 228.547029592598 2793.21022263977 18 21 12
-17.7580531092074 228.061122786815 2793.80475919244 22 25 16
-6.92382704821548 227.566255618703 2773.24831046739 20 23 14
-14.3933196028438 227.077060403177 2770.30140577289 18 21 12
-18.2258505491737 226.584822441187 2763.81522465269 19 20 12
-18.4543503956167 226.086855324359 2753.7658814713 18 21 12
-17.9980174050793 225.584852341451 2742.97822563385 18 24 14
-39.8785821342469 225.119198399957 2754.2867513828 21 27 17
-45.8885901950787 224.629307392832 2749.92748688505 18 24 14
-28.3105118499094 224.085300211505 2721.90830197482 17 23 13
-20.8556439269021 223.554827533668 2703.84234506136 16 22 12
-22.0107851107922 223.04144730204 2694.3565128347 21 24 15
-10.4501949129703 222.486302140424 2671.8562423955 21 21 13
68.6404431235661 221.145917877493 2568.61740359869 35 31 22
64.2553152970366 220.609032893101 2561.73040706106 57 40 32
56.3588782584965 220.085504324173 2558.47382729352 44 24 13
44.2872885572783 219.581105751042 2559.60120140805 42 18 6
28.0799363845246 219.099082541135 2565.1416895873 51 27 15
14.7045717701486 218.6083038932 2567.79436616637 50 23 14
8.27772813540495 218.084928339027 2563.13275905955 75 51 41
4.60328915458907 217.546320372125 2555.52561619957 122 104 94
270.423793638965 238.455063315296 2890.36999874957 15 22 15
257.822862189163 237.928019530951 2891.1138215084 27 32 26
237.184074713102 237.37214271409 2898.38164009849 22 27 21
190.056105845264 236.724150691403 2927.20586721969 25 28 21
176.068506916127 236.20932965309 2929.41460029882 27 30 23
173.333431338794 235.734785109587 2922.48904098792 27 28 22
163.393764630224 235.236701223479 2921.45651919782 30 31 25
153.474900467489 234.740327869912 2920.43938075835 38 39 33
124.518748055312 234.195527424432 2935.26410646116 27 28 22
140.036030262329 233.768006616465 2913.1624052065 27 28 22
136.480739290754 233.289188198262 2906.87726923323 26 27 21
123.460776944758 232.790591263014 2908.55250827095 21 22 16
105.767455943377 232.286905270484 2914.25071283712 21 22 16
105.368196168993 231.814779290662 2905.31304413644 23 24 18
99.4706409886739 231.332963906168 2901.03534003626 24 25 19
94.3510288467637 230.851916559959 2896.08625623078 23 24 18
96.9915329498656 230.376989389203 2884.41172205427 20 23 16
82.5466257806036 229.887544180154 2887.52410779346 18 21 14
79.7316817267077 229.406439783609 2880.54061689248 20 23 16
63.808393528983 228.921812794624 2885.05168481458 20 23 16
69.4393088729557 228.440057290652 2870.60419350741 17 20 13
66.5816593246009 227.955500740767 2863.58972699627 18 21 14
47.6742114122741 227.478250445807 2870.87799221437 25 28 21
28.0790887844127 227.00762700116 2878.90311202799 19 22 15
25.260097205261 226.526254453745 2871.91668563133 14 17 10
27.7201967554754 226.036679739968 2860.11100367469 10 13 6
12.774744565113 225.569237544743 2864.09597620175 13 16 9
18.1961324354667 225.070474372794 2849.49650781023 21 24 15
10.7968869835475 224.591712121337 2846.60057958464 23 26 17
12.3814037490702 224.093470662881 2835.39545618896 25 28 19
2.73386408149534 223.619414521867 2834.57482523045 23 26 17
-3.9185860469515 223.138944694678 2830.98521959384 21 24 15
2.03641412061994 222.621106660686 2815.53744489728 19 22 13
4.22377418070985 222.109439896932 2803.53423084013 21 24 15
-8.37841694541464 221.64524056349 2805.51220090442 18 21 12
-17.2682802294628 221.170447106092 2804.00607983911 19 22 13
-5.62846965540831 220.614870465076 2782.79797790793 22 25 16
-7.97329346112186 220.109767947751 2774.92012902331 19 22 13
-11.7975868986362 219.609400039055 2768.43987826927 16 19 10
-22.1701984555271 219.139161465532 2768.32897766734 17 18 10
-18.0414595267482 218.597952850509 2754.02726210624 18 21 12
-20.4700372207149 218.086151215919 2746.08866430827 20 26 16
-25.7992701339087 217.588562016528 2740.98783262144 22 28 18
-90.6598714531868 217.438571957972 2795.24830984494 16 22 12
-28.6094421233145 216.544020582582 2722.88873407831 17 23 13
-27.5644293369381 216.002241314577 2711.29229220697 17 23 13
-33.6703187346268 215.504138505241 2706.86347968753 21 24 15
-28.443523984965 214.927386124979 2690.88751493008 21 21 13
64.8605033919325 213.134281095469 2573.2474728288 36 29 21
58.3839189587057 212.606121716228 2568.54978332461 46 29 19
49.8076642764138 212.094823556278 2566.03548781772 48 26 15
41.2434667474133 211.584561904026 2563.52993804867 47 23 11
28.5208057163193 211.111308044992 2565.42082552196 49 25 13
15.1439482037126 210.647427596072 2568.07255611193 50 26 16
8.02653977899137 210.1299415191 2564.14541031203 95 73 62
249.737226757603 230.80781818377 2907.44843831521 15 22 15
250.955093189864 230.317121462366 2897.21289159004 30 35 29
243.251742224529 229.81832065621 2894.0961148116 25 30 24
230.724835613245 229.318602251358 2894.89373816407 31 34 27
179.687281241492 228.817902492264 2927.06004700617 26 29 22
180.147557074993 228.330754262093 2917.51006681416 22 25 18
171.786810200711 227.843732900913 2915.15212048323 22 25 18
151.491443510482 227.364587668754 2922.66957526756 30 33 26
129.685759901001 226.893088620186 2931.56228107319 23 26 19
142.817980218888 226.392721753455 2911.43633846331 16 19 12
162.952700671274 225.874691581621 2885.27064955672 10 13 6
140.40695610945 225.408260251653 2894.86222615953 13 16 9
114.024977044962 224.956058246401 2907.84838419941 16 19 12
105.771929443543 224.477802801292 2905.56855577089 17 20 13
96.7499776284235 224.00226062259 2903.96638264105 20 23 16
97.8705002374891 223.503469706134 2893.65993382532 20 23 16
96.6204776613084 223.007586853537 2885.34044530939 21 24 17
93.7939436025244 222.513979375112 2878.34848923594 18 21 14
78.5915495240137 222.057767110323 2882.14725598669 19 22 15
63.4410491370208 221.605796996755 2885.98336859219 20 23 16
62.1649308603236 221.107815037343 2877.64495211366 18 21 14
72.3475383884256 220.563052388184 2859.08624621286 19 22 15
44.2595821795861 220.168189573742 2874.54139981237 22 25 18
47.5133474831746 219.647143223585 2862.07586705877 17 20 13
29.4570384106549 219.219986213298 2868.74635808921 13 16 9
38.7203379893117 218.665700174761 2850.75621462821 10 13 6
27.5162671052289 218.20861072586 2851.27767464789 13 16 9
22.362267791467 217.721587965511 2846.30392705805 16 19 10
17.2027790624449 217.23413543726 2841.32619789709 21 24 15
14.2824949707592 216.733034821916 2834.26594799283 27 30 21
3.13782782614558 216.280899629963 2834.83049614527 26 29 20
-7.97732470184398 215.831221819316 2835.41674699733 24 27 18
-16.096167711213 215.364201483324 2833.23396877267 22 25 16
-12.3734411443008 214.816168437051 2819.87351720187 21 24 15
-30.0864806915364 214.417310082638 2826.79270049817 18 21 12
-17.5970596512189 213.799167123513 2804.96544026265 18 21 12
-15.477168405547 213.251315953971 2792.9128388639 19 22 13
5.58740755914622 212.547411818828 2762.4798395802 18 21 12
-18.669925095878 212.203846517993 2775.77171278163 17 20 11
-15.9506255492143 211.639543554866 2762.91851529149 21 22 14
-5.32194575290657 211.000606225144 2742.21233194883 22 25 16
-7.78719212887768 210.471562714518 2734.24706490722 20 26 16
-18.9098800816128 210.02163002292 2734.82755740102 19 25 15
-41.0660302203791 209.129209493232 2736.05326176072 20 26 16
-18.592138975817 208.34417222305 2702.93608987973 22 28 18
-27.5672689862561 207.873289418019 2701.36788247598 19 22 13
-6.05994196941029 207.074926610821 2668.78499669154 22 22 14
54.0374291383232 205.235720998933 2585.12364601475 37 33 24
49.7019177158737 204.685384164655 2578.27254933104 72 55 47
41.8535534957338 204.175779523116 2575.05088910292 45 25 14
37.500367300932 203.624107918862 2568.18697283866 92 72 61
30.3519069505236 203.106249598978 2564.23731494966 77 57 48
23.8997224621302 202.579809242181 2559.5573221934 107 89 79
16.064729081485 202.071534230994 2556.34536150701 109 92 84
314.0223527315 223.624566237007 2866.31992876837 0 6 2
250.152611160273 223.25220464095 2907.7112886613 15 22 15
226.270033506921 222.801807347037 2917.56888427138 31 36 30
231.554867069779 222.276792856534 2904.10562288626 26 31 25
220.670370469843 221.796051852032 2903.62359269558 30 33 26
221.859107365736 221.277661045278 2893.36649459482 25 28 21
181.35661541583 220.902980363153 2917.11387923967 22 25 18
181.780005518569 220.390301889158 2907.53703047853 21 24 17
172.608046094623 219.912904917765 2905.82639871387 27 30 23
134.059908591392 219.561386781379 2928.52028619255 21 24 17
167.782210513256 218.901904656517 2891.20671350301 15 18 11
185.483943695978 218.298896711543 2866.98227413757 10 13 6
146.329239183816 217.966121027094 2890.47187428712 12 15 8
143.497418505618 217.460495816979 2883.47573048124 14 17 10
114.009565745749 217.098304100211 2899.15156578741 15 18 11
134.65295278653 216.462479930427 2872.11869239019 17 20 13
117.751164905392 216.036235116601 2877.15575735599 17 20 13
111.008941483711 215.552521625017 2873.50105671347 20 23 16
102.720855746521 215.079056238557 2871.19585265516 17 20 13
94.4449500022229 214.60659250331 2868.8994832072 19 22 15
75.3972303795414 214.209901963107 2876.08647051995 20 23 16
65.6403106299828 213.753006981115 2875.18663453038 18 21 14
42.1180728879405 213.400456162127 2886.54098047309 19 22 15
26.332834433298 212.997293872505 2891.15253623484 16 19 12
30.4026638567922 212.441168652221 2878.04337146684 14 17 10
31.3771136803713 211.905261375297 2867.63084336987 11 14 7
42.1531343350736 211.282585225185 2848.26688403217 10 13 6
36.9784732796528 210.790535511707 2843.27813284235 13 16 9
32.551101591813 210.291270382333 2837.59574000932 15 18 9
28.1139073913463 209.791224455845 2831.90622267236 19 22 13
26.660012068723 209.261843457665 2823.43877277697 24 27 18
10.2562076407007 208.87664573744 2828.83733896408 26 29 20
-2.36727871696329 208.458915841671 2830.80010703743 25 28 19
-11.9855567164766 208.013658548763 2830.00112883543 25 28 19
-20.8433551247256 207.562284267085 2828.51807642861 22 25 16
-21.5743488871976 207.023842014632 2819.33959077541 18 21 12
-26.7478933774594 206.532151602553 2814.35165082744 17 20 11
-9.20666774119061 205.779627092446 2787.53973104988 19 22 13
-25.4199626220473 205.410248214563 2793.07618732193 20 23 14
-24.0886114660941 204.835592243282 2781.68715171848 20 23 14
-18.444653119942 204.203635151981 2766.01331813209 23 24 16
-12.8724752497691 203.565873399984 2750.28771442207 24 27 18
-10.2592926345919 202.959502309494 2737.35737742029 19 25 15
-27.1315749239989 202.604780651661 2743.65123052731 17 23 13
-43.2215844145456 202.24575808658 2749.27740594363 18 24 14
-5.60494691821578 201.15354981652 2701.19814754875 25 31 21
-28.8696036671283 200.891252715821 2713.9747132325 24 30 20
-39.9449244590338 200.464128844228 2714.58995320024 18 21 12
-25.4785383824456 199.665690143668 2689.25418840573 23 23 15
52.3642921956791 197.285225063397 2587.57588687382 36 32 23
46.6317844747137 196.748573518903 2582.18251481405 70 57 48
39.4941824666319 196.23374562319 2578.24074371883 126 109 101
35.847947578032 195.662826255725 2570.65417742061 120 103 93
34.9647487080733 195.044583286569 2560.1296197242 110 93 85
33.3518282234322 194.435076000916 2550.31144661045 89 75 66
329.919082277351 215.791081755015 2854.33666630902 0 6 2
308.224943124067 215.366087813619 2862.07543199976 13 20 13
214.53319320826 215.378239722096 2927.55001825186 31 36 30
206.122344301593 214.902436127874 2925.1555142316 28 31 24
232.360507814509 214.204248360438 2894.76758356134 24 27 20
165.237703641778 214.115045567472 2939.97793530584 21 24 17
199.389286892081 213.353250365757 2902.97503957671 23 26 19
189.379328329529 212.888763972426 2901.8920263765 20 23 16
182.577523904618 212.402326834199 2898.19382592038 24 27 20
170.217387569005 211.958828885025 2899.11233489541 18 21 14
163.43778191019 211.474215388751 2895.43053051271 17 20 13
172.465365371902 210.860829575563 2878.50424868529 14 17 10
164.860948671813 210.379807084445 2875.45957599478 13 16 9
163.550752234983 209.844920823629 2867.09626860315 13 16 9
155.160904645717 209.370731845008 2864.71729154143 13 16 9
152.253270925277 208.847344760926 2857.6660992759 13 16 9
132.184185978852 208.484163469571 2865.34817790563 14 17 10
118.409320470425 208.067133277617 2867.7116213113 18 21 14
106.227072776613 207.638210587792 2868.75915938567 15 18 11
97.1692174879335 207.180527427493 2867.1313439981 18 21 14
85.0463776598986 206.756484649123 2868.22197281991 19 22 15
76.7986934940264 206.293999192671 2865.94611233837 17 20 13
55.5405164475888 205.975853138507 2875.23649409907 17 20 13
64.9229366048982 205.320399886106 2857.33219125581 17 20 13
45.273889225443 204.991736318144 2865.31864444393 12 15 8
42.4105929605814 204.472115716297 2858.29990690116 10 13 6
44.829479484382 203.886938323572 2846.46415897274 11 14 7
46.4439649563815 203.307072584562 2835.28034708888 13 16 9
44.249200214892 202.771093151652 2827.51082834764 12 15 6
36.7765869847951 202.301091738456 2824.56175862928 16 19 10
31.5570905945739 201.80213888896 2819.54047038269 20 23 14
20.3620269328137 201.383175019841 2820.06865304363 21 24 15
6.96448892275336 200.997384681251 2822.70578744145 19 22 13
-4.90638816793809 200.594313792842 2823.97917565547 19 22 13
-7.12773463935035 200.056370533183 2816.19067178078 23 26 17
-9.37195473948904 199.516563896127 2808.38528240908 18 21 12
-2.81637139674573 198.843472344115 2792.13706025441 17 20 11
-14.6630171180842 198.442543698305 2793.42802515608 19 22 13
-19.8979843148492 197.942628792042 2788.39551691865 21 24 15
-24.4098196955769 197.43081104965 2782.65212544766 21 24 15
-24.5726845967003 196.848183175705 2772.64993361543 22 23 15
-16.8052822269946 196.132200817695 2754.80959994909 24 27 18
-26.451847979821 195.69819881139 2753.99017236127 19 25 15
-29.598841205597 195.156021266514 2746.76566258178 19 25 15
-8.36499615147912 194.19085793767 2715.21871563783 21 27 17
-2.32389590277626 193.476087517361 2698.597322597 28 34 24
-34.1595822232652 193.431299781757 2719.98328521578 21 27 17
-40.2410286963786 192.933705930459 2715.57219447197 14 17 8
-25.7679493631655 192.055625790365 2690.24087836243 20 20 12
40.8646737177092 190.182908638864 2611.3169015676 23 23 15
50.6898449705728 189.351366184577 2590.02726215114 32 29 22
44.9643244196123 188.812029218424 2584.63864716081 52 45 37
39.9330761201444 188.258476763894 2578.51851078566 59 52 44
36.9854508462022 187.662104669868 2570.20292147687 74 67 59
36.7966858605153 187.007128420086 2558.94684550963 98 91 83
46.2741929037671 186.147518371259 2537.40503472021 84 77 71
316.501804369923 208.113449275501 2865.56840157441 2 8 4
272.912045948832 207.942024910623 2890.7841947667 12 19 12
235.193212269789 207.734105816564 2911.60991638481 32 37 31
211.377702193616 207.408502419139 2921.51676281857 28 33 27
230.357990338317 206.67089826342 2896.98316236822 21 24 17
224.294032649643 206.173197731414 2892.58474907712 18 21 14
153.325591588689 206.346145352227 2941.18441651496 22 25 18
190.588389262202 205.405955871284 2901.49526744478 19 22 15
173.424382831699 205.033823207928 2906.34281315386 22 25 18
168.241860294204 204.534322941396 2901.34803079238 16 19 12
164.638878902385 204.016392216331 2895.02812490417 19 22 15
168.924932988308 203.405496479127 2882.07572306198 16 19 12
173.941486448296 202.780473552067 2868.41717866543 14 17 10
152.959629032309 202.465159494201 2876.67284813862 13 16 9
171.422595928445 201.09250461113 2841.88013183023 13 16 9
176.237820854842 200.450973082593 2828.07585094082 13 16 9
123.480416009593 200.563579104523 2863.93895097976 16 19 12
104.309083853917 200.248782962279 2871.0367437406 14 17 10
99.893901403 199.738245769365 2865.36342452734 17 20 13
97.0102096598229 199.205315394379 2858.32983445044 19 22 15
89.4976608801796 198.736758287411 2855.35152743863 17 20 13
73.564695591843 198.391633292215 2859.85628683633 16 19 12
67.0063308797704 197.335016650731 2846.45079096408 12 15 8
45.8518839739841 197.079722914364 2855.81668727682 10 13 6
37.6600025836451 196.629562140919 2853.58134184511 11 14 7
36.2772715077027 196.071869861776 2845.16533702864 12 15 8
49.9271579009997 195.267097465966 2822.94304647195 14 17 8
43.9405576941665 194.775887792011 2818.6007441478 17 20 11
43.9417113597402 194.183787747967 2808.71769937351 20 23 14
36.4426284727517 193.716590375649 2805.74916096198 19 22 13
17.7878532149429 193.444540150566 2813.22192783546 17 20 11
9.59523275905161 192.9945331855 2810.98575294141 17 20 11
6.59313631199421 192.452279556181 2803.86628154367 20 23 14
7.99795059930464 191.827497879289 2792.53024703534 18 21 12
-0.937937663054722 191.390670443978 2790.9906593094 18 21 12
-12.7902892231555 191.01073048165 2792.27788871562 20 23 14
-16.5673381493505 190.479086679843 2785.83172809751 20 23 14
-27.6467293174421 190.088611593589 2786.44390851899 20 23 14
-28.5240745758226 189.498904723713 2777.15906987772 22 23 15
-27.9844632072228 188.877451454134 2766.43088479751 22 25 16
-20.2636918864234 188.105012352072 2748.55646132413 20 26 16
-7.58805776699623 187.221033764186 2725.62780778458 21 27 17
-11.5370442707476 186.67564033254 2719.0569363026 24 30 20
-2.61981911974396 185.853524433326 2699.57922838613 28 34 24
-8.77722781987322 185.349134548471 2695.11303657959 20 26 16
-4.97946890286438 184.6252964137 2680.57075596699 14 17 8
-1.24456479570179 183.896381274309 2665.98288484531 20 20 12
22.9233469780525 182.697384996289 2630.38624344952 23 23 15
48.3095760151522 181.45038601933 2593.20217535954 32 32 24
295.747908914999 200.617976830292 2882.59880197879 0 3 0
291.202339436868 200.090847286298 2876.83058390635 13 20 13
259.910961128934 199.902390213133 2892.434921683 34 39 33
235.218560976458 199.64124972488 2902.94145493323 31 36 29
225.936648948901 199.186009259867 2901.15093392976 18 24 14
211.849691531151 198.797077241584 2903.28827757278 17 20 13
186.585699016334 198.565754297785 2914.6156389821 19 22 15
165.422193104187 198.287052091157 2922.7398130301 16 19 12
164.267402380879 197.73091802294 2914.48905493238 17 20 13
167.059667545799 197.114810797425 2902.92382048351 13 16 9
180.107426246312 196.34218885516 2882.73556529608 20 23 16
187.515925727248 195.644193597104 2867.10551410994 18 21 14
184.601335388872 195.097144496838 2860.04915899083 15 18 11
157.299290376952 194.928874482385 2873.60511086796 13 16 9
165.390303358567 194.210067042638 2857.23439176 12 15 8
219.52165725205 192.739635483228 2801.36332397212 11 14 7
169.639605678333 192.944925911014 2834.37085743164 11 14 7
106.010625470172 193.404129868421 2879.64636678284 13 16 9
106.265160100945 192.810062961923 2869.94699331509 11 14 7
94.8897323778231 192.413282314538 2870.34453858118 16 19 12
92.0220838923851 191.870128533993 2863.32252682064 17 20 13
98.3582549750448 191.160922602545 2848.1501017389 16 19 12
79.3339074015185 190.90428303161 2855.35474133463 15 18 11
77.1944073609676 190.344140964398 2847.62516276601 15 18 11
60.5546513335176 190.05293104335 2852.85315866996 9 12 5
47.0145899577625 189.708975821547 2855.38718674151 8 11 4
35.0324627057499 189.339332942092 2856.58009665884 12 15 8
46.5004651565253 188.513922528926 2836.4814116975 12 15 8
39.0371787371886 188.054504549017 2833.53915679048 13 16 7
34.5856296319358 187.535133595332 2827.83913539163 15 18 7
33.1191986937185 186.953648642521 2819.36233424417 18 21 10
32.3718224375442 186.354426661282 2810.17166471036 16 19 8
18.1939117548078 186.035170766137 2813.47875842007 14 17 6
7.03211921641822 185.656324261303 2814.03126323075 14 17 6
17.3588883555356 184.814277935827 2794.34022625168 15 18 7
9.88133600570507 184.353973103618 2791.38762517512 18 21 10
3.88269102450423 183.86150388549 2787.03658495714 20 23 12
-10.1839551715712 183.551602291159 2790.4240895721 21 24 13
-19.0851611211271 183.128159165263 2788.90971158903 18 21 10
-21.4094145623125 182.553486045231 2781.04642221182 16 19 8
-29.5707250063999 182.114106249682 2778.83329291924 22 23 15
-34.8215681246671 181.606494802145 2773.78894242599 20 23 14
-9.01739461757378 180.345802613662 2738.1431129491 21 27 17
-2.85194013495738 179.546666237273 2721.61143961608 23 29 19
-1.07007772147849 178.84855287062 2709.31303279532 25 31 21
-20.8097054007925 178.687844344216 2718.47000422262 22 28 18
13.0475657088902 177.166930259342 2673.83910152577 16 22 12
1.13227762426238 176.803862524676 2675.08079236339 14 17 8
-0.111894671748658 176.16485464795 2665.52948877773 19 20 12
305.945057421811 192.783570294984 2875.12963227721 0 9 1
307.060991308824 192.15842202699 2864.81951145105 14 21 14
282.206079885005 191.94634696488 2875.20848533858 30 37 29
246.137256736024 191.927181876681 2894.76092314373 25 33 22
219.095072993838 191.774126330923 2907.26999995908 18 26 13
213.064060594248 191.277974538214 2902.89547725579 16 22 12
182.984833525654 191.193722252884 2918.143726046 16 19 12
161.829460116775 190.96716310246 2926.27405963403 16 19 12
144.742637647776 190.676878640515 2931.17767774425 19 22 15
165.876376046455 189.706381735815 2904.49886980462 16 19 12
186.860581903006 188.72354409786 2877.71130554876 14 17 10
191.882115992807 188.021073888587 2864.05627390833 21 24 17
182.649706707361 187.580134569923 2862.30171093718 15 18 11
152.991680090518 187.53045229716 2877.85547202766 11 14 7
138.361014416449 187.203172825812 2880.83431334089 11 14 7
125.614697671537 186.234006358156 2872.8243639226 10 13 6
133.626292481429 185.458792349794 2856.39608165372 12 14 9
110.547364462504 185.312949959719 2866.83750818814 12 14 9
105.344559652003 184.805162993839 2861.82827527736 15 17 12
104.761591444224 184.199380143546 2852.75675541438 18 20 15
100.303552284108 183.673210322443 2847.05199479865 18 20 15
94.302631251086 183.179488798038 2842.69929827896 14 16 11
79.1289995997158 182.887325650366 2846.51974646808 12 14 9
65.5313698170374 182.565471974788 2849.01215392156 8 10 5
32.2191805475613 182.693412457579 2869.32864294497 9 11 6
34.6763769079885 182.019136055667 2857.51992085362 13 15 10
44.6389067255195 181.165592277585 2838.80011188645 14 16 11
33.4156275090698 180.800150825234 2839.30811159124 15 18 9
25.2263592761319 180.36564552291 2837.07473979114 17 20 11
17.7980850017838 179.914104801618 2834.15790583509 17 20 11
16.351367903368 179.317257114147 2825.69531785553 16 19 10
13.3879559720453 178.755053845429 2818.60378863997 15 18 9
13.3753620657782 178.116909855324 2808.71025025877 15 18 9
17.7668807162803 177.363095182283 2794.59824691136 15 18 9
19.8819125629206 176.661087593273 2782.54163647491 21 24 15
10.9119166226179 176.242347647172 2780.97741498203 21 24 15
-10.5111347417817 176.153675483225 2791.38447479074 16 19 10
-12.8290363614378 175.565200819859 2783.52572007698 17 20 11
