ply
format ascii 1.0
comment KinectMotionCapture
element vertex 760
property float x
property float y
property float z
property uchar red
property uchar green
property uchar blue
end_header
107.252068817616 437.396347522736 2681.99992179871 149 151 146
114.598818123341 437.55179643631 2683.00008773804 151 153 148
121.95061147213 437.706619501114 2684.00001525879 152 154 151
129.355609416962 438.024163246155 2686.00010871887 154 156 153
136.771038174629 438.341081142426 2687.99996376038 159 161 158
144.357711076736 439.146786928177 2693.00007820129 162 164 161
151.689484715462 439.13659453392 2693.00007820129 171 173 170
159.256935119629 439.778208732605 2697.00002670288 175 177 174
166.907399892807 440.58233499527 2701.99990272522 184 186 183
175.293937325478 443.17951798439 2717.99993515015 189 191 188
183.96869301796 446.265280246735 2736.99998855591 193 195 192
192.396506667137 448.535144329071 2750.99992752075 197 199 196
200.68196952343 450.315326452255 2762.00008392334 194 196 193
209.328070282936 452.746987342834 2776.99995040894 189 191 188
218.758076429367 456.645369529724 2801.00011825562 198 200 199
228.156298398972 460.21693944931 2822.99995422363 191 193 190
262.169927358627 466.020107269287 2858.99996757507 209 209 207
269.377380609512 465.024590492249 2852.9999256134 120 120 118
276.551395654678 464.028656482697 2846.99988365173 134 135 130
282.693356275558 461.402654647827 2831.00008964539 147 148 143
288.850009441376 458.939284086227 2815.99998474121 155 156 151
295.766562223434 457.779496908188 2809.00001525879 157 158 153
302.644163370132 456.619381904602 2802.00004577637 155 155 153
310.147166252136 456.436693668365 2801.00011825562 149 151 148
317.416906356812 455.927729606628 2798.00009727478 155 157 154
325.482487678528 456.558972597122 2802.00004577637 164 166 163
333.568871021271 457.189708948135 2805.99999427795 174 176 173
341.919213533401 458.146005868912 2812.00003623962 186 188 185
-206.9953083992 446.021020412445 2782.00006484985 206 211 205
-196.987465023994 440.583467483521 2747.99990653992 184 186 181
-188.819095492363 438.993036746979 2737.99991607666 182 184 179
-180.969536304474 438.043504953384 2732.00011253357 170 171 166
-173.279032111168 437.414050102234 2727.9999256134 167 166 162
-165.792137384415 437.26521730423 2726.99999809265 160 159 155
-158.484324812889 437.596887350082 2729.00009155273 160 159 155
-151.386499404907 438.569486141205 2734.99989509583 157 156 152
-144.308134913445 439.702093601227 2742.00010299683 152 153 148
-137.590363621712 442.117094993591 2756.99996948242 152 153 148
-130.979180335999 445.173174142838 2776.00002288818 145 146 141
-124.842017889023 450.313627719879 2808.00008773804 128 130 125
-101.898558437824 450.337082147598 2808.00008773804 205 207 202
-93.880757689476 448.579609394073 2796.99993133545 119 121 116
-85.9842598438263 447.142392396927 2788.00010681152 135 137 132
-77.9396742582321 444.581925868988 2772.0000743866 139 140 134
-69.880411028862 441.379398107529 2752.00009346008 144 145 139
-62.0432123541832 438.978135585785 2736.99998855591 152 153 147
-54.4071868062019 437.538623809814 2727.9999256134 153 154 148
-46.9233319163322 437.061041593552 2724.99990463257 152 153 147
-39.4411571323872 436.422407627106 2720.99995613098 151 153 148
-31.9688767194748 435.622990131378 2716.00008010864 165 167 162
-24.4965832680464 434.341818094254 2707.99994468689 165 167 162
-17.0994084328413 433.862030506134 2704.99992370605 159 160 155
-9.7257113084197 433.70258808136 2703.9999961853 155 156 151
-2.35306937247515 432.740658521652 2697.99995422363 154 155 150
4.99059027060866 432.098984718323 2694.00000572205 155 156 151
12.3032815754414 431.136071681976 2687.99996376038 156 157 152
19.6270421147347 431.134939193726 2687.99996376038 162 161 157
26.8705282360315 429.850220680237 2680.0000667572 162 161 157
34.121323376894 429.206490516663 2676.00011825562 159 158 154
41.3811579346657 428.883105516434 2674.00002479553 157 156 152
48.6845411360264 429.040372371674 2674.99995231628 157 156 152
55.9722818434238 429.036766290665 2674.99995231628 157 156 152
63.2361769676209 428.872227668762 2674.00002479553 156 157 152
70.5735236406326 429.188400506973 2676.00011825562 156 157 152
77.8924152255058 429.343670606613 2677.00004577637 157 158 153
85.2801129221916 429.819136857986 2680.0000667572 154 155 150
92.6147848367691 429.973363876343 2680.99999427795 152 153 148
100.029118359089 430.447906255722 2684.00001525879 149 151 146
107.299484312534 430.280417203903 2683.00008773804 149 151 146
114.692151546478 430.593550205231 2684.99994277954 150 152 147
122.004449367523 430.585384368896 2684.99994277954 153 155 152
129.364490509033 430.737167596817 2686.00010871887 154 156 153
136.678650975227 430.728077888489 2686.00010871887 158 160 157
144.367575645447 431.841015815735 2693.00007820129 161 163 160
151.925146579742 432.472348213196 2697.00002670288 170 172 169
159.503996372223 433.103203773499 2700.99997520447 173 175 172
167.104065418243 433.733493089676 2704.99992370605 180 182 179
175.241351127625 435.646116733551 2717.00000762939 185 187 184
183.712244033813 438.199430704117 2733.00004005432 191 193 190
192.129731178284 440.431445837021 2746.99997901917 200 202 199
200.404793024063 442.181944847107 2757.99989700317 201 203 200
209.115967154503 444.733440876007 2773.9999294281 200 202 199
218.147873878479 447.765290737152 2792.99998283386 185 187 186
227.686554193497 451.597988605499 2816.99991226196 191 193 190
262.829124927521 459.388136863709 2865.9999370575 212 212 210
269.772738218308 457.928150892258 2857.00011253357 116 116 114
276.3751745224 455.98703622818 2845.00002861023 133 134 129
282.412141561508 453.244268894196 2828.00006866455 148 149 144
288.56098651886 450.821816921234 2812.99996376038 154 155 150
295.680344104767 450.001746416092 2808.00008773804 155 156 151
302.663594484329 449.02104139328 2802.00004577637 158 158 156
310.056269168854 448.681026697159 2799.99995231628 159 161 158
317.550539970398 448.500871658325 2799.00002479553 169 171 168
325.50311088562 448.961228132248 2802.00004577637 173 175 172
333.94655585289 450.062066316605 2809.00001525879 177 179 176
342.427045106888 451.162487268448 2815.99998474121 181 183 180
-205.967307090759 436.266899108887 2767.99988746643 207 212 206
-196.785509586334 432.6551258564 2744.99988555908 184 186 181
-188.831716775894 431.564599275589 2737.99991607666 182 184 179
-180.716648697853 430.00066280365 2727.9999256134 170 171 166
-173.036590218544 429.381966590881 2723.99997711182 167 166 162
-165.620893239975 429.393321275711 2723.99997711182 161 160 156
-158.436924219131 430.034667253494 2727.9999256134 161 160 156
-151.396751403809 431.148588657379 2734.99989509583 158 157 153
-144.26526427269 432.104378938675 2740.9999370575 151 152 147
-137.400075793266 434.005677700043 2753.00002098084 151 152 147
-130.893722176552 437.325358390808 2773.9999294281 146 147 142
-124.983921647072 443.167179822922 2811.00010871887 125 127 122
-101.832941174507 442.402005195618 2805.99999427795 210 212 207
-93.9878895878792 441.462695598602 2799.99995231628 133 135 130
-85.9593152999878 439.419150352478 2786.99994087219 139 141 136
-77.9450312256813 437.059789896011 2772.0000743866 138 139 133
-69.9106082320213 434.069067239761 2753.00002098084 144 145 139
-62.1381625533104 432.181537151337 2740.9999370575 152 153 147
-54.4508285820484 430.45112490654 2730.00001907349 153 154 148
-46.9782277941704 430.139183998108 2727.9999256134 152 153 147
-39.4583754241467 429.196059703827 2721.99988365173 151 153 148
-31.9710820913315 428.252458572388 2716.00008010864 165 167 162
-24.4892295449972 426.835387945175 2707.00001716614 159 161 156
-17.0879457145929 426.206082105637 2703.00006866455 159 160 155
-9.72278695553541 426.206976175308 2703.00006866455 154 155 150
-2.35323212109506 425.419002771378 2697.99995422363 155 156 151
4.99649299308658 425.261199474335 2697.00002670288 153 154 149
12.3178623616695 424.31452870369 2690.99998474121 154 155 150
19.6210984140635 423.682749271393 2687.00003623962 159 158 154
26.872381567955 422.577381134033 2680.0000667572 159 158 154
34.110926091671 421.7868745327 2674.99995231628 156 155 151
41.430439800024 422.099679708481 2677.00004577637 155 154 150
48.7060993909836 421.938925981522 2676.00011825562 155 154 150
56.017991155386 422.093033790588 2677.00004577637 154 153 149
63.311479985714 422.088921070099 2677.00004577637 154 155 150
70.65749168396 422.399640083313 2678.99990081787 154 155 150
77.955961227417 422.394573688507 2678.99990081787 155 156 151
85.2859690785408 422.546684741974 2680.0000667572 154 155 150
92.6902294158936 423.013597726822 2683.00008773804 153 154 149
100.110501050949 423.480033874512 2686.00010871887 149 151 146
107.386790215969 423.315316438675 2684.99994277954 149 151 146
114.742696285248 423.465430736542 2686.00010871887 150 152 147
122.05820530653 423.457413911819 2686.00010871887 152 154 151
129.469618201256 423.764228820801 2687.99996376038 153 155 152
136.789694428444 423.755258321762 2687.99996376038 155 157 154
144.484594464302 424.84924197197 2694.9999332428 157 159 156
151.99176967144 425.312221050262 2697.99995422363 167 169 166
159.632876515388 426.089972257614 2703.00006866455 170 172 169
167.300656437874 426.86715722084 2707.99994468689 178 180 177
175.317615270615 428.431987762451 2717.99993515015 179 181 178
183.590099215508 430.469185113907 2730.99994659424 177 179 176
191.722899675369 432.032942771912 2740.9999370575 170 172 169
199.909463524818 433.596074581146 2750.99992752075 177 179 176
208.526730537415 435.94679236412 2766.00003242493 199 201 200
217.224970459938 438.29682469368 2780.99989891052 193 195 194
226.731598377228 442.064762115479 2805.0000667572 195 197 194
264.497041702271 454.450160264969 2884.0000629425 210 210 208
270.545721054077 451.438963413239 2865.00000953674 136 136 134
276.490181684494 448.427587747574 2845.99995613098 133 134 129
282.2305560112 445.258438587189 2825.99997520447 148 149 144
288.57946395874 443.191975355148 2812.99996376038 155 156 151
295.804500579834 442.543238401413 2809.00001525879 155 156 151
302.89888381958 441.7365193367 2803.99990081787 158 158 156
310.075879096985 441.08709692955 2799.99995231628 157 159 156
317.457109689713 440.752357244492 2798.00009727478 154 156 153
325.291186571121 441.047251224518 2799.99995231628 158 160 157
333.372920751572 441.656798124313 2803.99990081787 167 169 166
342.08345413208 443.05345416069 2812.99996376038 177 179 176
-204.715803265572 426.122844219208 2750.99992752075 206 211 205
-197.156950831413 425.98107457161 2750 187 189 184
-189.120098948479 424.754559993744 2742.00010299683 186 188 183
-180.993631482124 423.217594623566 2732.00011253357 173 174 169
-173.238679766655 422.454714775085 2726.99999809265 168 167 163
-165.571123361588 421.846270561218 2723.00004959106 159 158 154
-158.389434218407 422.476679086685 2726.99999809265 161 160 156
-151.296153664589 423.416525125504 2733.00004005432 160 159 155
-144.274935126305 424.665749073029 2740.9999370575 153 154 149
-137.309446930885 426.22447013855 2750.99992752075 151 152 147
-130.666568875313 429.022282361984 2769.00005340576 144 145 140
-101.912423968315 435.096323490143 2808.00008773804 211 213 208
-93.8599854707718 433.2435131073 2796.0000038147 144 146 141
-85.8109295368195 431.080251932144 2782.00006484985 141 143 138
-77.7816027402878 428.606480360031 2766.00003242493 140 141 135
-69.8899701237679 426.442116498947 2752.00009346008 144 145 139
-62.0970539748669 424.432128667831 2739.00008201599 150 151 145
-54.4345900416374 422.886431217194 2729.00009155273 152 153 147
-46.9469875097275 422.424972057343 2726.0000705719 151 152 146
-39.4610688090324 421.808063983917 2721.99988365173 152 154 149
-31.9850370287895 421.035647392273 2717.00000762939 165 167 162
-24.4999453425407 419.642895460129 2707.99994468689 157 159 154
-17.1017572283745 419.179409742355 2704.99992370605 159 160 155
-9.72345098853111 418.870449066162 2703.00006866455 152 153 148
-2.35600955784321 418.560892343521 2700.99997520447 154 155 150
5.00239245593548 418.405830860138 2700.00004768372 152 153 148
12.3415943235159 417.785406112671 2696.00009918213 153 154 149
19.644346088171 416.854530572891 2690.00005722046 158 157 153
26.9042998552322 415.76823592186 2683.00008773804 158 157 153
34.1770201921463 415.301263332367 2680.0000667572 155 154 150
41.4796993136406 415.298670530319 2680.0000667572 155 154 150
48.7458221614361 414.985686540604 2677.99997329712 154 153 149
56.0636520385742 415.137082338333 2678.99990081787 154 153 149
63.3867457509041 415.288001298904 2680.0000667572 153 154 149
70.7150548696518 415.43847322464 2680.99999427795 153 154 149
77.990360558033 415.27846455574 2680.0000667572 154 155 150
85.2599292993546 415.11794924736 2678.99990081787 154 155 150
92.6965102553368 415.731817483902 2683.00008773804 153 154 149
100.154556334019 416.345119476318 2687.00003623962 150 152 147
107.47404396534 416.33814573288 2687.00003623962 149 151 146
114.835865795612 416.485577821732 2687.99996376038 149 151 146
122.11187183857 416.322737932205 2687.00003623962 152 154 151
129.574656486511 416.77913069725 2690.00005722046 152 154 151
136.900678277016 416.770279407501 2690.00005722046 153 155 152
144.547894597054 417.690485715866 2696.00009918213 155 157 154
152.114585042 418.300300836563 2700.00004768372 163 165 162
159.820720553398 419.219523668289 2706.00008964539 166 168 165
167.373567819595 419.673413038254 2709.00011062622 174 176 173
175.393745303154 421.211272478104 2719.00010108948 180 182 179
183.602213859558 423.058331012726 2730.99994659424 180 182 179
191.735535860062 424.595087766647 2740.9999370575 166 168 165
199.777290225029 425.821542739868 2749.00007247925 167 169 166
208.314225077629 427.976727485657 2763.00001144409 165 167 166
216.926738619804 430.131375789642 2776.99995040894 163 165 164
226.584702730179 434.144049882889 2802.99997329712 165 167 164
264.789223670959 447.090297937393 2887.00008392334 214 214 212
270.846366882324 444.130837917328 2868.00003051758 159 159 157
276.507824659348 440.706580877304 2845.99995613098 136 137 132
282.348424196243 437.74676322937 2826.99990272522 146 147 142
288.392603397369 435.251295566559 2811.00010871887 156 157 152
295.717865228653 434.768408536911 2808.00008773804 157 158 153
302.80989408493 433.975487947464 2802.99997329712 157 157 155
310.095280408859 433.491885662079 2799.99995231628 163 165 162
317.476898431778 433.162808418274 2798.00009727478 171 173 170
325.195163488388 433.297753334045 2799.00002479553 171 173 170
333.274632692337 433.896690607071 2802.99997329712 172 174 171
342.104464769363 435.423940420151 2812.99996376038 184 186 183
-196.596220135689 417.30010509491 2742.00010299683 184 189 185
-188.925519585609 416.856050491333 2739.00008201599 179 184 180
-180.872991681099 415.498316287994 2730.00001907349 172 174 171
-173.059448599815 414.596647024155 2723.99997711182 165 165 163
-165.521204471588 414.30327296257 2721.99988365173 163 162 160
-158.399879932404 415.074914693832 2726.99999809265 159 158 156
-151.361510157585 416.150599718094 2733.99996757507 157 157 155
-144.337147474289 417.378038167953 2742.00010299683 150 150 148
-137.1189057827 418.148368597031 2746.99997901917 150 150 148
-130.392104387283 420.592755079269 2763.00001144409 139 141 138
-101.665183901787 426.408261060715 2801.00011825562 204 209 203
-93.7319919466972 425.044625997543 2792.00005531311 132 135 128
-85.6932923197746 422.919243574142 2778.00011634827 153 156 149
-77.7024477720261 420.641124248505 2763.00001144409 140 143 134
-69.7676762938499 418.210178613663 2746.99997901917 146 149 142
-62.0785504579544 416.844338178635 2737.99991607666 146 149 142
-54.4382557272911 415.478080511093 2729.00009155273 156 159 152
-46.967376023531 415.17698764801 2726.99999809265 148 149 144
-39.4637249410152 414.418607950211 2721.99988365173 161 162 156
-31.9989658892155 413.812011480331 2717.99993515015 165 166 160
-24.5196986943483 412.595987319946 2710.00003814697 165 166 160
-17.1218793839216 412.292838096619 2707.99994468689 156 157 151
-9.73489973694086 411.989212036133 2706.00008964539 153 154 148
-2.35965801402926 411.83739900589 2704.99992370605 151 152 146
5.00828912481666 411.532819271088 2703.00006866455 149 150 145
12.3561592772603 410.923182964325 2698.99988174438 153 154 149
19.6602772921324 409.856408834457 2691.99991226196 161 162 157
26.9462279975414 409.093618392944 2687.00003623962 153 154 149
34.2303365468979 408.634811639786 2684.00001525879 150 151 146
41.5444113314152 408.63224864006 2684.00001525879 150 151 145
48.8219186663628 408.324718475342 2681.99992179871 145 146 140
56.1092905700207 408.168971538544 2680.99999427795 146 147 141
63.4619742631912 408.469498157501 2683.00008773804 148 149 143
70.7725584506989 408.464998006821 2683.00008773804 150 151 146
78.0537948012352 408.307760953903 2681.99992179871 149 150 145
85.3611305356026 408.302336931229 2681.99992179871 153 154 149
92.8409248590469 409.057587385178 2687.00003623962 151 152 147
100.235790014267 409.355610609055 2688.99989128113 148 148 146
107.521221041679 409.196466207504 2687.99996376038 149 149 147
114.843524992466 409.189134836197 2687.99996376038 151 151 149
122.120000422001 409.029066562653 2687.00003623962 151 151 149
129.53507900238 409.325152635574 2688.99989128113 154 154 152
136.96064054966 409.62079167366 2690.99998474121 154 154 152
144.611060619354 410.524874925613 2697.00002670288 152 152 150
152.237325906754 411.276191473007 2701.99990272522 157 157 155
159.890308976173 412.027031183243 2707.00001716614 160 160 158
167.508140206337 412.625104188919 2710.99996566772 165 165 163
175.340756773949 413.679331541061 2717.99993515015 172 172 170
183.547034859657 415.494024753571 2730.00001907349 183 183 181
191.817998886108 417.308151721954 2742.00010299683 190 190 188
199.862957000732 418.513000011444 2750 180 180 178
208.252370357513 420.3260242939 2762.00008392334 180 182 179
216.86264872551 422.442823648453 2776.00002288818 179 181 178
226.195141673088 425.776481628418 2798.00009727478 186 188 185
265.172958374023 439.864903688431 2891.00003242493 216 218 215
270.58020234108 435.892134904861 2865.00000953674 133 135 132
276.331007480621 432.680010795593 2844.00010108948 145 147 144
282.066524028778 429.619759321213 2823.99988174438 144 146 143
288.410663604736 427.624315023422 2811.00010871887 155 157 154
295.315027236938 426.541268825531 2803.99990081787 149 151 148
302.396565675735 425.762206315994 2799.00002479553 155 160 156
309.560716152191 425.1349568367 2795.00007629395 158 163 159
317.042529582977 424.963533878326 2793.99991035461 169 174 170
325.098961591721 425.552368164063 2798.00009727478 171 176 172
333.41383934021 426.444798707962 2803.99990081787 181 183 180
342.611789703369 428.401440382004 2816.99991226196 191 193 190
-196.75225019455 410.155981779099 2743.99995803833 185 190 186
-188.799753785133 409.12202000618 2736.99998855591 179 184 180
-180.950939655304 408.236980438232 2730.99994659424 173 175 172
-173.261284828186 407.65044093132 2726.99999809265 165 165 163
-165.653586387634 407.212913036346 2723.99997711182 162 161 159
-158.468291163445 407.821387052536 2727.9999256134 159 158 156
-151.426747441292 408.877819776535 2734.99989509583 158 158 156
-144.399225711823 410.083532333374 2743.00003051758 150 150 148
-137.028053402901 410.391628742218 2744.99988555908 150 150 148
-130.164682865143 412.343919277191 2757.99989700317 139 141 138
-101.490393280983 418.055832386017 2796.0000038147 220 225 219
-93.5703217983246 416.716545820236 2786.99994087219 125 128 121
-85.5447202920914 414.629101753235 2773.00000190735 131 134 127
-77.5951147079468 412.541210651398 2759.0000629425 137 140 131
-69.7977095842361 410.901248455048 2747.99990653992 145 148 141
-62.1053539216518 409.559845924377 2739.00008201599 148 151 144
-54.501723498106 408.516973257065 2732.00011253357 143 146 139
-47.0221750438213 408.221274614334 2730.00001907349 160 161 156
-39.5098514854908 407.476454973221 2724.99990463257 159 160 154
-32.0364199578762 406.880706548691 2720.99995613098 158 159 153
-24.539427831769 405.536770820618 2711.99989318848 161 162 156
-17.1419903635979 405.388653278351 2710.99996566772 156 157 151
-9.74993966519833 405.239969491959 2710.00003814697 153 154 148
-2.36504967324436 405.389904975891 2710.99996566772 149 150 144
5.01418253406882 404.642194509506 2706.00008964539 148 149 144
12.3707195743918 404.043436050415 2701.99990272522 151 152 147
19.690802320838 403.145164251328 2696.00009918213 158 159 154
27.0182248204947 402.844548225403 2694.00000572205 152 153 148
34.3091450631619 402.244418859482 2690.00005722046 149 150 145
41.6090898215771 401.942789554596 2687.99996376038 149 150 144
48.8979928195477 401.640772819519 2686.00010871887 145 146 140
56.17580935359 401.338219642639 2684.00001525879 145 146 140
63.513495028019 401.483774185181 2684.99994277954 147 148 142
70.8300098776817 401.479333639145 2684.99994277954 149 150 145
78.1462788581848 401.474416255951 2684.99994277954 149 150 145
85.4622721672058 401.469051837921 2684.99994277954 150 151 146
92.8816273808479 401.911795139313 2687.99996376038 150 151 146
100.316971540451 402.353972196579 2690.99998474121 146 146 144
107.688330113888 402.496665716171 2691.99991226196 147 147 145
114.936545491219 402.190357446671 2690.00005722046 154 154 152
122.309826314449 402.332067489624 2690.99998474121 153 153 151
129.784479737282 402.772426605225 2694.00000572205 154 154 152
137.325897812843 403.361707925797 2697.99995422363 152 152 150
144.94226872921 404.100060462952 2703.00006866455 150 150 148
152.472645044327 404.53889966011 2706.00008964539 156 156 154
160.136982798576 405.276268720627 2710.99996566772 159 159 157
167.766183614731 405.863583087921 2714.99991416931 165 165 163
175.545647740364 406.749457120895 2720.99995613098 169 169 167
183.424398303032 407.784312963486 2727.9999256134 178 178 176
191.760390996933 409.715473651886 2740.9999370575 194 194 192
200.093850493431 411.496698856354 2753.00002098084 195 195 193
208.491936326027 413.277268409729 2765.00010490417 182 184 181
217.188984155655 415.505677461624 2779.99997138977 177 179 176
226.371228694916 418.48087310791 2799.99995231628 180 182 179
264.822751283646 431.421011686325 2887.00008392334 203 205 202
269.841581583023 426.921337842941 2857.00011253357 130 132 129
275.473743677139 423.616975545883 2835.00003814697 155 157 154
281.8843126297 421.657204627991 2822.00002670288 154 156 153
288.120716810226 419.547885656357 2808.00008773804 150 152 149
295.122623443604 418.633490800858 2802.00004577637 164 166 163
301.766872406006 417.270600795746 2792.99998283386 163 168 164
309.247344732285 417.102575302124 2792.00005531311 163 168 164
316.94832444191 417.232990264893 2792.99998283386 167 172 168
325.351029634476 418.259263038635 2799.99995231628 184 189 185
333.790719509125 419.285088777542 2806.99992179871 198 203 199
342.997223138809 421.206653118134 2819.9999332428 165 170 166
-197.84040749073 404.907613992691 2759.0000629425 189 194 190
-188.673779368401 401.397526264191 2734.99989509583 181 186 182
-180.763706564903 400.38189291954 2727.9999256134 174 176 173
-172.9546636343 399.512499570847 2721.99988365173 167 167 165
-165.420949459076 399.229735136032 2720.00002861023 161 160 158
-158.188030123711 399.680435657501 2723.00004959106 160 159 157
-151.270434260368 401.011407375336 2732.00011253357 161 161 159
-144.197970628738 402.048349380493 2739.00008201599 150 150 148
-136.887177824974 402.497738599777 2742.00010299683 147 147 145
-129.889965057373 403.974235057831 2752.00009346008 134 136 133
-123.326987028122 407.065063714981 2773.00000190735 164 168 167
-101.351819932461 409.876078367233 2792.00005531311 218 223 217
-93.3414176106453 408.12075138092 2779.99997138977 152 155 148
-85.3035151958466 405.924409627914 2765.00010490417 122 125 118
-77.5158181786537 404.608428478241 2756.00004196167 126 129 120
-69.7514861822128 403.145134449005 2746.00005149841 134 137 130
-62.1547810733318 402.415364980698 2740.9999370575 141 144 137
-54.5452050864697 401.391446590424 2733.99996757507 142 145 138
-47.0424890518188 400.954335927963 2730.99994659424 149 150 145
-39.526954293251 400.223106145859 2726.0000705719 152 153 147
-32.0385284721851 399.491310119629 2720.99995613098 146 147 141
-24.5500914752483 398.318648338318 2713.00005912781 155 156 150
-17.1431191265583 398.026376962662 2710.99996566772 156 157 151
-9.75417997688055 398.027211427689 2710.99996566772 151 152 146
-2.36607808619738 398.174434900284 2711.99989318848 145 146 140
5.01821795478463 397.587090730667 2707.99994468689 146 147 142
12.3715335503221 396.705597639084 2701.99990272522 149 150 145
19.6994040161371 395.970463752747 2697.00002670288 152 153 148
27.0300321280956 395.675241947174 2694.9999332428 148 149 144
34.3496687710285 395.379662513733 2693.00007820129 146 147 142
41.642788797617 394.936740398407 2690.00005722046 143 144 138
48.9558167755604 394.786924123764 2688.99989128113 147 148 142
56.2632232904434 394.63672041893 2687.99996376038 149 150 144
63.6359453201294 394.926428794861 2690.00005722046 149 150 145
70.9665641188622 394.922018051147 2690.00005722046 146 147 142
78.355148434639 395.210772752762 2691.99991226196 145 146 141
85.6906771659851 395.205438137054 2691.99991226196 143 144 139
93.1295827031136 395.640075206757 2694.9999332428 143 144 139
100.472651422024 395.633816719055 2694.9999332428 145 145 143
107.77535289526 395.480245351791 2694.00000572205 148 148 146
114.986747503281 395.032644271851 2690.99998474121 156 156 154
122.454136610031 395.46537399292 2694.00000572205 154 154 152
129.985585808754 396.04440331459 2697.99995422363 149 149 147
137.640208005905 396.916568279266 2703.9999961853 145 145 143
145.219758152962 397.49464392662 2707.99994468689 146 146 144
152.651533484459 397.631883621216 2709.00011062622 154 154 152
160.1472645998 397.91539311409 2710.99996566772 157 157 155
167.838782072067 398.638874292374 2716.00008010864 160 160 158
175.621390342712 399.508506059647 2721.99988365173 161 161 159
183.503374457359 400.524526834488 2729.00009155273 168 168 166
191.562727093697 401.833474636078 2737.99991607666 189 189 187
199.961200356483 403.728991746902 2750.99992752075 197 197 195
208.505123853683 405.770689249039 2765.00010490417 194 196 193
217.202708125114 407.958596944809 2779.99997138977 185 187 184
226.385474205017 410.879611968994 2799.99995231628 182 184 181
236.512050032616 415.267378091812 2829.99992370605 133 135 132
269.102603197098 417.992562055588 2848.99997711182 128 130 127
275.199174880981 415.481775999069 2832.00001716614 132 134 131
281.70183300972 413.7042760849 2819.9999332428 166 168 165
288.240939378738 412.073165178299 2809.00001525879 159 161 158
295.035272836685 410.881996154785 2801.00011825562 157 159 156
301.677137613297 409.543752670288 2792.00005531311 163 168 164
308.822989463806 408.938705921173 2788.00010681152 167 172 168
316.853910684586 409.506589174271 2792.00005531311 199 204 200
325.602918863297 410.954177379608 2802.00004577637 203 208 204
334.64303612709 412.694424390793 2813.99989128113 188 193 189
344.233959913254 415.020883083344 2829.99992370605 170 175 171
-198.139652609825 397.992014884949 2763.00001144409 191 196 192
-188.961640000343 394.546955823898 2739.00008201599 182 187 183
-180.973902344704 393.406122922897 2730.99994659424 175 177 174
-172.965615987778 392.120748758316 2721.99988365173 168 168 166
-165.370628237724 391.699224710464 2719.00010108948 163 162 160
-158.081859350204 391.997516155243 2720.99995613098 161 160 158
-151.058554649353 393.015742301941 2727.9999256134 161 161 159
-143.996551632881 394.033551216125 2734.99989509583 149 149 147
-136.796072125435 394.762873649597 2740.00000953674 145 145 143
-129.898279905319 396.500259637833 2752.00009346008 129 131 128
-122.979089617729 398.381292819977 2765.00010490417 156 161 157
-101.249441504478 401.860773563385 2789.00003433228 209 214 208
-93.0788069963455 399.417519569397 2772.0000743866 53 56 49
-85.0621983408928 397.261828184128 2756.99996948242 146 149 140
-77.3520618677139 396.258383989334 2750 147 150 141
-69.7051957249641 395.398557186127 2743.99995803833 146 149 140
-62.1361285448074 394.826382398605 2740.00000953674 145 148 141
-54.6085946261883 394.397854804993 2736.99998855591 151 154 147
-47.0627695322037 393.680661916733 2732.00011253357 143 144 139
-39.5440198481083 392.96293258667 2726.99999809265 149 150 144
-32.0288352668285 391.95653796196 2720.00002861023 146 147 141
-24.5607383549213 391.093730926514 2713.99998664856 156 157 151
-17.1505566686392 390.80685377121 2711.99989318848 155 156 150
-9.75841283798218 390.807747840881 2711.99989318848 149 150 144
-2.36623175442219 390.80810546875 2711.99989318848 145 146 140
5.01854438334703 390.231609344482 2707.99994468689 147 148 143
12.3814959079027 389.654636383057 2703.9999961853 150 151 146
19.7152923792601 388.933122158051 2698.99988174438 150 151 146
27.0518511533737 388.643383979797 2697.00002670288 146 147 142
34.3646481633186 388.209134340286 2694.00000572205 146 147 142
41.6919365525246 388.062596321106 2693.00007820129 141 142 136
48.9954091608524 387.771427631378 2690.99998474121 150 151 146
56.3296601176262 387.768030166626 2690.99998474121 152 153 148
63.68737667799 387.908279895782 2691.99991226196 150 151 146
71.0766911506653 388.192147016525 2694.00000572205 143 144 139
78.4475356340408 388.331443071365 2694.9999332428 141 142 137
85.7598781585693 388.182073831558 2694.00000572205 140 141 136
93.1701511144638 388.464570045471 2696.00009918213 139 139 137
100.553691387177 388.602435588837 2697.00002670288 149 149 147
107.902310788631 388.595789670944 2697.00002670288 153 153 151
115.122340619564 388.156414031982 2694.00000572205 153 153 151
122.552901506424 388.437002897263 2696.00009918213 150 152 149
130.234822630882 389.43749666214 2703.00006866455 145 147 144
137.954428792 390.437483787537 2710.00003814697 142 144 141
145.443513989449 390.71661233902 2711.99989318848 144 146 143
152.830272912979 390.707194805145 2711.99989318848 150 152 149
160.393759608269 391.129523515701 2714.99991416931 155 157 154
168.220177292824 392.127603292465 2721.99988365173 153 155 152
176.148682832718 393.269240856171 2730.00001907349 147 149 146
183.851152658463 393.834173679352 2733.99996757507 151 153 150
191.854655742645 394.974827766418 2742.00010299683 173 175 172
200.264498591423 396.83523774147 2755.00011444092 178 180 177
208.970621228218 399.127066135406 2770.99990844727 190 192 189
217.763185501099 401.418417692184 2786.99994087219 193 195 192
226.722955703735 403.853178024292 2803.99990081787 197 199 196
236.610263586044 407.727599143982 2831.00008964539 146 148 145
269.024610519409 410.114020109177 2848.00004959106 212 214 211
274.924367666245 407.361567020416 2828.9999961853 141 143 140
281.718909740448 406.048864126205 2819.9999332428 146 148 145
287.950485944748 404.015928506851 2805.99999427795 159 161 158
294.947683811188 403.134644031525 2799.99995231628 166 168 165
301.47910118103 401.677072048187 2789.99996185303 169 174 170
308.730572462082 401.227056980133 2786.99994087219 177 182 178
316.872775554657 401.928424835205 2792.00005531311 187 192 188
325.389713048935 403.061121702194 2799.99995231628 179 184 180
334.543824195862 404.913067817688 2812.99996376038 190 195 191
344.862312078476 408.059984445572 2835.00003814697 196 201 197
-198.797345161438 391.760021448135 2772.0000743866 194 199 195
-189.387321472168 387.95605301857 2744.99988555908 183 188 184
-181.117713451385 386.271476745605 2733.00004005432 177 179 176
-172.91285097599 384.58639383316 2720.99995613098 170 170 168
-165.259301662445 384.031474590302 2717.00000762939 165 164 162
-157.97558426857 384.324222803116 2719.00010108948 161 160 158
-150.791138410568 384.899228811264 2723.00004959106 160 160 158
-143.742352724075 385.897904634476 2730.00001907349 153 153 151
-136.604979634285 386.754840612412 2736.00006103516 149 149 147
-129.717648029327 388.459473848343 2747.99990653992 124 126 123
-123.0758279562 391.153305768967 2766.99995994568 137 142 138
-101.183257997036 394.00178194046 2786.99994087219 45 50 43
-92.8832441568375 391.039103269577 2766.00003242493 20 23 14
-84.8207846283913 388.64141702652 2749.00007247925 14 17 8
-77.2444754838943 388.222396373749 2746.00005149841 11 14 5
-69.5572048425674 387.095957994461 2737.99991607666 110 113 104
-62.0267055928707 386.676043272018 2734.99989509583 152 155 148
-54.4923692941666 386.114180088043 2730.99994659424 144 147 140
-47.0140986144543 385.834693908691 2729.00009155273 144 145 139
-39.5320542156696 385.413289070129 2726.0000705719 144 145 139
-32.0191122591496 384.42587852478 2719.00010108948 143 144 138
-24.5623122900724 383.720755577087 2713.99998664856 156 157 151
-17.1453319489956 383.297890424728 2710.99996566772 156 157 151
-9.75903682410717 383.440107107162 2711.99989318848 148 149 143
-2.36376607790589 383.016377687454 2709.00011062622 146 147 141
5.01701282337308 382.733523845673 2707.00001716614 149 150 145
12.3777110129595 382.167428731918 2703.00006866455 151 152 147
19.7311658412218 381.883591413498 2700.99997520447 145 146 141
27.0435530692339 381.175220012665 2696.00009918213 145 146 141
34.3796126544476 381.031841039658 2694.9999332428 144 145 140
41.7255684733391 381.029456853867 2694.9999332428 142 143 137
49.0531735122204 380.885183811188 2694.00000572205 152 153 148
56.4379431307316 381.164610385895 2696.00009918213 152 153 148
63.7860894203186 381.160795688629 2696.00009918213 148 149 144
71.1603835225105 381.297886371613 2697.00002670288 139 140 135
78.5398706793785 381.434500217438 2697.99995422363 138 139 134
85.8926773071289 381.429314613342 2697.99995422363 139 140 135
93.279741704464 381.564974784851 2698.99988174438 139 139 137
100.560076534748 381.276190280914 2697.00002670288 153 153 151
107.9091578722 381.269574165344 2697.00002670288 156 156 154
115.343295037746 381.545275449753 2698.99988174438 147 147 145
122.787944972515 381.820529699326 2700.99997520447 144 146 143
130.483970046043 382.802158594131 2707.99994468689 140 142 139
138.064920902252 383.359134197235 2711.99989318848 143 145 142
145.559936761856 383.632987737656 2713.99998664856 145 147 144
152.896240353584 383.482366800308 2713.00005912781 149 151 148
160.581022500992 384.179294109344 2717.99993515015 155 157 154
168.539717793465 385.441213846207 2726.99999809265 153 155 152
176.482290029526 386.561214923859 2734.99989509583 143 145 142
184.266075491905 387.256801128387 2740.00000953674 143 145 142
192.216396331787 388.234466314316 2746.99997901917 166 168 165
200.567647814751 389.918357133865 2759.0000629425 176 178 175
209.360599517822 392.308264970779 2776.00002288818 178 180 177
218.011006712914 394.273698329926 2789.99996185303 164 166 163
226.898610591888 396.521180868149 2805.99999427795 148 150 147
236.373960971832 399.615913629532 2828.00006866455 108 110 107
268.190622329712 401.109337806702 2838.99998664856 207 209 206
274.35776591301 398.832589387894 2822.99995422363 134 136 133
280.836641788483 397.120773792267 2811.00010871887 160 162 159
287.659734487534 395.973712205887 2802.99997329712 172 174 171
294.438481330872 394.82644200325 2795.00007629395 175 177 174
301.172703504562 393.678814172745 2786.99994087219 172 177 173
308.194845914841 392.954736948013 2782.00006484985 174 179 175
316.210329532623 393.501549959183 2786.00001335144 196 201 197
324.711412191391 394.612818956375 2793.99991035461 201 206 202
333.611786365509 396.14737033844 2805.0000667572 194 199 195
344.395697116852 399.799734354019 2831.00008964539 196 201 197
-189.812883734703 381.331294775009 2750.99992752075 184 189 185
-181.460186839104 379.540592432022 2737.99991607666 177 179 176
-173.304796218872 378.02654504776 2726.99999809265 171 171 169
-165.573641657829 377.34380364418 2721.99988365173 165 164 162
-158.159658312798 377.353727817535 2721.99988365173 160 159 157
-150.800481438637 377.501845359802 2723.00004959106 159 159 157
-143.803924322128 378.619968891144 2730.99994659424 156 156 154
-136.563524603844 379.183173179626 2734.99989509583 152 152 150
-129.725724458694 380.993753671646 2747.99990653992 125 127 124
-122.950047254562 383.21989774704 2763.99993896484 111 116 112
-93.6614722013474 386.713147163391 2789.00003433228 9 12 3
-84.980383515358 381.865650415421 2753.99994850159 21 24 15
-77.2774592041969 380.900114774704 2746.99997901917 13 16 7
-69.5615857839584 379.656732082367 2737.99991607666 18 21 12
-61.9625709950924 378.828912973404 2732.00011253357 88 91 84
-54.4159859418869 378.139197826386 2726.99999809265 166 169 162
-46.9481460750103 377.865046262741 2724.99990463257 153 154 148
-39.4910387694836 377.590447664261 2723.00004959106 143 144 138
-31.985804438591 376.622021198273 2716.00008010864 140 141 135
-24.5457626879215 376.069098711014 2711.99989318848 155 156 150
-17.1274412423372 375.515729188919 2707.99994468689 152 153 147
-9.74886026233435 375.655263662338 2709.00011062622 149 150 144
-2.36304244026542 375.516921281815 2707.99994468689 146 147 141
5.01732993870974 375.3781914711 2707.00001716614 149 150 145
12.3922312632203 375.239014625549 2706.00008964539 151 152 147
19.7470262646675 374.821990728378 2703.00006866455 144 145 140
27.0753558725119 374.265849590302 2698.99988174438 141 142 137
34.4072952866554 373.986542224884 2697.00002670288 141 142 137
41.7746566236019 374.122828245163 2697.99995422363 147 148 143
49.1290986537933 374.119997024536 2697.99995422363 150 151 146
56.5042942762375 374.255299568176 2698.99988174438 145 146 141
63.8374239206314 374.112904071808 2697.99995422363 137 138 133
71.2440237402916 374.386012554169 2700.00004768372 133 134 129
78.6321461200714 374.520003795624 2700.99997520447 136 137 132
85.9617590904236 374.376237392426 2700.00004768372 138 138 136
93.251034617424 374.093294143677 2697.99995422363 144 144 142
100.529082119465 373.810023069382 2696.00009918213 154 154 152
107.955910265446 374.080777168274 2697.99995422363 153 153 151
115.564204752445 374.90576505661 2703.9999961853 141 141 139
123.068377375603 375.314325094223 2707.00001716614 134 136 133
130.684837698936 375.999718904495 2711.99989318848 134 136 133
138.124421238899 376.130044460297 2713.00005912781 146 148 145
145.568951964378 376.259952783585 2713.99998664856 147 149 146
153.018414974213 376.389384269714 2714.99991416931 149 151 148
160.827279090881 377.350151538849 2721.99988365173 158 160 157
168.797329068184 378.587752580643 2730.99994659424 161 163 160
176.880314946175 379.963427782059 2740.9999370575 153 155 152
184.815391898155 380.922734737396 2747.99990653992 144 146 143
192.717984318733 381.74295425415 2753.99994850159 146 148 145
200.797989964485 382.839947938919 2762.00008392334 158 160 157
209.29791033268 384.629428386688 2775.00009536743 167 172 168
218.024224042892 386.695623397827 2789.99996185303 169 174 170
227.074056863785 389.177024364471 2808.00008773804 171 176 172
236.221045255661 391.657799482346 2825.99997520447 141 146 142
267.450779676437 392.290860414505 2831.00008964539 206 211 207
273.596495389938 390.057861804962 2815.00005722046 148 153 149
280.05388379097 388.378828763962 2802.99997329712 169 174 170
286.855638027191 387.253850698471 2795.00007629395 172 177 173
293.718248605728 386.267095804214 2788.00010681152 174 179 175
300.757974386215 385.557115077972 2782.99999237061 173 178 174
307.991176843643 385.12396812439 2779.99997138977 176 181 177
316.115111112595 385.798633098602 2785.00008583069 196 201 197
324.265211820602 386.472910642624 2789.99996185303 197 202 198
333.155125379562 387.977927923203 2801.00011825562 192 197 193
343.928635120392 391.559928655624 2826.99990272522 185 190 186
-189.755350351334 373.721450567245 2750 177 182 178
-181.206047534943 371.558159589767 2733.99996757507 178 180 177
-173.061087727547 370.073914527893 2723.00004959106 176 176 174
-165.279537439346 369.268625974655 2717.00000762939 159 158 156
-158.053055405617 369.68606710434 2720.00002861023 157 156 154
-150.698930025101 369.831383228302 2720.99995613098 158 158 156
-143.654733896255 370.791703462601 2727.9999256134 156 156 154
-136.472031474113 371.479839086533 2733.00004005432 156 156 154
-129.639282822609 373.254984617233 2746.00005149841 130 132 129
-123.491443693638 377.340584993362 2776.00002288818 118 123 119
-86.2200111150742 379.819512367249 2793.99991035461 15 18 9
-77.7605175971985 375.74627995491 2763.99993896484 23 26 15
-69.5405006408691 372.080355882645 2736.99998855591 23 26 17
-61.8076473474503 370.453000068665 2724.99990463257 15 18 9
-54.2397685348988 369.504988193512 2717.99993515015 27 30 21
-46.847689896822 369.644045829773 2719.00010108948 150 151 145
-39.4499860703945 369.782656431198 2720.00002861023 82 85 78
-31.9760143756866 369.105070829391 2714.99991416931 151 154 147
-24.5201382786036 368.291199207306 2709.00011062622 153 156 149
-17.1095319092274 367.748618125916 2704.99992370605 147 150 143
-9.7386697307229 367.885440587997 2706.00008964539 141 144 137
-2.36231740564108 368.021786212921 2707.00001716614 138 141 134
5.01578953117132 367.885738611221 2706.00008964539 147 149 144
12.3884249478579 367.749243974686 2704.99992370605 146 148 143
19.748255610466 367.476373910904 2703.00006866455 143 145 140
27.0971078425646 367.202997207642 2700.99997520447 143 145 140
34.4349518418312 366.929143667221 2698.99988174438 148 150 145
41.7927354574203 366.926789283752 2698.99988174438 150 152 147
49.1685718297958 367.059975862503 2700.00004768372 150 152 147
56.5496832132339 367.192625999451 2700.99997520447 140 142 137
63.9123693108559 367.188900709152 2700.99997520447 131 133 128
71.3012143969536 367.320686578751 2701.99990272522 134 136 133
78.7534713745117 367.723941802979 2704.99992370605 139 141 138
86.1262679100037 367.71884560585 2704.99992370605 140 142 139
93.4296324849129 367.441475391388 2703.00006866455 148 150 147
100.684449076653 367.027759552002 2700.00004768372 157 159 158
108.202658593655 367.565035820007 2703.9999961853 145 147 146
115.913234651089 368.645668029785 2711.99989318848 136 138 137
123.43967705965 369.046181440353 2714.99991416931 133 135 132
130.933806300163 369.310230016708 2717.00000762939 139 141 138
138.285636901855 369.166195392609 2716.00008010864 147 149 146
145.738780498505 369.293481111526 2717.00000762939 145 147 144
153.196826577187 369.420260190964 2717.99993515015 148 150 147
161.014333367348 370.362222194672 2724.99990463257 152 154 151
168.993011116982 371.575474739075 2733.99996757507 169 171 168
177.020117640495 372.788220643997 2743.00003051758 152 154 151
185.028359293938 373.864561319351 2750.99992752075 135 137 134
193.009525537491 374.804526567459 2757.99989700317 140 142 139
200.882747769356 375.472247600555 2763.00001144409 143 145 142
208.933308720589 376.411259174347 2769.99998092651 186 191 187
217.802792787552 378.70866060257 2786.99994087219 184 189 185
226.844966411591 381.141394376755 2805.0000667572 189 194 190
236.485853791237 384.388744831085 2828.9999961853 130 135 131
266.521692276001 383.242934942245 2821.00009918213 205 210 206
273.223668336868 381.868749856949 2811.00010871887 157 162 158
279.770404100418 380.358427762985 2799.99995231628 164 169 165
286.666959524155 379.391252994537 2792.99998283386 175 180 176
293.4190928936 378.287881612778 2785.00008583069 168 173 169
300.451070070267 377.591818571091 2779.99997138977 174 179 175
307.898014783859 377.438694238663 2779.00004386902 174 179 175
315.906047821045 377.96425819397 2782.99999237061 185 190 186
324.399828910828 379.032641649246 2790.99988937378 198 203 199
333.530724048615 380.779564380646 2803.99990081787 184 189 185
-189.352586865425 365.449845790863 2743.99995803833 190 195 191
-181.084290146828 363.862603902817 2732.00011253357 182 184 181
-173.198536038399 362.940818071365 2724.99990463257 177 177 175
-165.532767772675 362.418055534363 2720.99995613098 166 165 163
-158.178761601448 362.560898065567 2721.99988365173 164 163 161
-150.763362646103 362.570077180862 2721.99988365173 164 164 162
-143.610745668411 363.244891166687 2726.99999809265 157 157 155
-136.380389332771 363.786101341248 2730.99994659424 153 153 151
-129.599899053574 365.658938884735 2744.99988555908 122 124 121
-123.32097440958 369.263261556625 2772.0000743866 123 128 122
-86.5030139684677 373.424649238586 2802.99997329712 15 18 7
-78.4405097365379 371.431291103363 2788.00010681152 19 22 11
-69.8242485523224 366.106748580933 2747.99990653992 12 15 4
-61.6072826087475 361.847460269928 2716.00008010864 18 21 12
-54.0036112070084 360.51869392395 2706.00008964539 9 12 3
-46.678252518177 360.92147231102 2709.00011062622 15 16 10
-39.3653772771358 361.5902364254 2713.99998664856 11 14 7
-31.9426394999027 361.325889825821 2711.99989318848 89 92 85
-24.5035365223885 360.661447048187 2707.00001716614 144 147 140
-17.0979332178831 360.129803419113 2703.00006866455 142 145 138
-9.7320694476366 360.263884067535 2703.9999961853 142 145 138
-2.36246245913208 360.663950443268 2707.00001716614 131 134 127
5.01795066520572 360.663861036301 2707.00001716614 145 147 142
12.3891839757562 360.396802425385 2704.99992370605 137 139 134
19.749466329813 360.129415988922 2703.00006866455 138 140 135
27.1188355982304 360.127985477448 2703.00006866455 138 140 135
34.4753414392471 359.992831945419 2701.99990272522 156 158 153
41.8107844889164 359.724074602127 2700.00004768372 152 154 149
49.1898022592068 359.85454916954 2700.99997520447 139 141 138
56.5950274467468 360.117793083191 2703.00006866455 133 135 132
63.9872699975967 360.24734377861 2703.9999961853 131 133 130
71.3583528995514 360.243290662766 2703.9999961853 134 136 133
78.7582844495773 360.371947288513 2704.99992370605 136 138 135
86.0996842384338 360.233724117279 2703.9999961853 156 158 155
93.4007540345192 359.961837530136 2701.99990272522 157 159 158
100.839741528034 360.222458839417 2703.9999961853 139 141 140
108.449347317219 361.015439033508 2710.00003814697 137 139 138
116.133987903595 361.941188573837 2717.00000762939 135 137 136
123.674474656582 362.333595752716 2720.00002861023 139 144 140
131.03811442852 362.192749977112 2719.00010108948 141 146 142
138.395801186562 362.051457166672 2717.99993515015 144 149 145
145.908460021019 362.309366464615 2720.00002861023 142 147 143
153.431490063667 362.566828727722 2721.99988365173 146 151 147
161.319449543953 363.623052835464 2730.00001907349 150 155 151
169.003129005432 364.145994186401 2733.99996757507 172 177 173
177.224278450012 365.733981132507 2746.00005149841 162 167 163
185.241147875786 366.788774728775 2753.99994850159 144 149 145
193.300947546959 367.843121290207 2762.00008392334 139 144 140
201.258182525635 368.630528450012 2767.99988746643 131 136 132
209.096550941467 369.151204824448 2772.0000743866 142 147 143
217.659324407578 370.869934558868 2785.00008583069 179 184 180
226.696506142616 373.253881931305 2802.99997329712 163 168 164
236.499682068825 376.702576875687 2828.9999961853 114 119 115
266.253620386124 375.180006027222 2818.00007820129 112 117 113
273.142158985138 374.099463224411 2809.99994277954 141 146 142
279.686510562897 372.619330883026 2799.00002479553 143 148 144
286.375403404236 371.405124664307 2789.99996185303 167 172 168
293.119698762894 370.323807001114 2782.00006484985 176 181 177
300.468057394028 370.040863752365 2779.99997138977 169 174 170
308.136969804764 370.15688419342 2780.99989891052 178 183 179
316.150844097137 370.671898126602 2785.00008583069 189 194 190
324.301719665527 371.319562196732 2789.99996185303 185 190 186
333.787202835083 373.430699110031 2805.99999427795 188 193 189
-189.156636595726 357.601076364517 2740.9999370575 194 199 195
-180.962339043617 356.17670416832 2730.00001907349 179 181 178
-173.272281885147 355.665177106857 2726.0000705719 175 175 173
-165.72505235672 355.414092540741 2723.99997711182 162 161 159
-158.304333686829 355.423599481583 2723.99997711182 160 159 157
