ply
format ascii 1.0
comment KinectMotionCapture
element vertex 759
property float x
property float y
property float z
property uchar red
property uchar green
property uchar blue
end_header
4.9547515809536 618.469953536987 2680.0000667572 142 141 137
12.2193554416299 617.315351963043 2674.99995231628 142 141 137
19.4713100790977 616.621792316437 2671.99993133545 166 165 161
26.6868770122528 615.466058254242 2667.00005531311 153 152 148
33.9388065040112 615.463554859161 2667.00005531311 138 137 133
41.1751866340637 615.229666233063 2665.99988937378 140 139 134
48.4060160815716 614.995241165161 2664.99996185303 143 142 137
55.6103922426701 614.529669284821 2663.00010681152 151 150 145
62.8037229180336 614.063262939453 2661.00001335144 152 151 146
70.0123310089111 613.827109336853 2660.00008583069 146 145 140
77.1862491965294 613.35963010788 2657.99999237061 143 142 137
84.3808278441429 613.122284412384 2657.00006484985 152 151 146
91.5352776646614 612.653732299805 2654.99997138977 153 152 147
98.7901464104652 612.876772880554 2655.99989891052 153 152 147
106.050208210945 613.099277019501 2657.00006484985 153 152 147
113.315373659134 613.321244716644 2657.99999237061 153 152 147
120.449624955654 612.850368022919 2655.99989891052 151 150 145
127.620726823807 612.60974407196 2654.99997138977 153 152 147
134.938403964043 613.060653209686 2657.00006484985 151 150 145
142.266571521759 613.511145114899 2658.99991989136 159 158 153
149.661436676979 614.191710948944 2661.99994087219 169 168 163
157.072216272354 614.871740341187 2664.99996185303 160 159 154
164.375513792038 615.08971452713 2665.99988937378 157 156 151
171.490713953972 614.615082740784 2664.00003433228 156 155 150
178.79581451416 614.831924438477 2664.99996185303 154 153 148
186.38513982296 615.971148014069 2670.00007629395 156 155 150
194.146156311035 617.571175098419 2677.00004577637 155 154 149
201.643705368042 618.247926235199 2680.0000667572 148 148 146
209.312945604324 619.385361671448 2684.99994277954 143 143 141
217.250838875771 621.214330196381 2693.00007820129 142 142 140
225.148186087608 622.81197309494 2700.00004768372 146 146 144
233.082965016365 624.409079551697 2707.00001716614 143 143 141
240.966364741325 625.77497959137 2713.00005912781 155 155 153
249.064773321152 627.601504325867 2720.99995613098 154 154 152
257.677227258682 630.58066368103 2733.99996757507 160 160 158
266.844421625137 634.712398052216 2752.00009346008 161 161 159
276.806443929672 640.457808971405 2776.99995040894 158 158 156
285.674780607224 643.434882164001 2789.99996185303 121 121 119
293.77207159996 644.566357135773 2795.00007629395 123 123 121
301.141113042831 644.083142280579 2792.99998283386 123 122 120
308.277487754822 643.138289451599 2789.00003433228 132 131 129
315.617859363556 642.654180526733 2786.99994087219 138 137 135
322.946637868881 642.169773578644 2785.00008583069 151 151 149
330.857187509537 642.837822437286 2788.00010681152 161 161 159
339.025944471359 643.966436386108 2792.99998283386 189 189 187
347.965657711029 646.477878093719 2803.99990081787 190 190 188
356.710642576218 648.52774143219 2812.99996376038 187 187 185
365.503549575806 650.577068328857 2822.00002670288 179 181 178
-168.214246630669 632.064580917358 2772.0000743866 207 211 210
-158.188566565514 622.272610664368 2729.00009155273 199 201 200
-150.440365076065 620.916664600372 2723.00004959106 193 193 191
-142.671823501587 619.332134723663 2716.00008010864 193 194 189
-135.189965367317 618.887066841125 2713.99998664856 172 173 168
-127.812802791595 618.897616863251 2713.99998664856 155 156 151
-120.568409562111 619.591653347015 2717.00000762939 149 150 145
-113.265715539455 620.057046413422 2719.00010108948 145 146 141
-105.873949825764 620.065867900848 2719.00010108948 143 144 139
-98.6267551779747 620.986342430115 2723.00004959106 144 145 140
-91.324009001255 621.678113937378 2726.0000705719 146 147 142
-84.2201858758926 623.965740203857 2736.00006103516 129 130 125
-77.0056173205376 625.796735286713 2743.99995803833 125 126 121
-69.9247196316719 629.223585128784 2759.0000629425 108 109 104
-62.6715496182442 631.737649440765 2769.99998092651 106 107 102
-55.139422416687 631.742417812347 2769.99998092651 103 104 99
-47.3665148019791 628.553628921509 2756.00004196167 109 110 105
-39.6117456257343 624.45193529129 2737.99991607666 129 128 124
-32.0252403616905 621.718049049377 2726.0000705719 134 133 129
-24.4948770850897 618.755400180817 2713.00005912781 138 137 133
-17.0730035752058 617.160618305206 2706.00008964539 140 139 135
-9.66761261224747 614.19677734375 2693.00007820129 147 146 142
-2.33463849872351 611.688435077667 2681.99992179871 148 147 143
4.95515484362841 611.232161521912 2680.0000667572 138 137 133
12.2203510254622 610.091149806976 2674.99995231628 151 150 146
19.4947551935911 610.089838504791 2674.99995231628 159 158 154
26.7090611159801 608.719527721405 2668.99991035461 147 146 142
33.9670181274414 608.717083930969 2668.99991035461 143 142 138
41.2094295024872 608.485996723175 2667.99998283386 143 142 137
48.4462790191174 608.254253864288 2667.00005531311 150 149 144
55.6566677987576 607.793927192688 2664.99996185303 148 147 142
62.8088116645813 606.876850128174 2661.00001335144 144 143 138
70.0180009007454 606.643497943878 2660.00008583069 150 149 144
77.1634504199028 605.953335762024 2657.00006484985 152 151 146
84.4193994998932 606.174826622009 2657.99999237061 152 151 146
91.6116163134575 605.939745903015 2657.00006484985 153 152 147
98.9468917250633 606.616199016571 2660.00008583069 153 152 147
106.138557195663 606.379866600037 2658.99991989136 154 153 148
113.409742712975 606.59921169281 2660.00008583069 154 153 148
120.549976825714 606.133699417114 2657.99999237061 153 152 148
127.678990364075 605.66771030426 2655.99989891052 152 151 146
134.949177503586 605.88526725769 2657.00006484985 150 149 144
142.331406474113 606.558382511139 2660.00008583069 160 159 154
149.729549884796 607.230842113495 2663.00010681152 172 171 166
157.025679945946 607.446670532227 2664.00003433228 163 162 157
164.265170693398 607.434034347534 2664.00003433228 159 158 153
171.568557620049 607.64878988266 2664.99996185303 156 155 150
179.145336151123 608.775079250336 2670.00007629395 153 152 147
186.748772859573 609.900772571564 2674.99995231628 156 155 150
194.523945450783 611.481845378876 2681.99992179871 157 156 151
202.03560590744 612.150430679321 2684.99994277954 144 144 142
209.952861070633 613.958358764648 2693.00007820129 142 142 140
217.751652002335 615.309715270996 2698.99988174438 144 144 142
225.49906373024 616.43260717392 2703.9999961853 148 148 146
233.186915516853 617.32679605484 2707.99994468689 142 142 140
241.251200437546 619.132399559021 2716.00008010864 154 154 152
249.632939696312 621.621251106262 2726.99999809265 156 156 154
258.356511592865 624.793291091919 2740.9999370575 150 150 148
267.8342461586 629.560172557831 2762.00008392334 168 168 166
277.525007724762 634.554207324982 2783.99991989136 175 175 173
286.310493946075 637.268245220184 2796.0000038147 126 126 124
294.109255075455 637.702465057373 2798.00009727478 124 124 122
301.594644784927 637.45254278183 2796.99993133545 125 124 122
308.742254972458 636.51841878891 2792.99998283386 133 132 130
315.980672836304 635.811865329742 2789.99996185303 137 136 134
323.202043771744 635.104894638062 2786.99994087219 147 147 145
331.118434667587 635.76477766037 2789.99996185303 157 157 155
339.171707630157 636.652112007141 2793.99991035461 188 188 186
347.8664457798 638.678252696991 2802.99997329712 190 190 188
356.609165668488 640.703856945038 2812.00003623962 190 190 188
365.270286798477 642.500996589661 2819.9999332428 178 180 177
375.164210796356 646.348118782043 2836.99989318848 193 195 192
-166.710302233696 618.944406509399 2746.99997901917 207 211 210
-158.201083540916 614.901483058929 2729.00009155273 196 198 197
-150.397017598152 613.336384296417 2721.99988365173 190 190 188
-142.630606889725 611.770689487457 2714.99991416931 189 190 185
-135.25053858757 611.781775951386 2714.99991416931 169 170 165
-127.870097756386 611.792266368866 2714.99991416931 152 153 148
-120.622433722019 612.478196620941 2717.99993515015 151 152 147
-113.358102738857 613.163530826569 2720.99995613098 147 148 143
-106.038197875023 613.623023033142 2723.00004959106 143 144 139
-98.7071171402931 614.081978797913 2724.99990463257 145 146 141
-91.4653763175011 615.216374397278 2730.00001907349 145 146 141
-84.3501165509224 617.476999759674 2740.00000953674 129 130 125
-77.1521627902985 619.511783123016 2749.00007247925 121 122 117
-70.0824484229088 623.123466968536 2765.00010490417 109 110 105
-62.8350079059601 625.833094120026 2776.99995040894 214 215 210
-55.2633367478848 625.612556934357 2776.00002288818 82 83 78
-47.4391058087349 622.010827064514 2759.99999046326 122 123 118
-39.7017672657967 618.408501148224 2743.99995803833 128 127 123
-32.0983305573463 615.706980228424 2732.00011253357 133 132 128
-24.5510414242744 612.779498100281 2719.00010108948 137 136 132
-17.1059370040894 610.978186130524 2710.99996566772 139 138 134
-9.68275777995586 607.824087142944 2697.00002670288 146 145 141
-2.33918125741184 605.570912361145 2687.00003623962 146 145 141
4.96110459789634 604.669272899628 2683.00008773804 140 139 135
12.2441863641143 603.992521762848 2680.0000667572 153 152 148
19.5182040333748 603.540480136871 2677.99997329712 157 156 152
26.751259341836 602.41174697876 2673.00009727478 145 144 140
33.9952260255814 601.958572864532 2671.0000038147 143 142 138
41.1973223090172 601.054012775421 2667.00005531311 148 147 142
48.3775436878204 600.148975849152 2663.00010681152 152 151 146
55.5985122919083 599.919319152832 2661.99994087219 148 147 142
62.7902820706367 599.463880062103 2660.00008583069 144 143 138
69.97100263834 599.007785320282 2657.99999237061 149 148 143
77.1406292915344 598.551154136658 2655.99989891052 150 149 144
84.3626782298088 598.544597625732 2655.99989891052 153 152 147
91.5844887495041 598.537504673004 2655.99989891052 153 152 147
98.9176407456398 599.20597076416 2658.99991989136 154 153 148
106.02729767561 598.521649837494 2655.99989891052 153 152 147
113.290898501873 598.738253116608 2657.00006484985 153 152 147
120.37817388773 598.052859306335 2654.00004386902 152 151 147
127.737253904343 598.71906042099 2657.00006484985 155 154 150
134.959906339645 598.70857000351 2657.00006484985 150 149 145
142.396211624146 599.59888458252 2661.00001335144 157 156 152
149.628937244415 599.587321281433 2661.00001335144 172 171 167
156.920194625854 599.800527095795 2661.99994087219 166 165 161
164.278104901314 600.238502025604 2664.00003433228 158 157 153
171.710819005966 600.901246070862 2667.00005531311 162 161 157
179.42775785923 602.464616298676 2674.00002479553 158 157 153
187.042623758316 603.57677936554 2678.99990081787 150 149 145
194.611638784409 604.463219642639 2683.00008773804 154 153 149
202.051281929016 604.898393154144 2684.99994277954 150 150 148
210.125029087067 607.135236263275 2694.9999332428 153 153 151
218.010470271111 608.695685863495 2701.99990272522 149 149 147
225.849956274033 610.030293464661 2707.99994468689 138 138 136
233.63533616066 611.139118671417 2713.00005912781 163 163 161
241.802558302879 613.148212432861 2721.99988365173 129 129 127
250.201165676117 615.607380867004 2733.00004005432 177 177 175
259.224385023117 619.417309761047 2750 152 152 150
268.824189901352 624.352693557739 2772.0000743866 178 178 176
278.642416000366 629.512488842011 2795.00007629395 140 140 138
287.048667669296 631.293177604675 2802.99997329712 126 126 124
294.761776924133 631.496727466583 2803.99990081787 123 123 121
302.156090736389 631.024360656738 2802.00004577637 123 122 120
309.207141399384 629.875779151917 2796.99993133545 131 130 128
316.230297088623 628.72701883316 2792.00005531311 136 135 133
323.341488838196 627.802968025208 2788.00010681152 143 143 141
331.023663282394 628.004431724548 2789.00003433228 154 154 152
339.317500591278 629.331409931183 2795.00007629395 188 188 186
348.015367984772 631.33317232132 2803.99990081787 189 189 187
356.761336326599 633.334457874298 2812.99996376038 191 191 189
364.648371934891 633.759200572968 2815.00005722046 179 181 178
374.264776706696 637.11029291153 2829.99992370605 195 197 194
-165.934413671494 608.629465103149 2733.99996757507 208 212 211
-157.865703105927 606.193363666534 2723.00004959106 195 197 196
-150.187879800797 605.092406272888 2717.99993515015 191 191 189
-142.536848783493 603.990912437439 2713.00005912781 185 186 181
-135.311111807823 604.669809341431 2716.00008010864 166 167 162
-127.833187580109 604.234993457794 2713.99998664856 151 152 147
-120.720833539963 605.580747127533 2720.00002861023 148 149 144
-113.408826291561 606.035232543945 2721.99988365173 144 145 140
-106.124572455883 606.711983680725 2724.99990463257 140 141 136
-98.8237038254738 607.388138771057 2727.9999256134 141 142 137
-91.6067510843277 608.731687068939 2733.99996757507 143 144 139
-84.5724046230316 611.633241176605 2746.99997901917 126 127 122
-77.3548483848572 613.643705844879 2756.00004196167 116 117 112
-70.2655389904976 617.212176322937 2772.0000743866 118 119 114
-63.0889981985092 620.780110359192 2788.00010681152 207 208 203
-55.327519774437 618.780910968781 2779.00004386902 95 96 91
-47.4945083260536 615.222454071045 2763.00001144409 122 123 118
-39.7917963564396 612.331330776215 2750 130 129 125
-32.1479290723801 609.216928482056 2736.00006103516 133 132 128
-24.6072094887495 606.769800186157 2724.99990463257 138 137 133
-17.113633453846 603.876769542694 2711.99989318848 140 139 135
-9.69072245061398 600.983202457428 2698.99988174438 146 145 141
-2.34372355043888 599.424958229065 2691.99991226196 145 144 140
4.97075263410807 598.534226417542 2687.99996376038 145 144 140
12.258886359632 597.420215606689 2683.00008773804 157 156 152
19.5197854191065 596.30560874939 2677.99997329712 153 152 148
26.7434157431126 594.967663288116 2671.99993133545 143 142 138
33.9979790151119 594.742596149445 2671.0000038147 143 142 138
41.1852076649666 593.626201152802 2665.99988937378 151 150 145
48.3814477920532 592.954635620117 2663.00010681152 152 151 146
55.5821172893047 592.505097389221 2661.00001335144 148 147 142
62.8189593553543 592.500329017639 2661.00001335144 147 146 141
70.0029656291008 592.049658298492 2658.99991989136 151 150 145
77.1758779883385 591.598391532898 2657.00006484985 151 150 145
84.369458258152 591.369211673737 2655.99989891052 153 152 147
91.5918499231339 591.362178325653 2655.99989891052 154 153 148
98.776750266552 591.131925582886 2654.99997138977 153 152 147
105.955943465233 590.901076793671 2654.00004386902 153 152 147
113.214656710625 591.115057468414 2654.99997138977 152 151 146
120.342426002026 590.660452842712 2653.00011634827 152 151 147
127.60317325592 590.873181819916 2654.00004386902 154 153 149
134.767428040504 590.640187263489 2653.00011634827 151 150 146
142.300456762314 591.964960098267 2658.99991989136 158 157 153
149.584531784058 592.176079750061 2660.00008583069 173 172 168
156.81466460228 592.163980007172 2660.00008583069 168 167 163
164.167672395706 592.596530914307 2661.99994087219 162 161 157
171.788647770882 593.919038772583 2667.99998283386 162 161 157
179.643124341965 595.90882062912 2677.00004577637 167 166 162
187.196850776672 596.784889698029 2680.99999427795 147 146 142
194.916889071465 598.105609416962 2687.00003623962 149 148 144
202.292710542679 598.312795162201 2687.99996376038 167 167 165
210.219234228134 600.077569484711 2696.00009918213 161 161 159
217.865869402885 600.951433181763 2700.00004768372 151 151 149
225.783854722977 602.492451667786 2707.00001716614 135 135 133
233.739286661148 604.032814502716 2713.99998664856 157 157 155
242.176324129105 606.6854596138 2726.0000705719 141 141 139
250.860989093781 609.782457351685 2740.00000953674 154 154 152
259.998053312302 613.768935203552 2757.99989700317 182 182 180
269.814193248749 619.089961051941 2782.00006484985 162 162 160
279.36115860939 623.520076274872 2802.00004577637 126 126 124
287.889391183853 625.501692295074 2811.00010871887 120 120 118
295.519530773163 625.479996204376 2811.00010871887 124 124 122
302.825450897217 624.790489673615 2808.00008773804 122 121 119
309.78262424469 623.43293428421 2802.00004577637 131 130 128
316.706418991089 622.075080871582 2796.0000038147 136 135 133
323.596924543381 620.71692943573 2789.99996185303 143 143 141
331.047534942627 620.470762252808 2789.00003433228 151 151 149
339.463263750076 622.00403213501 2796.0000038147 183 183 181
348.5367000103 624.648928642273 2808.00008773804 189 189 187
357.420742511749 626.84828042984 2818.00007820129 193 193 191
364.803642034531 626.377940177917 2815.99998474121 174 176 173
373.497426509857 628.131449222565 2823.99988174438 193 195 192
-165.583252906799 599.922835826874 2727.9999256134 207 211 210
-157.530248165131 597.516417503357 2717.00000762939 195 197 196
-150.089234113693 597.308695316315 2716.00008010864 191 191 189
-142.548114061356 596.660435199738 2713.00005912781 182 183 178
-135.421484708786 597.771048545837 2717.99993515015 165 166 161
-127.93755531311 597.341656684875 2716.00008010864 153 154 149
-120.86359411478 598.891079425812 2723.00004959106 145 147 142
-113.58454823494 599.56020116806 2726.0000705719 141 143 138
-106.366738677025 600.668668746948 2730.99994659424 137 139 134
-98.9403054118156 600.676834583282 2730.99994659424 140 142 137
-91.7146131396294 602.004170417786 2736.99998855591 143 145 140
-84.7023501992226 605.090498924255 2750.99992752075 127 129 124
-77.5856152176857 607.956409454346 2763.99993896484 97 99 94
-70.4993307590485 611.701607704163 2780.99989891052 177 179 174
-63.3656457066536 615.886211395264 2799.99995231628 226 228 223
-55.3717948496342 611.71168088913 2780.99989891052 102 104 99
-47.5499145686626 608.416497707367 2766.00003242493 132 134 129
-39.8673601448536 606.000363826752 2755.00011444092 130 129 125
-32.1857780218124 602.483868598938 2739.00008201599 133 132 128
-24.6272590011358 599.846601486206 2726.99999809265 138 137 133
-17.1150173991919 596.548736095428 2711.99989318848 141 140 136
-9.7022783011198 594.350159168243 2701.99990272522 145 144 140
-2.34652520157397 592.810928821564 2694.9999332428 144 143 139
4.97670192271471 591.930866241455 2690.99998474121 155 154 150
12.2735844925046 590.830385684967 2686.00010871887 162 161 157
19.5359420031309 589.509308338165 2680.0000667572 146 145 141
26.7856158316135 588.627576828003 2676.00011825562 141 140 136
34.0261831879616 587.965250015259 2673.00009727478 144 143 139
41.2039794027805 586.642444133759 2667.00005531311 153 152 147
48.403512686491 585.978925228119 2664.00003433228 149 148 143
55.5865950882435 585.314869880676 2661.00001335144 148 147 142
62.824010848999 585.310101509094 2661.00001335144 152 151 146
69.9822604656219 584.644913673401 2657.99999237061 156 155 150
77.1530345082283 584.199130535126 2655.99989891052 155 154 149
84.3126848340034 583.752691745758 2654.00004386902 152 151 146
91.5646925568581 583.965659141541 2654.99997138977 153 152 147
98.8218486309052 584.177911281586 2655.99989891052 154 153 148
106.004320085049 583.94980430603 2654.99997138977 155 154 149
113.223679363728 583.941161632538 2654.99997138977 154 153 148
120.306618511677 583.272039890289 2651.99995040894 154 153 149
127.661392092705 583.922028541565 2654.99997138977 155 154 150
134.8797082901 583.911657333374 2654.99997138977 154 153 149
142.258167266846 584.560453891754 2657.99999237061 160 159 155
149.483814835548 584.548950195313 2657.99999237061 175 174 170
156.70907497406 584.536910057068 2657.99999237061 175 174 170
164.118885993958 585.184097290039 2661.00001335144 167 166 162
171.544522047043 585.830688476563 2664.00003433228 170 169 165
179.254457354546 587.356328964233 2671.0000038147 175 174 170
186.932101845741 588.661551475525 2677.00004577637 161 160 156
194.641813635826 589.966058731079 2683.00008773804 151 150 146
202.157810330391 590.610444545746 2686.00010871887 179 179 177
209.767520427704 591.474056243896 2690.00005722046 179 179 177
217.721179127693 593.21665763855 2697.99995422363 160 160 158
225.884526968002 595.398426055908 2707.99994468689 154 154 152
233.929350972176 597.139775753021 2716.00008010864 133 133 131
242.461249232292 599.979937076569 2729.00009155273 170 170 168
251.246184110641 603.258907794952 2743.99995803833 155 155 153
260.86613535881 608.296036720276 2766.99995994568 141 141 139
270.804345607758 613.772034645081 2792.00005531311 162 162 160
280.079901218414 617.488563060761 2809.00001525879 107 107 105
288.115561008453 618.346691131592 2812.99996376038 115 115 113
295.751631259918 618.325114250183 2812.99996376038 126 126 124
302.955538034439 617.423892021179 2809.00001525879 121 120 118
310.136944055557 616.522192955017 2805.0000667572 130 129 127
316.956043243408 614.960908889771 2798.00009727478 135 134 132
324.084311723709 614.058494567871 2793.99991035461 140 140 138
331.427484750748 613.595247268677 2792.00005531311 146 146 144
339.73041176796 614.889860153198 2798.00009727478 172 172 170
348.561525344849 617.06280708313 2808.00008773804 186 186 184
357.319205999374 619.015574455261 2816.99991226196 194 194 192
364.699721336365 618.550658226013 2815.00005722046 170 172 169
373.258978128433 620.062828063965 2822.00002670288 188 190 187
-164.867773652077 589.944124221802 2716.00008010864 206 210 209
-157.252684235573 589.087843894959 2711.99989318848 191 193 192
-149.990484118462 589.534342288971 2713.99998664856 186 186 184
-142.769545316696 590.197563171387 2717.00000762939 171 172 167
-135.581657290459 591.077387332916 2720.99995613098 157 158 153
-128.183215856552 591.087758541107 2720.99995613098 151 152 147
-120.961956679821 591.96662902832 2724.99990463257 147 149 144
-113.718591630459 592.844843864441 2729.00009155273 142 144 139
-106.492057442665 593.939781188965 2733.99996757507 138 140 135
-99.129356443882 594.382464885712 2736.00006103516 141 143 138
-91.9230058789253 595.910847187042 2743.00003051758 145 147 142
-84.8630890250206 598.742067813873 2756.00004196167 129 131 126
-78.0409798026085 603.962600231171 2779.99997138977 114 116 111
-55.4359816014767 604.84766960144 2783.99991989136 144 146 141
-47.6224981248379 601.810157299042 2769.99998092651 111 113 108
-39.8705713450909 598.554849624634 2755.00011444092 129 128 124
-32.2001203894615 595.298826694489 2740.00000953674 132 131 127
-24.6292427182198 592.476665973663 2726.99999809265 136 135 131
-17.1100832521915 589.002132415771 2710.99996566772 140 139 135
-9.71383322030306 587.699592113495 2704.99992370605 143 142 138
-2.34758504666388 585.744738578796 2696.00009918213 141 140 136
4.97710332274437 584.658265113831 2690.99998474121 160 159 155
12.2700026258826 583.353996276855 2684.99994277954 161 160 156
19.544804468751 582.483649253845 2680.99999427795 143 142 138
26.7877709120512 581.395506858826 2676.00011825562 143 142 138
34.0161882340908 580.52396774292 2671.99993133545 152 151 147
41.2381924688816 579.869151115417 2668.99991035461 155 154 149
48.4800934791565 579.648315906525 2667.99998283386 150 149 144
55.6746162474155 578.992366790771 2664.99996185303 151 150 145
62.8526657819748 578.335821628571 2661.99994087219 154 153 148
69.9878633022308 577.46148109436 2657.99999237061 154 153 148
77.1592035889626 577.02112197876 2655.99989891052 153 152 147
84.3829661607742 577.014625072479 2655.99989891052 153 152 147
91.6754677891731 577.442169189453 2657.99999237061 154 153 148
98.8297238945961 577.000021934509 2655.99989891052 155 154 149
105.972819030285 576.557457447052 2654.00004386902 156 155 150
113.147370517254 576.331496238709 2653.00011634827 156 155 150
120.361529290676 576.322257518768 2653.00011634827 155 154 150
127.671480178833 576.746940612793 2654.99997138977 155 154 150
134.941145777702 576.953768730164 2655.99989891052 155 154 150
142.162322998047 576.942801475525 2655.99989891052 160 159 155
149.439334869385 577.148616313934 2657.00006484985 175 174 170
156.66238963604 577.136635780334 2657.00006484985 176 175 171
164.131700992584 577.992916107178 2661.00001335144 170 169 165
171.429112553596 578.197062015533 2661.99994087219 174 173 169
178.999945521355 579.269528388977 2667.00005531311 177 176 172
186.806932091713 580.992877483368 2674.99995231628 172 171 167
194.729402661324 582.932829856873 2684.00001525879 160 159 155
202.248618006706 583.569049835205 2687.00003623962 156 156 154
209.783628582954 584.204852581024 2690.00005722046 185 185 183
217.576459050179 585.491538047791 2696.00009918213 178 178 176
225.734919309616 587.646305561066 2706.00008964539 160 160 158
234.119385480881 590.234696865082 2717.99993515015 155 155 153
242.834970355034 593.47403049469 2733.00004005432 152 152 150
251.99767947197 597.581148147583 2752.00009346008 173 173 171
262.017160654068 603.424727916718 2779.00004386902 143 143 141
272.182583808899 609.267294406891 2805.99999427795 122 122 120
280.798763036728 611.418008804321 2815.99998474121 100 100 98
288.444191217422 611.396908760071 2815.99998474121 122 122 120
295.773416757584 610.724031925201 2812.99996376038 125 125 123
303.085595369339 610.050678253174 2809.99994277954 122 121 119
310.380756855011 609.377026557922 2806.99992179871 129 128 126
317.545503377914 608.485877513886 2802.99997329712 134 133 131
324.919760227203 608.028471469879 2801.00011825562 139 139 137
332.401037216187 607.787728309631 2799.99995231628 143 143 141
340.483218431473 608.63184928894 2803.99990081787 170 170 168
348.834544420242 609.90971326828 2809.99994277954 182 182 180
357.344448566437 611.404001712799 2816.99991226196 193 193 191
364.854902029037 611.161589622498 2815.99998474121 173 175 172
373.152762651443 612.220942974091 2821.00009918213 188 190 187
-165.062770247459 583.24658870697 2719.00010108948 205 210 206
-157.438948750496 582.401156425476 2714.99991416931 190 192 189
-150.002256035805 582.198679447174 2713.99998664856 185 185 183
-142.728224396706 582.639217376709 2716.00008010864 168 169 164
-135.542511940002 583.508193492889 2720.00002861023 155 156 151
-128.287568688393 584.16211605072 2723.00004959106 151 152 147
-121.104694902897 585.244655609131 2727.9999256134 148 149 144
-113.852620124817 586.112022399902 2732.00011253357 142 144 139
-106.656312942505 587.407946586609 2737.99991607666 137 139 134
-99.3183925747871 588.059723377228 2740.9999370575 139 141 136
-92.1314135193825 589.783728122711 2749.00007247925 143 145 140
-85.1778015494347 593.43808889389 2766.00003242493 127 129 124
-55.5798187851906 598.824322223663 2790.99988937378 185 187 182
-47.6607047021389 594.75189447403 2772.0000743866 114 116 111
-39.8592911660671 590.89332818985 2753.99994850159 130 129 125
-32.2027020156384 587.892413139343 2740.00000953674 133 132 128
-24.6312189847231 585.105419158936 2726.99999809265 137 136 132
-17.124081030488 582.103252410889 2713.00005912781 141 140 136
-9.71102155745029 580.173254013062 2703.9999961853 144 143 139
-2.34603183344007 578.028082847595 2694.00000572205 141 140 136
4.97380364686251 576.955199241638 2688.99989128113 165 164 160
12.2709879651666 576.096296310425 2684.99994277954 158 157 153
19.5609554648399 575.665891170502 2683.00008773804 142 141 137
26.8299672752619 575.020372867584 2680.0000667572 147 146 142
34.0698435902596 574.159681797028 2676.00011825562 151 150 146
41.2878543138504 573.298394680023 2671.99993133545 149 148 143
48.5021397471428 572.651147842407 2668.99991035461 146 145 140
55.6999668478966 572.003304958344 2665.99988937378 153 152 147
62.8576874732971 571.140348911285 2661.99994087219 156 155 150
69.9934586882591 570.276856422424 2657.99999237061 155 154 149
77.1363079547882 569.627344608307 2654.99997138977 156 155 150
84.3261405825615 569.406390190125 2654.00004386902 156 155 150
91.5447995066643 569.399356842041 2654.00004386902 157 156 151
98.8003686070442 569.606363773346 2654.99997138977 156 155 150
105.981230735779 569.38374042511 2654.00004386902 156 155 150
113.198980689049 569.375038146973 2654.00004386902 155 154 149
120.416417717934 569.365859031677 2654.00004386902 155 154 150
127.729639410973 569.785118103027 2655.99989891052 153 154 149
134.900972247124 569.560289382935 2654.99997138977 153 154 149
142.119958996773 569.549441337585 2654.99997138977 159 158 154
149.394780397415 569.752514362335 2655.99989891052 172 171 167
156.792566180229 570.38402557373 2658.99991989136 174 175 170
164.14450109005 570.800602436066 2661.00001335144 173 172 168
171.442434191704 571.002066135406 2661.99994087219 175 174 170
178.812429308891 571.417450904846 2664.00003433228 181 182 177
186.542004346848 572.904825210571 2671.0000038147 180 181 176
194.454193115234 574.820518493652 2680.0000667572 179 178 174
202.339425683022 576.521158218384 2687.99996376038 141 141 139
210.033670067787 577.577769756317 2693.00007820129 150 150 148
217.996567487717 579.277157783508 2700.99997520447 192 192 190
226.085767149925 581.190526485443 2710.00003814697 165 165 163
234.567850828171 583.961009979248 2723.00004959106 155 155 153
243.119895458221 586.73095703125 2736.00006103516 175 175 173
252.291321754456 590.786755084991 2755.00011444092 167 167 165
262.602508068085 597.200632095337 2785.00008583069 171 171 169
272.784918546677 602.97030210495 2812.00003623962 96 96 94
281.517624855042 605.308353900909 2822.99995422363 107 107 105
288.875222206116 604.644000530243 2819.9999332428 127 127 125
296.215742826462 603.979289531708 2816.99991226196 127 127 125
303.323537111282 602.885365486145 2812.00003623962 123 122 120
310.735076665878 602.43421792984 2809.99994277954 127 126 124
317.908376455307 601.553857326508 2805.99999427795 132 131 129
325.407207012177 601.316273212433 2805.0000667572 137 137 135
332.899749279022 601.078271865845 2803.99990081787 141 141 139
340.871810913086 601.697325706482 2806.99992179871 164 164 162
348.859250545502 602.315902709961 2809.99994277954 172 172 170
356.989026069641 603.148400783539 2813.99989128113 185 185 183
364.491701126099 602.908730506897 2812.99996376038 175 177 174
372.517287731171 603.525996208191 2815.99998474121 187 189 186
-175.195038318634 584.990441799164 2762.00008392334 209 211 208
-165.197014808655 576.319754123688 2720.99995613098 204 206 201
-157.509222626686 575.273275375366 2716.00008010864 188 190 185
-149.958699941635 574.649810791016 2713.00005912781 183 185 180
-142.529159784317 574.449360370636 2711.99989318848 162 164 159
-135.30395925045 575.095653533936 2714.99991416931 152 155 148
-128.344759345055 577.012419700623 2723.99997711182 152 153 147
-121.203027665615 578.293204307556 2730.00001907349 146 147 141
-114.028312265873 579.573452472687 2736.00006103516 133 134 128
-106.703713536263 580.217659473419 2739.00008201599 136 137 131
-99.3987396359444 581.073105335236 2743.00003051758 140 142 137
-92.3063084483147 583.410978317261 2753.99994850159 137 142 138
-85.6465101242065 589.137732982636 2780.99989891052 131 136 132
-55.6240826845169 591.702401638031 2792.99998283386 211 213 208
-47.7160923182964 587.893187999725 2775.00009536743 127 128 123
-39.8769527673721 583.659589290619 2755.00011444092 134 133 128
-32.2170294821262 580.6964635849 2740.9999370575 133 132 127
-24.6422197669744 577.94463634491 2727.9999256134 141 140 135
-17.1443875879049 575.403988361359 2716.00008010864 144 143 138
-9.7225746139884 573.498368263245 2707.00001716614 143 142 137
-2.34883232042193 571.380257606506 2697.00002670288 144 143 138
4.97790100052953 570.109009742737 2690.99998474121 160 159 154
12.2811114415526 569.260895252228 2687.00003623962 150 149 144
19.5843912661076 569.047808647156 2686.00010871887 146 145 140
26.8421247601509 567.986607551575 2680.99999427795 149 148 143
34.0852998197079 567.136764526367 2677.00004577637 154 153 148
41.3066036999226 566.286325454712 2673.00009727478 150 147 142
48.5060103237629 565.435349941254 2668.99991035461 152 149 144
55.6835122406483 564.583778381348 2664.99996185303 155 152 147
62.8863126039505 564.155399799347 2663.00010681152 154 151 146
69.999024271965 563.090860843658 2657.99999237061 157 154 149
77.1133899688721 562.237679958344 2654.00004386902 159 156 151
84.2375159263611 561.595737934113 2651.00002288818 158 155 150
91.4485678076744 561.588823795319 2651.00002288818 157 154 149
98.6965447664261 561.793088912964 2651.99995040894 158 155 150
105.949684977531 561.996877193451 2653.00011634827 158 155 150
113.165259361267 561.988174915314 2653.00011634827 157 154 149
120.380520820618 561.979055404663 2653.00011634827 153 154 149
127.643495798111 562.181115150452 2654.00004386902 153 155 150
134.809926152229 561.959028244019 2653.00011634827 153 155 150
142.077565193176 562.160015106201 2654.00004386902 159 160 155
149.350196123123 562.360405921936 2654.99997138977 171 171 169
156.922727823257 563.619375228882 2661.00001335144 171 173 170
164.342328906059 564.242362976074 2664.00003433228 176 176 174
171.713337302208 564.652919769287 2665.99988937378 165 165 163
179.229006171227 565.486609935761 2670.00007629395 173 175 172
186.975419521332 566.954970359802 2677.00004577637 179 181 178
194.759368896484 568.422853946686 2684.00001525879 176 176 174
202.580779790878 569.890081882477 2690.99998474121 143 143 143
210.361689329147 571.144998073578 2697.00002670288 148 148 148
218.336030840874 572.82280921936 2704.99992370605 168 168 166
226.436614990234 574.711799621582 2713.99998664856 196 196 194
234.671697020531 576.811969280243 2723.99997711182 177 177 175
243.582487106323 580.393731594086 2740.9999370575 153 153 151
252.584964036942 583.974719047546 2757.99989700317 168 168 166
263.093560934067 590.731024742126 2789.99996185303 184 184 182
273.096174001694 596.00430727005 2815.00005722046 102 103 98
282.136857509613 598.947882652283 2828.9999961853 118 119 114
289.818555116653 598.926842212677 2828.9999961853 128 129 124
297.078788280487 598.058521747589 2825.00004768372 124 125 120
304.100751876831 596.766293048859 2819.00000572205 124 123 119
311.089396476746 595.473825931549 2812.99996376038 129 128 124
318.271219730377 594.60437297821 2809.00001525879 134 133 129
325.546562671661 593.946218490601 2805.99999427795 136 137 132
332.923531532288 593.499362468719 2803.99990081787 140 141 136
340.653151273727 593.687057495117 2805.0000667572 160 161 156
348.759770393372 594.509303569794 2809.00001525879 166 167 162
356.887251138687 595.331013202667 2812.99996376038 177 177 175
364.258050918579 594.882547855377 2811.00010871887 176 178 175
371.881663799286 594.856917858124 2811.00010871887 191 193 190
380.854576826096 596.947073936462 2821.00009918213 200 202 199
-173.559233546257 572.085916996002 2736.00006103516 207 209 204
-165.634825825691 570.426166057587 2727.9999256134 202 204 199
-157.637447118759 568.347692489624 2717.99993515015 183 185 180
-149.970382452011 567.314147949219 2713.00005912781 176 178 173
-142.487719655037 566.907227039337 2710.99996566772 158 161 154
-135.264709591866 567.545473575592 2713.99998664856 149 152 145
-128.35481762886 569.646894931793 2723.99997711182 149 150 144
-121.34575098753 571.538805961609 2733.00004005432 142 142 134
-114.203996956348 573.011934757233 2740.00000953674 139 139 131
-106.82900249958 573.438823223114 2742.00010299683 134 135 129
-99.5877832174301 574.70178604126 2747.99990653992 141 142 137
-92.5482362508774 577.428102493286 2760.99991798401 143 148 144
-55.6085892021656 583.940804004669 2792.00005531311 219 221 216
-47.7542839944363 580.807745456696 2776.99995040894 118 119 114
-39.9380251765251 577.046513557434 2759.0000629425 133 132 127
-32.2548560798168 573.912084102631 2743.99995803833 133 132 127
-24.6532149612904 570.777058601379 2729.00009155273 140 139 134
-17.1457547694445 568.059742450714 2716.00008010864 144 143 138
-9.7125731408596 565.550982952118 2703.9999961853 147 146 141
-2.34814849682152 563.878238201141 2696.00009918213 150 149 144
4.9801473505795 563.04144859314 2691.99991226196 150 149 144
12.2866602614522 562.20418214798 2687.99996376038 144 143 138
19.5932444185019 561.993777751923 2687.00003623962 144 143 138
26.8642846494913 561.155319213867 2683.00008773804 151 150 145
34.1262146830559 560.525476932526 2680.0000667572 147 146 141
41.3253419101238 559.267520904541 2674.00002479553 148 147 142
48.5098697245121 558.21818113327 2668.99991035461 149 148 143
55.6879341602325 557.377517223358 2664.99996185303 153 152 147
62.8676861524582 556.745409965515 2661.99994087219 154 153 148
70.0045749545097 555.903494358063 2657.99999237061 156 155 150
77.0904347300529 554.85200881958 2653.00011634827 157 156 151
84.2124074697495 554.218292236328 2650.00009536743 155 154 149
91.4557874202728 554.420411586761 2651.00002288818 155 154 149
98.7415537238121 554.831266403198 2653.00011634827 158 157 152
105.9979647398 555.03237247467 2654.00004386902 159 158 153
113.259464502335 555.23282289505 2654.99997138977 159 158 153
120.52609026432 555.432736873627 2655.99989891052 152 153 148
127.845868468285 555.841326713562 2657.99999237061 153 155 150
134.922087192535 555.2037358284 2654.99997138977 153 155 150
142.142161726952 555.192887783051 2654.99997138977 157 159 154
149.418070912361 555.39071559906 2655.99989891052 169 171 168
156.875908374786 556.215286254883 2660.00008583069 171 173 170
164.231657981873 556.621074676514 2661.99994087219 168 170 167
171.726584434509 557.444453239441 2665.99988937378 166 168 165
179.242819547653 558.267414569855 2670.00007629395 172 174 171
186.989784240723 559.716999530792 2677.00004577637 180 182 179
194.774270057678 561.165869235992 2684.00001525879 178 180 179
202.746793627739 563.032448291779 2693.00007820129 164 164 164
210.611701011658 564.480245113373 2700.00004768372 148 148 148
218.352556228638 565.50931930542 2704.99992370605 150 150 148
226.53716802597 567.583084106445 2714.99991416931 196 196 194
234.689339995384 569.447219371796 2723.99997711182 190 190 188
243.778482079506 573.401153087616 2743.00003051758 162 162 160
252.970188856125 577.354371547699 2762.00008392334 149 149 147
263.490319252014 584.024131298065 2793.99991035461 169 169 167
273.310452699661 588.811874389648 2816.99991226196 98 99 94
282.556593418121 592.135608196259 2832.99994468689 112 113 108
290.249586105347 592.114627361298 2832.99994468689 121 122 117
297.836631536484 591.884136199951 2832.00001716614 130 131 126
304.878056049347 590.608298778534 2825.99997520447 122 121 116
311.664879322052 588.914096355438 2818.00007820129 128 127 122
318.520784378052 587.428569793701 2811.00010871887 133 132 127
325.685918331146 586.569547653198 2806.99992179871 138 139 134
333.303451538086 586.546003818512 2806.99992179871 143 144 139
340.920180082321 586.522161960602 2806.99992179871 156 157 152
348.660171031952 586.706757545471 2808.00008773804 163 164 159
356.531590223312 587.09990978241 2809.99994277954 173 173 171
364.283412694931 587.283790111542 2811.00010871887 172 174 171
371.907472610474 587.258279323578 2811.00010871887 190 192 189
380.475670099258 588.69469165802 2818.00007820129 196 198 195
-174.207001924515 566.750824451447 2746.00005149841 205 207 202
-165.526181459427 562.636017799377 2726.0000705719 200 202 197
-157.533630728722 560.584425926209 2716.00008010864 180 182 177
-149.871423840523 559.564292430878 2710.99996566772 173 175 170
-142.498791217804 559.575617313385 2710.99996566772 157 160 153
-135.325074195862 560.411989688873 2714.99991416931 149 152 145
-128.411963582039 562.486410140991 2724.99990463257 149 150 144
-121.399626135826 564.353942871094 2733.99996757507 145 145 137
-114.337988197803 566.220939159393 2743.00003051758 145 145 137
-106.993243098259 566.848874092102 2746.00005149841 134 135 129
-99.7405797243118 568.095564842224 2752.00009346008 142 143 138
-92.723123729229 570.99312543869 2766.00003242493 140 145 141
-55.5930659174919 576.183259487152 2790.99988937378 221 223 218
-47.7924570441246 573.710083961487 2779.00004386902 117 118 113
-39.9556644260883 569.791078567505 2759.99999046326 137 136 131
-32.2339050471783 566.077888011932 2742.00010299683 136 135 130
-24.6280692517757 562.776982784271 2726.0000705719 141 140 135
-17.1408001333475 560.507714748383 2714.99991416931 143 142 137
-9.72052849829197 558.650732040405 2706.00008964539 147 146 141
-2.35007680021226 556.999623775482 2697.99995422363 150 149 144
4.98239323496819 555.967211723328 2693.00007820129 145 144 139
12.2967781499028 555.347204208374 2690.00005722046 141 140 135
19.6020919829607 554.933071136475 2687.99996376038 144 143 138
26.8664173781872 553.898990154266 2683.00008773804 152 151 146
34.1161787509918 553.070724010468 2678.99990081787 144 143 138
41.3131639361382 551.829159259796 2673.00009727478 148 147 142
48.5137030482292 550.999701023102 2668.99991035461 150 149 144
55.6923449039459 550.169885158539 2664.99996185303 154 153 148
62.8490373492241 549.339473247528 2661.00001335144 155 154 149
69.9837654829025 548.50846529007 2657.00006484985 157 156 151
77.154628932476 548.089742660522 2654.99997138977 157 156 151
84.3143686652184 547.670543193817 2653.00011634827 154 153 148
91.531977057457 547.663688659668 2653.00011634827 153 152 147
98.7493023276329 547.656238079071 2653.00011634827 156 155 150
106.006257236004 547.854602336884 2654.00004386902 157 156 151
113.268338143826 548.052489757538 2654.99997138977 156 155 150
120.580896735191 548.456251621246 2657.00006484985 152 153 148
127.952039241791 549.065768718719 2660.00008583069 153 155 150
135.085046291351 548.642754554749 2657.99999237061 153 155 150
142.153188586235 548.012793064117 2654.99997138977 156 158 153
149.317115545273 547.795057296753 2654.00004386902 168 170 167
156.711101531982 548.402488231659 2657.00006484985 170 172 169
164.120897650719 549.009263515472 2660.00008583069 175 177 174
171.675384044647 550.028383731842 2664.99996185303 173 175 172
179.323673248291 551.253199577332 2671.0000038147 169 171 168
187.213629484177 553.09671163559 2680.0000667572 182 184 181
194.861680269241 554.114043712616 2684.99994277954 185 187 186
202.762201428413 555.749952793121 2693.00007820129 179 179 179
210.549607872963 556.972444057465 2698.99988174438 165 165 165
218.530476093292 558.607220649719 2707.00001716614 151 151 149
226.637631654739 560.447692871094 2716.00008010864 160 160 158
234.879240393639 562.493860721588 2726.0000705719 172 172 170
244.063302874565 566.602766513824 2746.00005149841 181 181 179
253.446966409683 570.917308330536 2766.99995994568 192 192 190
264.170050621033 577.913343906403 2801.00011825562 186 186 184
274.300903081894 583.257794380188 2826.99990272522 93 94 89
283.17579627037 585.713088512421 2838.99998664856 119 120 115
290.578186511993 585.073173046112 2835.99996566772 128 129 124
298.068672418594 584.639191627502 2834.00011062622 121 122 117
305.223822593689 583.585917949677 2828.9999961853 123 122 117
312.240362167358 582.32593536377 2822.99995422363 125 124 119
319.223523139954 581.065595149994 2816.99991226196 131 130 125
326.173305511475 579.805016517639 2811.00010871887 136 137 132
333.683371543884 579.575300216675 2809.99994277954 140 141 136
341.06570482254 579.138934612274 2808.00008773804 152 153 148
348.560452461243 578.908503055573 2806.99992179871 148 149 144
356.429636478424 579.296410083771 2809.00001525879 167 167 165
364.567875862122 580.096244812012 2812.99996376038 159 161 158
372.594654560089 580.689370632172 2815.99998474121 152 154 151
381.041884422302 581.900775432587 2822.00002670288 181 183 180
-174.347221851349 559.730768203735 2747.99990653992 202 204 199
-165.660321712494 555.669963359833 2727.9999256134 196 198 193
-157.487735152245 553.03430557251 2714.99991416931 177 179 174
-149.882987141609 552.23137140274 2710.99996566772 167 169 164
-142.562374472618 552.446305751801 2711.99989318848 155 158 151
-135.435253381729 553.475618362427 2717.00000762939 150 153 146
-128.421917557716 555.115401744843 2724.99990463257 149 150 144
-121.453486382961 557.162284851074 2734.99989509583 147 147 139
-114.430256187916 559.208631515503 2744.99988555908 145 145 137
-107.235386967659 560.643315315247 2752.00009346008 134 135 129
-99.8933538794518 561.46627664566 2756.00004196167 142 143 138
-92.83097833395 564.122259616852 2769.00005340576 139 144 140
-55.7368882000446 570.059657096863 2798.00009727478 210 212 207
-47.8134155273438 566.396355628967 2779.99997138977 134 135 130
-39.9732924997807 562.528789043427 2760.99991798401 134 133 128
-32.2129316627979 558.253049850464 2740.00000953674 135 134 129
-24.6119406074286 554.99541759491 2723.99997711182 142 141 136
-17.1358399093151 552.959620952606 2713.99998664856 144 143 138
-9.71770193427801 551.126956939697 2704.99992370605 151 150 145
-2.35374667681754 550.516188144684 2701.99990272522 156 155 150
4.98833786696196 549.293696880341 2696.00009918213 142 141 136
12.3114632442594 548.681735992432 2693.00007820129 141 140 135
19.5890516042709 547.254323959351 2686.00010871887 146 145 140
26.8585197627544 546.437442302704 2681.99992179871 153 152 147
34.093402326107 545.416355133057 2677.00004577637 144 143 138
41.3164161145687 544.598460197449 2673.00009727478 150 149 144
48.4811775386333 543.372511863709 2667.00005531311 151 150 145
55.6340217590332 542.349696159363 2661.99994087219 155 154 149
62.8067329525948 541.733801364899 2658.99991989136 157 156 151
69.9629187583923 541.117370128632 2655.99989891052 157 156 151
77.1897435188293 541.111588478088 2655.99989891052 157 156 151
84.3845456838608 540.901601314545 2654.99997138977 154 153 148
91.6081517934799 540.894746780396 2654.99997138977 153 152 147
98.7570136785507 540.479838848114 2653.00011634827 155 154 149
106.014534831047 540.675580501556 2654.00004386902 155 154 149
113.234497606754 540.667116641998 2654.00004386902 154 153 148
120.635643601418 541.472852230072 2657.99999237061 152 153 148
127.961993217468 541.870713233948 2660.00008583069 153 155 150
135.044693946838 541.249394416809 2657.00006484985 153 155 150
142.057090997696 540.42387008667 2653.00011634827 155 157 152
149.159833788872 540.005266666412 2651.00002288818 167 169 166
156.54619038105 540.604591369629 2654.00004386902 170 172 169
163.948386907578 541.203379631042 2657.00006484985 177 179 176
171.559676527977 542.41269826889 2663.00010681152 176 178 175
179.068803787231 543.214082717896 2667.00005531311 169 171 168
187.088161706924 545.44061422348 2677.99997329712 181 183 180
194.658696651459 546.24080657959 2681.99992179871 185 187 186
202.626928687096 548.058807849884 2690.99998474121 184 184 184
210.409447550774 549.265205860138 2697.00002670288 179 179 179
218.546882271767 551.285684108734 2707.00001716614 164 164 162
226.571127772331 552.898168563843 2714.99991416931 154 154 152
234.982922673225 555.324733257294 2726.99999809265 168 168 166
244.170308113098 559.379637241364 2746.99997901917 155 155 153
253.648936748505 563.841104507446 2769.00005340576 164 164 162
264.849781990051 571.763336658478 2808.00008773804 173 173 171
275.291353464127 577.648282051086 2836.99989318848 97 98 93
283.595502376556 578.849613666534 2842.99993515015 119 120 115
291.009187698364 578.217804431915 2839.99991416931 125 126 121
298.616170883179 577.992856502533 2838.99998664856 128 129 124
306.001096963882 577.360332012177 2835.99996566772 124 123 118
313.037097454071 576.116621494293 2829.99992370605 125 124 119
319.81298327446 574.46551322937 2822.00002670288 130 129 124
326.892703771591 573.424637317657 2816.99991226196 137 138 133
334.181994199753 572.790622711182 2813.99989128113 141 142 137
341.454088687897 572.156250476837 2811.00010871887 144 145 140
348.957389593124 571.928560733795 2809.99994277954 161 162 157
356.454372406006 571.70045375824 2809.00001525879 148 148 146
364.463448524475 572.286069393158 2812.00003623962 145 147 144
372.487932443619 572.871327400208 2815.00005722046 164 166 163
381.067901849747 574.270069599152 2822.00002670288 149 151 148
-174.043253064156 551.291644573212 2743.00003051758 201 203 198
-165.430054068565 547.485828399658 2723.99997711182 195 197 192
-157.383799552917 545.287311077118 2713.00005912781 175 177 172
