ply
format ascii 1.0
comment KinectMotionCapture
element vertex 804
property float x
property float y
property float z
property uchar red
property uchar green
property uchar blue
end_header
3.75601588667607 152.698864925016 2769.49492534255 20 22 11
5.01904199166603 151.922736552722 2758.05533895409 19 21 10
-46.1321072053142 153.164442575601 2797.55893484118 14 17 10
-66.55506784832 153.241810018563 2807.45678615096 13 16 9
-64.4799110937457 152.444835474167 2795.37078838295 16 19 12
-46.5980205900125 151.01418298871 2767.56735235687 20 23 16
-59.7595514114673 150.81005984961 2770.37649358253 18 21 14
-28.465768447721 148.8125778617 2728.82529070459 19 22 15
-14.541412614963 147.496166195192 2704.32930408986 12 15 8
-8.57251513650681 146.492417714666 2687.65381151212 16 19 12
5.12688485092294 145.157707436138 2662.99465691824 16 19 12
247.175072891903 159.565726946248 2868.17647389255 16 21 15
238.637361909831 159.132865802896 2865.69051683546 17 22 15
218.942833433867 159.051014296173 2872.41021332866 14 19 12
198.52632899024 159.000414597035 2879.84202343795 13 18 11
224.205510161698 157.485150017399 2849.04473588396 13 18 11
240.214149370679 156.261845436844 2826.05986789819 13 16 9
225.326899602636 156.031621577445 2828.85290305471 11 14 7
205.765825951431 155.960756053727 2835.66969392163 10 13 6
192.555781192138 155.687233756871 2837.20798373178 10 13 6
163.735049683393 155.942301480919 2852.1352249045 11 14 7
140.502355614223 156.022651886114 2862.46662333569 11 12 6
131.370385164151 155.631542948268 2860.78512302047 9 12 3
73.6987243914813 156.230201279878 2891.85319938378 14 17 8
61.6424842114149 155.961167264931 2892.99289286165 14 17 8
65.7751635301693 155.120480635076 2879.92784796437 16 19 10
72.9180922362733 154.164833752978 2864.10397379972 14 17 8
46.3302007441047 154.422713464426 2878.17949485947 14 17 8
18.3345039136662 154.746126729798 2893.70516746124 14 17 8
-4.9719143548741 154.911526166946 2905.21858906627 18 21 12
5.1868880999093 153.841531496114 2886.63996595605 19 22 13
36.4232010081484 151.967328563018 2848.75313060574 20 23 14
41.8104878383789 151.048675242825 2834.1268148161 18 24 14
38.8618578174902 150.44146510063 2827.04577335417 17 23 13
17.9064247551781 150.528539743864 2836.55767321256 15 21 11
3.76356092211427 150.360310100006 2839.89093810928 15 21 11
-4.37108781234574 149.961191818416 2837.6973403915 14 20 10
-5.06429733519886 149.267747889284 2828.54516574889 16 19 10
1.61740754472195 148.274550034129 2812.38675038656 18 21 12
-0.638914916310629 147.633971285968 2804.57237180158 16 19 8
-5.1270904296683 147.081783681092 2798.84563291504 17 20 9
2.12036598985232 146.044628711977 2781.86208363685 19 22 11
18.8023721846196 144.60512200642 2755.65885427843 20 22 11
9.07731506236598 144.256946030673 2754.78296134759 20 22 11
-27.5440473103745 145.050484646936 2780.11474028219 14 17 10
-50.2009461018191 145.270459015323 2792.09928885038 13 16 9
-12.017841142971 142.880300888087 2744.42410043619 16 19 12
-32.4965810750033 143.007658349956 2754.28176935827 20 23 16
-34.2024695257723 142.322356657254 2745.63085449742 17 20 13
-38.0853525378986 141.730042507342 2739.10766518455 22 25 18
-8.41183112036492 139.637363171089 2698.85178567574 13 16 9
-17.411387468043 139.258907990301 2697.26633926298 19 22 15
-5.0986209120234 137.914023019357 2674.07200622402 15 18 11
280.659265493193 150.069494394082 2831.88056742119 18 23 16
212.173968378496 151.715399975296 2878.58237535643 14 19 12
217.238461682967 150.821854207331 2864.95751793213 10 15 8
208.750351368782 150.400658479585 2862.50757654535 12 17 10
214.519116275624 149.471573885826 2848.15774951813 15 18 11
222.58854693603 148.451599861975 2831.77015393383 10 13 6
217.986655223554 147.883165142533 2825.96089745289 10 13 6
197.679142815999 147.890270032235 2833.47171602323 9 12 5
183.710259111639 147.671818690177 2835.69581181616 9 12 5
170.564883294592 147.427761415913 2837.2811307688 10 11 5
138.002571352089 147.920916119534 2855.67299849333 8 11 2
85.4122911034336 149.194433600419 2891.66313096436 11 14 5
88.7993242962479 148.349562060627 2879.29256670931 13 16 7
56.6377825971127 148.875930421169 2897.97512956985 13 16 7
74.6376149729073 147.458898745808 2872.72733437432 16 19 10
54.1384806810683 147.54401377079 2881.33496839427 15 18 9
35.2519574005807 147.575056285295 2888.64097692782 15 18 9
25.5930164036799 147.244648230656 2887.81310298526 15 18 9
34.2106325207157 146.176460790577 2870.58732342065 16 19 10
35.1593115595277 145.411274999459 2860.15495219096 21 24 15
33.7986133577255 144.736313141112 2851.75432548162 20 23 14
40.7049217850188 143.714172807957 2835.75858342469 17 23 13
34.7539687777729 143.222012414592 2831.44211770069 16 22 12
22.8046066734349 142.983602926178 2832.65973897284 15 21 11
3.41497195500118 143.067112370833 2840.83633367264 16 22 12
-1.73683239586619 142.547512880277 2835.86401225069 16 22 12
16.8837375870612 140.994901240991 2808.59544299613 16 19 10
15.3549094305889 140.306423532954 2800.07286683413 17 20 11
11.5825596861256 139.713639223579 2793.62980306443 15 18 7
7.05959706754156 139.152569477981 2787.87780127312 15 18 7
13.5403305424608 138.095818403952 2771.57337554077 17 20 9
9.69652706013768 137.497350096612 2765.07848464102 20 22 11
-8.75858354492487 137.564999739949 2772.69741885212 20 21 13
-38.7822015866646 138.17548102884 2791.69490313979 14 17 10
-25.8606435728825 136.808277543417 2768.94207745017 13 16 9
-38.3677650005509 136.618300809361 2770.99035455928 16 19 12
-13.3426370504255 134.659048900106 2736.01127661899 20 23 16
-38.1074737442411 135.048767522676 2750.17400016886 17 20 13
-57.7423625323799 135.206778710881 2759.40851343179 19 22 15
-43.7166439332175 133.743958674762 2734.98497078534 14 17 10
-24.8302061489367 132.027257634921 2705.43823037031 19 22 15
-23.1392352101656 131.137792498303 2693.07296514538 17 20 13
283.48251680212 142.206244669004 2830.18196927151 27 32 25
238.123619127455 143.18051130523 2857.826483179 19 24 17
212.875982993197 143.406563246366 2869.16831284864 4 9 2
199.638481819205 143.178985124717 2870.68693163413 7 12 5
211.767818023874 141.962633732054 2851.06568143141 21 24 17
223.005950068579 140.768992616128 2832.03382445215 13 16 9
219.978697883624 140.131804036446 2824.8953417819 11 14 7
210.653117990534 139.745438381742 2823.07380835229 10 13 6
180.992972079038 140.185304475613 2838.62851277984 9 12 5
165.513426195798 140.06166455514 2842.22775634009 10 11 5
159.425659827687 139.557255749363 2837.81204965044 8 11 2
108.319468679097 140.924486056692 2872.40843139768 9 12 3
119.384385121674 139.716503467785 2853.25063961242 12 15 6
95.6218650865037 139.969034011422 2864.43386464935 14 17 8
65.8025831578515 140.492379789326 2881.10896192921 16 19 10
56.8378065670423 140.136009537119 2879.54883996896 16 19 10
47.889637707021 139.781029504183 2878.00076434892 18 21 12
65.6625900631869 138.259776512939 2852.58826556081 19 22 13
61.2354349392867 137.699971102984 2846.90572307114 20 23 14
50.7295145911244 137.409213348067 2846.6990931872 18 21 12
45.5437266298908 136.883246305257 2841.70210406795 17 20 11
45.6320460308026 136.118211588253 2831.88107717017 15 21 9
36.6599356400252 135.761530999582 2830.3156372099 15 21 9
26.2047449966123 135.475166699626 2830.14580462527 15 21 9
0.075247267917522 135.918308739862 2844.55456349699 15 21 9
6.11556795298096 134.874082343389 2829.16626768059 15 21 9
14.3143564625179 133.718987368082 2811.63643084127 17 20 11
12.0543607734525 133.049520741515 2803.81894865509 21 24 15
-6.48263687794826 133.156221125961 2811.37901347546 17 20 11
-1.37439404356554 132.131612039946 2796.5498760513 17 20 11
-3.67727157641684 131.458820865339 2788.70129106191 20 23 14
-16.9863184305084 131.322878674577 2791.40384011732 19 20 12
-30.2525427625768 131.190550367632 2794.13774491487 14 17 10
-36.1977572341383 130.699123706823 2789.82544289435 14 17 10
-38.5159872728713 130.025417399007 2781.96572391049 15 18 11
-24.219388792007 128.507188349523 2757.73826721357 18 21 14
-70.6268203264366 130.071732708661 2793.27151178077 19 22 15
-29.0729872914444 127.142314946122 2741.86162700448 17 20 13
-33.6848652733999 126.568735223303 2736.04539968024 19 22 15
-31.8752737103793 125.658126551274 2723.76601798114 18 21 14
-26.5537250148014 124.555806031263 2707.85637475201 20 23 16
-28.4052687427265 123.824994188995 2699.09964075445 22 25 18
263.09371669831 135.283935589404 2847.47993827288 4 9 2
231.354607080725 135.831860924702 2863.99847261938 17 22 15
204.531068644063 136.191152069029 2876.66864521982 13 18 11
218.307366004926 134.849040245068 2855.77030757032 9 14 7
209.806471357604 134.442088324498 2853.31117069531 13 16 9
213.949340226857 133.493620373826 2840.252966487 14 17 10
213.310663506744 132.744853285091 2831.14033809119 13 16 9
206.359729818582 132.267656087451 2827.33407745169 12 15 8
179.839865302925 132.652056028477 2840.22451693919 10 13 6
164.362725892849 132.560957757518 2843.82596431008 10 11 5
153.60840360793 132.265236668572 2843.43923742077 8 11 2
133.563743531573 132.391630321384 2851.14120747664 9 12 3
130.627586017299 131.750525267295 2844.06903591653 11 14 5
82.9012642770106 133.158962411749 2876.17532485478 14 17 8
58.5029730283484 133.520648795652 2888.13325529607 15 18 9
46.4896413552434 133.319375193446 2889.3043972862 15 18 9
61.2969424453991 131.864135778229 2866.68280997083 17 20 11
65.3008226075782 130.904273768654 2853.52379216944 18 21 12
76.0949786949094 129.613178904609 2834.16929944429 19 22 13
57.2001838472667 129.735836010869 2841.47007026528 17 20 11
42.1620652386916 129.68141315909 2845.38966447556 16 19 10
37.7362981479124 129.115860723831 2839.70839356793 15 21 9
43.8308790203643 128.031495571014 2824.35893433159 15 21 9
25.1057164447746 128.168392247156 2831.78245285594 15 21 9
7.20186841707893 128.274074399755 2838.56616508685 15 21 9
1.29621759394327 127.784762511068 2834.28255431115 16 22 10
4.30982735225616 126.842666691714 2821.64079497903 18 21 10
-9.03590361892181 126.730278932301 2824.31687024292 22 25 16
-14.9491978869003 126.240571878647 2820.02771656934 19 22 13
-9.07548791739554 125.138373463284 2804.51805297285 19 22 13
-5.47699721296935 124.145745066368 2791.06499373389 18 21 12
-33.4277648563219 124.810001469736 2807.85999952911 15 16 8
-41.5336090794989 124.436934969429 2805.68741477369 14 17 10
-39.4361583877656 123.518858518766 2793.61696495147 14 17 10
-26.5020405895733 122.00891853822 2770.87222665209 15 18 11
-44.7956742522302 122.182506439498 2778.60875554299 18 21 14
-45.7034716649054 121.413012962019 2769.30093083058 19 22 15
-76.8466091689892 122.309917632799 2789.95867009459 17 20 13
-16.0702666646726 118.109998164532 2719.12881251512 20 23 16
-12.1676659313161 117.044185807816 2704.66050732875 18 21 14
-18.3032677603228 116.537260968025 2700.21011094842 20 23 16
-23.7296303993064 115.98990782722 2695.03861578634 22 25 18
223.783959118156 128.568534069931 2870.82480788629 9 14 7
230.41878838034 127.48423246089 2855.86698655901 13 18 11
221.102501148055 127.119429976563 2854.05200432222 18 23 16
224.471636905973 126.172764229754 2841.66824470396 12 15 8
211.205576921748 125.990951361255 2843.16639240847 15 18 11
194.040682907261 125.996424789416 2848.01520733828 14 17 10
188.71489421317 125.451936509712 2842.91634040927 13 16 9
185.732872649798 124.79545097624 2835.81084311602 11 14 7
167.115340350869 124.884689335656 2842.07710709689 10 11 5
158.689556073019 124.491603824597 2839.67248956774 8 11 2
154.934637046515 123.873182585441 2833.24193184137 9 12 3
149.617035119844 123.329412691438 2828.14929779057 11 14 5
61.9782198754266 126.068029345742 2885.67434592038 14 17 8
53.7934162385594 125.695023161962 2883.44422762939 14 17 8
56.3373228220425 124.782137449372 2871.69744950305 14 17 8
70.2812509241855 123.282878353184 2849.68479834421 15 18 9
65.0825445148895 122.749173464709 2844.67840517254 16 19 10
56.084065356802 122.410998199962 2843.09394366322 17 20 11
40.2918235866765 122.428537140561 2847.7025535068 18 21 12
52.4719756536984 120.98744443554 2826.88196581891 16 22 10
38.9675024382092 120.888454190772 2829.44303330322 17 23 9
26.2559461469145 120.753185746789 2831.34368280214 18 24 12
9.09568364551916 120.861747854884 2837.43111953129 18 24 12
0.202949674033448 120.532691759847 2835.92336115484 17 23 11
-4.21239408207708 119.962323004451 2830.24962194935 18 21 10
-10.1200945313038 119.472471674348 2825.96452262357 17 20 11
-16.0289803227562 118.982628869982 2821.6785640611 15 18 9
-8.67449990731606 117.754574401026 2804.77133734094 15 18 9
2.27295735287925 116.3139985586 2784.29218212778 15 18 11
-23.5068409500001 116.933794531879 2798.95563484025 16 17 11
-37.4838794150312 116.898498268108 2802.40948894189 14 17 10
-44.8607360503521 116.491581557442 2799.52986028207 14 17 10
-45.6969798389317 115.708109518675 2790.27383551463 15 18 11
-45.8414256529092 114.879973350666 2780.28404700086 18 21 14
-63.3377868677318 115.06384773977 2787.36355117772 19 22 15
-39.0465116823435 112.790332544488 2753.08593253077 17 20 13
-5.61950393256816 109.947047583586 2709.37146130207 21 24 17
-5.32019669817885 109.054137945081 2698.46799412362 19 22 15
-15.7513157159155 108.803199765297 2698.31549653742 19 22 15
-3.9581573811196 106.31246334421 2664.85780245878 20 23 16
284.747983431004 118.866408693659 2830.98111216663 17 22 15
226.054347060497 120.078162283987 2860.07640542818 15 20 13
185.778774187001 121.245705263989 2883.99610022111 14 17 10
217.759098019387 118.863479218977 2847.88107765967 11 14 7
216.357597961037 118.116875389011 2839.45080441007 15 18 11
194.452211685563 118.396131647266 2848.275036349 13 16 9
186.770548354998 117.967524321698 2845.17433694365 12 15 8
170.481458163033 117.978553318747 2849.42273778882 11 14 7
175.335226083905 116.911825855534 2835.64424383742 11 12 6
160.656828102845 116.846715853648 2838.58951644568 9 12 3
165.440599855831 115.774183496633 2824.76025137546 9 12 3
160.094680636188 115.224773932445 2819.64706094862 10 13 4
74.4328513459132 118.920229286307 2884.78559258722 12 15 6
73.9244985516736 118.142917561938 2875.76729420232 14 17 8
91.0444433505457 116.415739173216 2851.11540987652 14 17 8
44.4843446575005 118.111083517071 2882.83324092545 13 16 7
43.1986069788439 117.374265579209 2874.48664138584 14 17 8
47.2141846913661 116.343061185283 2861.33574202509 15 18 9
39.7859177003284 115.935828560963 2858.41913777811 17 20 11
52.8002611937328 114.392622591294 2836.9674249277 17 20 11
38.5362824050874 114.362365080178 2840.21358986445 17 23 11
34.1015933611653 113.784071001984 2834.52549222662 18 24 10
29.6569830377793 113.205032933323 2828.83019867312 19 25 13
26.6985276808955 112.539583151029 2821.7417396202 18 24 12
12.5336549477923 112.517817350241 2825.05979166382 17 23 11
-1.58380802351688 112.500046206003 2828.41193781224 18 21 10
-0.824986937000505 111.618766666931 2817.84134646344 11 14 5
-15.6311602589958 111.64893720495 2821.92980572114 11 14 5
4.99282717077953 109.583884682818 2792.40555655012 12 15 6
5.61638422641808 108.691632312784 2781.73685383911 13 16 9
-34.8288012625935 110.266078716001 2810.47609486721 15 16 10
-39.2766010520367 109.687524485132 2804.77878612945 14 17 10
-41.5493589995826 108.97482990382 2796.95183335162 14 17 10
-45.2973250310644 108.349638381488 2790.52628170691 15 18 11
-52.6788696693439 107.947549960599 2787.64357354695 18 21 14
-44.1767591273641 106.555803276859 2769.09738600542 19 22 15
-1.95068934476139 103.032215820027 2716.93647930086 18 21 14
10.5725215748991 101.345030499471 2693.89326253048 20 23 16
-19.2057386273361 102.336853527541 2713.07054352329 19 22 15
-23.1783441170021 101.693762422922 2706.48205527638 20 23 16
-2.29403149731788 99.4419663011749 2674.67520776258 20 23 16
12.0459346364403 97.5913913782904 2649.24246917619 20 23 16
340.414639216436 107.382283818023 2776.17229615439 0 2 0
256.733314540337 110.877357645042 2835.33471415269 19 24 17
196.510609042027 113.197729004652 2875.67841766216 8 13 6
196.785212121969 112.357970875379 2865.99234776702 10 13 6
215.981715996159 110.505063377377 2840.37480085274 14 17 10
206.679156967356 110.16216387832 2838.56988142657 11 14 7
191.108854897938 110.160258565726 2842.10424497744 10 13 6
169.323661644693 110.503753094623 2851.01593278273 10 13 6
166.372566977859 109.826801487735 2843.9327513921 12 13 7
165.739759802618 109.019333648645 2834.82408062376 11 14 7
169.735827627398 107.950149816825 2821.65884575569 10 13 4
162.055574578142 107.526630412386 2818.55919446468 9 12 5
123.488384489091 108.845720745824 2842.48306338477 10 13 6
92.8061926436747 109.742798176566 2859.76954850426 14 17 10
83.7668553906465 109.421909630755 2858.1555556506 15 18 9
118.393368502154 106.588929520253 2817.78105138884 15 18 9
48.9390118703659 109.758522186913 2869.96356279788 14 17 8
47.6115099081031 109.00129388898 2861.58658405529 14 17 8
47.7748959970308 108.152540879061 2851.81984502903 14 17 8
46.3881285424161 107.390481543392 2843.39987899608 14 17 8
31.387632638511 107.43640971169 2847.34754948261 12 18 6
32.2434247141876 106.537609718688 2836.84716572876 12 18 6
35.3097644967364 105.499386137927 2824.24314461046 12 18 6
50.2932908512088 103.727791381335 2800.51266771865 11 17 5
33.0748599659421 103.912833046471 2806.558324329 10 16 4
4.02035774701837 104.838181370053 2823.78986296379 9 12 3
-21.1906962939168 105.544299664602 2837.6307166627 10 13 4
-10.0579854454681 103.991701141777 2817.28528831222 15 18 9
-8.61111504254497 103.034835085057 2805.97805910676 17 20 11
-13.0892181786026 102.447557422141 2800.25844416342 14 17 10
-5.11973941742472 101.063318723235 2782.56121513568 13 14 8
-16.2303778766808 100.894702559805 2783.15186748812 12 13 7
-47.7062687075303 102.050375296306 2803.56969747552 14 17 10
-31.8268712093872 100.138713873041 2778.01757949389 15 18 11
-37.8002480734951 99.6432134299045 2773.68484131949 18 21 14
-22.8430555365566 97.7628976718537 2748.69939268184 19 22 15
-20.2475033417082 96.6869084449615 2735.75389630367 17 20 13
-1.92389253059622 94.5480113482741 2707.03204872741 18 21 14
-10.2123608454514 94.1838237466289 2704.72712084391 20 23 16
-26.3310743384233 94.3540808823983 2710.33487454531 20 23 16
-19.6452177583799 92.9722330366592 2692.94246362097 19 22 15
212.807049457858 104.76809640922 2862.74685790579 13 15 10
215.415644639606 103.768430783166 2851.04653436748 18 20 15
211.654718817985 103.123175904116 2844.61148626947 13 16 9
225.212938657668 101.486783504526 2823.55356898173 12 15 8
217.447164427665 101.06105111451 2820.39220482951 11 14 7
205.771948514487 100.862798839159 2820.57343282417 9 12 5
207.408333704759 99.8927131141276 2809.40351997229 9 12 3
177.836118298769 100.748066472371 2825.02407162471 9 12 5
170.147655880865 100.328776432787 2821.91878508677 9 12 5
164.016475436417 99.8179978354828 2817.47157434242 8 10 5
142.434030753559 100.232672466321 2826.53059945451 11 13 8
99.3696044788965 101.955464487905 2854.60688496872 13 16 9
78.79027426383 102.343152440682 2863.15791584399 13 16 9
86.6325943380275 101.0051796293 2846.60407222242 16 19 12
66.9006912612424 101.352899672784 2854.53388756365 12 15 8
54.1005663445979 101.282432543755 2856.37066000734 13 16 9
44.3764000901288 101.025726417102 2855.49558172137 17 20 13
40.7301720472164 100.390360775425 2849.14373058184 16 19 12
28.0104311784757 100.326749177683 2851.03880986196 15 18 9
32.64216824366 99.1641885478048 2837.09887559101 14 17 8
62.7300039921277 96.3608482107649 2799.60981500293 12 15 6
47.7047452524171 96.4373008205716 2803.53968899363 10 13 4
56.6080007596446 94.9670174721762 2785.28390219457 11 14 5
9.62618554701411 97.1385287903312 2819.16880155359 13 16 9
-14.1204571635942 97.8161774791332 2831.60072633836 12 15 8
-21.4925551449006 97.4241640196042 2828.72462281629 17 20 13
-19.2715861974861 96.3932158332689 2816.74314229602 16 19 12
-3.86745468284388 94.4693043156737 2792.08146844034 12 15 8
9.94193268731092 92.633936117877 2768.73454674558 12 15 8
-12.3395464092497 92.3292263715121 2769.8723743401 15 18 9
-44.4993812252907 93.6342134802389 2791.03019167248 17 20 11
-43.9158638397998 92.6888267871247 2780.33248869128 17 20 11
-46.9824930753138 91.992572824043 2773.16516157892 16 19 10
-68.0610470477012 92.56160110905 2783.8255807585 15 18 9
-16.2374254357598 87.0374225836152 2711.43943810424 16 19 10
-18.0761699818879 86.2228263361929 2702.69155812217 22 25 16
-29.8950141034604 86.1256844332719 2704.00421573657 22 25 16
-12.6231483311676 83.9166639162555 2675.75461717657 19 22 13
263.941925287615 95.0509288833504 2830.59934395334 25 27 22
266.45449169196 94.0125963029288 2818.82921124919 9 11 6
244.353624830859 94.4382657197969 2827.51247675135 9 11 6
242.094736792786 93.6826187561749 2819.69536100461 14 17 10
216.960388346181 94.3090657012683 2831.12134341634 12 15 8
180.143297907492 95.6627942790824 2852.60837352984 11 14 7
183.461138612768 94.5781469149183 2840.18673012914 9 12 5
176.689109347582 93.2191907874693 2826.62481285341 9 12 5
188.431099001939 91.5892190748157 2806.72067180152 9 11 6
168.302152713423 91.9524646906744 2814.36274068534 7 9 4
67.4114620005528 96.5843800790837 2883.28790649187 13 15 10
97.6273614800012 93.7725549250643 2847.12697016434 14 16 11
74.7769588880272 94.3627413956498 2857.73778778902 14 17 10
60.4246060818094 94.4138201297897 2860.92030049855 10 13 6
12.6057000783146 96.6653687650309 2894.19878028366 15 18 11
33.3809755358931 94.4277341759842 2866.01836549965 16 19 12
58.5451379503459 91.8755152216897 2833.6071463731 15 18 11
40.4879848694946 92.1850505662747 2840.2807570559 14 17 10
38.3107181857256 91.4367132548705 2832.52314187263 13 16 9
24.1568299300785 90.5977047519321 2825.96384083832 10 13 6
27.9093700934543 89.436606998934 2812.62160200922 11 14 7
26.3951040019297 88.6304038523711 2804.10898589632 13 16 9
12.2412369478191 88.6986719841655 2807.43517775412 13 16 9
-1.12572910047359 88.719241442085 2810.09653271194 16 19 12
-18.874705547995 89.055101702649 2816.99368055395 16 19 12
-27.7307339395434 88.771377533911 2815.51276045087 12 15 8
18.4112582410019 84.566577576016 2761.24699247009 12 15 8
-13.9652305784632 85.951589880435 2782.24815803515 13 16 9
-28.6957193307003 86.0858313392944 2786.39171531536 15 18 9
-23.0332130567434 84.7446598338857 2770.72802968387 17 20 11
-65.2443893463148 86.897889324434 2801.8954023076 17 20 11
-64.6338807313893 85.9296611409296 2791.21685567097 16 19 10
-14.393023959608 81.273577475661 2731.27401643007 16 19 10
1.05482134818624 79.1609573216565 2705.40803916029 15 18 9
-35.4954207812828 79.9742367614598 2720.91029820352 20 23 14
-25.9288721214856 78.2791134576863 2700.66413464904 22 25 16
-29.2195099378967 77.5536849898572 2693.33456563821 21 24 15
275.516592983991 86.6084316754365 2821.65561395245 8 11 2
273.23181879865 85.8364536812256 2813.81965006523 11 14 5
287.567606951683 84.0107455753181 2792.0894130914 6 9 2
237.769701150836 86.247090883643 2823.93319668161 14 17 10
165.355360180734 89.9665454518241 2875.20806853977 13 16 9
177.407168393433 88.2988966837774 2855.52833073097 12 15 8
198.762617225339 86.0129264152348 2827.76825117778 10 13 6
184.01076749296 86.0600392687861 2830.66084547486 8 11 4
174.761799953515 85.7528422034366 2828.89525097991 8 11 4
189.62269631427 83.8546771079846 2806.30997803706 8 10 5
171.813839508069 84.111669460793 2811.92828121845 7 9 4
131.658553323863 85.8743212492366 2837.17322537212 8 10 5
135.620175257323 84.6938222757706 2823.98245610918 10 12 7
78.0503551200677 87.6764892156912 2865.01761086074 12 14 9
91.2661738677469 85.8736333702048 2843.71063654404 9 12 5
76.1020899531859 86.0028401546516 2847.54014041311 9 12 5
54.1334751541576 86.6102344783282 2857.55523535914 11 14 7
58.0834343165906 85.4289997936952 2844.35600777806 14 17 10
67.2772339269305 83.8718471874155 2826.31040258995 13 16 9
47.6830957046115 84.3289121032008 2834.34093494459 11 14 7
28.1671762546107 84.792542228748 2842.42790853362 11 14 7
5.72586144393794 85.4770424610767 2853.33605481614 10 13 6
15.5718861107093 83.8583729936588 2834.52761878936 11 14 7
9.64917001830878 83.364586885408 2830.23161437297 13 16 9
6.70234111690871 82.6543450851403 2823.15135670534 15 18 11
21.5457246216824 80.639456768272 2799.31805494114 16 19 12
3.71210698429447 81.0115250808884 2806.15373350218 14 17 10
-30.2804466372402 82.5921320455796 2828.45473766462 13 16 9
-38.366340312564 82.2669682829636 2826.29685812392 12 15 8
-48.6398463908468 82.1080291663484 2826.25937799157 14 17 10
-1.13630169480339 77.5892603969577 2770.5086704369 14 17 10
-14.4482924008931 77.6418552414096 2773.21004040841 16 19 10
-27.7173264289452 77.6981690311099 2775.94256942977 18 21 12
-50.3608977436154 78.4831524133309 2787.93964125234 18 21 12
3.65151695970889 73.3459976232685 2724.55267602492 17 20 11
29.2160688585006 70.367638125434 2688.72443940684 17 20 11
-7.86409822317968 72.2726523142638 2714.96428748865 18 21 12
-51.9118232103719 74.7584651234919 2748.50739573228 15 18 9
-36.5143972222364 72.5591795537524 2722.60442944426 16 19 10
-33.3406491725112 71.315660550589 2708.84219438006 20 23 14
18.6951469993857 66.1311039611695 2645.25742720285 22 25 16
263.182625560334 79.6634248878948 2832.44133837088 24 27 16
241.856449556402 80.1432301561997 2840.45113691066 8 11 0
246.771361671438 78.8871542316527 2826.71600860321 15 18 9
240.557041594978 78.3677584667777 2822.20848451768 14 17 8
202.809463038967 79.9753599977689 2844.25760096012 13 16 9
168.380792805677 81.3841229893564 2863.77121672449 13 16 9
197.60677307055 78.4689665927541 2829.3625111747 10 13 6
200.055863388698 77.3639004455579 2817.54573080533 9 12 5
179.848939095159 77.8181918786082 2825.1320274112 8 11 4
173.712267024221 77.3052806355351 2820.68082486735 8 10 5
163.69902343282 77.0637057174614 2819.59626489317 8 10 5
132.836789506973 78.2943398788856 2836.75392319686 11 13 8
136.79819387929 77.077678272349 2823.56281304834 11 13 8
139.933032105986 75.9110432598642 2811.00779748482 10 12 7
117.723854362971 76.5553130143013 2820.84898447724 8 11 4
102.483605143584 76.7104813738342 2824.62311151486 11 14 7
73.5792534171491 77.8668258770578 2840.72963085802 13 16 9
86.5937084465993 75.9782947552837 2819.2762497225 14 17 10
84.3404617809584 74.2429723059434 2801.57737928992 11 14 7
30.8231597749451 77.2714416870751 2840.60978744739 10 13 6
21.1388206686332 77.0579409743288 2839.76409403203 11 14 7
6.98284519753356 77.1851099981054 2843.08905579798 12 15 8
-2.64624302829053 76.9763586475991 2842.28314450444 15 18 11
14.54337729287 74.7229760305515 2816.44406749434 16 19 12
16.7518658125063 73.5988470194916 2804.45306766639 17 20 13
27.7907225719076 71.7841067441339 2784.03827468416 13 16 9
-40.953612945043 76.1597331888707 2839.21197208621 12 15 8
-61.5117914999277 76.8239206838665 2849.01477340523 13 16 9
-32.8460711145335 73.6252586088771 2811.72782528768 14 17 10
-14.6251052877111 71.2206939836631 2784.16525914255 14 17 10
-20.6068601742793 70.7223491139723 2779.82643315329 16 19 10
-25.1362098615424 70.1074061400365 2774.06982283809 18 21 12
-27.5015322764642 69.3162819599706 2766.17537084105 17 20 11
13.4522208203514 65.002508089901 2715.55849990384 17 20 11
0.826030873167571 65.020901017891 2717.52181161255 17 20 11
-4.58195338097167 64.4521847219082 2712.36353112527 19 22 13
-28.6049099426848 65.4231594424916 2725.83167248591 18 21 12
-71.0711651397822 67.9481566491548 2758.05134714891 16 19 10
-49.2922784819492 65.1281141111616 2725.65508053719 19 22 13
37.5543930296538 56.794011983064 2626.76829473945 21 24 15
246.394368695024 71.2151947454707 2827.63889499109 32 35 24
237.019520536978 70.9183518185802 2825.78209939505 12 15 6
233.180619933809 70.2315461976149 2819.29031525112 13 16 9
206.525973919566 71.17006940227 2832.08585549749 13 16 9
192.529595962924 71.2177346426688 2834.29107357612 12 15 8
190.304406784334 70.4221755143914 2826.4981846888 11 13 8
182.598389251126 70.0211787737006 2823.38026473229 10 12 7
167.125393193533 70.1890666500017 2826.9857330467 8 10 5
171.861644450836 68.8791759011912 2813.12081708797 8 10 5
181.17407534458 67.2209583342362 2795.16069833496 10 12 7
137.976000906537 69.4566330705032 2823.14299177244 10 12 7
140.341861729922 68.314071277159 2811.26568664327 9 11 6
67.7291438477745 71.8669231886466 2856.22013486897 13 16 9
77.7897134595214 70.1496818675327 2837.56702224256 14 17 10
96.116334218284 67.7834680418045 2811.31627849594 12 15 8
118.847520947503 65.054661736629 2780.84614776478 10 13 6
74.9241591684959 67.4736806084601 2810.77366686299 9 12 5
37.2461450468791 69.4403312193404 2835.34539843829 10 13 6
47.0732216828309 67.7038503497924 2816.52262984161 10 13 6
24.6026199838707 68.505615007477 2827.41013940124 12 15 8
11.9352397502532 68.5433587767182 2829.34368940809 14 17 10
11.9635999687944 67.5716371535828 2819.4781499095 15 18 11
42.3913722795999 64.1468589968119 2780.99733225579 17 20 13
50.3982474829296 62.5023841275521 2763.32618903656 13 16 9
50.2034190709919 61.5123278250627 2753.29876246789 13 16 9
15.3927081594767 63.35394082437 2776.2430256267 14 17 10
-14.8460881209829 64.8469561723008 2795.08899282599 14 17 10
-28.1201094260617 64.9565308189393 2797.81817624054 15 18 9
-29.6850931435979 64.096049110242 2789.26851890656 16 19 10
-13.8314231280181 61.7682937706346 2763.69564292605 17 20 11
42.4733198064309 56.0007894568167 2698.26213262188 17 20 11
-23.9747778532744 59.5853671009687 2742.74516530961 17 20 11
-17.8155026625759 58.0314345943018 2726.2051892848 16 19 10
-25.3343322615032 57.6485939322035 2723.22276334373 18 21 12
-52.1153749063297 58.9445493648155 2739.63389080447 18 21 12
-7.62008649709744 54.0182046257905 2684.17044287388 17 20 11
23.0842878174937 50.2536394688975 2642.18330893996 18 21 12
246.809490579295 63.4909106134206 2827.9007006822 10 13 2
264.321172772667 61.2172965509039 2803.53002734935 11 14 5
261.196832200225 60.456932588176 2796.32083380447 12 15 6
207.723812681662 63.4590045594181 2831.67980520943 13 16 9
189.802622641322 63.8281915482807 2837.21724392002 13 16 9
190.715025512217 62.7825121535652 2826.75715456663 11 13 8
161.953383641799 63.9892614602502 2841.73205153405 10 12 7
175.310380329682 61.991054322045 2820.52643062627 8 10 5
180.802088172197 60.5809119772958 2805.97361684511 6 8 3
147.564970598848 62.1609089615602 2825.11655078937 7 9 4
156.888108448663 60.4483256203084 2807.16391836395 9 11 6
149.976373694992 59.9942837021261 2803.38648563168 10 12 7
61.2457939970561 65.0308509018052 2862.60180324067 13 16 9
58.3708425796319 64.2916461429438 2855.57350439202 14 17 10
104.881888764735 59.5847584965415 2804.04280162042 11 14 7
103.342753307396 58.708178793462 2795.51180070237 9 12 5
75.3274218580451 59.9778818716285 2811.02803289433 10 13 6
56.4803694205134 60.5194066994072 2818.36524037785 10 13 6
28.6914707880124 61.8082449665406 2834.04571547456 11 14 7
18.2579897891451 61.6831703124243 2833.89243763843 12 15 8
25.0280977160249 60.1314796477251 2817.79527865526 13 16 9
33.2118107440431 58.4489697379767 2800.25184181705 15 18 11
42.7959427758258 56.6344678105598 2781.25256230008 16 19 12
50.8057228999808 54.9376537149136 2763.58325981145 13 16 9
41.017113023547 54.7424010339409 2762.66177624243 13 16 9
25.3623027140395 55.0533928542234 2767.37149948143 14 17 10
4.62793914974435 55.8117274872071 2777.04705740097 13 16 9
-35.7692546693151 58.2894750167304 2805.8256640131 14 17 8
-33.66267257666 57.0962115009106 2793.76043986154 15 18 9
-6.15809527334599 53.6668096758795 2756.86591670766 16 19 10
-21.6245001642492 53.9941547608532 2761.71230188789 15 18 9
-19.6906866421978 52.786865192137 2749.52176306771 15 18 9
-21.4086673143248 51.8972607555932 2740.86104746387 17 20 11
2.70303913113423 48.6831245464174 2706.44849117429 13 16 7
2.2827136900947 47.6532433108487 2696.25768975276 17 20 11
-1.02914168998813 46.8799932719388 2688.91220297451 19 22 13
-24.9974715464658 47.992187188122 2702.42095417966 17 20 11
-28.2829393594868 47.2215332734177 2695.09490393882 22 25 16
371.416702615402 49.3512608465033 2755.12289368799 26 28 14
246.548707057925 54.8181369423988 2819.02187847528 16 17 9
226.122758641252 55.4003852081504 2826.45004794668 14 15 9
210.494411114365 55.619912484242 2829.94316022937 14 15 9
191.780212380066 56.0906403560434 2836.14128096786 15 16 10
177.045939609316 56.2577042912765 2839.04751923244 14 15 10
171.719038987667 55.6835826164264 2833.94769614443 9 11 6
157.053122135863 55.8563783108204 2836.90351610592 9 11 6
173.458147965315 53.5347933319676 2812.9653976047 8 10 5
188.188057081075 51.3278009777474 2790.28389941862 7 9 4
171.179340032857 51.6866649734876 2795.24742588013 8 10 5
87.3278351961124 57.5325060554999 2859.23911921859 8 10 5
93.6352708116499 56.021801618843 2844.04180343554 11 14 7
112.898130211854 52.4104877684837 2807.34723928947 13 16 9
99.2062713903197 52.5377419570364 2809.77361292161 9 12 5
80.2509705802779 53.1162118364212 2817.03283046075 9 12 5
61.36955709571 53.7008661581603 2824.34534734736 13 16 9
41.808232367428 54.356075673797 2832.40037606855 12 15 8
22.3247926234165 55.0179486270722 2840.51219350563 13 16 9
35.8856773376437 52.841066368762 2818.21843372543 15 18 11
37.3786742363036 51.6922611419032 2806.94367039139 16 19 12
23.9300246119272 51.8404875438449 2809.54645778928 16 19 12
5.32590488135254 52.4489201160597 2817.06011127743 15 18 11
26.0382846253209 49.5972720285037 2787.59595531975 12 15 8
14.847301975772 49.552657453925 2788.12899254652 14 17 10
0.742095129160347 49.7737043848004 2791.49123308192 15 18 11
-11.1144086511443 49.8010003535746 2792.77751518538 14 17 10
-17.8152890480432 49.368286378261 2789.1527488294 16 19 10
-45.6660142802825 50.8593616400838 2806.02446550397 16 19 10
-37.0248093116783 49.0361964214994 2787.57692526078 17 20 11
-52.3982038472037 49.4064895289954 2792.49095317276 17 20 11
-35.9116801985664 46.8391602192636 2766.14059617804 17 20 11
-33.9748412223759 45.6016659138556 2753.95180310417 15 18 9
-21.3115295688267 43.3515624051815 2731.00700257706 13 16 7
9.8571067523574 39.3388977882134 2689.35516540688 18 21 12
-13.4680069707089 40.4455867085029 2702.09483872394 20 23 14
-11.0638557011058 39.1205383625589 2689.00933019683 18 21 12
-32.1301441035025 40.0345203755442 2699.68038820849 20 23 14
304.662421032324 46.5753769143866 2810.46796321742 24 26 13
348.600483961994 42.0548527122669 2764.48380267059 21 23 10
265.781656394648 47.6121109572089 2823.04687197106 19 21 10
260.330786075619 47.0244616995099 2817.85740656092 22 24 13
216.111570389095 49.5672306423152 2845.10071393081 17 18 10
225.74659264419 47.7701640276156 2827.37374524228 14 15 9
220.345645109626 47.1866337519819 2822.22049078746 14 15 9
200.818349474839 47.7627118251455 2829.06475047919 15 16 10
177.453002750885 48.6681617323749 2839.30416546162 15 16 10
165.88514802501 48.6093711860258 2839.56392827331 9 11 6
164.460211900141 47.7080934794802 2831.11558778825 9 11 6
188.607033961483 44.6534586361994 2800.4346998285 9 11 6
187.055059948464 43.7415608529632 2791.89421307441 8 10 5
180.847542685215 43.2207147740165 2787.39161314723 8 10 5
154.641134186531 44.4089849960957 2800.51335535236 8 10 5
107.073120341386 47.4526200190269 2832.74268766188 12 15 8
130.099075096955 44.4344012220376 2802.48448015534 12 15 8
115.591612131369 44.6503132042691 2805.55509063601 11 14 7
102.652072546605 44.7373282102465 2807.29159608958 9 12 5
65.4896546227413 46.9607117664276 2831.00335812578 10 13 6
50.4296853258461 47.2607711352033 2834.90890782811 14 17 10
28.6372756298334 48.1684739109326 2845.05355321226 13 16 9
31.7382601436864 46.8659124701413 2832.47330787567 12 15 8
53.5197152109426 43.8740895400931 2802.54840079262 14 17 10
24.3295670909776 45.4640217367491 2819.68467859024 16 19 12
12.4089908194396 45.5068731590023 2820.92459196886 16 19 12
-18.7894464864229 47.3192882370227 2840.31154936089 15 18 11
-0.22086390319398 44.5794180101302 2812.999279632 12 15 8
11.5561095274535 42.4422680152844 2791.88289347896 15 18 11
15.1285268877266 41.0497978730208 2778.40890783911 15 18 11
-10.7162625677042 42.4000038200499 2793.02865227161 15 18 11
-20.3441521956866 42.2450293872868 2792.22388225791 17 20 11
-29.2217554883254 42.0229260853394 2790.72792864746 17 20 11
-53.3572597926977 43.2563486955588 2804.11581109787 17 20 11
-38.9501483473405 40.8196944797654 2779.96411007986 16 19 10
-28.2822230406656 38.7207992380221 2759.27898167055 16 19 10
-45.8261591757605 39.3353213599573 2766.32617908808 16 19 10
-41.7439230522314 37.8565795395366 2751.98600386051 14 17 8
-17.6670031829618 34.4083971514113 2717.54733902645 17 20 11
-14.9234813078385 31.9089801730979 2693.5856859913 20 23 14
5.18501575188779 28.7798366726248 2662.44732039014 19 22 13
325.034479652363 38.1365932376945 2804.19626408786 28 29 21
310.683298698815 38.2621581885877 2806.14467247955 22 23 15
309.140152272454 37.3341128464806 2797.61050324085 20 21 13
285.292529963705 38.258907568156 2807.50040434489 20 21 13
229.180495479832 40.8652327348279 2834.7685208465 18 19 13
215.112231123362 41.0143443953196 2836.92214078588 14 15 9
223.905325633538 39.2243840251374 2819.82020780819 13 14 8
212.9980647685 39.1066514502709 2819.32321954816 15 16 10
188.814279857371 40.136136875935 2830.20499611592 15 16 10
176.434300190088 40.1609193924898 2831.11178664625 9 11 6
194.433617466196 37.547207241903 2805.85755662144 9 11 6
192.898661933563 36.6198059400048 2797.32962287562 9 11 6
158.068077377793 38.6182355683035 2817.78990577731 8 10 5
168.916956210738 36.6017135386342 2798.47140830669 8 10 5
133.510281836351 38.6849444344712 2819.74983204586 8 10 5
160.4047067872 35.2215655664572 2786.11822869458 13 16 9
144.274574063728 35.5969746278856 2790.48370685783 10 13 6
141.166700328988 34.8038504577103 2783.28599006109 9 12 5
81.001796218886 39.199334615848 2827.38751025046 10 13 6
45.4138428553175 41.400684736928 2849.77015590805 11 14 7
55.3634154391065 39.4420973630131 2831.03506222492 15 18 11
32.0470852767074 40.5450376556142 2842.54604731582 14 17 10
50.9229700260363 36.675567506867 2805.56994385136 14 17 10
35.1889294576178 37.0848268927484 2810.22272912941 16 19 12
21.0012558693995 37.3578913962854 2813.52545124316 16 19 12
-7.99759955298929 39.0486150893669 2830.80120620546 12 15 8
23.8782370677617 34.9401171066972 2790.89629036213 12 15 8
22.2950928579757 34.0099367586458 2782.3331150624 14 17 10
1.54014669057068 34.9295552271726 2791.99456914811 13 16 9
-12.5208578359577 35.2138774686878 2795.38946786762 14 17 10
-19.2151557486944 34.7862970217712 2791.76949929722 18 21 12
-23.7169131041277 34.1437817482276 2786.03245711606 17 20 11
-42.0514759553281 34.8679940056699 2793.74239906265 16 19 10
-36.3767402190887 33.2175084245577 2778.08571761556 15 18 9
-35.1122855139892 31.9952094853141 2766.64490690793 16 19 10
-42.5436389718974 31.6395740959663 2763.72603208839 17 20 11
-30.5625681630133 29.3217197151832 2741.52164854794 15 18 9
-3.36244566760113 24.2932745954683 2693.28210704304 19 22 13
-10.9524008401161 23.9250699040061 2690.24848926689 22 25 16
-22.7936906027719 23.9983809449452 2691.54573893481 20 23 14
307.806155782179 31.7446485508164 2818.84728068825 26 27 21
314.305305910199 30.1171379995027 2803.78864567772 21 22 16
257.064088088102 32.9141614641741 2831.47449011018 20 21 15
234.181391875229 33.8438006613315 2840.82858016567 20 21 15
218.512110884584 34.1570013767448 2844.29278785838 16 17 11
228.148667075767 32.2495180339146 2826.56637187036 13 14 8
219.59589681224 31.9380208712175 2824.06981827423 13 14 8
225.181518515275 30.3693838543374 2809.58428184802 14 15 9
208.787590881765 30.7575064326957 2813.7585938478 14 15 9
184.645556773736 31.8529557854436 2824.67097058403 14 15 9
193.288759257328 29.9978792389192 2807.45975337412 9 11 6
245.30507945002 24.1800098359562 2752.50350514812 8 10 5
184.785517359076 28.6035698308081 2795.11303177885 7 9 4
137.690232153573 31.8458040354359 2826.45073000556 8 10 5
165.462464306456 28.2020111761583 2792.21922288972 9 11 6
126.290118767054 30.751649610954 2816.94567130711 14 17 10
151.569593441206 27.3060684824599 2784.61381391999 10 13 6
129.371253434929 28.2934781733019 2794.46430101347 10 13 6
54.0180279210665 34.3237266373723 2852.26626273203 12 15 8
51.1173428559788 33.5366883395765 2845.2190667267 12 15 8
45.173027281872 33.0373437642047 2840.90737623034 15 18 11
39.2276940496199 32.5380362348043 2836.59494819951 14 17 10
1.70314894674561 35.0907244949818 2861.2806066609 14 17 10
5.59373847150813 33.6520982929066 2848.03703702368 16 19 12
37.8299070244625 29.4332698932756 2808.39306911958 16 19 12
28.1055946814668 29.2960499205854 2807.51878462886 15 18 11
16.9162886595982 29.3074913825677 2808.05332121369 12 15 8
24.2784538865108 27.481769967749 2791.14863807645 13 16 9
-8.37213573223772 28.5439707047716 2802.06858503064 13 16 9
-26.0750082612431 29.2311554136934 2809.00093411467 15 18 11
-31.2632414217533 28.6607097570372 2804.00165264831 18 21 12
-31.3481452259436 27.5684006279463 2794.05368931999 17 20 11
-31.4690896350418 26.4731465135908 2784.07928999408 16 19 10
-41.0574550964682 26.3485379014871 2783.30362017809 15 18 9
-41.2223438519776 25.2499329083441 2773.29734768479 16 19 10
-60.8919462443036 26.1802182938788 2782.51060803628 17 20 11
-36.6292331866322 22.5160923421719 2748.20524037577 15 18 9
2.49675224772439 17.2485577979842 2698.72891840312 17 20 11
-29.385320579403 19.4624657115205 2720.09269519206 19 22 13
-25.4980678767551 17.8903610738404 2705.61099389749 22 25 16
-45.1044191460934 18.826860830361 2714.8701378149 21 24 15
297.793144375338 24.8327858537893 2827.61027917166 25 26 21
292.318829877943 24.2336036659858 2822.40376015974 21 22 17
321.157632842453 20.5586195953564 2788.94556947438 21 22 17
283.742498304755 22.8186463286407 2810.00394971347 20 21 16
217.129919086535 27.7527245803959 2855.60961832505 19 20 15
215.754622069266 26.8049099915499 2847.19702656995 15 16 10
210.405713911532 26.2160261169912 2842.08117497591 13 14 8
231.81399914064 23.163770815889 2814.3558107469 13 14 8
219.315399780671 23.2213515648615 2815.17648298302 14 15 9
210.764615462209 22.9177325963995 2812.68170342248 13 14 6
193.639955544785 23.4181018679258 2817.56189717587 12 13 7
193.699674017137 22.3136709738465 2807.71871222309 10 12 7
175.095280871462 22.9669546577252 2813.99735805732 8 10 5
153.464321708169 23.9202625322741 2823.02394227076 6 8 3
127.289327109527 25.323272726206 2836.16954478273 7 9 4
97.3798123343794 27.1054489542444 2852.78531209388 10 12 7
98.3008386503759 25.9349866293179 2842.33113648676 14 17 10
119.076586191561 22.8296860483999 2814.14666902693 10 13 6
102.310677307059 23.3605221341555 2819.28708338064 11 14 7
81.8011532453164 24.2697978159048 2827.89136017086 13 16 9
34.8230173957962 27.8055388661549 2860.55050576505 13 16 9
47.0808631562538 25.5092045297774 2839.78190792613 14 17 10
47.1648123128734 24.4073639014116 2829.95630143368 14 17 10
50.9727764659615 22.9255854595449 2816.65261632663 14 17 10
21.7808849498988 23.6601831753966 2823.9024158738 17 20 13
29.9944229562672 21.7173958661089 2806.37928144255 14 17 10
31.434456075937 20.4528329592868 2795.06553719935 13 16 9
9.11681461397329 21.6268261009363 2806.06581630975 14 17 10
-1.28375894549415 21.5849266849548 2805.93652060068 16 19 12
-24.1815363064573 22.8489988767594 2817.75173971453 14 17 10
-49.9168456615586 24.4291065355553 2832.4523075827 16 19 12
-31.6015437609598 21.3957482570866 2804.95494270686 17 20 11
-36.7927878233631 20.8220416211313 2799.95346205595 17 20 11
-39.8061989592091 20.015729741818 2792.82445089175 17 20 11
-16.7164889433831 16.4140014611772 2760.139432085 16 19 10
-42.9951387335394 18.0877262209298 2775.68133721758 16 19 10
-24.4374268060492 14.9370936257307 2747.12406989679 16 19 10
-8.1875810668719 12.008482744077 2720.60031007215 15 18 9
-20.7467500012217 12.2025198286075 2722.61280193863 17 20 11
-38.2694655481801 12.9496746898821 2729.67605442433 19 22 13
-62.1341131898623 14.4113902705585 2743.26173747581 21 24 15
-85.1791623859872 15.8034461603484 2756.20588098529 23 26 17
303.941965307295 15.3927329694152 2813.49314761258 21 24 17
245.747793975516 19.6872194151515 2851.61197374791 20 23 16
251.522119955889 18.0514724696977 2837.26259867745 19 22 15
234.207871710055 18.5737929848616 2842.00546699295 18 21 14
191.620520521994 21.4946780067002 2867.96358973757 15 18 11
218.708271253761 17.8341176852201 2835.70617023692 13 16 9
209.395526315451 17.6155816010571 2833.89479122981 13 16 9
201.669964282667 17.2477172721381 2830.76257639364 12 15 8
192.386386077991 17.0316232760219 2828.97205886682 11 14 7
192.487729937213 15.9082800594316 2819.15895325067 10 13 6
186.325094472168 15.3891431686355 2814.6888977542 10 12 7
183.26669524913 14.5656099705357 2807.52718653613 9 11 6
132.194296015595 18.4695117471509 2842.16061902781 7 10 3
82.1472235912495 22.3183796798117 2876.30231189559 9 12 5
100.086167304836 19.4435801818545 2851.00299332799 11 14 7
117.120417846714 16.6341157370157 2826.28350541425 12 15 8
94.9892856610837 17.741270287694 2836.18361389954 13 16 7
87.4495158441215 17.3893533574983 2833.18616458233 14 17 8
57.088898150313 19.3596714735198 2850.71120184271 14 17 8
34.4553412274156 20.5661727999191 2861.48263175388 13 16 7
43.6928047226379 18.5150856421107 2843.46617757187 14 17 8
52.0870840197976 16.5346048109525 2826.0738754344 15 18 9
37.1236049265455 15.8414679991031 2820.16346022246 16 19 10
37.8788934544132 14.6325957918499 2809.58864872506 14 17 8
43.066817749926 12.9483683556111 2794.81422747259 14 17 8
28.8604493799687 13.3090561456048 2798.10384116931 13 16 7
25.8187354781083 12.4881292647195 2790.95423869815 15 18 9
0.589652086196768 14.0427771754736 2804.78632050556 14 17 8
-2.4232889466913 13.2245098088427 2797.65758957212 17 20 11
-3.25102086134699 12.1660291332057 2788.40604779376 18 21 12
-15.0961606842377 12.3018293844736 2789.70111746804 15 18 9
-26.9069921053191 12.4406674876975 2791.02077894528 15 18 9
-12.4774651451252 9.6968640383206 2766.88377164093 14 17 8
16.3427759386936 5.33601275306275 2728.46791552863 14 17 8
-33.9161127217817 9.73482710794624 2767.39928486732 14 17 8
-13.2154448957298 6.24655132852034 2736.6880829394 15 18 9
-9.93858433506656 4.68629997669132 2722.99928650015 15 18 9
-11.7383555143165 3.68883370207249 2714.27873287072 17 20 11
-37.1516831887424 5.37102417834726 2729.21293472321 16 19 10
-59.5969136643069 6.73749084748179 2741.35673338034 21 24 15
-71.2868128657549 6.8880376112567 2742.76412051108 19 22 13
300.232033297187 9.07841724857289 2826.82840955829 22 25 18
295.55436867607 8.39564802917245 2820.96364455202 22 25 18
246.360191594978 10.8851412230599 2842.13015312548 18 21 14
234.617201063337 10.9050792918523 2842.26335502995 17 20 13
203.900403842956 12.7879846752776 2858.29471075835 15 18 11
209.641456060298 11.1078111290266 2843.92098979747 13 16 9
229.489591450292 8.01999545041798 2817.53453279291 12 15 8
206.789327651582 9.13590832917802 2827.02181551165 13 16 9
194.359702760352 9.24219230038231 2827.89302998059 11 14 7
184.307075469233 9.11594365680096 2826.78050407231 10 12 7
208.536001772514 5.53187434146696 2796.15674801679 10 12 7
199.205201122351 5.32226060874741 2794.33203075527 10 12 7
128.72368602567 11.3551023981927 2845.78443599375 7 10 3
98.7535342170922 13.3009335248466 2862.35707516963 9 12 5
115.218916650507 9.35106089631102 2828.5735808731 11 14 7
109.932258247968 8.76125592300986 2823.50314526656 12 15 6
92.4277212172724 9.44988101817595 2829.34394817563 13 16 7
68.8992105501818 10.7848984565314 2840.70229460702 15 18 9
42.43505761624 12.4496007248237 2854.87493669896 15 18 9
43.3299069430264 11.2270018401435 2844.40122627474 14 17 8
54.7472118734511 8.8717393420609 2824.25804059654 16 19 10
32.2086324078783 10.1463060269747 2835.09866645791 17 20 11
33.0191805686368 8.91684793578529 2824.56380957612 16 19 10
40.5202595930763 6.95312510147134 2807.75912901088 14 17 8
40.4839068403327 5.79685030303767 2797.84603737717 13 16 7
10.6711379078188 7.90128548892727 2815.76890122567 13 16 7
-4.91706144074722 8.46380312255365 2820.52818619964 16 19 10
-3.44956011976105 7.14611280159613 2809.23408514094 14 17 8
