ply
format ascii 1.0
comment KinectMotionCapture
element vertex 780
property float x
property float y
property float z
property uchar red
property uchar green
property uchar blue
end_header
435.588420074731 417.657653448111 3150.25892247167 217 184 169
428.68976697621 418.291556176072 3152.76463063783 206 174 161
419.214796823996 419.033126128032 3153.56168075944 204 174 163
408.860277774807 419.81309191289 3153.8095517328 191 163 152
387.312394050352 421.063376889318 3146.68191382761 108 88 81
351.91281569901 422.901692466098 3130.5500644932 87 72 65
77.4714425029792 435.23901005442 2966.22837506919 145 134 130
69.8047501319219 435.966109753497 2969.48298311505 178 173 170
144.80180828089 410.502021156413 2715.97856122142 188 190 187
165.079137606129 410.321838741749 2741.21398091658 199 200 202
175.04504921073 410.469037378404 2758.21923156437 202 203 207
178.647497438133 410.819826979341 2770.17711669166 210 211 213
179.873525176144 411.245581587249 2780.23301474641 196 197 199
177.088233511387 411.802655742049 2787.16758102204 185 186 188
177.557655859785 412.248696125391 2796.5545540249 197 198 200
177.242578306695 412.718614245945 2805.30010859012 206 207 209
181.023773766209 413.046309714246 2817.08390837627 204 205 207
180.76666969915 413.508771933659 2825.77299639179 213 214 216
182.988599899224 413.883202073388 2836.26444363127 211 212 214
184.425883300215 414.281600475842 2846.11426708298 221 222 224
185.072905456069 414.704632408831 2855.32828149054 209 210 212
184.923819719574 415.153093903963 2863.91217500794 210 211 213
181.494556502617 415.715327494593 2870.06854267448 216 215 221
178.901562696632 416.246904656948 2876.81558493602 224 223 229
173.831384899816 416.865913791389 2881.75885715952 196 197 199
173.753434131865 417.304994811663 2890.27349903168 190 192 189
440.280057482648 408.472508403854 3095.94516589687 224 197 190
458.483686044621 408.183417283694 3116.17067549142 223 193 185
460.839508658699 408.468217516433 3125.12550352789 230 198 185
460.702103035153 408.842380491667 3132.29153264955 229 200 184
458.054414354732 409.308089133359 3137.68605159281 228 202 185
452.033228183853 409.89905253438 3140.74367785997 225 197 183
447.699812381547 410.427127084021 3144.9687746235 221 192 178
445.065837368135 410.890900509193 3150.34996171685 221 187 175
441.588882827828 411.385907511058 3155.14637647323 220 186 176
432.144200042491 412.10803252016 3155.91622474586 218 186 175
421.821970179206 412.865588435045 3156.1353442493 219 189 179
407.188025114729 413.791331090257 3153.52598048703 209 185 175
383.918739135025 415.055011112935 3145.27192205088 116 101 94
68.007260255825 428.548344397675 2961.02797154618 192 185 179
60.3194229078357 429.27032587198 2964.3043333381 184 180 177
147.253544028243 402.998680367043 2718.90400766795 190 192 189
167.535886146453 402.904461731862 2744.12174417652 193 194 196
175.901401500351 403.149942790462 2759.86752938299 194 195 199
177.896058538639 403.578380918843 2770.5766798747 189 190 192
176.699814220297 404.098781048834 2778.77287552719 186 187 189
175.523599548061 404.616492255105 2786.94924102477 192 193 195
176.799347782241 405.057574432846 2796.9531626417 198 199 201
178.919541295643 405.469685458822 2807.54006669646 206 207 209
182.704456277766 405.826973085793 2819.31613707553 205 206 208
183.267244042953 406.280113299307 2828.60934748752 216 217 219
183.858008634115 406.729667620547 2837.87530649106 210 211 213
185.296941475698 407.149765003843 2847.72028492398 204 205 207
185.945637574246 407.59180974719 2856.92982699664 209 210 212
187.446601569881 408.00395614232 2866.71472057117 208 209 211
184.84893456891 408.544748330327 2873.46537924964 226 225 230
178.951591485011 409.190904011916 2877.80877942344 212 211 216
172.221556367155 409.864287210828 2881.55845940552 191 193 192
177.962589277853 410.129734478709 2894.23946836518 203 205 202
453.91030782525 401.485227147807 3099.02985895359 207 192 185
467.90298729718 401.411813732482 3116.32014174264 221 191 183
470.253829126747 401.719161829198 3125.27624536532 224 187 179
466.759238261691 402.21985829288 3130.08967019491 229 193 179
463.269009202163 402.719870497513 3134.89852697833 229 197 182
459.783393792374 403.219242109461 3139.70289701867 221 195 178
455.456946495296 403.746909918905 3143.92113406952 216 190 175
454.520654236251 404.157820962734 3150.45812876374 213 185 173
451.902060176061 404.625434319354 3155.82347480298 218 186 175
449.29186352308 405.091959564952 3161.18064291506 221 184 175
438.158265749352 405.855800492176 3160.787286666 217 183 174
426.994650029324 406.623235714107 3160.42354528817 215 186 178
408.087431404051 407.667135771067 3154.9552572994 179 162 154
59.4087525839666 421.766384331091 2956.39868080649 209 204 200
55.1684899697875 422.357074686785 2961.93926764807 186 182 181
150.504429389281 395.490005187518 2722.45392231473 190 192 189
166.789466567694 395.585310650022 2744.5278078681 189 190 192
174.349827074685 395.898256664301 2759.64624313122 190 191 195
176.340053615705 396.351767912572 2770.35574953405 186 187 189
176.75304012569 396.843593442336 2779.79233497607 187 188 190
173.95932758144 397.418577820668 2786.73227834432 195 196 198
173.609912674325 397.925935706364 2795.50639682875 195 196 198
176.534444218253 398.341506309947 2806.71097932256 198 199 201
181.941859359949 398.684687538599 2819.71178661316 202 203 205
184.95151159287 399.089379904756 2830.83345080322 203 204 206
185.545905915819 399.557700478062 2840.09303178558 204 205 207
186.168423423832 400.022403670297 2849.32555851877 204 205 207
185.996503943732 400.506838271189 2857.9264716298 226 227 229
187.497161321613 400.94095972381 2867.70842177639 221 222 224
184.073152708033 401.514042847265 2873.85763014589 174 172 177
179.00188264617 402.134074211469 2878.80183591962 181 179 182
175.591415449284 402.70520131097 2884.93822440365 213 212 210
475.632316062228 394.723367076909 3115.30132862606 203 183 176
479.646011687045 395.003724635331 3125.44433951577 211 177 168
476.160068500745 395.506439823 3130.248540864 213 175 164
470.999631898144 396.05950678927 3133.87427832185 218 181 165
466.677538032056 396.58712701459 3138.08819938429 222 189 172
462.356168034606 397.114538047113 3142.30143255306 203 176 157
458.035436063722 397.641839161836 3146.51404839783 207 180 163
455.410263385113 398.116001834006 3151.88495911643 209 180 164
451.944094714327 398.615781863592 3156.66995789352 213 181 168
448.482454389718 399.114961538776 3161.45054868804 217 181 169
439.053618802749 399.803497912232 3162.20996268609 217 184 175
430.457048450195 400.467366748354 3163.5631423302 216 187 179
408.129875677074 401.575317570854 3155.81347757842 193 176 169
110.13606461173 412.07856488914 2974.0573711208 196 185 179
73.1942058212707 413.738302553827 2958.06617563923 198 190 187
49.9461906236913 414.958330315313 2951.21435610485 184 179 176
43.0844420045164 415.641107450574 2955.09310327913 201 197 198
154.554013105219 387.984127826811 2726.62687564749 188 190 187
166.844136107195 388.241694201678 2745.55890351117 185 186 188
172.798426577247 388.634767884336 2759.42619075123 186 187 191
174.784620285788 389.11342346678 2770.13632333671 185 186 188
172.773277362243 389.681296897147 2777.71766026076 187 188 190
173.204098938504 390.189875033456 2787.1337213484 193 194 196
172.852470628742 390.714082193965 2795.90754745892 192 193 195
177.399687426453 391.118252077684 2808.33662100687 195 196 198
181.994101524048 391.516396576489 2820.7193796456 201 202 204
185.003397865758 391.948465859461 2831.83735094454 201 202 204
187.234113651732 392.395646891658 2842.30932141722 191 192 194
185.399458570859 392.940390964017 2849.71862321058 203 204 206
185.225493036524 393.441670189301 2858.31941629758 211 212 214
183.4274471102 393.981592705141 2865.69307728324 176 177 179
179.993753136484 394.561662729221 2871.85120853967 197 192 196
176.56871274992 395.140494409075 2878.00092968286 194 189 193
188.920246457946 395.307438747682 2895.46812254529 205 200 197
469.205891354994 388.428269301537 3104.19210356405 170 153 145
484.013095230631 388.454418326557 3122.07574561185 200 177 169
482.195932076263 388.915965729403 3128.06306477732 205 168 159
477.040532826525 389.466171584106 3131.68422294036 202 162 152
472.72151781919 389.993801709937 3135.89508518725 204 167 151
469.244646782385 390.498277423716 3140.69001755193 206 170 154
464.929034762911 391.025301642377 3144.89759013438 182 154 133
461.459435774999 391.528683692365 3149.68546289004 190 163 144
457.994596392032 392.031437938407 3154.46903991877 205 176 158
453.68493838967 392.557534652126 3158.67083715904 211 179 164
448.524658310989 393.107690709275 3162.29651157543 216 180 168
440.802022421832 393.731499710092 3164.20502936414 215 182 173
433.919574848739 394.332386097969 3166.69952500463 212 183 175
412.457421920843 395.358248771359 3159.51992466951 190 175 168
93.8286911130772 405.563972990777 2964.29038382115 191 180 174
66.3416281582516 406.846966388305 2954.55347280826 189 181 178
43.0783547452651 408.012733436561 2947.72448677506 190 185 182
41.4013034699954 408.535797457885 2954.98082780372 197 193 194
152.212980075652 380.625132787403 2725.78814651054 180 182 179
162.094291395268 380.989210620426 2742.84535184143 170 171 173
168.839352757357 381.406252251808 2757.34109660331 174 175 179
174.034084333702 381.847479965664 2770.53861059065 175 176 178
173.633708431443 382.394592719406 2779.35712050248 175 176 178
173.257629170368 382.938570488732 2788.15230468176 182 183 185
172.905743785561 383.47932132905 2796.92394092295 184 185 187
175.015271825321 383.966576393786 2807.51032969459 190 191 193
181.232293349858 384.364180248109 2821.11605155627 195 196 198
182.606635822735 384.858347421684 2831.01422169748 195 196 198
185.649399477167 385.313441215948 2842.09555644744 220 221 223
183.810834612828 385.869839733346 2849.50735603369 164 165 167
182.81050269453 386.40612558292 2857.50632203241 153 154 156
181.830641142792 386.939729326378 2865.48569491063 183 184 186
178.392730703668 387.526063916998 2871.64674943735 200 194 196
179.931361048259 387.999064689809 2881.38524552011 206 197 200
485.05412807935 381.980130954654 3116.33090633703 201 176 169
491.560070382196 382.258064662253 3128.25050347252 203 169 159
488.088760194737 382.765141596897 3133.03952937229 190 152 141
480.433919438771 383.370924705098 3134.8833898106 178 138 126
476.962079537035 383.877876769957 3139.67296018018 176 139 123
473.495020498822 384.384198350887 3144.45821410884 169 132 116
468.345452062941 384.930969610746 3148.07375197715 150 117 100
463.192841334207 385.478096619843 3151.69259614964 160 132 111
458.884348784031 386.004459191582 3155.89319678496 192 161 143
452.878037940466 386.573217818306 3158.93933348814 195 164 146
444.311358333921 387.207300160562 3160.26757145237 195 162 147
439.138385253995 387.756625612405 3163.90631081173 199 171 159
430.541948109861 388.394251269912 3165.26323690826 200 176 166
403.930512171965 389.500857109778 3154.68288532741 170 157 149
81.8264060835872 398.832774340339 2957.36527884466 173 164 159
59.4894105402624 399.911784033221 2951.04655505294 181 176 172
41.3995043752564 400.884268307644 2947.61137540793 191 187 186
44.0515836006909 401.301917313699 2957.66929057688 191 189 192
153.067776458129 373.19931082596 2727.45410146913 177 179 176
158.145625525523 373.690785708707 2740.7599171641 165 166 168
166.486003881017 374.12408352758 2756.50324238843 170 171 175
170.869739745064 374.614596575615 2769.08155559623 172 173 175
172.074763153197 375.152504223823 2779.14173509067 172 173 175
172.503000933324 375.699914732381 2788.5546225184 179 180 182
173.769721337196 376.229821656555 2798.55438064556 182 183 185
175.068476504317 376.755618083074 2808.52327315099 185 186 188
179.656319467438 377.22001689077 2820.90276466547 189 190 192
181.026696396346 377.736607349713 2830.80189634067 215 216 218
184.065256626365 378.219533619075 2841.88329152555 197 198 200
183.042497103611 378.772592952012 2849.90204935352 153 154 156
182.862255806282 379.307744848595 2858.50406799992 186 187 189
181.057990146723 379.870741677047 2865.8804948993 201 202 204
176.792236538954 380.478827580287 2871.44382362002 210 204 206
179.982436891994 380.942342358547 2882.37750693099 210 201 202
495.911075463219 375.732500569514 3124.89436663045 207 178 170
497.439386609219 376.142924704619 3133.23511146998 205 169 157
490.638830381041 376.719157962435 3135.65193151625 186 148 135
481.314545695877 377.348103862735 3136.31599452718 172 133 118
479.52373932022 377.82304623714 3142.27516125082 174 137 121
475.220768345761 378.349331899203 3146.47029024704 166 129 113
470.075193545392 378.89331636012 3150.08261210591 151 118 101
464.080959214099 379.455717106814 3153.11769634577 156 128 107
458.927116712014 380.000537452008 3156.73810461133 179 148 130
454.619323136971 380.52709200875 3160.9379827787 176 145 127
445.20525056899 381.16644308154 3161.68966860463 173 140 125
438.327939177402 381.751305850623 3164.18143222482 187 159 147
427.164757694232 382.43388915762 3163.82980071934 193 171 160
394.547401203178 383.608450187777 3149.28433237613 178 161 151
77.57259041801 391.845359287098 2955.53723314627 181 174 168
59.5399806661474 392.770829518277 2952.05176812908 187 183 180
49.2325270157155 393.519033171153 2953.67484405468 186 185 183
147.532105848358 365.855630611383 2724.11711819546 173 175 172
150.994726271075 366.404125487035 2736.18497148856 163 164 166
160.119550136238 366.875659637843 2752.56025088812 165 166 170
166.096671437443 367.380018779533 2766.38841883309 165 166 168
168.0962011444 367.930733664991 2777.07465824148 169 170 172
170.131574427877 368.476752991617 2787.72599845008 168 169 171
173.823496083742 368.995941059509 2799.57014592036 184 185 187
176.746668377065 369.520952253696 2810.75990289862 173 174 176
178.895160164834 370.052534288998 2821.3010485856 196 197 199
180.263085810652 370.591383212485 2831.19898678782 158 159 161
180.844912913312 371.138199879828 2840.45978335927 154 155 157
183.094770470949 371.656750827393 2850.9018594854 185 186 188
183.736338241747 372.195872365707 2860.10413218498 197 198 200
183.581903154156 372.74425276651 2868.67856971648 204 205 207
177.669865850883 373.380837382099 2873.03831390871 200 196 197
181.689535567273 373.858206364234 2884.5631835525 195 186 187
496.786283021911 369.719429297257 3126.33091121246 196 163 154
496.649028558708 370.176838903615 3133.48482425593 203 167 153
493.189120739507 370.688611146517 3138.26183347096 155 117 104
483.87065627987 371.301034411621 3138.92255895017 145 109 93
481.24607885127 371.798399987322 3144.2894491977 177 141 125
475.263878245843 372.354477732304 3147.31351830678 171 135 119
470.961606381143 372.880940620192 3151.50792688278 129 96 81
464.124030269387 373.453481991401 3153.96205387992 159 128 110
460.664783592439 373.964656613883 3158.73883274094 160 127 110
454.662306074009 374.52287780415 3161.7827203241 159 126 109
446.099376084944 375.130274099875 3163.11084120678 135 103 88
436.664995711919 375.75625067311 3163.88500757051 154 128 115
422.077868038584 376.484545761655 3161.25833611088 161 139 128
79.3449055014275 384.709027430242 2957.6662012781 176 171 165
63.0419062663563 385.558992575648 2955.30852354553 199 198 194
57.9300780704246 386.183783124134 2960.29230074059 198 198 198
139.600772478944 358.494253964989 2718.91095102825 169 171 168
143.043603696707 359.075229232628 2730.99365470666 159 160 162
153.753899310971 359.583160229293 2748.62331426128 168 169 173
161.324307502424 360.112169183289 2763.69983801707 163 164 166
163.311668051538 360.688991738591 2774.3939650349 163 164 166
167.760515598421 361.236561877426 2786.89952620801 166 167 169
173.877597248052 361.761193748746 2800.58571515742 177 178 180
178.425213221176 362.296194620435 2812.9950555554 177 178 180
178.948595307401 362.869851961401 2822.30958401031 196 197 199
180.316235594041 363.430673262397 2832.20455807061 146 147 149
181.715931633255 363.987410904113 2842.06864169979 170 171 173
183.967623456441 364.530396029333 2852.50562285432 190 191 193
185.432799441102 365.078773983748 2862.30558164583 209 210 212
183.634005457952 365.663459690097 2869.67336948297 202 203 205
176.895972430744 366.308101379605 2873.4352394898 190 188 189
196.643235730682 366.614676558968 2896.29092354665 181 172 173
494.334743201886 363.755326857601 3125.39575243495 187 153 144
494.191474102021 364.227293409876 3132.5534865913 181 145 131
491.561211481416 364.731315099334 3137.92470070584 137 101 85
483.914182074714 365.304815758189 3139.76557569077 155 122 105
480.449993971515 365.819974549075 3144.54667260275 180 147 132
475.307270027132 366.358983599328 3148.15656104101 175 142 127
471.004952548858 366.885791308285 3152.35096394756 130 97 82
465.012784360595 367.437893846408 3155.38585638957 167 136 118
460.708023492224 367.964862161444 3159.5826618811 164 131 114
455.554652231758 368.50485966211 3163.20297716908 145 112 95
448.696039589987 369.072033261782 3165.6787871058 124 92 77
438.414361693542 369.695143578225 3165.87750890744 148 125 111
418.701535094042 370.474409057405 3159.83140510346 151 133 121
111.108291315586 376.543915243185 2971.25871905813 136 124 112
82.8388020882977 377.553616922709 2960.92225197903 219 216 207
70.8572442360666 378.293770225118 2961.37443364368 209 210 204
74.4092582838287 378.766012411777 2971.94754070006 190 192 191
140.698055006103 351.659574217946 2730.16778400747 152 153 155
151.40192351175 352.222625742964 2747.79567898594 170 171 175
159.770588785752 352.79088835761 2763.49062930217 156 157 159
159.334316988893 353.40867634463 2772.33467644135 150 151 153
167.006901203941 353.968234928044 2787.30522267338 169 170 172
173.121614874256 354.531318151515 2800.98807996819 167 168 170
179.291473293579 355.087449503159 2814.61720519567 186 187 189
179.002314081325 355.686337798408 2823.31796072981 142 143 145
178.737305689676 356.282063561325 2831.99520156296 171 172 174
180.950931072378 356.854614473341 2842.46561344524 180 181 183
184.840479137183 357.408682982282 2854.10835965604 207 208 210
186.307346810337 357.978784075934 2863.90342790538 183 184 186
183.686305820288 358.581904534927 2870.66808520931 174 175 177
177.774119462677 359.213878888305 2875.02865880944 177 177 179
468.818555742691 357.512739974311 3100.64390369578 171 138 133
496.04237179758 357.732535154932 3127.42437445685 177 143 134
494.235388180629 358.23506517172 3133.39552797875 149 113 99
488.262587955 358.78019850868 3136.41187995044 149 116 99
483.957968896068 359.307915541127 3140.60843396299 169 138 120
479.654073301893 359.835467658314 3144.80429393875 169 140 124
475.350943958881 360.362819981919 3148.99942254518 171 139 126
471.892043978453 360.880216335609 3153.77493756227 143 109 97
466.746855667127 361.417029883347 3157.38759764765 169 137 122
464.140394118759 361.923359968147 3162.73517360778 159 126 109
454.749053546719 362.512567055021 3163.47169748492 123 90 75
447.037457864932 363.083003241735 3165.37714066312 121 89 76
436.751973302109 363.688121464065 3165.58230176439 160 136 124
413.615622311088 364.464528948385 3157.26791774572 146 128 116
102.570592364337 369.646199412218 2966.58615301138 121 109 97
78.5859898544388 370.526313935404 2959.09876743535 212 212 202
72.6339393691742 371.161456277454 2963.4984584762 185 188 181
143.157041757862 344.215644433747 2733.07724917881 147 148 150
153.866174564538 344.832431052402 2750.69197460517 169 170 174
159.021938220755 345.455595708859 2763.9012941126 151 152 154
158.583410504096 346.090238330656 2772.74509030583 158 159 161
166.253431376539 346.693652095987 2787.71136235623 169 170 172
170.74509146356 347.301250946855 2800.16553782667 185 186 188
176.096435644655 347.899582664025 2813.18431327926 155 156 158
176.613450177277 348.512519895578 2822.49935925837 144 145 147
177.974925481069 349.118066612851 2832.39418268277 174 175 177
181.822489040155 349.707561006176 2844.07338419815 188 189 191
185.713611962234 350.29150508084 2855.71015095683 188 189 191
188.826280082606 350.874446561805 2866.70317370648 174 175 177
184.563090622663 351.494740089096 2872.26215190899 173 174 176
181.95628018691 352.104440133966 2879.01170560222 184 185 187
489.608339155802 351.272826758043 3116.34703356428 155 122 117
501.077009945128 351.69721378775 3131.81905380334 158 124 115
498.44770457124 352.212687433247 3137.18762476363 175 143 130
486.635635320315 352.794566984743 3136.07832305722 186 157 141
480.65193418153 353.335900040491 3139.10606147673 145 119 102
477.179657724724 353.858121097284 3143.89380860161 151 125 110
473.712140738238 354.37972910931 3148.67725795184 139 111 99
468.562317261819 354.914886177851 3152.29476565157 168 135 126
466.790634680119 355.420985698637 3158.23033715248 167 135 122
461.642489661235 355.955755968754 3161.84657312971 140 106 94
453.094458377285 356.522089260773 3163.16596847198 125 93 80
444.528015791626 357.090612614353 3164.50366066087 147 115 104
434.236832952944 357.677932983382 3164.71711074925 149 127 114
386.301666596563 358.642963164116 3139.90702783829 137 121 108
100.904043849182 362.621971809437 2966.44508161769 176 166 154
76.9161492366433 363.44369639656 2958.96993299729 117 119 108
70.9600409612086 364.077019314593 2963.37358455184 136 139 130
143.214165380777 336.784562683658 2734.11883521418 139 140 142
151.514872139005 337.453944122196 2749.86632402317 163 164 168
157.468874593463 338.11371114714 2763.69448010744 151 152 156
161.058570373056 338.766112301472 2775.62045054804 160 161 163
169.542694222091 339.412299094599 2791.18956947491 175 176 178
174.041561896747 340.051759535542 2803.63154073319 183 184 186
176.963309548211 340.68639647042 2814.80650976527 137 138 140
177.481997350392 341.318420308223 2824.1170731709 155 156 158
180.477364935263 341.94361411645 2835.2203322108 185 186 188
185.148680678821 342.561218504864 2847.49462814442 202 203 205
187.407200414036 343.177407709341 2857.91400955043 177 178 180
188.057396062839 343.792602275991 2867.09647107924 184 185 187
183.791948766224 344.416274598564 2872.65685412049 181 182 184
184.486555063493 345.025708333047 2881.79606666735 202 206 209
496.291239126252 345.213576301391 3121.94231989924 161 127 125
503.616547180597 345.702534079545 3134.43433262528 154 120 111
500.992971500551 346.22304960888 3139.79646872667 183 154 140
488.351119996306 346.783756335853 3138.09703523874 163 136 119
482.371437399015 347.31957214464 3141.12193647583 144 121 103
478.902916562652 347.844430351399 3145.90556444447 145 122 106
470.390673084868 348.393558981906 3147.19196480764 137 111 98
466.076547403162 348.922916741406 3151.3977165384 163 133 123
464.298920178325 349.438227705516 3157.33782971052 157 125 114
459.992023355224 349.966570957081 3161.53655302165 128 94 84
447.194696849688 350.54575737066 3159.98877721874 129 97 86
439.465796125302 351.097485426179 3161.91416961368 158 126 115
428.310149625296 351.673328754115 3161.57083188082 138 116 103
147.99406699142 354.657729620071 2990.29472823455 121 105 92
103.531865971408 355.554856191677 2969.13119780107 63 55 42
82.1322193209739 356.297422902603 2963.34830814566 71 73 62
71.8746740985927 356.960921008099 2964.93434370733 74 77 68
78.8863357044045 357.487087931784 2977.73197465586 197 202 196
136.866356531101 329.3241541305 2730.18866029808 143 143 145
144.348524414373 330.038436864226 2745.32542460059 154 155 159
151.089233907147 330.741686855562 2759.78318936242 161 162 166
161.114719932711 331.448801018368 2776.64618861729 163 164 168
172.023559775902 332.149107385563 2794.05059566381 183 184 188
177.338161249994 332.823053125347 2807.0943436061 148 149 153
179.455147569064 333.482013937197 2817.6479481617 154 155 159
181.607869960126 334.13642542273 2828.16673865797 173 174 178
185.428735652998 334.789492678139 2839.86305550792 200 201 205
190.111316517585 335.438478328782 2852.12152687298 192 193 195
189.92100350325 336.074468788838 2860.71864298761 197 198 200
189.754840636385 336.707370512456 2869.29223416269 197 198 200
185.493127836263 337.333667905798 2874.8485208094 218 216 219
191.146633249622 337.96464050586 2887.56242138336 220 211 214
499.655367047361 339.196983770263 3125.15925384603 148 117 112
499.502687261272 339.725536197248 3132.31763174335 133 99 90
494.368609252547 340.254552701431 3135.92074937563 152 118 106
484.218081559391 340.788302950155 3136.00244446562 125 92 77
479.90356743434 341.318343593996 3140.20848099636 124 95 79
475.589755650095 341.848207243379 3144.41384625199 121 93 79
467.911139211873 342.38371718291 3146.2913647959 109 83 70
459.374758141642 342.92263720102 3147.60358081563 135 108 97
455.890990988838 343.452174240859 3152.40165707239 130 102 91
451.564703516252 343.983271578236 3156.61922853243 91 63 52
442.144544775454 344.528627005661 3157.39085053327 112 85 74
434.404046880273 345.071409070956 3159.3290813037 121 94 83
420.678029633173 345.636114405848 3157.28874011512 111 93 81
134.33549667617 347.794157457242 2982.20008514311 93 77 64
109.595015869686 348.488858242799 2974.07379264126 87 75 63
94.2343243993524 349.152171700102 2972.22522356613 97 90 80
81.4158208664235 349.808842364141 2972.10393404382 104 101 92
73.7507759894487 350.443787227723 2975.37052654814 88 87 82
135.323094683887 321.857201067346 2729.9909358923 149 149 151
142.800867728209 322.615645287535 2745.12553728644 162 163 167
155.168569847266 323.400739082401 2763.90222177574 160 161 166
168.429148564668 324.180550187762 2783.21029454266 191 192 197
176.929564224571 324.917233008128 2798.7495223452 144 145 149
181.445346752842 325.620224555589 2811.16564487599 136 137 141
183.571694920826 326.302727838132 2821.70647341033 170 171 175
186.547981024 326.985241889979 2832.82020873666 187 188 192
191.196229812681 327.671370091943 2845.10694486576 206 207 209
194.255786704759 328.343283342284 2856.13955786157 193 194 196
193.254989163711 328.990859544249 2864.12287540707 195 196 198
191.452302407458 329.632174319311 2871.48615907383 197 198 200
187.194554689462 330.261143129768 2877.03845134308 215 213 214
221.756068860206 331.037331134225 2910.6200136488 207 197 198
495.551833770655 333.177332161011 3123.03860265754 128 99 93
492.062697058265 333.71123167081 3127.84136619519 125 92 83
484.410338350682 334.233467378797 3129.69511019203 119 85 73
475.072098002335 334.753532351504 3130.38912393636 104 71 56
474.923649378318 335.295160134286 3137.54170553731 109 76 61
472.276884567072 335.829803099101 3142.92478075997 103 75 61
462.066687109598 336.352117192017 3143.06741906685 91 65 50
454.360039515796 336.880592446255 3144.97415052803 113 90 76
445.793486002801 337.410062936445 3146.31772486556 113 86 75
440.596620025223 337.943867809662 3149.98214631824 77 50 39
434.547881015763 338.477686434458 3153.07591677637 97 73 61
425.93885868234 339.012155277009 3154.4605866841 107 85 74
403.664136787826 339.551815760624 3146.7428304984 92 76 63
120.678098574575 340.843696078799 2974.11745805629 93 79 68
102.777035029469 341.473439138081 2970.54507405804 80 67 58
93.4256665617315 342.098794682445 2972.6534716362 83 76 68
74.5673120665589 342.741472541748 2968.6132084692 75 71 62
63.4284486520396 343.377172478493 2969.66092957944 85 84 79
136.181845461254 314.405522291911 2731.65644786214 167 169 168
145.266061859792 315.224769798758 2748.02065919417 153 154 156
160.857055502662 316.102962512015 2769.2511205267 195 196 198
172.517896975312 316.927150869077 2787.30737845226 161 162 164
176.177262145152 317.661006136488 2799.15212727611 155 156 158
178.259783067511 318.373771962437 2809.73200412254 158 159 161
181.190261499237 319.089496045644 2820.88631871564 193 194 196
186.603022563975 319.821993669682 2833.82427663243 197 199 198
192.883213456201 320.555053724704 2847.31769009821 199 201 200
196.764350121792 321.260730038173 2858.94638138548 211 213 212
197.409229709696 321.934666034942 2868.12577772563 213 215 214
195.616113154932 322.585993153279 2875.47807822087 232 234 231
197.958717326205 323.265615835893 2885.80424925651 150 150 148
467.387576586915 326.974319504898 3103.74463372444 114 89 82
473.81222990119 327.581006355164 3115.69636245634 91 64 55
401.931718963083 327.721277168717 3072.27593965705 67 39 28
461.749339827092 328.635508223198 3121.85082275176 95 66 52
463.244761891481 329.203664562491 3130.20125202661 103 74 60
457.21330831186 329.730688069232 3133.27852427088 86 60 47
449.492299259104 330.250639526725 3135.20077668654 74 51 37
440.070046178401 330.764872821079 3135.97907823554 84 62 49
431.470431237855 331.285300508107 3137.35648173973 87 65 54
425.39382562444 331.817605068656 3140.47814792557 79 57 46
421.008221875165 332.356710884644 3144.75343767557 75 55 44
412.368303768849 332.881880355357 3146.1701619856 84 66 54
380.680917546429 333.341406933455 3132.22414835761 54 40 29
118.159877058286 333.832752776618 2973.40323781122 79 67 55
103.688158930851 334.430401632058 2972.09818174036 84 76 65
90.8963613738445 335.036296351298 2971.95821529363 85 81 72
59.0933127564179 335.617104250377 2959.52570228313 96 93 84
41.8683789422234 336.23103102016 2956.70149626744 85 86 80
63.5806633700668 336.889786528514 2978.97074251483 93 94 89
124.032732595556 306.021877254497 2713.78542572613 156 158 155
139.442554615688 306.993406761555 2735.18199802089 153 155 154
154.151850602191 307.940708849644 2755.86087450694 172 173 175
169.763542993485 308.886907326483 2777.06073045415 153 154 156
177.413011544893 309.710936236446 2792.01514228312 142 144 143
177.041884404789 310.419975668145 2800.78067504946 150 152 151
175.074678175647 311.104956572462 2808.301212992 154 156 155
177.997083314167 311.849089442457 2819.45934567832 198 200 199
183.401676051564 312.618086563074 2832.40002025525 191 193 190
193.754148300941 313.439066930415 2848.92148798083 212 214 211
198.455069408432 314.184159473421 2861.14754265684 182 184 181
200.743468620485 314.895457874878 2871.52319620287 23 25 22
201.423719581371 315.58415688119 2880.66494843841 8 10 5
212.018450643574 316.374745802204 2896.95067926609 13 14 9
455.111628288067 322.489325778047 3118.01462128892 98 72 59
453.241450455241 323.050211292088 3124.03990268435 98 72 59
445.508121170815 323.561337397084 3125.97569365543 83 59 47
431.870763718985 324.02775235282 3123.86150141264 75 53 40
419.035014653214 324.505609168548 3122.36685625034 80 60 49
413.767887190817 325.043541074307 3126.10077626449 86 66 57
402.567966793751 325.540316080039 3125.81308942939 75 55 46
395.582957132345 326.06917271204 3128.42007670619 75 57 47
378.375334122267 326.533908340123 3124.18348403198 77 60 50
370.492565253043 327.062974404676 3126.2650192017 28 16 4
140.335707256206 326.300610187371 2980.83577139727 28 16 4
114.785206576445 326.800268634432 2972.12542061661 59 49 37
102.023642341157 327.37867597925 2971.95949465642 88 82 70
89.2279410321422 327.96120823385 2971.82651981322 81 78 69
58.2843360105012 328.463389455599 2959.96943475548 94 94 84
31.5479883675081 328.998646615288 2951.01447674745 77 80 73
54.9693960114022 329.751435277631 2974.40679679416 67 69 64
111.3142633417 298.268787751261 2704.88871865792 0 1 0
149.107989948948 299.717038546053 2743.66378507869 192 194 191
160.629780369805 300.672962668012 2761.83831442372 158 160 159
173.842982939804 301.646296642151 2781.16482980986 121 123 120
179.08255927933 302.471817068363 2794.26101398939 161 163 158
177.098543269937 303.170207938551 2801.79592446311 176 178 173
173.510528468009 303.840097107282 2808.09402335288 119 121 118
174.804175584831 304.586297854494 2818.03507472344 0 1 0
179.386578200132 305.379132946352 2830.37176368635 11 13 8
188.91301092905 306.240625209928 2846.29094175056 5 8 1
194.419684770919 307.032236172362 2859.12656812377 21 23 18
206.53775362762 307.913080080545 2876.72041883219 14 17 10
208.053192691009 308.631187748904 2886.44537966591 20 23 16
223.606063633187 309.54051816428 2906.29218594729 29 32 25
438.448782665361 316.178720542946 3107.15356460584 84 65 51
437.377094231251 316.762702456453 3113.79942990446 75 55 44
422.892327709866 317.191359080878 3111.1157365839 75 57 45
406.678995267067 317.606889932593 3107.31598044025 71 54 44
112.267910809424 319.753016509593 2971.41564751696 51 43 32
102.076768651521 320.329950789796 2972.94853794956 69 67 55
87.5599214347464 320.874777065944 2971.6961028857 77 77 67
55.750478748033 321.290307043569 2959.29470512712 71 72 64
31.6023787301631 321.778752475165 2952.02756351414 56 61 55
24.6986133873164 322.402434231843 2955.95710602929 36 41 37
156.89410385211 291.691879982021 2741.3692395991 13 15 10
156.37156148023 292.453592160551 2750.27768276194 168 170 167
164.700364938225 293.397233705195 2765.95673560881 108 110 109
173.900500340577 294.34896551739 2782.18625653398 133 135 130
183.977873909125 295.308162665978 2798.96081077841 61 63 58
171.497349943414 295.806985806145 2798.52723234469 3 5 0
183.290279725408 296.785826773943 2816.42946703812 10 12 7
176.485155028229 297.394933985642 2820.26287420334 33 35 30
180.256771460644 298.204772049083 2831.98492564 25 28 21
193.048860068731 299.17569187035 2850.31306090855 26 29 22
214.925197823111 300.299799066692 2875.18477747871 30 33 26
211.512196783907 300.953168039467 2881.31152679266 20 23 16
215.504668573853 301.735163775843 2892.81838067822 30 33 26
220.364663225632 302.525864359304 2904.87973212476 18 21 14
254.173631694193 303.798841634993 2937.71824888237 33 36 29
280.716519150539 304.925693304744 2965.0408292548 20 21 13
260.94758705247 305.279773828892 2959.11294334897 28 28 20
400.900665877591 309.440682039244 3081.66962970221 76 60 47
402.253856749952 310.084158586329 3090.1498265175 67 50 40
362.139773226159 310.74662939731 3077.45643053767 64 50 39
118.216238063343 312.109074653531 2968.05588904916 30 26 14
111.464640994893 312.709266752737 2971.8374601375 48 46 33
96.1196044941453 313.211361336466 2969.99717352526 46 48 37
83.3106896197284 313.747986270177 2969.88410502981 45 48 39
56.6672703905713 314.138052387993 2960.8583269057 59 65 55
28.1993059650438 314.521523300245 2950.81150526637 62 67 61
21.2876374653335 315.141275774113 2954.74913863741 41 47 43
171.042795138955 283.8445476172 2744.0662283125 53 56 49
164.140173247056 284.461877050434 2747.99523639259 50 55 49
167.637526932047 285.336911558489 2759.98033662774 11 16 10
169.573457190166 286.167328290828 2770.68839141819 20 25 21
182.002309483788 287.243861991289 2789.36127818941 19 22 15
194.517617017151 288.3095867926 2807.9502490221 24 27 20
213.585407436241 289.514941473313 2831.3478204763 13 16 9
206.033254175154 290.0928137025 2834.51074524764 27 30 23
191.973049800755 290.525307299313 2832.82179765382 26 29 22
170.544036537778 290.80000458193 2825.72031105824 11 14 7
212.526257186054 293.208746414367 2874.36394968423 10 13 4
210.747057223112 293.903400793024 2881.69602704791 19 22 13
208.984394251457 294.595927898844 2889.01233518677 15 18 9
222.066393317867 295.590313719206 2907.04877897813 28 31 22
241.014916218026 296.690468677498 2929.16342399704 31 37 27
241.040082970352 297.399084485745 2937.53583152326 15 18 9
241.918975648533 298.120766872563 2946.47545466782 30 31 23
225.449330287617 303.353127248598 3000.31596971316 36 27 18
205.347791842366 303.69938484466 2994.71986089425 35 26 17
189.422275117158 304.12297606485 2992.0503553291 33 24 15
134.396082135197 304.628936882189 2971.51579829797 26 19 9
119.124721199072 305.090163979464 2969.60805311559 29 27 15
105.521437836522 305.582578144804 2968.87342928632 31 31 19
91.8802731704691 306.079605686088 2968.17574029647 27 27 17
78.2013118313412 306.581280160924 2967.51489714697 41 44 35
57.5843999913572 306.990649540007 2962.42089599169 51 57 47
42.9500161361971 307.491591414539 2961.29200048464 65 72 65
30.0065857267664 308.020937981119 2961.31358364345 56 62 58
48.2885299850473 308.964891067494 2981.2794190406 197 202 198
116.13633427017 274.879095950721 2702.1404078583 23 28 21
159.408207194087 276.939127968083 2745.30421391524 36 41 35
166.895919373507 277.958126049733 2760.39043585436 30 35 29
179.261065849225 279.102544239662 2779.11655014661 10 15 9
180.451594488852 279.928219023357 2789.1485913035 21 24 17
221.989724547501 281.837380217217 2829.80492465976 25 28 21
220.107992789275 282.556783607542 2837.23515971874 26 29 22
211.761157875491 283.103826244718 2839.77486240128 22 25 18
187.156796787032 283.231927085162 2830.18023491394 23 26 17
177.927632443655 283.766308306773 2832.18072795527 7 10 1
179.28846798715 284.570026706351 2842.046896983 15 18 9
222.397339804308 286.405521011701 2882.57159564689 15 18 9
196.863947423406 286.526494135494 2872.48331628025 12 15 4
209.861256813119 287.591308302995 2890.59378673556 11 14 3
210.587995696936 288.351469641682 2899.67881367489 26 32 20
227.857164436219 289.49506892299 2920.62050467157 30 36 24
221.229918488153 290.07125694517 2924.28247889321 22 28 16
215.425126710334 290.667105740497 2928.54140958773 32 35 24
261.172848448572 292.418452609337 2969.29228470242 32 32 22
282.153368831771 293.588623763601 2992.21259645448 40 40 30
273.180373007366 294.090137631283 2993.96390599216 48 44 35
251.628521388625 294.325140561087 2986.99026650774 44 40 29
237.553444547 294.728592957128 2985.32004192853 41 34 26
223.436848330353 295.137148554544 2983.69063029353 31 27 18
203.376563352151 295.430352292905 2978.06139750901 31 27 18
189.162800938577 295.850698520649 2976.52639285194 26 22 13
169.825352545272 296.175828271812 2971.59156332009 30 26 17
148.725023850363 296.475913915722 2965.57684501857 24 21 12
142.868240296626 297.077301592559 2969.88692351288 21 18 9
139.566942663919 297.727040800544 2975.90328617055 25 23 11
126.017045783942 298.186439397076 2975.12052846155 25 25 13
112.429185151733 298.650460059227 2974.37444833844 21 23 10
99.662409576335 299.134407659158 2974.22765842505 25 28 17
92.0249754353142 299.712785064717 2977.47519370601 26 32 22
78.446748555784 300.902624862472 2985.11474080511 43 50 43
56.0528514417853 301.240714627527 2978.96202875598 45 51 47
81.9060812412116 265.340132123524 2666.69087630415 25 31 21
136.112049461871 267.951803600414 2718.75351384062 17 23 13
139.504625651033 268.900193475378 2730.83147994483 23 29 19
229.303346343861 274.936931218578 2836.31547083467 12 15 8
235.52129896466 275.907550460193 2849.83557668 16 19 12
235.313141619177 276.679399100323 2858.43033269956 14 17 10
182.341186013369 275.905384394791 2827.54293581968 18 21 12
203.220791868526 277.297454153882 2851.94790783271 17 20 11
228.305446541 278.790132221763 2879.24721877458 23 26 17
236.357813608013 279.781539287811 2893.77680800325 24 27 18
222.336370797588 280.150162804902 2892.05880957328 19 22 11
209.094881644316 280.546357066163 2890.9791400057 18 21 10
213.11448333471 281.415287631886 2902.44620456926 33 36 25
215.526265186064 282.2346450937 2912.6833662486 21 27 15
212.180223219985 282.896745777787 2918.74199582799 26 32 20
209.67252761738 283.579278714986 2925.38236235704 29 32 21
220.481627709071 284.601509771005 2941.42098496309 24 26 15
238.03279955585 285.783165917423 2962.07701791721 30 30 20
235.640176631108 286.451192115148 2968.60525966581 40 40 30
219.862776582795 286.787707036021 2965.80154188995 38 35 26
202.357490675246 287.089519722882 2961.88495065476 37 34 27
195.730447011778 287.660107985475 2965.54721380484 27 24 15
187.410359489186 288.191690079564 2968.06264099404 26 26 16
175.695218838473 288.646327691596 2968.29246553356 23 23 13
167.338228580059 289.18232608659 2970.84388495762 27 24 15
148.779277066927 289.489877946452 2966.55550383783 22 19 10
138.668001728363 289.994353022333 2968.01945693494 21 21 11
139.621119841224 290.744685226679 2976.88147653709 25 25 15
131.199637415011 291.28839939808 2979.49545940676 24 26 13
126.190471158542 291.906763833192 2984.37824155506 21 23 10
116.030641202205 292.417081592516 2985.88988440132 30 33 24
106.708801788571 292.9478288266 2987.98294225917 30 35 28
85.2938520813646 293.235714365343 2982.28245044404 32 37 30
64.6709698922936 293.54974840334 2977.20880629743 35 42 35
56.9742105044893 294.127806071593 2980.51529968246 36 42 38
65.7638461494128 295.026283460887 2994.32650528007 108 113 109
158.251898682968 260.381162334958 2727.6443764738 23 29 19
139.359079815044 260.563407872582 2722.28914147477 5 11 1
148.6041858029 262.596712978752 2748.23352863326 11 16 9
184.192867637184 264.668092283478 2784.85473535136 8 13 7
201.947082238242 266.916714002994 2816.48773487094 14 17 10
213.756059569917 268.122240811378 2834.34019220008 35 38 31
215.925753319902 268.997223302864 2844.80952958771 24 27 20
235.18527461276 270.422862530636 2867.9841514901 28 31 24
237.467340932062 271.283708158647 2878.34399067747 32 35 26
231.625211713322 271.880416215741 2882.63987100426 29 32 23
251.953835961189 273.300301376395 2906.17095547641 26 29 20
239.608968064875 273.686021664018 2905.61938511262 27 30 21
234.626357393658 274.302969574725 2910.47600653389 29 32 23
211.522278145478 274.369820395277 2902.23444836253 31 34 25
213.104332493899 275.189656136233 2911.87856171074 41 47 35
204.786820405466 275.711257410589 2914.39290661656 93 96 85
205.579789372608 276.501590780819 2923.407706691 27 30 19
206.400692110065 277.288402655451 2932.3952885941 33 36 27
209.750021070467 278.143002144732 2943.11315269611 28 29 21
203.949946809275 278.733525678101 2947.36852374027 27 28 22
205.682516353947 279.534178491793 2956.86567065986 24 25 19
187.305155561778 279.776940604704 2952.40654316606 25 26 20
184.849192662885 280.461104252863 2958.9952973372 18 19 11
169.759012763531 280.80468347083 2956.92502501214 20 23 14
170.679384624843 281.578647799859 2965.81606930845 17 20 11
186.873117396245 282.747258916802 2984.98783090328 17 18 10
161.567707536778 282.831559469481 2976.09582887236 23 23 15
134.468478534676 282.883910209965 2966.15568145844 23 23 15
119.208534369919 283.248153800698 2964.25093337324 19 21 10
125.271176744607 284.147085514358 2976.51895065647 20 22 11
118.535231446136 284.7258022242 2980.288491201 22 24 13
130.681203917522 285.760413485444 2996.41465930021 18 21 12
110.205485588927 286.008305633224 2991.20431716516 17 22 15
62.9252091847947 285.638158124045 2968.77541400746 21 26 19
47.4387380374393 286.030194149853 2967.09184069689 32 37 31
45.7675552879864 286.743560901545 2974.31388969022 41 47 43
39.7716170176641 287.3574051802 2978.76030979488 29 34 30
165.250372992249 252.332999059621 2724.71845952295 67 70 61
179.766720788031 253.780384120719 2745.51468652768 16 22 10
189.066159684682 257.565268987185 2789.56741007924 0 5 0
203.147929577272 258.935911679603 2809.38961253694 17 19 14
207.648852660271 259.936387223394 2821.77652271181 23 26 19
201.690585020125 260.545716691564 2826.18586476885 82 85 78
203.020754037401 261.419758961486 2836.07209227313 27 30 23
259.604052332416 264.271233852826 2887.15547238016 32 35 28
251.361796464602 264.773942356977 2889.59787908959 31 34 25
234.945334506561 264.991738185685 2886.02939654943 28 31 22
222.564778430635 265.358134129512 2885.51612120513 21 24 15
247.862862489828 267.024842308176 2912.57777203655 23 26 17
236.325366502207 267.416353975173 2912.64086062865 28 31 22
223.110298008453 267.756086579835 2911.54329996379 28 31 22
214.811079144061 268.265163649149 2914.04099265775 26 29 18
209.807782934934 268.884822496036 2918.91775444877 52 55 44
209.78268369534 269.666129803256 2927.32933307622 19 22 11
193.983656105452 269.936362950203 2924.55688818611 21 22 14
198.970512590459 270.875048148069 2936.47039189551 27 28 22
196.486578470009 271.571494883881 2943.08510646815 32 35 28
198.201472466298 272.396386095783 2952.59622304391 29 32 25
194.073891404686 273.036837585865 2958.01756076413 29 32 25
170.604335023354 273.089201621448 2950.14106792923 21 24 17
158.010740565909 273.480803311165 2949.83561744884 22 27 20
142.003069331004 273.776322092521 2947.26662157682 23 26 19
162.365372412315 275.145170181903 2969.35455856662 22 23 17
154.831032801884 275.688319636193 2972.50492613049 27 27 19
151.540245018688 276.354468785217 2978.50842697011 26 26 18
115.852932852011 276.103570657452 2962.97108644095 22 23 15
97.9758149829908 276.370865244176 2959.42849375831 23 25 14
127.156594495081 277.944586576367 2986.89971766066 25 27 16
119.574468834367 278.493406408625 2990.09669939949 28 31 22
93.0505127581363 278.534294926984 2981.00390089523 26 29 22
62.1188046544687 278.472487459597 2969.21835930402 26 29 22
37.9868082835864 278.606195477227 2961.98765656639 23 28 22
35.4280956435176 279.311066763569 2968.67538216956 27 32 28
33.7499647772637 280.036572481642 2975.90253661166 39 44 40
39.9195526733593 280.957639184228 2988.06108386949 122 127 123
193.136985548646 250.461239865852 2793.65987665072 21 22 16
197.576511397625 251.502315885109 2806.10175445404 27 30 23
199.644752762802 252.439680844783 2816.66261545797 39 42 35
213.063289987141 253.824987401934 2835.7243411291 40 43 36
177.15492876716 253.241791763286 2817.62146252712 32 35 28
188.199184990714 254.523661823985 2834.80510640421 32 35 28
247.347870796048 257.660223435282 2887.54994889254 31 34 27
221.130583251857 257.465483038692 2876.77054053558 28 31 24
226.710555439437 258.496792185271 2889.49829112301 26 29 22
227.422895527329 259.33632747 2898.58588484499 29 32 25
232.272203997218 260.325493261202 2910.62851475708 28 31 24
217.400049035863 260.579065273185 2908.35504347133 25 28 21
213.215780748044 261.230289671682 2913.831080214 31 32 26
209.036065592948 261.880805691296 2919.30236248467 30 31 25
200.713640866098 262.382283997069 2921.82455987902 23 24 18
189.882306050562 262.797135777815 2922.59987964736 20 21 15
186.525030448425 263.477945248587 2928.66689924291 26 27 21
193.2006760949 264.50510407527 2941.72449046381 31 32 26
199.931149793425 265.525393477132 2954.72831407451 28 29 23
192.45044736061 266.0546016583 2957.82747964219 24 25 19
167.295313318808 265.992039429536 2948.8079577578 18 19 13
131.931196484556 265.604823669237 2932.96982717238 20 23 16
154.734086978191 267.150126258874 2956.85921068031 29 30 24
148.022551046501 267.716240610412 2960.60603714385 25 26 18
165.072766608965 269.047014212066 2980.32057828131 26 27 19
139.684050861054 269.013073105246 2971.52877629473 24 25 17
123.583458976673 269.285322754607 2969.05549116881 23 24 16
110.852161813171 269.669870964266 2968.88782401242 23 24 16
123.785223872274 270.848309688257 2985.62805219724 24 25 17
122.205325838969 271.573123871028 2992.75810003469 20 23 14
85.3619449852765 271.23617530038 2976.96422385973 24 27 20
66.48733076978 271.454558340332 2973.00281742438 30 33 26
39.7724077763795 271.452134646479 2964.10605341793 31 36 30
40.6824835830526 272.265680763088 2973.00113383579 33 38 32
31.2021994667733 272.777042482145 2975.25473263826 20 25 21
70.4307331344873 274.671151517052 3008.28771314733 97 102 98
178.29897430899 238.958842572344 2746.32897921121 14 13 8
193.704794694721 240.566943795835 2767.63544016639 22 21 16
198.010379121924 243.419451248236 2798.36342966315 19 20 14
207.286839961732 244.705026660411 2814.46815420435 27 28 22
223.889776655069 246.299135818091 2836.00483830839 38 41 34
185.644171366246 245.497931438875 2816.00403341909 39 42 35
177.213818912755 246.003477541808 2818.63280342281 30 33 26
218.302992427501 248.61813366147 2858.21411394631 27 30 23
243.334661175206 250.518936475553 2885.50572003549 28 31 24
227.715061453746 250.698440894108 2882.56851028603 26 29 22
224.313614799016 251.391334883236 2888.67760630324 26 29 22
216.822193475791 251.915129382314 2891.78855386939 27 30 23
211.785043111014 252.540205975557 2896.69813259688 28 31 24
221.574838743996 253.760918254136 2912.3023570008 24 27 20
208.318249708977 254.052621590241 2911.25312555212 29 30 24
208.264656800778 254.870897332922 2919.68753489509 27 28 22
209.894176114343 255.750807484403 2929.27529801762 20 21 15
184.118570390848 255.56606216214 2919.47306297555 20 21 15
197.414935930805 256.892470124601 2937.24756496216 25 26 20
199.938762063384 257.796534377637 2947.36094538718 29 30 24
189.939597527506 258.224781931189 2948.72483719443 26 27 21
