ply
format ascii 1.0
comment KinectMotionCapture
element vertex 772
property float x
property float y
property float z
property uchar red
property uchar green
property uchar blue
end_header
138.491392445958 925.855894616035 2678.66709919992 133 111 98
140.491063331226 924.566056691613 2689.62523131766 138 112 99
143.337684212076 923.056740944227 2701.19167761367 111 85 68
147.037293304496 921.32681930994 2713.36094661956 113 86 69
145.069621062017 921.101747132652 2721.01611492626 140 105 86
143.935402849704 920.658544700324 2729.29279993445 134 97 79
142.001508573798 920.429142266904 2736.91540407297 134 95 78
138.440108129408 920.630528465407 2743.25598120467 136 98 85
132.416574978246 921.480778381855 2747.69486278391 88 55 40
128.040175102647 921.897732464663 2753.39597624183 44 22 8
145.178061683156 916.668933927455 2775.4098699775 33 17 4
170.713376147339 909.253919088226 2803.57856004772 20 16 7
164.806890864601 910.089898049566 2807.90298276227 15 15 7
143.90100809819 914.84708846918 2801.03675648196 14 14 6
109.560725037674 923.102339272667 2784.32150035811 14 15 7
124.467636359635 918.494455798553 2804.20794873509 15 16 8
132.75625585778 915.623710200999 2819.07376028419 15 16 8
134.380076524417 914.495506714587 2828.96398056606 14 15 7
140.249121668548 912.268685498083 2841.88622767913 14 15 7
151.237063317175 908.720399991865 2858.42277832725 12 15 6
122.505767342094 915.478504067714 2846.27837149402 12 15 6
100.455087415315 920.492261965308 2839.09377799626 12 15 6
56.2134002602597 931.234371322881 2816.25618987881 12 15 6
82.5482543893457 923.722997504625 2843.64482921545 18 19 11
85.9576686351247 922.145740121322 2854.66245512459 13 14 6
85.1242350559835 921.667272603903 2862.64566870979 14 15 7
78.3026931800639 922.73271752093 2866.42826970462 13 14 6
138.190287571946 919.385844480182 2670.00333046743 154 140 127
138.542444878395 918.547997519746 2679.69650737915 138 114 102
136.492575321338 918.343594126747 2687.43058183902 139 113 100
142.576407466851 916.011545009671 2701.57200424005 115 88 71
143.832295069578 914.949538857879 2711.81780355629 118 89 73
145.119664712551 913.883491887948 2722.03327581432 145 110 91
143.167758745264 913.666574759311 2729.67158266405 144 105 88
142.05129699663 913.234211884167 2737.92937100149 155 113 97
133.560825471724 914.722989223334 2740.47218114254 137 97 85
127.525648825626 915.571699577176 2744.92285243105 90 54 40
123.13762238065 915.992242251546 2750.63498085197 60 37 23
127.026780054174 914.267909420048 2762.61519929217 41 23 11
116.032627458114 916.402473704133 2763.2980267665 22 18 9
163.193168751737 903.496502267356 2807.64611505725 16 16 8
144.782891225717 907.557444043321 2802.65534908003 14 14 6
111.280188730729 915.502996508332 2786.57104566979 15 16 8
116.14705008676 913.545886590672 2799.03170356954 16 17 9
122.738245075285 911.151586421539 2812.67850784556 14 15 7
133.588106887769 907.670182918083 2829.34228868137 13 14 6
115.857514139994 911.535079024614 2825.12280829581 13 14 6
115.807741543499 910.859323757114 2833.77390330163 13 14 6
106.468552314876 912.565547913628 2835.71079264846 13 16 7
70.8043437808992 921.002282750631 2818.86648151235 14 17 8
109.023784565071 909.86902032977 2863.32907757406 14 15 7
89.4250638506686 914.189660068085 2858.06316068819 14 15 7
79.1800378695258 916.120793756756 2859.44907063066 19 20 12
140.659320246843 911.431865212874 2672.97820497944 148 134 121
139.401282761925 911.030618194793 2681.3719812058 138 114 102
134.923392260247 911.465261196235 2687.17126194127 137 111 98
136.944186382497 910.220171288648 2698.10180463509 121 94 77
139.813794768064 908.760734700736 2709.63805188111 123 94 78
141.091068656313 907.71696640124 2719.85991875307 146 109 91
141.582110839699 906.879950100312 2729.41505815778 149 111 92
136.36382535644 907.515212840078 2734.50300122758 155 113 97
131.145902346007 908.150311946732 2739.59060854142 111 71 59
125.928299291246 908.785252780237 2744.67792152724 86 50 36
124.837825142106 908.36252792825 2752.9084792986 87 64 50
117.975845516261 909.419815718137 2756.73210335472 53 35 23
113.594322001703 909.841825341123 2762.43789529723 23 19 10
135.813554772375 903.471728586752 2788.07675211834 17 17 9
147.330656501789 899.848284611022 2805.5158566905 15 15 7
133.8749475494 902.596743447553 2804.30124687325 16 17 9
134.608990604075 901.729741682766 2813.61951465903 16 17 9
149.631377022835 897.235498966645 2833.37449850344 14 15 7
166.428577256712 892.303055295235 2854.26598838013 14 15 7
104.107679788095 907.441603214176 2817.55716178076 14 15 7
72.7776016294195 914.698398385326 2803.66861195165 14 15 7
82.8120943278616 911.478028404869 2819.68623857066 14 17 8
109.039200565531 904.176532105813 2847.15119119259 14 17 8
106.492943017186 904.153794296105 2853.93408901219 15 16 8
87.7623145755333 908.211484463557 2849.26191681618 10 11 3
77.5135288753783 910.126462915482 2850.65394795214 20 21 13
46.6908352812174 917.211482294324 2837.70385545475 20 21 13
143.128016197464 903.493849978162 2675.9510543866 139 127 115
139.451867762442 903.725079809957 2682.40150493531 135 113 100
130.924706172116 905.197004824103 2684.98357746197 135 109 96
132.12364074517 904.184223279928 2695.27865660308 126 98 84
136.608851106876 902.337615552704 2708.10196740655 130 101 85
140.325098230566 900.692824362482 2720.24179451699 139 106 87
138.361267974003 900.498167506899 2727.88865230361 137 102 83
132.315707755825 901.342231023515 2732.35032143321 112 77 58
127.909462146809 901.769788019121 2738.07950503973 89 54 35
126.801097355513 901.362291708673 2746.32557771143 98 65 48
124.061692146533 901.370035988533 2753.29576877377 116 85 67
118.025001359991 902.212758534965 2757.74849077945 83 54 36
110.326529417842 903.474407085781 2760.95565032236 37 23 14
118.408235818706 900.755821522868 2776.00444044913 28 19 12
135.715788904457 895.721931482314 2797.82104544628 23 16 8
129.748227482689 896.55604407364 2802.20673136042 22 15 7
122.940292811459 897.60096253066 2805.97885400167 21 16 10
153.873712920565 889.17420635711 2837.43847404349 23 20 13
135.366478986346 893.16080479163 2832.5549751263 16 16 8
111.741125414623 898.420945861159 2824.06348403329 14 15 9
90.5650138911405 903.05771762189 2817.48305888667 14 15 9
82.0147724866804 904.531785618586 2820.08773327807 10 15 8
68.2703283357737 906.638434156375 2827.7568326534 16 19 10
57.1248425910453 908.75410046418 2828.59272929411 14 17 8
27.156929805499 915.545651414466 2816.25411064108 6 9 0
137.536942499392 897.609838205622 2672.45368668234 137 125 113
133.039046036181 898.051838720169 2678.27174619613 134 112 99
130.1650634958 898.084686309051 2685.37186427986 135 109 94
125.679751813312 898.524851398809 2691.17803603733 128 101 84
130.962780681777 896.507181333214 2704.65129352629 132 103 87
133.033823665578 895.303298670259 2715.52551010301 141 108 89
132.687626308551 894.710659225259 2724.45901263773 139 106 87
129.086989391461 894.936910230029 2730.83521500133 120 87 68
127.137246521007 894.750561104916 2738.46685592636 109 76 57
126.850105491175 894.150476671506 2747.3428150212 120 88 67
124.935884626046 893.959767370853 2754.93982650187 130 98 77
118.073945694966 895.005610078181 2758.7651017257 100 67 48
112.863003575439 895.638944600217 2763.8460377165 42 24 12
118.456890693307 893.582734570042 2777.0163045584 34 21 13
129.099683473096 890.277570040568 2793.85965996133 30 20 11
130.631394045503 889.244419384573 2803.82729816158 30 20 11
118.803899728344 891.528931801945 2803.89857469768 24 17 9
122.044872025577 890.076458461988 2815.06502292464 22 18 9
125.324853811795 888.619067356109 2826.19346099603 17 17 7
114.317638798941 890.698137572525 2826.8974616423 16 16 8
98.2156219332144 894.031830294716 2823.97311159474 15 16 8
84.603418662581 896.745235686854 2822.9190838327 12 18 8
86.2259590573373 895.701519020923 2832.7980883283 12 18 8
82.777206596039 895.909507109093 2839.02616643313 16 19 10
40.1265527598378 905.752390928852 2817.57572032947 20 23 14
119.051053941685 894.906471294186 2658.6187245392 135 122 113
127.434284424903 892.134348137172 2674.7929189456 126 104 90
125.35633882191 891.974952298798 2682.54788339522 128 102 85
124.917821031509 891.40963701918 2691.56902298531 125 98 79
127.757540510446 890.033045599175 2703.12270587782 129 98 80
129.005238506811 889.056148386043 2713.36439637227 137 105 84
126.196538595998 889.088019227827 2720.39983220257 139 107 84
125.858024680261 888.509991971068 2729.32320744947 139 104 82
127.186142796795 887.523074461619 2739.48652057118 141 105 83
131.015484430976 885.922346080741 2751.50753069688 141 105 81
130.761491628343 885.333709525607 2760.34888112067 138 104 79
124.740435855653 886.168433171903 2764.78759740241 128 93 71
117.886606160543 887.207533605018 2768.60581654023 84 61 43
111.856645198077 888.043144016676 2773.05324474352 67 48 33
114.153316604421 886.834922518093 2783.70438808127 40 24 8
125.669686077613 883.370904624045 2801.12065668943 38 22 7
108.809111054079 886.864472636103 2797.5086894484 32 20 6
89.3783959754799 890.980126762386 2792.10623726654 30 21 6
100.149718376439 887.709943973297 2808.81679056967 24 16 3
85.7139155868731 890.599371906001 2807.13768393262 19 15 3
44.20748498011 900.081280878279 2786.02126848994 17 15 2
55.868721963126 896.600061571645 2803.29622388058 13 15 1
97.3049889907913 885.88811582579 2841.66803703107 13 15 1
85.3770765375463 888.163528047822 2841.84037526566 18 21 12
70.0087954834214 891.270078990389 2839.63789548412 8 11 2
112.654517482592 889.102730045724 2654.49241999744 135 125 115
118.598284481484 886.973736356379 2668.74291765607 128 106 92
124.596664764955 884.837857794743 2682.94020109689 128 102 85
124.967604204545 884.089575448472 2692.60148946189 124 97 78
123.738876637869 883.736467047956 2700.9590456395 128 97 77
123.345412416354 883.181039820299 2709.93398491992 137 105 84
121.340418122456 883.022648917247 2717.61635911219 143 108 86
124.268120521934 881.661265948726 2729.08042586148 144 108 84
127.234852053451 880.295139644444 2740.50643716866 149 111 88
131.887430950368 878.522902984052 2753.1525565313 146 109 83
132.460391186683 877.749093737549 2762.61700812345 141 105 79
128.097512768272 878.178200900054 2768.30289835462 138 102 78
122.080715993334 879.009262284207 2772.73792666938 98 71 50
116.06020034134 879.840923467467 2777.17622139199 78 56 35
113.368310081441 879.865734544166 2784.09670694237 48 30 10
109.853444472455 880.091256382028 2790.38784489964 46 27 10
101.325384016216 881.52903382432 2792.97585700965 42 26 10
91.1044183469785 883.373811376556 2794.35063810597 39 26 9
77.4976877030227 886.031980692651 2793.29933981264 30 18 2
70.5938261125198 887.071550527332 2797.16717198484 25 18 2
61.1489379973418 888.721398555083 2799.21735425575 22 16 2
64.383071477109 887.322623425258 2810.38265695755 19 17 2
92.2622180919848 880.01361625871 2839.04203780164 19 17 2
94.7797517468749 878.802685322331 2849.47392427336 20 21 13
114.316824728622 881.2978922026 2656.82909458884 134 125 116
119.456264002191 879.401755208634 2670.42697613326 119 100 85
119.787856408279 878.67677248617 2680.12389300996 113 90 72
123.393918329024 877.162204348286 2692.35422658749 110 83 64
121.347331976753 877.019494267349 2700.07558468991 115 87 66
124.21010273614 875.692773966873 2711.59900639048 130 98 75
121.389440890421 875.74172057081 2718.64379680879 135 103 78
125.136215783968 874.209426364778 2730.73668238734 147 113 86
128.104683650208 872.869440233352 2742.15710598234 151 115 89
131.935659701187 871.326695002093 2754.16826106579 150 114 88
132.508430126011 870.571366927033 2763.63016963449 145 109 83
129.799950868684 870.606053195542 2770.5656687555 140 104 78
125.445087190618 871.036449756911 2776.24340965845 132 101 81
118.601309364566 872.063019946355 2780.05349910624 118 91 72
112.583222560249 872.891177580232 2784.49023761226 100 75 55
107.396503114674 873.520455979284 2789.54771962296 91 68 50
98.8627386908125 874.948043264428 2792.14290195791 65 46 29
92.8299651991766 875.778006457687 2796.59361985867 57 40 24
82.5903133003401 877.608556427925 2797.98939732962 49 33 18
75.6981536453383 878.640931071532 2801.84667275298 39 27 13
71.3324906101032 879.072689063466 2807.53493635839 25 18 2
88.9808959534091 874.285058235906 2828.97701086293 22 19 4
113.521470355539 867.877031032415 2855.15016586752 22 19 4
105.502716921886 876.013929319974 2650.77558532294 132 123 114
110.620499172553 874.154842394872 2664.38949662725 119 100 86
116.598728079678 872.095804955782 2678.59543359833 111 88 72
118.573258738209 870.999074946496 2689.54998906734 106 81 61
117.328414367964 870.674193522023 2697.91903969241 113 86 67
122.627871880052 868.792262512344 2711.3559211222 129 98 77
127.978114517318 866.904106137173 2724.74329227825 135 105 81
133.379037602399 865.009560686276 2738.08128130303 147 115 90
130.617064457793 865.058774594355 2745.06775346611 150 116 91
130.336981207917 864.520661184667 2753.92754479088 148 114 89
129.255169403989 864.175167945903 2762.13774808469 145 111 86
129.020344049245 863.631525965894 2770.95341477083 140 106 81
126.321807575732 863.672624735962 2777.87809279561 128 99 81
122.804278671112 863.908448056232 2784.17035289021 120 93 76
116.795658974351 864.732594745014 2788.59794539243 107 81 64
109.94891383017 865.753629091499 2792.41213746815 101 78 62
102.257775783211 866.972485221494 2795.61833904582 80 61 47
95.3940682069452 867.995729958802 2799.44871053056 73 55 41
86.0010452460465 869.611736993092 2801.45239162062 66 50 37
74.9035446602306 871.62541172848 2802.25571259904 53 40 31
69.6914239075554 872.257597521771 2807.33798877159 43 33 23
67.8655970584434 872.09755364885 2814.84269135083 31 22 13
92.6594924849056 871.622841701727 2641.50585958544 118 111 103
103.400422206522 868.467393864263 2659.64654481043 108 91 81
109.360795324761 866.447698822935 2673.86439805461 99 81 67
113.752640762219 864.803448475105 2686.75051327574 107 85 71
114.123225507137 864.110346696493 2696.403998194 103 80 64
120.230068606098 862.072363693262 2710.47910753488 127 100 81
129.661652526444 859.259981399286 2727.03546892328 138 110 89
133.427174211265 857.783879907034 2739.10143340241 146 115 94
131.486351052564 857.64859372196 2746.71666984158 147 116 95
131.208036754561 857.126060953278 2755.57240175905 148 117 96
133.429034384688 856.022083271921 2766.28328308458 148 117 96
134.030804540086 855.300013805413 2775.71147888429 138 110 88
131.343781831061 855.347562905269 2782.62377021481 124 96 82
127.006624907244 855.780562692687 2788.28354329336 123 96 85
122.673887316512 856.21299231504 2793.93935002096 117 93 81
115.840482392205 857.226755914237 2797.74103183242 113 89 79
112.347162135383 857.464716606522 2804.00893647924 100 80 71
106.345438038443 858.28480967875 2808.43028067165 97 79 69
99.4997644641948 859.300106898304 2812.24425660744 88 71 63
87.5906367480561 861.485831211638 2812.41085931213 75 62 56
74.806609220377 863.870425578403 2812.00028608031 75 64 58
57.7552863728483 867.23613668752 2808.59663144269 51 42 37
55.0736415453228 867.283066788789 2815.50367394509 67 60 54
90.5260350242241 864.047389168868 2650.41203807107 95 82 73
106.171655191676 859.809827863137 2672.34436066702 106 89 79
107.30886614701 858.952295558841 2682.67812434511 96 78 66
109.290745858496 857.902180996711 2693.61815451117 103 84 70
119.463328780886 854.957978407364 2710.87508523636 113 91 78
134.614658971855 850.869667148479 2731.85927667645 143 121 108
140.030405372943 849.042423416529 2745.17259876463 135 113 99
142.211433280707 847.967438935229 2755.91854759103 127 105 92
141.134885361363 847.647510190047 2764.12008319064 183 164 150
142.553495321727 846.75486992079 2774.17926459679 230 212 198
140.695206485411 846.619603417341 2781.7128781668 243 225 213
138.023335747019 846.673098262376 2788.60890674596 239 220 214
133.701800067673 847.106592396519 2794.25343247558 240 221 217
129.384327227507 847.539587383138 2799.89365967764 238 220 218
123.40141803313 848.354582934014 2804.29741164709 237 219 217
120.762242150894 848.403766128541 2811.16194885282 229 215 214
113.10250445593 849.602211442648 2814.33998612646 228 214 213
107.112752989185 850.418023639759 2818.75007403157 220 210 209
94.3788619272157 852.772061320701 2818.29423081296 211 201 200
83.2994819263497 854.7452988377 2819.08553438587 201 191 190
69.6539014090636 857.300099032209 2818.0880925021 182 173 174
63.6055198636818 858.123184544672 2822.55532594917 162 153 154
102.982545853351 853.149957648892 2670.82754417998 91 76 69
111.416235212105 850.642494075362 2686.91251560619 103 89 80
121.543372945724 847.754615827274 2704.20624936259 102 85 75
136.637315952993 843.740127977746 2725.23617821478 122 104 94
146.924123628192 840.83247460943 2742.37428011297 116 98 88
147.452256026892 840.156720775238 2751.86875386342 145 128 120
153.757352150166 838.168445293423 2765.73998611249 191 174 166
158.470190484002 836.548135687064 2778.30347436924 251 236 229
159.10414700251 835.859158978747 2787.69481753938 239 226 218
157.284388069403 835.72964955755 2795.18931945169 245 234 230
151.334966020679 836.537841931172 2799.56048585511 242 228 227
145.382268238636 837.346375256292 2803.93519255965 242 228 228
138.593054304185 838.3435407085 2807.6954452638 238 226 226
130.126845298118 839.718856690571 2810.231269746 235 223 225
125.82941901443 840.151683243278 2815.85161531559 229 219 220
119.020177587903 841.15130147235 2819.63173093807 227 217 218
115.566009953532 841.394540999357 2825.85963840056 231 222 223
102.851644083259 843.721763094307 2825.38836970986 233 224 225
90.9470793899092 845.863511109827 2825.55694094308 227 221 221
77.3191361022425 848.388962191117 2824.54632281568 226 220 222
71.2884231117825 849.206917791083 2828.99710716735 217 211 213
65.2541801205078 850.025436341394 2833.4513136582 191 190 188
126.512703583113 840.43291752736 2690.43473348264 183 173 171
141.494878592512 836.498977677327 2711.56374464979 118 108 106
162.269343045233 831.269395184955 2737.05180094067 117 106 104
175.013303259838 827.860502174428 2756.07506283921 255 245 243
172.311840467106 827.933754051004 2762.99789452713 255 248 246
172.080283777439 827.453399374334 2771.80062370275 242 234 232
173.515275501616 826.601256378262 2781.83789013797 242 236 238
176.62795842042 825.376123320517 2793.09813081975 252 247 251
174.8287667283 825.25482540495 2800.57065765878 242 240 245
172.218441071135 825.316411090998 2807.40471308169 255 254 255
167.961932958578 825.746909761742 2812.98477036241 249 247 252
161.217046116469 826.733225816166 2816.70294698683 250 248 251
151.13293992113 828.463333555764 2817.95877275064 251 249 252
137.686761643762 830.939806048074 2816.7748982951 252 250 253
129.222950341981 832.303674653217 2819.31003373881 252 250 253
122.421330578088 833.296743050005 2823.08321115799 252 250 253
116.453101135529 834.103991102264 2827.47353099379 250 248 251
104.583129375249 836.219854507245 2827.61157666723 249 247 248
95.2163699294357 837.778004443654 2829.59772895236 253 251 252
85.8304382365342 839.338525415526 2831.60223128226 253 251 252
78.9707610016492 840.338663965812 2835.43235350477 244 242 243
67.8521448676914 842.278812927743 2836.26750961185 244 243 241
58.4110689642907 843.846226734727 2838.32575219994 243 242 240
197.295438590618 817.874414283038 2738.25833112992 189 181 179
196.192096305135 817.598374977245 2746.47998709123 196 186 185
195.920081735691 817.139441986196 2755.32006326575 224 216 214
203.8070459907 814.870572004018 2770.49576745574 254 246 244
199.524295896143 815.307681147844 2776.10090638748 242 233 234
196.063265179279 815.563048921306 2782.3338364428 248 242 244
193.4297773163 815.635810207137 2789.18924052972 252 248 249
193.272222695536 815.162034939078 2797.91784996524 250 248 253
192.315121392997 814.867205820752 2805.99706359473 253 252 255
185.601683308901 815.844381040707 2809.6850243069 254 254 255
180.535124880225 816.457685670729 2814.62554556759 238 242 251
176.297895322831 816.888407570463 2820.18642596489 251 254 255
170.403221377291 817.683965061688 2824.50543196462 253 254 255
162.839156558701 818.846054133039 2827.59383809452 253 254 255
147.75065937966 821.658683561715 2825.15730810244 252 253 255
139.309929597593 823.008864117212 2827.67120850164 251 252 254
130.85425204636 824.360975007439 2830.20000479594 251 252 254
124.905394295844 825.162891477615 2834.57187626068 255 255 255
111.369947633394 827.623079226315 2833.47905350915 250 250 250
99.4850815312249 829.719001833955 2833.6348367254 248 248 248
90.1090921682597 831.264752517988 2835.63198705879 253 253 251
84.9557844870232 831.888226674939 2840.65714855803 249 249 247
73.8508616690794 833.807720383509 2841.48175983731 254 253 251
62.7191535824925 835.730531831965 2842.3324789238 245 244 242
49.8523039979046 838.027927896249 2842.01669924785 255 255 253
40.3752559643715 839.586195794066 2844.11201445431 227 226 224
227.743828904587 805.082972936328 2745.33863456192 178 178 180
229.085546399149 804.286179639644 2755.4600051826 243 241 244
220.766359989764 805.612886985806 2757.85701838806 241 239 242
218.099566887153 805.69839740613 2764.74361075377 243 241 244
218.691106859799 805.071260113159 2774.1679343424 245 243 246
220.123833641544 804.262567830053 2784.20102790254 248 246 249
218.326016913291 804.162797106588 2791.66900767253 249 247 250
212.457337104202 804.953308559089 2795.96294691282 251 249 254
210.681717022983 804.850444751442 2803.40934224067 250 249 254
205.637030439101 805.461345900857 2808.32849966955 250 249 254
200.592770103776 806.072075377215 2813.24725920051 251 250 255
194.723630980529 806.862009114384 2817.54140209062 251 252 255
187.197263013986 808.011490006724 2820.59457601452 253 254 255
182.975444566246 808.442745781925 2826.14007404555 254 255 255
174.603365483235 809.773939243448 2828.58894741193 254 255 255
168.714651518537 810.5658689498 2832.9022334056 254 255 255
159.483487761614 812.080388923181 2834.76018565667 255 255 255
151.906723544788 813.235646413278 2837.86221218147 254 254 254
141.802701468436 814.935301292125 2839.14231562906 254 254 254
129.154030939472 817.18166385796 2838.61742365438 255 255 255
113.100798737984 820.158106105203 2835.69743117825 255 255 255
102.90921443965 821.868314804915 2837.06326319855 255 255 255
96.9264584534297 822.671451345256 2841.46827794463 255 255 255
92.6371682160867 823.110610285445 2847.07994621781 255 255 255
79.8491541762991 825.373831688979 2846.69093268041 252 252 252
67.8788157947636 827.458652000907 2846.93323204804 250 250 248
53.3156572664844 830.095944925243 2845.41785698631 255 255 253
46.4147145309575 831.090212546098 2849.28948633979 255 255 253
32.6425314265952 833.55241139879 2848.4314491344 255 255 253
235.601689365943 797.310541684355 2734.43335911279 199 198 203
236.103511581297 796.714056515333 2743.94224339015 228 227 232
237.436888034561 795.939825323194 2754.06889996094 244 243 248
234.772909091832 796.033413516137 2760.95150393302 233 232 237
233.736179230238 795.776174322802 2769.10389628229 244 243 248
231.100158547448 795.865884119883 2775.95931051416 245 244 249
228.476214351975 795.95389457737 2782.80298377726 246 245 250
225.864346105314 796.040264731978 2789.63490788072 248 247 252
224.079889124978 795.949424188776 2797.08830134679 248 247 252
220.676774221198 796.208033135786 2803.26357894153 250 249 254
216.462410251689 796.641474503363 2808.80135153589 250 249 254
213.073689020131 796.898091992803 2814.96263033789 251 250 255
207.223409229046 797.682994614298 2819.23878922908 252 251 255
202.194967429117 798.291494037618 2824.14217032141 253 252 255
194.685811717752 799.430562453904 2827.17945333889 254 253 255
188.823456757949 800.216738429066 2831.467752692 254 254 255
177.972185558065 802.067635679577 2832.05062269143 254 254 254
172.091361202821 802.85566826489 2836.35698802106 254 254 254
164.537439236137 803.999908428353 2839.43796020987 254 254 254
160.319129787411 804.432903685053 2844.9797166584 254 254 254
151.073148635526 805.935623896674 2846.85378895935 254 254 254
137.605390915829 808.333557777683 2845.70295118149 255 255 255
119.044294528394 811.809128127035 2840.94880604638 254 254 254
108.021607383851 813.680468742437 2841.69853525045 254 254 254
101.204344597931 814.658572099599 2845.48979609007 254 254 254
96.9244724639431 815.099092435661 2851.09157299168 255 255 255
82.4460222577765 817.696222116794 2849.49801742369 252 254 253
71.3340057368144 819.57863417509 2850.33515350665 252 254 253
55.9245590541249 822.365456465325 2848.220807558 252 254 253
46.461407817656 823.894728853227 2850.30660856325 254 254 254
30.1156434967389 826.872065400205 2847.67731047101 254 254 254
19.739136874775 828.588911357122 2849.22545426662 254 254 254
11.0633212557452 829.946379032492 2851.97172134399 254 254 252
242.689376982003 789.688350760869 2722.85376191163 237 236 241
245.549139034434 788.603015349537 2734.34449472149 241 240 245
250.047939201783 787.170778451025 2747.09306681954 241 240 245
246.574931471798 787.444875014631 2753.33512211894 243 242 247
247.129241552709 786.860348096498 2762.79011774563 245 244 249
243.682573441341 787.130816250616 2769.00689153371 240 239 244
241.051686795877 787.228016518769 2775.85610050227 246 245 250
239.242447368073 787.151386336226 2783.33200301993 246 245 250
235.014532787095 787.589838227973 2788.88249101851 246 245 250
230.791060413301 788.02754016453 2794.42901652472 245 244 249
228.202654328475 788.118736425936 2801.23692905817 245 244 249
227.260984952939 787.862014739098 2809.29484845229 247 246 251
223.881335185265 788.12279582076 2815.44650377944 247 246 251
217.224867213358 789.076808500879 2819.08131574131 250 249 254
211.384431743804 789.857685516471 2823.34863190048 250 249 254
207.190583634992 790.290722380404 2828.86609172734 251 250 255
201.34713160152 791.071743806502 2833.13638203526 253 252 255
193.84221742384 792.202080843192 2836.17074364119 253 253 255
184.664276436007 793.683191400368 2837.9804449509 253 253 255
176.300368567265 794.991536284698 2840.42458119045 253 253 255
169.590806901399 795.951121860862 2844.11129230368 254 254 255
162.874164216913 796.9115281052 2847.80525152068 254 254 255
152.795480923631 798.57555577326 2849.0654588683 254 254 255
141.012922173867 800.594232885933 2849.13140406364 254 254 255
124.987242001141 803.49726473396 2846.1949020406 254 254 255
114.822699084491 805.171703590014 2847.53883049442 254 254 255
105.48169432185 806.672191550452 2849.50759257131 254 254 255
98.6668211376442 807.644391621833 2853.29735300415 254 254 255
83.3419778429292 810.388587206768 2851.10529484901 252 253 255
71.3799835214473 812.429000491972 2851.34620962281 253 254 255
55.9707888853227 815.183535059648 2849.23638549949 253 254 255
47.3639923617615 816.521202604077 2851.91737988747 254 254 254
31.020294645717 819.463146240001 2849.29092284085 254 254 254
22.365835853781 820.806881339508 2852.01834978391 254 254 254
10.2487015800863 822.866570674539 2852.41013398991 255 255 255
9.33020429517928 822.606619895446 2860.44585825591 242 242 240
255.005031455953 780.484016643981 2724.73772890838 207 207 207
257.86191080829 779.426052365328 2736.22727884059 232 231 236
257.566066398476 779.035474001948 2745.08057777276 235 234 239
258.094094019252 778.473353267397 2754.55869848874 247 246 251
253.83850990056 778.918949411265 2760.13560682995 247 246 251
252.802299788224 778.688534480152 2768.28351844628 245 244 249
249.368976653245 778.96256851351 2774.48651344013 249 248 253
245.943840224482 779.235334607162 2780.68156631462 244 243 248
242.52672288427 779.506866929887 2786.86850062445 244 243 248
236.683411864954 780.286396358249 2791.13887141985 244 243 248
233.277095200513 780.556141264483 2797.31568252034 244 243 248
229.06346771714 780.994973887144 2802.85192694793 244 243 248
228.123462359337 780.751369379215 2810.90625523453 245 244 249
224.745614699191 781.017112533318 2817.05538765013 244 243 248
220.554631369987 781.45267771876 2822.56962902368 244 243 248
213.89870212965 782.400889469126 2826.20510123401 245 244 249
208.885590456351 783.007161442266 2831.09358850014 245 244 249
203.045738163156 783.784911598144 2835.36044986307 246 245 250
197.202654269319 784.562820235416 2839.63083467172 247 247 249
188.032656766666 786.029471459721 2841.4351229083 248 248 250
178.843531688111 787.498252212671 2843.25775252512 249 249 251
171.305086860664 788.62414790305 2846.32606699098 251 251 253
164.59213246354 789.578559148382 2850.01691190034 251 251 253
156.194696380793 790.879867750971 2852.4953821114 251 251 253
146.101005427181 792.529394039317 2853.77263558517 254 254 255
135.142050861007 794.355241907821 2854.4661390469 255 255 255
123.312137537638 796.357893444653 2854.58147660697 255 255 255
111.451487839746 798.36431489013 2854.72644080847 255 255 255
100.408609257736 800.200211994891 2855.50179678582 254 254 255
85.9383108224256 802.737050345169 2853.90905742123 254 255 255
73.9822534105849 804.755132598087 2854.14737727281 254 255 255
59.4332194261882 807.301497071508 2852.63107767356 254 255 255
51.6902119273945 808.452237635754 2855.89885383455 254 254 255
38.7884941954315 810.656422938312 2855.63181309626 254 254 255
28.4316721135367 812.338295522788 2857.16557890177 254 254 254
16.3283409615191 814.37460319569 2857.54711220334 255 255 255
9.37716588349513 815.358443216846 2861.47050205217 252 252 252
6.74685883651094 815.461939050661 2868.31820498901 255 255 255
263.325536272674 772.154771853545 2723.37437848107 207 207 207
263.787722507705 771.620247316012 2732.91346411854 226 226 228
265.073422382167 770.916787323566 2743.07666644247 228 227 232
263.199115951736 770.870754986729 2750.61299694937 220 219 224
264.540048840559 770.159978182248 2760.72243349517 234 233 238
261.101677166205 770.440427609206 2766.92949357088 246 245 250
258.475211948181 770.553404851112 2773.7719801668 245 244 249
253.443779946258 771.163814426395 2778.67804825429 245 244 249
247.604999736549 771.940426959065 2782.94401316269 244 243 248
245.001222266864 772.05001333036 2789.76447165832 244 243 248
240.786526726335 772.491870071094 2795.30132971912 244 243 248
238.203076225916 772.598481123146 2802.10204298467 244 243 248
233.185579362149 773.205954576314 2806.99470723154 245 244 249
228.985978729965 773.645482544307 2812.51725785879 244 243 248
224.790549383877 774.084261818012 2818.03543915199 243 242 247
221.420733671367 774.354063736571 2824.17599584124 243 242 247
213.94345115395 775.465113717938 2827.1857694184 243 242 247
206.455010576091 776.577275505985 2830.20645878999 244 243 248
200.609296582424 777.352816181023 2834.47946746844 244 243 248
196.418271772936 777.790319529077 2839.99380141493 244 244 246
193.062196937265 778.057812541422 2846.12071662368 246 246 248
184.717683734485 779.342011891794 2848.5491623726 246 246 248
177.192705047663 780.458190200778 2851.60554098648 248 248 250
167.983444104981 781.915697656041 2853.4501698445 249 249 251
157.077998554214 783.716047776109 2854.094306619 250 250 252
146.145621375716 785.519747124863 2854.76435404144 253 253 255
136.029458550257 787.155699978046 2856.06626640593 254 254 255
126.734617873677 788.623478437044 2857.99402131295 255 255 255
114.035541628427 790.778602036505 2857.53266803906 254 254 255
101.302238777119 792.937791530283 2857.10503919554 253 253 255
88.5343304902531 795.101238689327 2856.71080693803 252 253 255
76.5840429088969 797.096965042025 2856.94636361294 252 253 255
64.603481739808 799.096376885922 2857.211775536 252 253 255
54.304164465576 800.754665710744 2858.6919238868 253 253 255
39.6924745883949 803.279136659729 2857.24141621065 254 254 254
29.3378860907083 804.944275362837 2858.77543729438 254 254 254
18.0986698524803 806.785582173755 2859.74495991454 254 254 254
12.0151232173771 807.589913017811 2864.25022258934 248 248 248
1.59960656069558 809.262850621123 2865.84359356159 249 249 249
1.57250786427143 808.852650008475 2874.43326202944 250 248 249
264.519643706954 765.303954291688 2716.11593771785 186 186 184
269.710454919532 763.819135184158 2729.60201356343 232 232 232
272.569969240685 762.814500357915 2741.08106486288 238 238 240
273.080711581525 762.292311794409 2750.57011031792 229 228 233
272.023351969363 762.091911591378 2758.73492537851 236 235 240
268.586226986995 762.377687953866 2764.93996015191 228 227 232
265.958838485759 762.499050263908 2771.78178643031 223 222 227
261.736390243311 762.945527385236 2777.32599799048 239 239 241
257.51813562255 763.391135058866 2782.86583588432 244 244 246
250.881340525453 764.327748547428 2786.48368398359 244 243 248
247.475603434537 764.608447559761 2792.65830054691 244 243 248
245.700981950204 764.559060526381 2800.09580040941 243 242 247
241.502225994295 765.001430450832 2805.61709222072 242 241 246
236.492340778147 765.60782639722 2810.50235724401 242 241 246
229.030985549729 766.709379449772 2813.49771842968 239 238 243
224.0162146304 767.315978534891 2818.38780500465 239 238 243
219.823037873246 767.756891555855 2823.90343407682 238 237 242
213.98807908888 768.528645606071 2828.16666017693 238 237 242
206.499585273623 769.632676407484 2831.18860417032 239 238 243
199.826861308921 770.57169642294 2834.84177448262 239 238 243
197.291500095763 770.678967502444 2841.59463682326 240 240 242
193.937480019594 770.951377698525 2847.71912270984 242 242 244
188.093049361393 771.723572272106 2851.99135156954 243 243 245
178.906528170477 773.165004003207 2853.81577550292 246 246 248
172.210957697481 774.106196558131 2857.49131163531 247 247 249
161.315228493286 775.886569691507 2858.12875252394 250 250 252
152.073951131336 777.334255650915 2860.00662577238 250 250 252
140.286226655121 779.288672345442 2860.0868604302 252 252 254
131.001286329831 780.741626839849 2862.00731295953 252 252 254
118.31204082661 782.871215961563 2861.53997159814 252 252 254
103.892027046451 785.342628367935 2859.90696875358 250 250 252
92.8303644564599 787.14298957785 2860.70589187628 247 248 252
80.8901354977509 789.115852252937 2860.93517727376 248 249 253
69.7733709174928 790.922852062217 2861.78817414726 248 249 253
57.7737926164934 792.902973827526 2862.07498358663 250 250 252
43.1701111922504 795.396832832876 2860.62104783022 251 251 253
33.6833909151828 796.874517270439 2862.73821575972 251 251 253
24.17749785252 798.354631780178 2864.87372554314 253 253 255
16.3801336056837 799.49577257362 2868.19689760041 247 247 247
5.97450146693701 801.151247649105 2869.78303405422 254 254 254
-4.45400382375816 802.80948831118 2871.39147513355 251 249 250
-10.5577229512783 803.613826558894 2875.91676829726 252 250 251
271.679507850389 756.818347119774 2723.0134532008 221 221 221
272.926739964118 756.162842811954 2733.20776675055 233 233 233
274.99955850431 755.343671773259 2744.02369780547 233 233 235
275.515763661137 754.839487652991 2753.50465755464 231 230 235
273.666070511886 754.811758104985 2761.01384156528 233 232 237
271.832134573252 754.781819272812 2768.50736712209 232 231 236
269.212451561744 754.910157937104 2775.34084847516 225 224 229
264.997380599248 755.358253732522 2780.87715720596 227 227 229
261.59242035759 755.644574786832 2787.05017141114 237 237 239
256.580421926186 756.252180638804 2791.93735606491 248 247 252
253.997356713017 756.375031553295 2798.73494864795 246 245 250
249.803763078567 756.819463251119 2804.25080946853 236 235 240
243.987402358266 757.587175661791 2808.49582692666 237 236 241
237.352576240989 758.51715925799 2812.11303753706 236 235 240
230.710334946778 759.447913786494 2815.73715974231 239 238 243
224.060993529401 760.379255516298 2819.36858352873 236 235 240
219.867645883391 760.822607802403 2824.88402177374 236 235 240
214.855641810133 761.428504269653 2829.77146467627 236 235 240
207.369071805148 762.524154846159 2832.79273689119 236 235 240
200.698161845056 763.457521045474 2836.44494150166 239 238 243
196.50696371095 763.900058594101 2841.95870350941 238 238 240
194.812423236656 763.849893151554 2849.31679679367 240 240 242
190.635472954193 764.290411694696 2854.81637104025 242 242 244
181.454815435869 765.717541386606 2856.6370860952 244 244 246
173.928436193585 766.817326017619 2859.6972784598 244 244 246
162.197920545433 768.743360821651 2859.72489873668 246 246 248
153.79912570396 770.012054049845 2862.20953875333 247 247 249
141.172938111774 772.109870314026 2861.68427596858 248 248 250
130.20123839194 773.880361025282 2862.39861731997 250 250 252
117.510426582467 775.985839410367 2861.93673272218 250 250 252
103.936826362116 778.261665025926 2860.90904566042 248 248 250
92.875294115947 780.043080810631 2861.71063947535 246 247 251
81.7873159029388 781.827581616449 2862.53837640351 246 247 251
70.6726369170889 783.615448478942 2863.39213009211 246 247 251
56.9634123598926 785.907782008877 2862.4966801392 247 246 251
44.0737152930977 788.037520515144 2862.22836806468 247 246 251
34.5891171790518 789.501374590247 2864.34547277646 247 246 251
25.0852617836106 790.967610420739 2866.48101038894 248 248 250
18.1538831055281 791.932148675583 2870.38759491261 249 249 251
7.75231225011286 793.570718428011 2871.9721970514 251 251 253
-1.80460616930311 795.043820602291 2874.15941218848 255 253 255
-13.9888538754187 797.025568283163 2874.62969860943 255 253 255
274.453261731818 749.636901689301 2717.06942329612 201 201 201
274.888210583549 749.162244023659 2726.62670776034 233 233 235
276.142982351584 748.527240837542 2736.81084210706 226 226 228
279.017144891645 747.574185127347 2748.26772413777 229 228 233
277.154833267506 747.558968609408 2755.78725121814 230 229 234
274.510668402879 747.698826142473 2762.64334092949 228 227 232
269.479104002923 748.309783128069 2767.54945958318 228 227 232
270.060365152436 747.815501095956 2776.9643542456 227 227 229
265.846971181769 748.265980108272 2782.49864546031 219 219 221
263.249371217123 748.399023894585 2789.30950260642 217 217 219
258.241030337995 749.006050716324 2794.19314083713 234 233 238
256.471271839697 748.97757424795 2801.62272111023 239 238 243
250.660310244282 749.742057315692 2805.86319229501 237 236 241
243.21912545407 750.825204949689 2808.84124425019 237 236 241
237.397496899519 751.590502037684 2813.09218757124 238 237 242
232.389740233619 752.19633480236 2817.97542215069 237 236 241
227.382432690378 752.801816103855 2822.8582626908 234 233 238
222.375636430002 753.407115012369 2827.74062247707 233 232 237
216.546319809647 754.172555739646 2831.99917893129 233 232 237
212.363494339064 754.616999260233 2837.50400721657 229 228 233
204.877340400901 755.704282780372 2840.52610291827 230 229 234
198.208799322453 756.631689337173 2844.17683602681 233 232 237
191.533262798201 757.559846805509 2847.83474257404 236 235 240
186.515782089666 758.165549157258 2852.72765254654 238 237 242
178.994726952976 759.256642839763 2855.78384251398 241 240 245
173.972444498554 759.862655683746 2860.68147480051 242 241 246
166.43489539857 760.95553384827 2863.75377977166 243 242 247
158.045764925197 762.212276402884 2866.23058923226 244 243 248
145.42940807504 764.284558189319 2865.69933836001 245 244 249
134.467489016017 766.035004837223 2866.40692987444 246 245 250
123.478913855336 767.788576034985 2867.14052948476 246 245 250
108.222508974111 770.362746192381 2864.90564065725 245 244 249
97.1710111177417 772.123954951601 2865.70059460631 242 243 248
84.3885898023578 774.216346238962 2865.33127602746 242 243 248
70.7177901321425 776.477063854126 2864.40234241215 242 243 248
58.7207299640546 778.41363098105 2864.69342650684 242 241 247
49.2666164828552 779.859974253968 2866.78250977447 242 241 246
41.5132382041672 780.979058645802 2870.06526304167 242 241 246
30.3017100874223 782.759970011507 2871.01621736832 246 246 248
21.6545952154563 784.048174159891 2873.74455914062 246 246 248
12.1265002704125 785.504020878323 2875.9057024904 248 248 250
3.44715631854209 786.796405951981 2878.66543027654 253 251 254
-9.59487043237139 788.92105287884 2878.54913636342 254 252 255
-20.9284238587082 790.717465411374 2879.61897256068 254 253 251
278.442715168627 741.829919345586 2721.34692791193 212 212 212
278.096725377517 741.526744740707 2730.23710371168 230 230 232
279.358870259209 740.912158771646 2740.41089879178 223 223 225
280.652312371381 740.293404451994 2750.55389349777 226 225 230
277.99767667147 740.442837635928 2757.41896562633 226 225 230
274.557364161462 740.745173295378 2763.62471820493 225 224 229
270.325361653498 741.201123557302 2769.17667932396 227 226 231
269.3048437511 741.035587985108 2777.29975704493 228 228 230
265.892920893078 741.333591120997 2783.47762078253 222 222 224
263.295035105612 741.474690700219 2790.28757111225 219 219 221
260.709248141056 741.613970186439 2797.08577614092 233 232 237
258.945004437217 741.59547184819 2804.50840537833 243 242 247
251.516794686325 742.66919988722 2807.47496513969 245 244 249
244.890909068512 743.587442002637 2811.08503308768 241 240 245
238.257566295118 744.506401373608 2814.70206224935 239 238 243
234.886173835305 744.797748781403 2820.84100025808 235 234 239
229.06525708559 745.559784856368 2825.09138088071 234 233 238
224.883444447454 746.00697712792 2830.59513498621 236 235 240
219.059597245145 746.769028820038 2834.84842328338 234 233 238
213.232645455149 747.531281950375 2839.10510255153 228 227 232
206.575396178731 748.451944763819 2842.74595729804 229 228 233
198.252876713365 749.69039621753 2845.15898661773 231 230 235
191.577306313037 750.612955917967 2848.81775415206 233 232 237
184.894234624452 751.536415344063 2852.48349975546 235 234 239
179.038676328783 752.301449215408 2856.76817471432 239 238 243
172.343021716583 753.226259043654 2860.44621575804 241 240 245
164.801635890984 754.311424221524 2863.5234706305 243 242 247
153.887229313101 756.037305985898 2864.18751222785 243 242 247
144.631102918774 757.44611644268 2866.08587656726 244 243 248
136.200198354433 758.696875277276 2868.60471486694 244 243 248
127.754410335166 759.949497369944 2871.13839511064 244 243 248
109.963462309967 762.972556272749 2867.10327157884 243 242 247
97.2156156433455 765.036411657408 2866.70383745662 240 241 246
83.5813275881705 767.265754556128 2865.74328443722 240 241 246
73.324823283567 768.853662479076 2867.19132114284 239 240 245
60.4776603142709 770.929625479973 2866.88872007695 240 239 245
51.8855772294686 772.199982764267 2869.56505222979 239 238 243
43.278400016415 773.472301872089 2872.25608311846 239 238 243
33.7942221354868 774.908990347859 2874.37644775426 240 239 244
22.5639898017573 776.673271715187 2875.34843355138 239 238 243
12.1725371267143 778.278074086817 2876.92797899162 239 238 243
2.62585657814807 779.72262897906 2879.10958488942 245 243 246
-8.67878185245985 781.496408354816 2880.15405323916 249 247 250
-21.7530693055026 783.600768130443 2880.07279311225 255 254 255
-34.8617951149457 785.709410439271 2880.02509782579 254 253 251
279.64719001253 734.936634566133 2714.08446879392 211 211 211
281.643684758291 734.199852886338 2724.96401339372 224 224 224
283.67559790903 733.458429247341 2735.80907307334 218 217 222
283.366560553406 733.166340877489 2744.66091601769 225 224 229
283.875574329711 732.719306567555 2754.140908039 224 223 228
278.840668025088 733.331156603947 2759.05021326091 223 222 228
276.997615751745 733.334564009875 2766.54786291342 226 225 231
272.771157681119 733.79258684222 2772.09401199921 224 223 228
271.756173395995 733.6396216556 2780.20973685892 222 222 224
266.742599137346 734.247721009768 2785.09841339303 224 224 226
261.729559035663 734.85545818083 2789.98661303188 224 224 226
260.754633745833 734.696866270988 2798.06305250233 223 222 227
258.990165559143 734.689010621135 2805.48433166983 227 226 231
253.99607385026 735.293592451463 2810.3541816325 235 234 239
247.375892018157 736.205749350852 2813.95948502924 235 234 239
240.748275366069 737.118502752385 2817.57174530738 237 236 241
237.382467424986 737.41451230607 2823.70444874333 245 244 249
231.567230228134 738.173119817134 2827.94969622625 241 240 245
226.569831874362 738.777057063714 2832.82292500538 233 232 237
220.749961087797 739.535881861517 2837.0730794385 229 228 233
215.751673104832 740.139577447034 2841.94722734996 224 223 228
210.753854426087 740.743036962817 2846.8209441264 225 224 229
203.270018567933 741.813634918376 2849.84320405954 229 228 233
194.94434479026 743.041443814811 2852.26127646529 231 230 235
188.268954473565 743.958509749893 2855.92033930803 233 232 237
181.586526732419 744.876272919757 2859.58662520829 238 237 242
174.060115329403 745.951648510978 2862.65045715439 240 239 244
165.684150758903 747.185030766193 2865.11764532086 242 241 246
155.612095098749 748.734707924814 2866.38817228617 242 241 246
148.044574454184 749.814735269693 2869.49213878968 243 242 247
139.621631120822 751.053745100296 2872.00514580895 243 242 247
129.491076703048 752.610266237384 2873.33275136832 242 241 246
116.793193740981 754.643881559643 2872.8881720169 242 241 246
102.360870534767 756.998200485879 2871.2846989796 239 240 245
89.5903715043604 759.040616404415 2870.91092773321 238 238 246
75.0776941077405 761.404711440168 2869.38580269013 238 239 244
62.2345364918391 763.455933314944 2869.08288097674 238 237 243
53.6464640706433 764.714934727292 2871.75690887424 237 236 242
44.183371542021 766.135343260454 2873.85874161192 237 236 242
34.7015690145955 767.558097448345 2875.97914481023 238 237 243
23.4733797581197 769.303251228848 2876.95192885042 237 236 241
13.949572733289 770.731313788971 2879.11292071851 236 235 240
5.27446715892266 772.001346082002 2881.87174346435 240 238 243
-3.41577506084967 773.273345558523 2884.64530637398 245 243 248
-17.3494719972696 775.512836293342 2883.98057095399 248 246 247
-33.9414814954475 778.240596350278 2881.63234741718 254 252 253
287.146376447387 726.831302273925 2712.08669617394 182 184 179
284.41311647961 727.008043099924 2719.0258073052 216 216 216
284.844488744355 726.590269486843 2728.57823593504 222 222 224
286.883728440311 725.872040470438 2739.41259209186 218 217 222
286.582302078788 725.594960127912 2748.25499686867 224 223 228
287.098501989763 725.165843985077 2757.72486681276 224 223 229
282.07107870428 725.776750668006 2762.62688071327 223 222 228
278.639791643414 726.08857595286 2768.82193048297 226 225 231
274.417155229952 726.548698595051 2774.36431209772 224 223 228
271.802240427121 726.708338286001 2781.18843227102 222 222 224
268.395641036364 727.016343671848 2787.35953139875 223 223 225
262.580751757441 727.773773876716 2791.60494524137 221 221 223
262.415141880197 727.477743674691 2800.31528302251 224 223 228
259.844835111237 727.630934250609 2807.09605993514 228 227 232
255.663882499559 728.084222866851 2812.59772114257 240 239 244
249.04721727068 728.990583317227 2816.20005137096 240 239 244
243.238780110774 729.746020753443 2820.43935269435 241 240 245
239.87862100266 730.04662537636 2826.56576760643 245 244 249
232.430861795046 731.105599037706 2829.55392095788 232 231 236
226.614035871721 731.861458391661 2833.8011522461 215 214 219
220.794105899217 732.617460147121 2838.05178269615 218 217 222
216.620606175203 733.068452925443 2843.5463823998 221 220 225
211.624616272597 733.67162292611 2848.41832596471 221 220 225
205.800353858425 734.42769910407 2852.67324759377 227 226 231
199.14186952056 735.337385546338 2856.31661323544 228 227 232
192.476304702582 736.247833620066 2859.96723517172 229 228 233
184.134172271303 737.466572283101 2862.40299184034 234 233 238
174.103864505116 738.995123842017 2863.6351848842 236 235 240
164.889203809725 740.372124985753 2865.49673673218 240 239 244
158.1772592386 741.287712338391 2869.19265486577 240 239 244
150.615509668255 742.358933418438 2872.29219216937 239 238 243
140.509761674019 743.896287790878 2873.5979974229 239 238 243
126.996325954872 746.057146482065 2872.52755818326 238 237 242
116.837264141799 747.600927064359 2873.88535505601 238 237 242
102.405125693641 749.92567931684 2872.2860684927 236 236 244
87.9306872820296 752.255541314437 2870.72769335832 236 236 244
72.5604157653885 754.746636631238 2868.61849205019 234 234 242
