ply
format ascii 1.0
comment KinectMotionCapture
element vertex 758
property float x
property float y
property float z
property uchar red
property uchar green
property uchar blue
end_header
-129.78258728981 770.806014537811 2759.99999046326 199 204 200
-121.980808675289 768.860876560211 2753.00002098084 168 170 167
-114.299938082695 767.473638057709 2747.99990653992 177 179 176
-106.723710894585 766.644358634949 2744.99988555908 149 151 148
-99.2358773946762 766.373217105865 2743.99995803833 145 147 144
-91.7197838425636 765.822112560272 2742.00010299683 188 190 187
-84.091417491436 764.153361320496 2736.00006103516 172 174 171
-76.5514597296715 763.042330741882 2732.00011253357 165 165 163
-69.0330490469933 761.9309425354 2727.9999256134 172 172 170
-61.4910237491131 760.260283946991 2721.99988365173 174 174 172
-54.0211871266365 759.147703647614 2717.99993515015 177 177 175
-46.6244295239449 758.872270584106 2717.00000762939 180 180 178
-39.1896590590477 757.758557796478 2713.00005912781 187 183 182
-31.7530557513237 756.085455417633 2707.00001716614 187 183 182
-24.4030524045229 756.087720394135 2707.00001716614 187 186 184
-17.0403905212879 755.530655384064 2704.99992370605 185 185 183
-9.6885534003377 754.973173141479 2703.00006866455 175 177 174
-2.34233820810914 752.739191055298 2694.9999332428 169 174 170
4.97336080297828 752.459764480591 2694.00000572205 167 169 166
12.279056943953 751.900434494019 2691.99991226196 161 162 156
19.5811372250319 751.619815826416 2690.99998474121 158 158 150
26.8677547574043 751.059412956238 2688.99989128113 180 176 167
34.181572496891 751.336336135864 2690.00005722046 174 167 159
41.5007323026657 751.612603664398 2690.99998474121 124 110 99
48.8977804780006 753.005623817444 2696.00009918213 136 120 107
56.2176071107388 753.00145149231 2696.00009918213 141 125 112
63.5372996330261 752.996683120728 2696.00009918213 135 119 106
70.6728771328926 751.03622674942 2688.99989128113 130 116 103
77.7702778577805 749.075293540955 2681.99992179871 134 122 110
84.9563404917717 748.231053352356 2678.99990081787 120 110 100
92.1947807073593 747.944712638855 2677.99997329712 168 161 151
99.3532985448837 747.099459171295 2674.99995231628 181 177 168
106.575019657612 746.812105178833 2674.00002479553 144 143 138
113.748475909233 746.244847774506 2671.99993133545 150 149 145
120.956137776375 745.956420898438 2671.0000038147 150 153 146
128.014072775841 744.829595088959 2667.00005531311 151 156 149
135.303601622581 745.098769664764 2667.99998283386 156 158 153
142.491385340691 744.808733463287 2667.00005531311 158 158 156
149.673417210579 744.518101215363 2665.99988937378 160 159 157
156.967431306839 744.785666465759 2667.00005531311 162 158 159
164.266496896744 745.052576065063 2667.99998283386 165 161 162
171.634927392006 745.598316192627 2670.00007629395 169 167 168
178.879886865616 745.584964752197 2670.00007629395 164 164 164
186.054691672325 745.291829109192 2668.99991035461 172 172 170
193.078860640526 744.439780712128 2665.99988937378 170 172 167
200.161471962929 743.866503238678 2664.00003433228 163 165 160
207.466349005699 744.130492210388 2664.99996185303 154 159 155
214.534565806389 743.556320667267 2663.00010681152 151 156 152
221.841260790825 743.819236755371 2664.00003433228 168 170 167
229.238927364349 744.360983371735 2665.99988937378 159 161 158
236.913070082664 745.739817619324 2671.0000038147 139 141 138
244.156822562218 745.722234249115 2671.0000038147 167 167 165
251.117676496506 744.866609573364 2667.99998283386 162 162 160
258.158624172211 744.289755821228 2665.99988937378 151 151 149
265.188187360764 743.712484836578 2664.00003433228 155 155 153
272.61546254158 744.251549243927 2665.99988937378 166 165 163
280.157953500748 745.069265365601 2668.99991035461 173 173 171
287.931591272354 746.444880962372 2674.00002479553 192 197 193
296.06294631958 748.657524585724 2681.99992179871 204 209 205
-146.454721689224 772.201299667358 2792.00005531311 209 214 210
-137.583032250404 765.02138376236 2766.00003242493 203 208 204
-129.745677113533 763.095736503601 2759.0000629425 188 193 189
-122.123271226883 762.275874614716 2756.00004196167 170 172 169
-114.6000623703 762.008488178253 2755.00011444092 169 171 168
-106.926500797272 760.634303092957 2750 147 149 146
-99.3160158395767 759.536027908325 2746.00005149841 148 150 147
-91.5931984782219 757.330715656281 2737.99991607666 186 188 185
-83.9750990271568 755.678057670593 2732.00011253357 174 176 173
-76.4734447002411 754.854619503021 2729.00009155273 167 167 165
-68.9878985285759 754.030466079712 2726.0000705719 174 174 172
-61.473298817873 752.652585506439 2720.99995613098 176 176 174
-54.0055967867374 751.550793647766 2717.00000762939 179 179 177
-46.6109625995159 751.278162002563 2716.00008010864 181 181 179
-39.2072163522244 750.728368759155 2713.99998664856 186 182 181
-31.8025015294552 749.901354312897 2710.99996566772 186 182 181
-24.4140047580004 749.073684215546 2707.99994468689 182 181 179
-17.0228444039822 747.415602207184 2701.99990272522 180 180 180
-9.66781564056873 746.033608913422 2697.00002670288 174 176 175
-2.33991700224578 744.651079177856 2691.99991226196 169 173 172
4.97375661507249 745.204269886017 2694.00000572205 166 171 167
12.2891571372747 745.203495025635 2694.00000572205 163 164 159
19.6118038147688 745.478808879852 2694.9999332428 169 170 164
26.8898736685514 744.370460510254 2690.99998474121 164 161 154
34.1588668525219 743.5382604599 2687.99996376038 171 166 160
41.4269156754017 742.982089519501 2686.00010871887 166 156 147
48.7928278744221 744.084894657135 2690.00005722046 145 135 125
56.1386458575726 744.633972644806 2691.99991226196 129 119 109
63.4480565786362 744.629144668579 2691.99991226196 137 124 116
70.5733299255371 742.68764257431 2684.99994277954 136 126 116
77.6604190468788 740.745484828949 2677.99997329712 138 129 120
84.804467856884 739.632725715637 2674.00002479553 171 162 153
92.098742723465 739.902257919312 2674.99995231628 170 165 159
99.323958158493 739.618122577667 2674.00002479553 143 140 133
106.583379209042 739.610075950623 2674.00002479553 155 154 150
113.842524588108 739.601373672485 2674.00002479553 150 150 148
121.010854840279 739.039063453674 2671.99993133545 151 153 148
127.928033471107 737.093269824982 2664.99996185303 156 158 153
135.161951184273 737.08301782608 2664.99996185303 160 161 156
142.342120409012 736.795663833618 2664.00003433228 159 158 156
149.57270026207 736.784398555756 2664.00003433228 161 160 158
156.744077801704 736.495912075043 2663.00010681152 160 154 156
164.217546582222 737.589836120605 2667.00005531311 164 158 160
171.583771705627 738.12997341156 2668.99991035461 164 160 161
178.960502147675 738.669753074646 2671.0000038147 162 160 161
185.789972543716 736.996531486511 2664.99996185303 161 161 159
192.948624491692 736.705601215363 2664.00003433228 161 162 157
199.951127171516 735.86118221283 2661.00001335144 161 163 158
207.481920719147 736.951887607574 2664.99996185303 155 160 156
214.389428496361 735.829889774323 2661.00001335144 150 155 151
221.774503588676 736.366808414459 2663.00010681152 169 171 168
229.169890284538 736.902892589569 2664.99996185303 153 155 152
236.930519342422 738.544762134552 2671.0000038147 150 152 149
243.991866707802 737.973988056183 2668.99991035461 154 154 152
251.041889190674 737.40291595459 2667.00005531311 149 149 147
258.17734003067 737.107753753662 2665.99988937378 151 151 149
265.406459569931 737.088799476624 2665.99988937378 151 150 148
272.737294435501 737.345814704895 2667.00005531311 164 163 161
280.492842197418 738.708317279816 2671.99993133545 168 168 166
287.952035665512 739.241063594818 2674.00002479553 183 188 184
296.083807945251 741.431951522827 2681.99992179871 192 197 193
305.728793144226 747.216045856476 2703.00006866455 202 207 203
-145.731702446938 760.846138000488 2778.00011634827 213 215 212
-137.593761086464 757.570564746857 2766.00003242493 200 205 201
-129.802852869034 755.937695503235 2759.99999046326 181 186 182
-122.17716127634 755.125939846039 2756.99996948242 168 170 167
-114.650681614876 754.861354827881 2756.00004196167 159 161 158
-106.973804533482 753.500521183014 2750.99992752075 149 151 148
-99.1791784763336 751.043617725372 2742.00010299683 156 158 155
-91.4331674575806 748.586058616638 2733.00004005432 182 184 181
-83.8280394673347 746.949553489685 2726.99999809265 172 174 171
-76.3674080371857 746.407985687256 2724.99990463257 169 169 167
-68.9174458384514 745.866000652313 2723.00004959106 176 176 174
-61.3878145813942 744.227707386017 2717.00000762939 178 178 176
-53.9303794503212 743.136644363403 2713.00005912781 180 180 178
-46.5631932020187 743.140697479248 2713.00005912781 183 183 181
-39.1958989202976 743.144154548645 2713.00005912781 190 186 185
-31.8050384521484 742.599070072174 2710.99996566772 188 184 183
-24.3979226797819 741.231739521027 2706.00008964539 183 182 180
-17.0116052031517 739.589810371399 2700.00004768372 180 180 180
-9.66858956962824 738.769233226776 2697.00002670288 172 174 173
-2.34097335487604 737.673938274384 2693.00007820129 168 173 169
4.97415428981185 737.947762012482 2694.00000572205 163 165 162
12.2855771332979 737.673163414001 2693.00007820129 160 161 156
19.6060948073864 737.945795059204 2694.00000572205 156 157 152
26.882030069828 736.84823513031 2690.00005722046 163 162 157
34.1234654188156 735.476136207581 2684.99994277954 164 161 154
41.3530915975571 734.377443790436 2680.99999427795 179 172 164
48.6334525048733 734.373927116394 2680.99999427795 163 154 147
55.9762716293335 735.191464424133 2684.00001525879 133 124 117
63.3116737008095 735.734581947327 2686.00010871887 120 111 104
70.4475045204163 734.08579826355 2680.0000667572 119 110 103
77.5795727968216 732.710301876068 2674.99995231628 170 163 155
84.7477465867996 731.882154941559 2671.99993133545 182 177 171
92.1060293912888 732.696831226349 2674.99995231628 157 154 147
99.4432419538498 733.237087726593 2677.00004577637 157 154 149
106.671489775181 732.955098152161 2676.00011825562 150 149 145
113.894045352936 732.672452926636 2674.99995231628 158 158 156
121.02035433054 731.841504573822 2671.99993133545 151 153 148
127.986058592796 730.188369750977 2665.99988937378 157 159 154
135.172501206398 729.904234409332 2664.99996185303 160 161 156
142.406642436981 729.893445968628 2664.99996185303 159 158 156
149.696573615074 730.155885219574 2665.99988937378 161 160 158
156.873926520348 729.870200157166 2664.99996185303 158 154 153
164.107039570808 729.857742786407 2664.99996185303 164 160 161
171.404093503952 730.118632316589 2665.99988937378 159 155 156
178.773179650307 730.652868747711 2667.99998283386 160 158 159
185.734435915947 729.543566703796 2664.00003433228 160 159 157
192.745998501778 728.707551956177 2661.00001335144 158 159 154
199.740827083588 727.871119976044 2657.99999237061 159 160 155
207.108274102211 728.403329849243 2660.00008583069 155 160 156
214.244395494461 728.113651275635 2658.99991989136 152 154 151
221.874326467514 729.466378688812 2664.00003433228 168 170 167
229.272946715355 729.997038841248 2665.99988937378 150 152 149
236.5932315588 730.25369644165 2667.00005531311 154 156 153
243.461310863495 729.14057970047 2663.00010681152 153 153 151
250.683754682541 729.122459888458 2663.00010681152 151 151 149
258.002489805222 729.377627372742 2664.00003433228 150 150 148
265.326142311096 729.632258415222 2664.99996185303 150 149 147
272.552400827408 729.612708091736 2664.99996185303 161 160 158
280.512988567352 731.509208679199 2671.99993133545 162 162 160
288.403332233429 733.131408691406 2677.99997329712 180 185 181
296.435981988907 735.026836395264 2684.99994277954 189 194 190
305.410981178284 739.1117811203 2700.00004768372 199 204 200
-145.690634846687 753.090798854828 2776.99995040894 215 217 214
-137.704059481621 750.661194324493 2767.99988746643 178 180 177
-129.954159259796 749.315738677979 2763.00001144409 179 181 178
-122.231096029282 747.969686985016 2757.99989700317 164 164 162
-114.618137478828 747.165501117706 2755.00011444092 155 155 153
-106.943383812904 745.818197727203 2750 163 163 161
-99.2593765258789 744.199097156525 2743.99995803833 154 154 152
-91.4738923311234 741.494596004486 2733.99996757507 188 188 186
-83.8039740920067 739.331901073456 2726.0000705719 166 166 164
-76.2333571910858 737.710952758789 2720.00002861023 174 174 172
-68.7963888049126 737.174332141876 2717.99993515015 178 178 176
-61.3475255668163 736.365854740143 2714.99991416931 182 182 180
-53.9744533598423 736.370503902435 2714.99991416931 180 180 178
-46.5497560799122 735.560834407806 2711.99989318848 184 184 182
-39.155688136816 735.021770000458 2710.00003814697 181 181 179
-31.7371934652328 733.668565750122 2704.99992370605 180 180 178
-24.3457797914743 732.314705848694 2700.00004768372 177 177 175
-16.9940665364265 731.502592563629 2697.00002670288 176 176 174
-9.65860858559608 730.689942836761 2694.00000572205 170 171 166
-2.3385533131659 729.605615139008 2690.00005722046 168 169 164
4.96347434818745 729.063034057617 2687.99996376038 165 166 161
12.2637506574392 729.06231880188 2687.99996376038 163 164 159
19.578555598855 729.60352897644 2690.00005722046 162 163 158
26.8741883337498 729.330360889435 2688.99989128113 159 160 154
34.126203507185 728.243052959442 2684.99994277954 157 158 152
41.3872599601746 727.697610855103 2683.00008773804 159 158 154
48.6010648310184 726.60905122757 2678.99990081787 163 162 158
55.8764524757862 726.604819297791 2678.99990081787 172 171 167
63.1517171859741 726.600110530853 2678.99990081787 171 170 166
70.3742504119873 726.052343845367 2677.00004577637 174 173 169
77.5857493281364 725.503921508789 2674.99995231628 162 161 157
84.7544744610786 724.683821201324 2671.99993133545 149 148 144
92.044472694397 724.948048591614 2673.00009727478 146 145 141
99.3396565318108 725.211679935455 2674.00002479553 147 146 142
106.600195169449 725.203573703766 2674.00002479553 153 152 148
113.817870616913 724.923551082611 2673.00009727478 155 154 150
120.939292013645 724.100768566132 2670.00007629395 157 158 152
128.044113516808 723.27733039856 2667.00005531311 158 159 153
135.132372379303 722.453474998474 2664.00003433228 160 161 155
142.417758703232 722.713768482208 2664.99996185303 159 160 155
149.595946073532 722.431063652039 2664.00003433228 157 158 153
156.827241182327 722.419202327728 2664.00003433228 157 158 153
163.750231266022 721.050798892975 2658.99991989136 156 157 152
171.031549572945 721.309125423431 2660.00008583069 154 154 152
178.384855389595 721.837818622589 2661.99994087219 154 154 152
185.539498925209 721.552670001984 2661.00001335144 154 154 152
192.615836858749 720.995903015137 2658.99991989136 154 154 152
199.680849909782 720.438599586487 2657.00006484985 154 154 152
206.96821808815 720.694243907928 2657.99999237061 155 155 153
214.502304792404 721.762955188751 2661.99994087219 160 160 158
221.974283456802 722.559809684753 2664.99996185303 163 163 161
229.3761074543 723.085105419159 2667.00005531311 152 152 150
236.522108316422 722.796559333801 2665.99988937378 153 153 151
243.387907743454 721.694231033325 2661.99994087219 150 150 148
250.608026981354 721.675932407379 2661.99994087219 151 151 149
257.827669382095 721.65721654892 2661.99994087219 153 153 151
265.146374702454 721.90922498703 2663.00010681152 153 153 151
272.469878196716 722.160696983337 2664.00003433228 157 157 155
280.32323718071 723.767101764679 2670.00007629395 163 163 161
288.100898265839 725.101947784424 2674.99995231628 178 178 176
296.015441417694 726.707339286804 2680.99999427795 184 186 183
304.0751516819 728.583455085754 2687.99996376038 195 197 194
-154.45514023304 751.503467559814 2799.00002479553 210 212 209
-146.016865968704 747.219383716583 2782.99999237061 212 214 211
-137.913912534714 744.277119636536 2772.0000743866 176 178 175
-130.058497190475 742.408275604248 2765.00010490417 170 172 169
-122.329406440258 741.07563495636 2759.99999046326 161 161 159
-114.585593342781 739.4739985466 2753.99994850159 154 154 152
-106.990776956081 738.677263259888 2750.99992752075 165 165 163
-99.1949290037155 736.268937587738 2742.00010299683 158 158 156
-91.5481001138687 734.66545343399 2736.00006103516 183 183 181
-83.8721469044685 732.524156570435 2727.9999256134 163 163 161
-76.2674733996391 730.650901794434 2720.99995613098 177 177 175
-68.7512680888176 729.314148426056 2716.00008010864 181 181 179
-61.2846538424492 728.245258331299 2711.99989318848 184 184 182
-53.9390221238136 728.518486022949 2713.00005912781 181 181 179
-46.5534888207912 728.253901004791 2711.99989318848 182 182 180
-39.115484803915 726.914763450623 2707.00001716614 178 178 176
-31.6693410277367 724.769294261932 2698.99988174438 177 177 175
-24.3116654455662 723.966002464294 2696.00009918213 175 175 173
-16.9828310608864 723.699152469635 2694.9999332428 173 173 171
-9.66297090053558 723.700165748596 2694.9999332428 168 169 164
-2.33961082994938 722.626507282257 2690.99998474121 165 166 161
4.96202753856778 721.552312374115 2687.00003623962 163 164 159
12.2510492801666 721.014559268951 2684.99994277954 161 162 157
19.5510163903236 721.281886100769 2686.00010871887 160 161 156
26.8563646823168 721.548497676849 2687.00003623962 158 159 153
34.1416597366333 721.277475357056 2686.00010871887 157 158 152
41.4214320480824 721.005856990814 2684.99994277954 156 155 151
48.6231073737144 719.659626483917 2680.0000667572 149 148 144
55.8392219245434 718.849837779999 2677.00004577637 167 166 162
63.0624741315842 718.30803155899 2674.99995231628 171 170 166
70.3535974025726 718.571186065674 2676.00011825562 154 153 149
77.6499658823013 718.833804130554 2677.00004577637 142 141 137
84.7929716110229 717.753171920776 2673.00009727478 146 145 141
92.0517966151237 717.746198177338 2673.00009727478 148 147 143
99.3104130029678 717.738628387451 2673.00009727478 150 149 145
106.608651578426 717.998802661896 2674.00002479553 156 155 151
113.741718232632 717.184543609619 2671.0000038147 158 157 153
120.812945067883 716.101288795471 2667.00005531311 157 158 152
127.958178520203 715.554416179657 2664.99996185303 158 159 153
135.092258453369 715.007066726685 2663.00010681152 159 160 154
142.428919672966 715.533137321472 2664.99996185303 158 159 154
149.551495909691 714.984655380249 2663.00010681152 157 158 153
156.839475035667 715.241193771362 2664.00003433228 156 157 152
163.762971758842 713.886260986328 2658.99991989136 155 156 151
170.851871371269 713.336288928986 2657.00006484985 151 151 149
178.063556551933 713.322699069977 2657.00006484985 151 151 149
185.344576835632 713.577151298523 2657.99999237061 154 154 152
192.485734820366 713.294267654419 2657.00006484985 153 153 151
199.620962142944 713.010668754578 2655.99989891052 151 151 149
206.828221678734 712.995171546936 2655.99989891052 153 153 151
214.518561959267 714.589834213257 2661.99994087219 158 158 156
222.157657146454 715.915501117706 2667.00005531311 159 159 157
229.651391506195 716.703712940216 2670.00007629395 149 149 147
236.894726753235 716.686308383942 2670.00007629395 152 152 150
243.771761655807 715.594530105591 2665.99988937378 148 148 146
250.814914703369 715.039372444153 2664.00003433228 151 151 149
257.943570613861 714.752197265625 2663.00010681152 153 153 151
265.16580581665 714.732944965363 2663.00010681152 153 153 151
272.694319486618 715.518355369568 2665.99988937378 157 157 155
280.028581619263 715.766668319702 2667.00005531311 162 162 160
287.690818309784 716.819643974304 2671.0000038147 176 176 174
295.263737440109 717.60368347168 2674.00002479553 182 184 181
303.191721439362 719.192385673523 2680.0000667572 200 202 199
313.005089759827 725.074172019959 2701.99990272522 211 213 210
-154.35691177845 743.429243564606 2796.99993133545 222 224 221
-146.238267421722 740.783095359802 2786.99994087219 175 177 174
-138.024300336838 737.338960170746 2773.9999294281 171 173 170
-130.162850022316 735.488891601563 2766.99995994568 170 172 169
-122.383430600166 733.904004096985 2760.99991798401 163 163 161
-114.677935838699 732.584416866302 2756.00004196167 154 154 152
-106.960400938988 730.998337268829 2750 158 158 156
-99.3113741278648 729.677498340607 2744.99988555908 157 157 155
-91.6892662644386 728.356003761292 2740.00000953674 173 173 171
-84.0326100587845 726.502358913422 2733.00004005432 160 160 158
-76.3296633958817 723.85048866272 2723.00004959106 185 185 183
-68.7821060419083 722.261369228363 2717.00000762939 182 182 180
-61.2895786762238 720.937371253967 2711.99989318848 181 181 179
-53.9433620870113 721.207916736603 2713.00005912781 176 176 174
-46.4885793626308 719.882726669312 2707.99994468689 178 178 176
-39.0319339931011 718.025386333466 2700.99997520447 174 174 172
-31.6132269799709 716.167390346527 2694.00000572205 173 173 171
-24.2775548249483 715.637862682343 2691.99991226196 171 171 169
-16.9715993106365 715.905427932739 2693.00007820129 170 170 168
-9.65658202767372 715.90656042099 2693.00007820129 165 166 161
-2.33806064352393 714.843571186066 2688.99989128113 162 163 158
4.96242847293615 714.311838150024 2687.00003623962 161 162 157
12.2520383447409 713.779509067535 2684.99994277954 160 161 156
19.5453148335218 713.77819776535 2684.99994277954 159 160 155
26.8285442143679 713.510453701019 2684.00001525879 159 160 154
34.0808480978012 712.710499763489 2680.99999427795 157 158 152
41.3784869015217 712.973237037659 2681.99992179871 153 152 148
48.6270263791084 712.437927722931 2680.0000667572 154 153 149
55.8645687997341 711.902022361755 2677.99997329712 158 157 153
63.043974339962 710.833966732025 2674.00002479553 149 148 144
70.332944393158 711.094379425049 2674.99995231628 153 152 148
77.6271894574165 711.354374885559 2676.00011825562 153 152 148
84.8632007837296 711.081922054291 2674.99995231628 151 150 146
92.0591577887535 710.543274879456 2673.00009727478 152 151 147
99.2068499326706 709.73813533783 2670.00007629395 152 151 147
106.457650661469 709.729969501495 2670.00007629395 157 156 152
113.6230006814 709.189534187317 2667.99998283386 158 157 153
120.822533965111 708.914458751678 2667.00005531311 157 158 152
127.968281507492 708.372890949249 2664.99996185303 158 159 153
135.001450777054 707.299292087555 2661.00001335144 158 159 153
142.172902822495 707.022607326508 2660.00008583069 157 158 153
149.338573217392 706.745326519012 2658.99991989136 156 157 152
156.733989715576 707.530617713928 2661.99994087219 156 157 152
163.775742053986 706.72070980072 2658.99991989136 154 155 150
170.929461717606 706.441879272461 2657.99999237061 150 150 148
177.94331908226 705.631017684937 2654.99997138977 150 150 148
185.219407081604 705.882668495178 2655.99989891052 153 153 151
192.355632781982 705.602407455444 2654.99997138977 152 152 150
199.485927820206 705.321550369263 2654.00004386902 151 151 149
206.844016909599 705.837428569794 2655.99989891052 151 151 149
214.615449309349 707.681596279144 2663.00010681152 156 156 154
222.424402832985 709.525287151337 2670.00007629395 154 154 152
229.840710759163 710.039496421814 2671.99993133545 146 146 144
237.089931964874 710.021913051605 2671.99993133545 151 151 149
243.97286772728 708.940982818604 2667.99998283386 147 147 145
251.021832227707 708.391070365906 2665.99988937378 150 150 148
258.156359195709 708.106458187103 2664.99996185303 153 153 151
265.284895896912 707.821488380432 2664.00003433228 153 153 151
272.918879985809 708.864510059357 2667.99998283386 156 156 154
280.153959989548 708.844244480133 2667.99998283386 161 161 159
287.711620330811 709.620594978333 2671.0000038147 175 175 173
294.843286275864 709.333896636963 2670.00007629395 182 184 181
302.647709846497 710.640788078308 2674.99995231628 194 196 193
311.637163162231 714.603662490845 2690.00005722046 210 212 209
-154.258698225021 735.364854335785 2795.00007629395 213 215 212
-146.197348833084 733.008801937103 2786.00001335144 157 159 156
-138.234287500381 730.915248394012 2778.00011634827 170 172 169
-130.455479025841 729.610323905945 2773.00000190735 171 173 170
-122.703485190868 728.304803371429 2767.99988746643 162 162 160
-114.936761558056 726.735532283783 2762.00008392334 152 152 150
-107.124544680119 724.639534950256 2753.99994850159 151 151 149
-99.3916913866997 722.805857658386 2746.99997901917 153 153 151
-91.6966125369072 720.971643924713 2740.00000953674 169 169 167
-83.9778557419777 718.61058473587 2730.99994659424 162 162 160
-76.3358026742935 716.511964797974 2723.00004959106 185 185 183
-68.7876492738724 714.938998222351 2717.00000762939 181 181 179
-61.2719245254993 713.365375995636 2710.99996566772 178 178 176
-53.888063877821 713.106989860535 2710.00003814697 174 174 172
-46.4579947292805 712.058484554291 2706.00008964539 177 177 175
-39.0061847865582 710.219860076904 2698.99988174438 173 173 171
-31.6040478646755 708.643972873688 2693.00007820129 172 172 170
-24.2524612694979 707.593619823456 2688.99989128113 170 170 168
-16.9540662318468 707.858443260193 2690.00005722046 170 170 168
-9.64301824569702 707.59642124176 2688.99989128113 165 166 161
-2.33824993483722 707.596778869629 2688.99989128113 163 164 159
4.96282987296581 707.070469856262 2687.00003623962 162 163 158
12.2530311346054 706.543445587158 2684.99994277954 160 161 156
19.5323377847672 706.015884876251 2683.00008773804 160 161 156
26.7907306551933 705.224633216858 2680.0000667572 159 160 154
34.0327546000481 704.432606697083 2677.00004577637 157 158 152
41.2892587482929 704.16647195816 2676.00011825562 151 150 146
48.5583655536175 704.162836074829 2676.00011825562 151 150 146
55.8482222259045 704.421758651733 2677.00004577637 150 149 145
63.0018934607506 703.101217746735 2671.99993133545 145 144 140
70.3386068344116 703.88525724411 2674.99995231628 152 151 147
77.6334330439568 704.142570495605 2676.00011825562 146 145 141
84.9334746599197 704.399049282074 2677.00004577637 151 150 146
92.135414481163 703.865647315979 2674.99995231628 154 153 149
99.2891117930412 703.068614006042 2671.99993133545 154 153 149
106.426261365414 702.270984649658 2668.99991035461 158 157 153
113.419108092785 700.68359375 2663.00010681152 161 160 156
120.60559540987 700.411081314087 2661.99994087219 157 158 152
127.73834168911 699.874937534332 2660.00008583069 158 159 153
134.9106580019 699.601471424103 2658.99991989136 157 158 152
142.077222466469 699.327409267426 2657.99999237061 155 156 151
149.350330233574 699.579000473022 2658.99991989136 154 155 150
156.687408685684 700.093150138855 2661.00001335144 155 156 151
163.911759853363 700.080573558807 2661.00001335144 152 153 148
171.071425080299 699.804425239563 2660.00008583069 152 152 150
178.158223628998 699.264585971832 2657.99999237061 151 151 149
185.303539037704 698.987424373627 2657.00006484985 151 151 149
192.515388131142 698.972761631012 2657.00006484985 151 151 149
199.726775288582 698.957562446594 2657.00006484985 154 154 152
207.171410322189 699.731230735779 2660.00008583069 150 150 148
214.793026447296 701.030254364014 2664.99996185303 155 155 153
222.524613142014 702.591896057129 2671.0000038147 145 145 143
230.116173624992 703.626811504364 2674.99995231628 141 141 139
237.462759017944 703.872203826904 2676.00011825562 148 148 146
244.356974959373 702.801942825317 2671.99993133545 146 146 144
251.134783029556 701.468348503113 2667.00005531311 148 148 146
258.175522089005 700.923204421997 2664.99996185303 151 151 149
265.204906463623 700.377881526947 2663.00010681152 152 152 150
272.734314203262 701.146960258484 2665.99988937378 156 156 154
279.859393835068 700.863718986511 2664.99996185303 161 161 159
287.624835968018 702.158033847809 2670.00007629395 169 169 167
294.75411772728 701.87371969223 2668.99991035461 181 183 180
302.782595157623 703.693091869354 2676.00011825562 184 186 183
311.427682638168 706.826508045197 2687.99996376038 200 202 199
-163.018345832825 733.026444911957 2815.00005722046 211 216 212
-154.381260275841 728.351712226868 2796.99993133545 178 180 177
-146.313890814781 726.019978523254 2788.00010681152 151 153 150
-138.543859124184 724.989652633667 2783.99991989136 171 173 170
-130.70110976696 723.43784570694 2778.00011634827 160 162 159
-122.890613973141 721.88538312912 2772.0000743866 156 156 154
-115.11242389679 720.332443714142 2766.00003242493 145 145 143
-107.249826192856 717.997491359711 2756.99996948242 142 142 140
-99.5806008577347 716.703712940216 2752.00009346008 150 150 148
-91.8378606438637 714.627861976624 2743.99995803833 167 167 165
-84.1076225042343 712.291061878204 2734.99989509583 166 166 164
-76.398029923439 709.693193435669 2724.99990463257 180 180 178
-68.8438415527344 708.136439323425 2719.00010108948 178 178 176
-61.2994804978371 706.318616867065 2711.99989318848 179 179 177
-53.8725405931473 705.541968345642 2709.00011062622 175 175 173
-46.3759116828442 703.462421894073 2700.99997520447 176 176 174
-38.9659889042377 702.163696289063 2696.00009918213 174 174 172
-31.5831378102303 700.864315032959 2690.99998474121 173 173 171
-24.245411157608 700.0852227211 2687.99996376038 171 171 169
-16.9365331530571 699.82647895813 2687.00003623962 170 170 168
-9.62586980313063 699.04613494873 2684.00001525879 166 167 162
-2.33583129011095 699.56761598587 2686.00010871887 164 165 160
4.96138632297516 699.567556381226 2686.00010871887 162 163 158
12.2540257871151 699.30624961853 2684.99994277954 160 161 156
19.5193607360125 698.26328754425 2680.99999427795 159 160 155
26.7629120498896 697.219550609589 2677.00004577637 158 159 153
33.9846611022949 696.175336837769 2673.00009727478 157 158 152
41.2463136017323 696.17223739624 2673.00009727478 162 161 157
48.5260039567947 696.429073810577 2674.00002479553 157 156 152
55.8736026287079 697.466611862183 2677.99997329712 150 149 145
63.0541518330574 696.420073509216 2674.00002479553 147 146 142
70.3705847263336 696.935474872589 2676.00011825562 153 152 148
77.6106640696526 696.669101715088 2674.99995231628 147 146 142
84.9720388650894 697.443842887878 2677.99997329712 150 149 145
92.108391225338 696.395039558411 2674.00002479553 156 155 151
99.2599055171013 695.605933666229 2671.0000038147 158 157 153
106.235399842262 693.77475976944 2664.00003433228 160 159 155
113.257773220539 692.46381521225 2658.99991989136 162 161 157
120.43397128582 692.194104194641 2657.99999237061 157 158 152
127.796515822411 692.965388298035 2661.00001335144 158 159 153
135.073587298393 693.215429782867 2661.99994087219 156 157 151
142.248824238777 692.94399023056 2661.00001335144 154 155 150
149.362117052078 692.411661148071 2658.99991989136 153 154 149
156.523078680038 692.139208316803 2657.99999237061 154 155 150
163.801416754723 692.38692522049 2658.99991989136 150 151 146
171.084821224213 692.634224891663 2660.00008583069 153 153 151
178.373232483864 692.880928516388 2661.00001335144 152 152 150
185.596913099289 692.866742610931 2661.00001335144 149 149 147
192.820131778717 692.852079868317 2661.00001335144 150 150 148
199.967727065086 692.576467990875 2660.00008583069 156 156 154
207.343101501465 693.081498146057 2661.99994087219 151 151 149
215.131893754005 694.887757301331 2668.99991035461 155 155 153
222.874835133553 696.433186531067 2674.99995231628 142 142 140
230.477765202522 697.457313537598 2678.99990081787 139 139 137
237.746924161911 697.43949174881 2678.99990081787 146 146 144
244.832634925842 696.900606155396 2677.00004577637 146 146 144
251.436054706573 695.059716701508 2670.00007629395 148 148 146
258.388519287109 694.259703159332 2667.00005531311 150 150 148
265.224546194077 693.198978900909 2663.00010681152 150 150 148
272.754430770874 693.959951400757 2665.99988937378 156 156 154
279.87989783287 693.67927312851 2664.99996185303 162 162 160
287.645787000656 694.959998130798 2670.00007629395 165 165 163
294.885963201523 694.938719272614 2670.00007629395 179 181 178
302.691251039505 696.218490600586 2674.99995231628 180 182 179
310.870677232742 698.278605937958 2683.00008773804 193 195 192
-162.278324365616 722.087264060974 2802.00004577637 214 219 215
-154.614299535751 721.842169761658 2801.00011825562 159 161 158
-146.692901849747 720.307886600494 2795.00007629395 142 144 141
-138.853490352631 719.030618667603 2789.99996185303 171 173 170
-130.805641412735 716.464161872864 2779.99997138977 159 161 158
-123.033456504345 715.185761451721 2775.00009536743 154 154 152
-115.204878151417 713.391125202179 2767.99988746643 146 146 144
-107.45295137167 711.853742599487 2762.00008392334 143 143 141
-99.7333601117134 710.315644741058 2756.00004196167 137 137 135
-91.9456854462624 708.0038189888 2746.99997901917 165 165 163
-84.2066779732704 705.691277980804 2737.99991607666 148 148 146
-76.5163525938988 703.378081321716 2729.00009155273 178 178 176
-68.9000561833382 701.322019100189 2720.99995613098 180 180 178
-61.327051371336 699.265360832214 2713.00005912781 178 178 176
-53.8371317088604 697.723567485809 2707.00001716614 178 178 176
-46.3968366384506 696.438789367676 2701.99990272522 176 176 174
-38.9691554009914 694.895803928375 2696.00009918213 174 174 172
-31.5974391996861 693.867623806 2691.99991226196 174 174 172
-24.2473836988211 692.838966846466 2687.99996376038 173 173 171
-16.9316064566374 692.325115203857 2686.00010871887 173 173 171
-9.61947906762362 691.295146942139 2681.99992179871 168 169 164
-2.33428203500807 691.811203956604 2684.00001525879 166 167 162
4.95624775066972 691.553354263306 2683.00008773804 162 163 158
12.2458944097161 691.552639007568 2683.00008773804 158 159 154
19.5063874125481 690.520286560059 2678.99990081787 156 157 152
26.7650876194239 690.002977848053 2677.00004577637 154 155 149
34.0255685150623 689.742684364319 2676.00011825562 153 154 148
41.2959605455399 689.73970413208 2676.00011825562 151 150 146
48.6025363206863 690.251469612122 2677.99997329712 151 150 146
55.9198707342148 690.762758255005 2680.0000667572 152 151 147
63.1535872817039 690.242469310761 2677.99997329712 151 150 146
70.4288706183434 690.236926078796 2677.99997329712 148 147 143
77.6459574699402 689.715504646301 2676.00011825562 147 146 142
84.9788933992386 690.224409103394 2677.99997329712 149 148 144
92.0813530683517 688.928663730621 2673.00009727478 154 153 149
99.1935655474663 687.889933586121 2668.99991035461 157 156 152
106.204055249691 686.335325241089 2663.00010681152 159 158 154
113.266855478287 685.295581817627 2658.99991989136 158 157 153
120.30765414238 684.255361557007 2654.99997138977 154 155 149
127.710655331612 685.276329517365 2658.99991989136 155 156 150
135.084331035614 686.03903055191 2661.99994087219 157 158 152
142.313569784164 686.027944087982 2661.99994087219 156 157 152
149.317756295204 684.98557806015 2657.99999237061 155 156 151
156.417638063431 684.458076953888 2655.99989891052 153 154 149
163.75270485878 684.960901737213 2657.99999237061 153 154 149
171.098217368126 685.463070869446 2660.00008583069 152 152 150
178.521245718002 686.222493648529 2663.00010681152 153 153 151
185.820624232292 686.465859413147 2664.00003433228 150 150 148
193.197429180145 686.966478824615 2665.99988937378 147 147 145
200.509458780289 687.208890914917 2667.00005531311 145 145 143
207.826465368271 687.450766563416 2667.99998283386 158 158 156
215.470850467682 688.722848892212 2673.00009727478 158 158 156
223.141834139824 689.994215965271 2677.99997329712 144 144 142
230.753436684608 691.007554531097 2681.99992179871 131 131 129
238.031208515167 690.989673137665 2681.99992179871 146 146 144
245.125517249107 690.456211566925 2680.0000667572 145 145 143
251.643300056458 688.376426696777 2671.99993133545 148 148 146
258.407831192017 687.069177627563 2667.00005531311 150 150 148
265.244275331497 686.0191822052 2663.00010681152 151 151 149
272.87694811821 687.029659748077 2667.00005531311 155 155 153
279.795467853546 686.236441135406 2664.00003433228 157 157 155
287.235856056213 686.730742454529 2665.99988937378 155 155 153
294.576048851013 686.967074871063 2667.00005531311 190 192 189
302.599996328354 688.748478889465 2674.00002479553 171 173 170
310.661256313324 690.52928686142 2680.99999427795 172 174 171
321.131527423859 697.46071100235 2707.99994468689 202 204 201
-162.349089980125 714.787364006042 2802.99997329712 212 217 213
-154.792174696922 715.054869651794 2803.99990081787 159 161 158
-147.071987390518 714.556932449341 2802.00004577637 145 147 144
-138.914316892624 711.763024330139 2790.99988937378 172 174 171
-130.816087126732 708.968579769135 2779.99997138977 160 162 159
-123.087644577026 707.958698272705 2776.00002288818 161 161 159
-115.380629897118 706.948161125183 2772.0000743866 139 139 137
-107.578329741955 705.171942710876 2765.00010490417 140 140 138
-99.8137816786766 703.395009040833 2757.99989700317 133 133 131
-92.1204760670662 701.87246799469 2752.00009346008 155 155 153
-84.3057557940483 699.07408952713 2740.9999370575 146 146 144
-76.5505954623222 696.275234222412 2730.00001907349 185 185 183
-68.9309686422348 694.240748882294 2721.99988365173 185 185 183
-61.3772422075272 692.460656166077 2714.99991416931 171 171 169
-53.8415014743805 690.424859523773 2707.00001716614 174 174 172
-46.3662706315517 688.643634319305 2700.00004768372 177 177 175
-38.9434136450291 687.116742134094 2694.00000572205 176 176 174
-31.5765403211117 686.099410057068 2690.00005722046 175 175 173
-24.2493562400341 685.591518878937 2687.99996376038 174 174 172
-16.932986676693 685.083150863647 2686.00010871887 173 173 171
-9.62026230990887 684.063911437988 2681.99992179871 169 170 165
-2.33273254707456 684.064388275146 2681.99992179871 166 167 162
4.9566519446671 684.31943655014 2683.00008773804 162 163 158
12.2423283755779 684.063673019409 2681.99992179871 159 160 155
19.5152591913939 683.552324771881 2680.0000667572 157 158 153
26.7572682350874 682.530164718628 2676.00011825562 156 157 151
34.041054546833 682.782769203186 2677.00004577637 155 156 150
41.3147546350956 682.779729366302 2677.00004577637 152 151 147
48.6609451472759 683.796226978302 2680.99999427795 152 151 147
55.9452697634697 683.791935443878 2680.99999427795 151 150 146
63.2058829069138 683.532118797302 2680.0000667572 150 149 145
70.4345852136612 683.016538619995 2677.99997329712 149 148 144
77.652245759964 682.500541210175 2676.00011825562 148 147 143
84.9540233612061 682.748913764954 2677.00004577637 151 150 146
92.0198783278465 681.211590766907 2671.0000038147 155 154 150
99.1643816232681 680.438637733459 2667.99998283386 157 156 152
106.172703206539 678.900241851807 2661.99994087219 158 157 153
113.361142575741 678.636372089386 2661.00001335144 157 156 152
120.407931506634 677.606880664825 2657.00006484985 154 155 149
127.816915512085 678.617000579834 2661.00001335144 154 155 149
135.145857930183 679.116606712341 2663.00010681152 155 156 150
142.378345131874 679.105460643768 2663.00010681152 155 156 151
149.329587817192 677.818834781647 2657.99999237061 154 155 150
156.312227249146 676.786780357361 2654.00004386902 153 154 149
163.765609264374 677.794098854065 2657.99999237061 153 154 149
171.047329902649 678.035855293274 2658.99991989136 152 152 150
178.602293133736 679.297208786011 2664.00003433228 152 152 150
185.904905200005 679.537892341614 2664.99996185303 150 150 148
193.429887294769 680.543005466461 2668.99991035461 147 147 145
200.750589370728 680.782675743103 2670.00007629395 144 144 142
208.309918642044 681.786715984344 2674.00002479553 153 153 151
215.890496969223 682.790219783783 2677.99997329712 147 147 145
223.575577139854 684.048116207123 2683.00008773804 140 140 138
231.029167771339 684.540629386902 2684.99994277954 134 134 132
238.315567374229 684.522747993469 2684.99994277954 143 143 141
245.326995849609 683.73966217041 2681.99992179871 145 145 143
251.944810152054 681.936264038086 2674.99995231628 148 148 146
258.814781904221 680.897414684296 2671.0000038147 150 150 148
265.662491321564 679.858148097992 2667.00005531311 151 151 149
272.794812917709 679.583072662354 2665.99988937378 155 155 153
279.816120862961 679.052829742432 2664.00003433228 157 157 155
287.14919090271 679.286897182465 2664.99996185303 156 156 154
294.487029314041 679.520428180695 2665.99988937378 188 190 187
302.282422780991 680.773198604584 2671.0000038147 172 174 171
309.988349676132 681.770443916321 2674.99995231628 169 171 168
319.968640804291 687.609672546387 2697.99995422363 195 197 194
-171.308323740959 712.766110897064 2825.00004768372 210 215 211
-162.76741027832 708.994686603546 2809.99994277954 207 212 208
-155.080527067184 708.755075931549 2809.00001525879 159 161 158
-147.346168756485 708.26244354248 2806.99992179871 146 148 145
-139.124542474747 705.246031284332 2795.00007629395 169 171 168
-131.014809012413 702.481150627136 2783.99991989136 158 160 157
-123.274900019169 701.482117176056 2779.99997138977 152 152 150
-115.598037838936 700.734674930573 2776.99995040894 134 134 132
-107.859365642071 699.482083320618 2772.0000743866 143 143 141
-100.00279545784 697.219371795654 2763.00001144409 124 124 122
-92.2953113913536 695.713102817535 2756.99996948242 153 153 151
-84.3433514237404 691.935062408447 2742.00010299683 165 165 163
-76.6128897666931 689.418137073517 2732.00011253357 162 162 160
-68.8859149813652 686.395823955536 2720.00002861023 159 159 157
-61.3822266459465 685.139298439026 2714.99991416931 182 182 180
-53.825993090868 682.872831821442 2706.00008964539 176 176 174
-46.3700480759144 681.362807750702 2700.00004768372 173 173 171
-38.9465875923634 679.85212802887 2694.00000572205 177 177 175
-31.5673723816872 678.593158721924 2688.99989128113 175 175 173
-24.2332946509123 677.838385105133 2686.00010871887 171 171 169
-16.9154535979033 677.08295583725 2683.00008773804 170 170 168
-9.61746275424957 676.579356193542 2680.99999427795 164 165 160
-2.33292323537171 676.83219909668 2681.99992179871 162 163 158
4.95705660432577 677.084445953369 2683.00008773804 158 159 154
12.2524574398994 677.336156368256 2684.00001525879 156 157 152
19.5386968553066 677.082419395447 2683.00008773804 155 156 151
26.7794504761696 675.818741321564 2677.99997329712 154 155 149
34.056544303894 675.816297531128 2677.99997329712 153 154 148
41.3181185722351 675.560891628265 2677.00004577637 153 152 148
48.6649051308632 676.566660404205 2680.99999427795 152 151 147
55.9289567172527 676.310002803802 2680.0000667572 150 149 145
63.1874203681946 676.052749156952 2678.99990081787 149 148 144
70.3876987099648 675.290405750275 2676.00011825562 150 149 145
77.6295140385628 675.031960010529 2674.99995231628 151 150 146
84.960900247097 675.530016422272 2677.00004577637 152 151 147
92.1306759119034 674.765884876251 2674.00002479553 155 154 150
99.2467254400253 673.748731613159 2670.00007629395 157 156 152
106.261029839516 672.22648859024 2664.00003433228 157 156 152
113.412864506245 671.712934970856 2661.99994087219 155 154 150
120.508223772049 670.946598052979 2658.99991989136 154 155 149
127.779126167297 671.188950538635 2660.00008583069 154 155 149
135.055139660835 671.430826187134 2661.00001335144 152 153 147
142.282754182816 671.419680118561 2661.00001335144 152 153 148
149.341449141502 670.651078224182 2657.99999237061 152 153 148
156.501293182373 670.386672019959 2657.00006484985 153 154 149
163.9633923769 671.383202075958 2661.00001335144 153 154 149
171.125143766403 671.117663383484 2660.00008583069 151 151 149
178.549244999886 671.860873699188 2663.00010681152 151 151 149
185.919418931007 672.351121902466 2664.99996185303 148 148 146
193.734884262085 674.354553222656 2673.00009727478 145 145 143
201.292514801025 675.348401069641 2677.00004577637 143 143 141
208.871409296989 676.341593265533 2680.99999427795 142 142 140
216.552123427391 677.586495876312 2686.00010871887 131 131 129
224.009439349175 678.07400226593 2687.99996376038 127 127 125
231.218948960304 677.804291248322 2687.00003623962 127 127 125
238.1561845541 676.777482032776 2683.00008773804 136 136 134
245.25411427021 676.254570484161 2680.99999427795 143 143 141
252.058029174805 674.97456073761 2676.00011825562 148 148 146
258.9311003685 673.94632101059 2671.99993133545 149 149 147
265.881568193436 673.16997051239 2668.99991035461 150 150 148
273.019760847092 672.897696495056 2667.99998283386 154 154 152
280.046880245209 672.372817993164 2665.99988937378 155 155 153
287.278056144714 672.351837158203 2665.99988937378 159 159 157
294.840008020401 673.087060451508 2668.99991035461 184 186 183
302.643924951553 674.326181411743 2674.00002479553 174 176 173
310.242533683777 675.060451030731 2677.00004577637 165 167 164
318.924158811569 678.063690662384 2688.99989128113 185 187 184
-170.958027243614 703.649282455444 2819.00000572205 210 215 211
-162.896201014519 701.915144920349 2812.00003623962 201 206 202
-155.03765642643 700.929343700409 2808.00008773804 160 162 159
-147.410422563553 700.941383838654 2808.00008773804 148 150 147
-139.285013079643 698.456585407257 2798.00009727478 165 167 164
-131.260633468628 696.220755577087 2789.00003433228 158 160 157
-123.462185263634 694.982826709747 2783.99991989136 147 147 145
-115.898758172989 694.992423057556 2783.99991989136 137 137 135
-108.179375529289 694.002985954285 2779.99997138977 139 139 137
-100.300446152687 691.76459312439 2770.99990844727 131 131 129
-92.4701765179634 689.525604248047 2762.00008392334 166 166 164
-84.4424664974213 685.288667678833 2744.99988555908 169 169 167
-76.7032355070114 682.798743247986 2734.99989509583 161 161 159
-68.9928233623505 680.058479309082 2723.99997711182 174 174 172
-61.4776685833931 678.815543651581 2719.00010108948 177 177 175
-53.8701564073563 676.073968410492 2707.99994468689 170 170 168
-46.3222973048687 673.331797122955 2697.00002670288 174 174 172
-38.906391710043 671.837329864502 2690.99998474121 177 177 175
-31.5347276628017 670.59189081192 2686.00010871887 175 175 173
-24.2262482643127 670.344471931458 2684.99994277954 170 170 168
-16.9042255729437 669.347584247589 2680.99999427795 168 168 166
-9.61465947329998 669.098973274231 2680.0000667572 162 163 158
-2.33224360272288 669.349074363709 2680.99999427795 160 161 156
4.95376624166965 669.349014759064 2680.99999427795 157 158 153
12.2306300327182 668.848931789398 2678.99990081787 155 156 151
19.518444314599 669.097363948822 2680.0000667572 154 155 150
26.7816353589296 668.596088886261 2677.99997329712 154 155 149
34.059327095747 668.593645095825 2677.99997329712 152 153 147
41.3214862346649 668.340921401978 2677.00004577637 153 152 148
48.6325621604919 668.836534023285 2678.99990081787 152 151 147
55.8708943426609 668.332993984222 2677.00004577637 150 149 145
63.1218031048775 668.078482151031 2676.00011825562 150 149 145
70.3407973051071 667.573690414429 2674.00002479553 151 150 146
77.6067897677422 667.567789554596 2674.00002479553 151 150 146
84.9042981863022 667.8107380867 2674.99995231628 150 149 145
92.0692160725594 667.054653167725 2671.99993133545 154 153 149
99.217563867569 666.297972202301 2668.99991035461 156 155 151
106.309473514557 665.291130542755 2664.99996185303 156 155 151
113.464593887329 664.78306055069 2663.00010681152 155 154 150
120.608538389206 664.274275302887 2661.00001335144 154 155 149
127.789348363876 664.014756679535 2660.00008583069 154 155 149
135.015159845352 664.00420665741 2660.00008583069 153 154 148
142.294093966484 664.242804050446 2661.00001335144 152 153 148
149.52190220356 664.23112154007 2661.00001335144 153 154 149
156.749337911606 664.21902179718 2661.00001335144 153 154 149
164.222851395607 665.204763412476 2664.99996185303 153 154 149
171.267315745354 664.442658424377 2661.99994087219 151 151 149
178.630337119102 664.928078651428 2664.00003433228 150 150 148
185.933977365494 665.163338184357 2664.99996185303 148 148 146
193.822503089905 667.394816875458 2674.00002479553 146 146 144
201.383382081985 668.377757072449 2677.99997329712 144 144 142
209.199249744415 670.108795166016 2684.99994277954 143 143 141
217.13325381279 672.088921070099 2693.00007820129 141 141 139
224.610045552254 672.570943832397 2694.9999332428 127 127 125
231.839016079903 672.303855419159 2694.00000572205 119 119 117
238.529428839684 670.539081096649 2687.00003623962 139 139 137
245.455712080002 669.522523880005 2683.00008773804 142 142 140
