ply
format ascii 1.0
comment KinectMotionCapture
element vertex 788
property float x
property float y
property float z
property uchar red
property uchar green
property uchar blue
end_header
-86.1023291945457 -209.449648857117 1822.99995422363 20 23 14
-81.2218338251114 -209.683895111084 1825.00004768372 18 21 12
-76.2465670704842 -209.688127040863 1825.00004768372 13 16 7
-71.5053230524063 -210.381463170052 1830.9999704361 15 18 9
-67.2759935259819 -212.798118591309 1851.99999809265 17 20 11
-62.0918907225132 -212.341964244843 1848.00004959106 15 18 9
-57.0219978690147 -212.230265140533 1847.00000286102 14 17 8
-52.09806188941 -212.692812085152 1850.99995136261 15 18 9
-47.2537912428379 -213.614746928215 1858.99996757507 15 18 9
-42.2522462904453 -213.961899280548 1861.99998855591 15 18 9
-37.1543169021606 -213.849127292633 1860.99994182587 14 17 8
-32.2685576975346 -215.115040540695 1871.99997901917 13 16 7
-27.4097267538309 -217.070162296295 1889.00005817413 12 15 6
-22.3638005554676 -218.105718493462 1898.00000190735 11 14 7
-17.1509776264429 -217.647150158882 1894.00005340576 10 13 6
-11.9725614786148 -217.41808950901 1891.99995994568 13 16 9
-6.85901753604412 -218.912497162819 1904.99997138977 8 11 4
-1.66143698152155 -218.682900071144 1902.99999713898 14 16 11
3.49556957371533 -216.61439538002 1884.99999046326 4 6 1
8.66892002522945 -217.418447136879 1891.99995994568 132 134 129
19.1099811345339 -218.795925378799 1904.00004386902 22 24 19
24.2008082568645 -217.875450849533 1896.00002765656 8 10 5
29.1859358549118 -216.495037078857 1883.99994373322 10 12 7
33.9961871504784 -214.424937963486 1866.00005626678 12 14 9
38.8337969779968 -213.044017553329 1853.99997234344 10 13 6
44.1266149282455 -214.190870523453 1863.9999628067 10 13 6
49.2890104651451 -214.533105492592 1866.99998378754 11 14 7
54.3219372630119 -214.300483465195 1865.00000953674 12 15 8
59.4393238425255 -214.412346482277 1866.00005626678 13 16 9
64.5965039730072 -214.638814330101 1868.00003051758 14 17 10
69.0555050969124 -212.681874632835 1850.99995136261 13 16 9
73.7418234348297 -211.643949151039 1842.00000762939 16 19 12
78.5498321056366 -211.065396666527 1837.00001239777 16 19 12
83.557702600956 -211.061060428619 1837.00001239777 14 17 10
88.3724018931389 -210.596889257431 1832.99994468689 16 19 12
93.7762334942818 -211.511164903641 1840.99996089935 15 18 11
99.1159901022911 -212.195381522179 1847.00000286102 16 19 12
104.77003455162 -213.453724980354 1858.00004005432 16 19 12
109.596915543079 -212.988495826721 1853.99997234344 15 18 11
114.648953080177 -212.982565164566 1853.99997234344 14 17 10
119.119517505169 -211.942538619041 1845.00002861023 16 19 12
124.819040298462 -213.084846735001 1855.00001907349 16 19 12
129.802480340004 -212.963312864304 1853.99997234344 17 20 13
134.634524583817 -212.611794471741 1850.99995136261 23 26 19
138.846069574356 -211.341187357903 1840.0000333786 25 28 21
144.795373082161 -212.712079286575 1851.99999809265 26 29 22
149.757757782936 -212.589576840401 1850.99995136261 27 30 23
155.048668384552 -212.926253676414 1853.99997234344 29 32 25
160.614430904388 -213.607177138329 1860.00001430511 28 31 24
170.665979385376 -220.029726624489 1916.00000858307 25 28 21
178.818732500076 -223.695516586304 1947.99995422363 21 24 17
186.955988407135 -227.131128311157 1978.00004482269 12 15 8
-160.235434770584 -220.667317509651 1876.99997425079 18 20 15
-152.893796563148 -217.501267790794 1850.00002384186 23 26 19
-146.417945623398 -215.392917394638 1832.00001716614 27 30 23
-139.499187469482 -212.461113929749 1807.000041008 29 32 25
-135.695144534111 -214.232102036476 1822.00002670288 28 31 24
-130.876109004021 -214.474350214005 1824.00000095367 28 31 24
-126.390844583511 -215.304344892502 1830.9999704361 28 31 24
-120.143078267574 -213.076710700989 1812.00003623962 25 28 21
-114.507056772709 -211.789473891258 1800.99999904633 22 25 18
-109.843358397484 -212.265908718109 1804.99994754791 21 24 17
-105.273723602295 -212.977305054665 1810.99998950958 22 25 18
-100.283168256283 -212.865248322487 1809.99994277954 18 21 12
-94.9289426207542 -211.929693818092 1802.00004577637 22 25 16
-90.117484331131 -212.169900536537 1804.00002002716 21 24 15
-85.5309516191483 -212.99797296524 1810.99998950958 17 20 11
-80.8614268898964 -213.708192110062 1817.00003147125 16 19 10
-76.0335624217987 -214.065328240395 1820.00005245209 22 25 16
-71.735754609108 -216.068878769875 1837.00001239777 18 21 12
-67.27235019207 -217.837005853653 1851.99999809265 13 16 7
-62.0549246668816 -217.252403497696 1847.00000286102 16 19 10
-57.1732595562935 -217.84383058548 1851.99999809265 17 20 11
-52.2640980780125 -218.434944748878 1856.99999332428 15 18 9
-47.3783053457737 -219.261094927788 1863.9999628067 11 14 5
-42.4314737319946 -219.969347119331 1870.00000476837 12 15 6
-37.4118201434612 -220.442041754723 1873.99995326996 13 16 7
-32.3357433080673 -220.679268240929 1876.00004673004 14 17 8
-27.2921565920115 -221.269071102142 1881.00004196167 15 18 11
-22.303668782115 -222.682043910027 1893.00000667572 15 18 11
-17.0776005834341 -221.859693527222 1886.0000371933 12 15 8
-12.0162004604936 -223.389744758606 1899.00004863739 7 10 3
-6.83704065158963 -223.390281200409 1899.00004863739 14 17 10
-1.65261595975608 -222.684666514397 1893.00000667572 6 8 3
3.51763027720153 -223.155185580254 1896.99995517731 8 10 5
19.1189721226692 -224.094361066818 1904.99997138977 58 60 55
24.3015941232443 -223.97555410862 1904.00004386902 13 15 10
29.4631756842136 -223.738789558411 1901.99995040894 5 7 2
34.522645175457 -222.913607954979 1894.99998092651 9 11 6
39.5856983959675 -222.323432564735 1889.99998569489 11 14 7
44.5976480841637 -221.615299582481 1883.99994373322 10 13 6
49.7351065278053 -221.612721681595 1883.99994373322 10 13 6
54.726742208004 -221.021711826324 1878.99994850159 12 15 8
59.4360902905464 -219.489425420761 1866.00005626678 13 16 9
64.0743225812912 -217.956945300102 1853.00004482269 15 18 11
68.7906369566917 -216.894686222076 1843.99998188019 13 16 9
73.5777169466019 -216.185078024864 1838.00005912781 16 19 12
78.844889998436 -216.886624693871 1843.99998188019 16 19 12
83.962544798851 -217.117413878441 1845.99995613098 14 17 10
88.7051150202751 -216.407030820847 1840.0000333786 15 18 11
93.8221365213394 -216.637313365936 1842.00000762939 15 18 11
99.1643443703651 -217.337757349014 1848.00004959106 16 19 12
104.708030819893 -218.390673398972 1856.99999332428 17 20 13
109.650172293186 -218.149676918983 1855.00001907349 16 19 12
114.704690873623 -218.143656849861 1855.00001907349 14 17 10
119.62965875864 -217.902168631554 1853.00004482269 15 18 11
125.216141343117 -218.836337327957 1860.99994182587 14 17 10
130.355671048164 -218.94708275795 1861.99998855591 15 18 11
134.772881865501 -217.881739139557 1853.00004482269 21 24 17
139.366924762726 -217.16895699501 1847.00000286102 24 27 20
144.709587097168 -217.631727457047 1850.99995136261 24 27 20
149.669036269188 -217.506393790245 1850.00002384186 26 29 22
154.622450470924 -217.380777001381 1848.99997711182 28 31 24
161.124154925346 -219.371095299721 1866.00005626678 28 31 24
168.430402874947 -222.301438450813 1891.00003242493 25 28 21
176.790073513985 -226.406887173653 1925.99999904633 19 22 15
185.906708240509 -231.216996908188 1967.00000762939 12 15 8
-161.251306533813 -227.214798331261 1889.00005817413 12 14 9
-153.629437088966 -223.614677786827 1858.99996757507 30 33 26
-146.889626979828 -221.096679568291 1838.00005912781 15 18 11
-140.958413481712 -219.66090798378 1825.99997520447 34 37 28
-135.985732078552 -219.66840326786 1825.99997520447 21 24 15
-130.438566207886 -218.713194131851 1817.999958992 30 33 24
-125.486686825752 -218.720152974129 1817.999958992 29 32 23
-120.070278644562 -217.884689569473 1810.99998950958 25 28 19
-114.310123026371 -216.327026486397 1797.99997806549 24 27 20
-109.898246824741 -217.295691370964 1805.99999427795 21 24 17
-105.733007192612 -218.865782022476 1819.00000572205 20 23 16
-100.887112319469 -219.112113118172 1820.99997997284 20 23 16
-95.1344519853592 -217.31261909008 1805.99999427795 17 20 13
-90.2624055743217 -217.438071966171 1807.000041008 17 20 13
-85.6207087635994 -218.164935708046 1812.99996376038 18 21 14
-80.9904783964157 -219.011902809143 1820.00005245209 18 21 14
-76.4888972043991 -220.339998602867 1830.9999704361 17 20 13
-71.7317909002304 -221.066117286682 1837.00001239777 16 19 12
-67.1233460307121 -222.39376604557 1848.00004959106 17 20 13
-61.8163272738457 -221.434623003006 1840.0000333786 18 21 14
-57.1083575487137 -222.641408443451 1850.00002384186 16 19 12
-52.1204918622971 -222.885146737099 1851.99999809265 13 16 9
-47.2994260489941 -223.971039056778 1860.99994182587 10 13 6
-42.4744933843613 -225.297421216965 1871.99997901917 10 13 6
-37.5095568597317 -226.14212334156 1878.99994850159 14 17 10
-32.3339439928532 -225.783050060272 1876.00004673004 16 19 12
-27.0875189453363 -224.701523780823 1866.99998378754 11 14 7
-22.1021417528391 -225.786089897156 1876.00004673004 7 10 3
-17.1943567693233 -228.555366396904 1899.00004863739 7 10 3
-11.8763307109475 -225.908353924751 1876.99997425079 9 11 6
-6.74305623397231 -225.427463650703 1873.00002574921 14 16 11
-1.65339699015021 -227.955192327499 1894.00005340576 15 17 14
3.55081004090607 -230.48260807991 1914.99996185303 4 6 3
19.0677307546139 -228.675365447998 1899.99997615814 71 73 68
24.3385285139084 -229.516610503197 1906.99994564056 9 12 5
29.6009462326765 -229.996547102928 1911.00001335144 9 12 5
34.8304100334644 -230.115085840225 1911.99994087219 14 17 8
39.8767106235027 -229.150176048279 1904.00004386902 11 14 5
45.0922548770905 -229.268133640289 1904.99997138977 11 14 5
50.128310918808 -228.543370962143 1899.00004863739 11 14 5
54.8984594643116 -226.855561137199 1884.99999046326 10 13 6
59.400949627161 -224.445417523384 1865.00000953674 12 14 9
64.0707761049271 -222.997814416885 1853.00004482269 13 16 9
68.6749219894409 -221.549987792969 1840.99996089935 14 17 10
73.5736638307571 -221.185028553009 1838.00005912781 15 18 11
79.0115743875504 -222.384184598923 1848.00004959106 15 18 11
84.230825304985 -222.860991954803 1851.99999809265 13 16 9
89.4715562462807 -223.337486386299 1855.99994659424 12 15 8
94.3263173103333 -222.851097583771 1851.99999809265 13 16 9
98.9979431033134 -222.00345993042 1845.00002861023 15 18 11
104.307644069195 -222.599506378174 1850.00002384186 15 18 11
109.644211828709 -223.195239901543 1855.00001907349 15 18 11
114.512957632542 -222.82811999321 1851.99999809265 16 19 12
119.752287864685 -223.182663321495 1855.00001907349 17 20 13
124.872952699661 -223.296269774437 1855.99994659424 15 18 11
130.068644881248 -223.52996468544 1858.00004005432 13 16 9
134.838357567787 -223.041534423828 1853.99997234344 15 18 9
139.510363340378 -222.432613372803 1848.99997711182 18 21 12
144.780039787292 -222.785815596581 1851.99999809265 19 22 13
148.771181702614 -221.214115619659 1838.99998664856 20 23 14
153.778031468391 -221.205979585648 1838.99998664856 25 28 19
159.043401479721 -221.558466553688 1842.00000762939 25 28 19
166.907414793968 -225.398689508438 1873.99995326996 29 32 25
176.597192883492 -231.403261423111 1924.00002479553 15 18 11
184.384822845459 -234.640970826149 1950.99997520447 13 15 10
-160.388991236687 -231.120705604553 1878.99994850159 14 16 13
-153.373211622238 -228.300198912621 1855.99994659424 24 26 21
-147.520959377289 -227.078348398209 1845.99995613098 38 41 34
-141.877025365829 -226.102188229561 1838.00005912781 30 33 26
-136.871933937073 -226.109877228737 1838.00005912781 34 37 28
-131.364092230797 -225.256100296974 1830.9999704361 30 33 24
-125.82491338253 -224.279031157494 1822.99995422363 27 30 21
-120.129965245724 -222.932532429695 1812.00003623962 21 24 15
-114.621669054031 -221.831768751144 1802.99997329712 21 24 17
-110.378950834274 -223.191455006599 1814.00001049042 23 26 19
-105.727143585682 -223.812684416771 1819.00000572205 23 26 19
-101.158499717712 -224.679782986641 1825.99997520447 21 24 17
-95.2871739864349 -222.593516111374 1809.00001525879 19 22 15
-90.407207608223 -222.721770405769 1809.99994277954 18 21 14
-85.80482006073 -223.588109016418 1817.00003147125 19 22 15
-81.4754217863083 -225.31558573246 1830.9999704361 19 22 15
-77.0694091916084 -227.042883634567 1845.00002861023 18 21 14
-72.196327149868 -227.539345622063 1848.99997711182 15 18 11
-67.3374906182289 -228.158608078957 1853.99997234344 14 17 10
-62.1151886880398 -227.546960115433 1848.99997711182 14 17 10
-57.1051351726055 -227.673426270485 1850.00002384186 13 16 9
-52.201971411705 -228.291884064674 1855.00001907349 13 16 9
-47.5000776350498 -230.017676949501 1868.99995803833 11 13 8
-42.4947813153267 -230.512514710426 1873.00002574921 12 14 9
-37.4675132334232 -231.007099151611 1876.99997425079 14 16 11
-32.3321111500263 -230.886027216911 1876.00004673004 13 16 9
-27.2165536880493 -230.887725949287 1876.00004673004 9 12 5
-22.2658216953278 -232.612177729607 1889.99998569489 8 11 4
-17.2658134251833 -234.705597162247 1906.99994564056 5 8 1
-11.9768884032965 -232.983380556107 1893.00000667572 11 13 8
-6.75347354263067 -230.891600251198 1876.00004673004 18 20 15
-1.66377809364349 -234.584152698517 1906.00001811981 8 10 7
3.55617073364556 -236.061006784439 1917.99998283386 0 1 0
19.116822630167 -234.459057450294 1904.99997138977 72 74 69
24.2988634854555 -234.334766864777 1904.00004386902 14 17 10
29.5682922005653 -234.948590397835 1909.00003910065 8 11 4
34.5187708735466 -233.223721385002 1894.99998092651 13 16 7
39.5603179931641 -232.483178377151 1889.00005817413 10 13 4
44.9003539979458 -233.465328812599 1896.99995517731 12 15 6
49.9671027064323 -232.970356941223 1893.00000667572 12 15 6
54.8953600227833 -231.982827186584 1884.99999046326 11 14 7
59.7160868346691 -230.748876929283 1875 13 15 10
64.3437653779984 -229.022428393364 1860.99994182587 13 16 9
69.1186785697937 -228.034153580666 1853.00004482269 13 16 9
73.9698112010956 -227.414801716805 1848.00004959106 15 18 11
79.4346705079079 -228.64106297493 1858.00004005432 15 18 11
84.7263783216476 -229.251697659492 1863.00003528595 14 17 10
90.0932103395462 -229.985073208809 1868.99995803833 12 15 8
94.8303565382957 -229.118525981903 1861.99998855591 13 16 9
98.9387780427933 -226.898208260536 1843.99998188019 15 18 11
103.907197713852 -226.769462227821 1843.00005435944 15 18 11
109.047085046768 -227.009579539299 1845.00002861023 14 17 10
114.444799721241 -227.741584181786 1850.99995136261 16 19 12
119.487464427948 -227.735042572021 1850.99995136261 18 21 14
124.866090714931 -228.343427181244 1855.99994659424 16 19 12
130.411505699158 -229.197546839714 1863.00003528595 14 17 10
135.049164295197 -228.452056646347 1856.99999332428 15 18 9
140.483558177948 -229.059547185898 1861.99998855591 16 19 10
144.850328564644 -227.944567799568 1853.00004482269 16 19 8
149.08666908741 -226.706385612488 1843.00005435944 23 26 17
153.853327035904 -226.32908821106 1840.0000333786 22 25 16
159.639179706573 -227.427557110786 1848.99997711182 24 27 18
166.987508535385 -230.616644024849 1875 22 25 18
176.495954394341 -236.510992050171 1922.99997806549 13 16 9
185.792520642281 -241.789698600769 1965.99996089935 5 7 4
-157.819554209709 -232.45707154274 1848.99997711182 36 38 35
-153.447389602661 -233.471497893333 1856.99999332428 22 24 19
-147.592708468437 -232.222631573677 1847.00000286102 21 23 18
-141.86917245388 -231.099128723145 1838.00005912781 30 33 26
-136.938780546188 -231.232658028603 1838.99998664856 24 27 18
-131.930693984032 -231.240227818489 1838.99998664856 28 31 22
-125.058695673943 -227.852374315262 1812.00003623962 25 28 19
-119.791768491268 -227.230533957481 1807.000041008 21 24 15
-115.1237860322 -227.740198373795 1810.99998950958 21 24 17
-110.920332372189 -229.255676269531 1822.99995422363 22 25 18
-106.128022074699 -229.639127850533 1825.99997520447 22 25 18
-101.263575255871 -229.896560311317 1827.99994945526 20 23 16
-96.1245074868202 -229.524910449982 1825.00004768372 17 20 13
-90.9514799714088 -229.027166962624 1820.99997997284 17 20 13
-86.3665863871574 -230.038434267044 1828.9999961853 17 20 13
-82.3161900043488 -232.684537768364 1850.00002384186 17 20 13
-77.4827152490616 -233.318001031876 1855.00001907349 15 18 11
-72.8559494018555 -234.705910086632 1866.00005626678 15 18 11
-67.8420886397362 -234.961554408073 1868.00003051758 13 16 9
-62.6155063509941 -234.462171792984 1863.9999628067 12 15 8
-57.5031153857708 -234.339863061905 1863.00003528595 12 15 8
-52.5929220020771 -235.097765922546 1868.99995803833 13 16 9
-47.7514788508415 -236.358568072319 1878.99994850159 12 14 9
-42.6738299429417 -236.612766981125 1881.00004196167 12 14 9
-37.4054722487926 -235.734552145004 1873.99995326996 11 13 8
-32.3302485048771 -235.988169908524 1876.00004673004 9 12 5
-27.4325869977474 -237.876817584038 1891.00003242493 9 12 5
-22.5943829864264 -241.274729371071 1917.99998283386 13 16 9
-17.4187254160643 -242.030650377274 1924.00002479553 14 17 10
-12.0774228125811 -240.144580602646 1909.00003910065 10 12 7
-6.86107482761145 -239.767730236053 1906.00001811981 8 10 5
-1.66542769875377 -240.019574761391 1907.99999237061 6 8 5
3.5392795689404 -240.145325660706 1909.00003910065 0 1 0
24.4250744581223 -240.771055221558 1914.00003433228 8 10 5
29.179384931922 -236.995652318001 1883.99994373322 13 16 9
34.0067744255066 -234.855324029922 1866.99998378754 10 13 4
39.4114442169666 -236.740082502365 1881.99996948242 9 12 3
44.6610935032368 -237.36660182476 1886.99996471405 13 16 7
49.8058646917343 -237.363874912262 1886.99996471405 14 17 8
54.9213290214539 -237.235024571419 1886.0000371933 14 17 10
59.7126558423042 -235.848069190979 1875 15 17 12
64.3746554851532 -234.209269285202 1861.99998855591 12 15 8
69.2639276385307 -233.576536178589 1856.99999332428 12 15 8
74.1256773471832 -232.943490147591 1851.99999809265 13 16 9
79.5156359672546 -233.945265412331 1860.00001430511 14 17 10
84.6305936574936 -234.066307544708 1860.99994182587 13 16 9
89.5096659660339 -233.55820775032 1856.99999332428 13 16 9
93.9592272043228 -232.043758034706 1845.00002861023 12 15 8
98.6649170517921 -231.283634901047 1838.99998664856 15 18 11
104.014068841934 -232.032433152199 1845.00002861023 15 18 11
109.513744711876 -233.032435178757 1853.00004482269 13 16 9
114.685669541359 -233.277589082718 1855.00001907349 14 17 10
119.287103414536 -232.39067196846 1848.00004959106 17 20 13
124.051816761494 -231.880784034729 1843.99998188019 17 20 13
129.494249820709 -232.628107070923 1850.00002384186 16 19 12
135.405227541924 -234.129577875137 1861.99998855591 15 18 9
141.833752393723 -236.385077238083 1879.99999523163 15 18 9
146.014794707298 -234.868228435516 1868.00003051758 13 16 7
149.321094155312 -232.093900442123 1845.99995613098 15 18 9
154.346510767937 -232.085451483727 1845.99995613098 19 22 15
160.493746399879 -233.711108565331 1858.99996757507 32 35 28
168.047025799751 -237.222090363503 1886.99996471405 18 20 15
176.945194602013 -242.366716265678 1927.99997329712 16 18 13
185.59342622757 -246.882200241089 1963.99998664856 0 1 0
-159.090980887413 -239.409312605858 1863.9999628067 129 131 130
-155.42183816433 -241.601690649986 1881.00004196167 0 2 0
-146.226033568382 -235.059514641762 1830.00004291534 31 33 28
-141.166523098946 -234.939232468605 1828.9999961853 23 26 19
-136.484265327454 -235.460922122002 1832.99994468689 25 28 19
-131.564527750015 -235.59707403183 1833.99999141693 24 27 18
-125.327616930008 -233.29208791256 1815.99998474121 23 26 17
-120.116382837296 -232.785269618034 1812.00003623962 22 25 16
-115.816421806812 -234.076768159866 1822.00002670288 22 25 18
-111.644081771374 -235.753506422043 1835.00003814697 22 25 18
-106.703087687492 -235.88827252388 1835.99996566772 20 23 16
-101.977847516537 -236.536726355553 1840.99996089935 19 22 15
-96.803642809391 -236.157044768333 1838.00005912781 17 20 13
-91.9950380921364 -236.676529049873 1842.00000762939 17 20 13
-87.0698541402817 -236.938685178757 1843.99998188019 17 20 13
-82.9343125224113 -239.513516426086 1863.9999628067 15 18 11
-77.895887196064 -239.646717905998 1865.00000953674 14 17 10
-72.8517100214958 -239.779651165009 1866.00005626678 15 18 11
-67.5839185714722 -239.141240715981 1860.99994182587 13 16 9
-62.4103248119354 -238.759592175484 1858.00004005432 12 15 8
-57.3145747184753 -238.63460123539 1856.99999332428 12 15 8
-52.8712272644043 -241.464957594872 1878.99994850159 13 16 9
-48.0282120406628 -242.881536483765 1889.99998569489 11 13 8
-42.8754985332489 -242.884203791618 1889.99998569489 10 12 7
-37.662748247385 -242.501065135002 1886.99996471405 9 11 6
-32.5179100036621 -242.503121495247 1886.99996471405 12 15 8
-27.5035109370947 -243.661537766457 1896.00002765656 14 17 10
-22.5459411740303 -245.976269245148 1914.00003433228 14 17 10
-17.4177028238773 -247.262582182884 1924.00002479553 7 10 3
-12.2095625847578 -248.034551739693 1929.99994754791 7 10 3
-6.91466499119997 -246.878504753113 1921.0000038147 8 10 5
-1.67667644564062 -246.878728270531 1921.0000038147 12 14 11
19.2751437425613 -246.876671910286 1921.0000038147 9 11 8
24.3598390370607 -245.333179831505 1909.00003910065 13 15 10
29.3170567601919 -243.275374174118 1893.00000667572 20 23 16
34.259770065546 -241.731375455856 1881.00004196167 4 7 0
39.4719615578651 -242.243230342865 1884.99999046326 9 12 3
44.4691479206085 -241.469666361809 1878.99994850159 13 16 9
49.6182031929493 -241.595402359962 1879.99999523163 14 17 10
54.5978173613548 -240.9498244524 1875 14 17 10
59.7091801464558 -240.946441888809 1875 15 17 12
64.2671957612038 -238.886758685112 1858.99996757507 12 15 8
69.4463774561882 -239.268332719803 1861.99998855591 12 15 8
74.6016278862953 -239.521071314812 1863.9999628067 13 16 9
79.9385011196136 -240.287557244301 1870.00000476837 13 16 9
84.4892784953117 -238.740801811218 1858.00004005432 13 16 9
89.0225097537041 -237.322330474854 1847.00000286102 12 15 8
94.0047204494476 -237.188518047333 1845.99995613098 12 15 8
98.8738313317299 -236.797466874123 1843.00005435944 14 17 10
104.233577847481 -237.562447786331 1848.99997711182 15 18 11
109.152883291245 -237.299293279648 1847.00000286102 14 17 10
114.617273211479 -238.192170858383 1853.99997234344 14 17 10
119.151189923286 -237.157627940178 1845.99995613098 16 19 12
123.977482318878 -236.765250563622 1843.00005435944 17 20 13
129.696890711784 -238.042637705803 1853.00004482269 17 20 13
135.324835777283 -239.062696695328 1860.99994182587 17 20 11
141.373082995415 -240.72477221489 1873.99995326996 17 20 11
146.866351366043 -241.35884642601 1878.99994850159 18 21 12
150.849491357803 -239.552095532417 1865.00000953674 20 23 14
155.424743890762 -238.772794604301 1858.99996757507 20 23 16
162.21134364605 -241.332605481148 1878.99994850159 30 33 26
170.174866914749 -245.433166623116 1911.00001335144 11 13 8
180.881559848785 -253.129094839096 1970.99995613098 9 11 6
-151.44707262516 -240.417927503586 1832.99994468689 2 4 1
-146.936759352684 -241.213500499725 1838.99998664856 22 24 19
-142.316102981567 -241.877675056458 1843.99998188019 21 24 17
-136.6997808218 -240.836381912231 1835.99996566772 23 26 17
-131.054818630219 -239.66358602047 1827.00002193451 24 27 18
-125.25138258934 -238.096848130226 1815.00005722046 22 25 16
-120.30827999115 -238.10401558876 1815.00005722046 21 24 15
-116.25462025404 -239.947602152824 1828.9999961853 21 24 17
-111.75923794508 -241.003811359406 1837.00001239777 21 24 17
-106.813088059425 -241.141423583031 1838.00005912781 18 21 14
-101.916506886482 -241.410002112389 1840.0000333786 18 21 14
-97.1139594912529 -241.940662264824 1843.99998188019 16 19 12
-92.9884240031242 -244.307994842529 1861.99998855591 16 19 12
-88.3395448327065 -245.494276285172 1871.00005149841 16 19 12
-83.1073895096779 -245.105713605881 1868.00003051758 13 16 9
-77.598936855793 -243.798345327377 1858.00004005432 12 15 8
-72.4179670214653 -243.409141898155 1855.00001907349 13 16 9
-67.6162391901016 -244.331851601601 1861.99998855591 12 15 8
-62.3730309307575 -243.679627776146 1856.99999332428 11 14 7
-57.1877211332321 -243.158310651779 1853.00004482269 11 14 7
-52.4741820991039 -244.736298918724 1865.00000953674 11 14 7
-47.8474907577038 -247.10139632225 1883.00001621246 10 12 7
-43.0090539157391 -248.810067772865 1896.00002765656 11 13 8
-37.7602949738503 -248.287573456764 1891.99995994568 14 16 11
-32.5849018990994 -248.158499598503 1891.00003242493 15 18 11
-27.4438485503197 -248.291522264481 1891.99995994568 15 18 11
-22.3914682865143 -249.474093317986 1901.00002288818 12 15 8
-17.3895042389631 -252.099961042404 1921.0000038147 16 19 12
-12.2088342905045 -253.281950950623 1929.99994754791 15 17 12
-6.97543984279037 -254.332393407822 1937.99996376038 9 11 6
-1.67570356279612 -251.97046995163 1919.99995708466 11 13 10
19.2037578672171 -251.180917024612 1914.00003433228 11 13 10
24.4604647159576 -251.573324203491 1917.00005531311 3 5 0
29.5166298747063 -250.128149986267 1906.00001811981 8 10 5
34.4580635428429 -248.288959264755 1891.99995994568 14 17 10
39.6371223032475 -248.417988419533 1893.00000667572 11 14 7
44.6558222174644 -247.628077864647 1886.99996471405 13 16 9
49.6944263577461 -247.100338339806 1883.00001621246 13 16 9
54.6528063714504 -246.309861540794 1876.99997425079 13 15 10
59.5782659947872 -245.519086718559 1871.00005149841 14 16 11
64.2979592084885 -244.071945548058 1860.00001430511 13 16 9
69.5914402604103 -244.855269789696 1866.00005626678 13 16 9
75.0374421477318 -246.031939983368 1875 12 15 8
80.318495631218 -246.552154421806 1878.99994850159 11 14 7
84.0295851230621 -242.479667067528 1848.00004959106 10 13 6
89.93299305439 -244.836285710335 1866.00005626678 10 13 6
94.8139280080795 -244.305968284607 1861.99998855591 10 13 6
99.9409481883049 -244.431465864182 1863.00003528595 15 18 11
104.622073471546 -243.506997823715 1855.99994659424 16 19 12
109.028331935406 -242.057546973228 1845.00002861023 16 19 12
114.919692277908 -243.887692689896 1858.99996757507 16 19 12
119.402445852757 -242.700099945068 1850.00002384186 19 22 15
124.239355325699 -242.299407720566 1847.00000286102 20 23 16
130.03933429718 -243.735030293465 1858.00004005432 21 24 17
135.098919272423 -243.727296590805 1858.00004005432 21 24 15
140.610620379448 -244.506359100342 1863.9999628067 20 23 14
145.372942090034 -243.973404169083 1860.00001430511 24 27 18
150.517359375954 -244.096025824547 1860.99994182587 25 28 19
155.750319361687 -244.349539279938 1863.00003528595 22 25 18
162.115827202797 -246.30780518055 1878.00002098083 24 27 20
173.370867967606 -255.347698926926 1947.00002670288 10 12 7
-148.046776652336 -248.085036873817 1853.00004482269 7 9 6
-142.77084171772 -247.69189953804 1850.00002384186 31 33 28
-136.617347598076 -245.691776275635 1835.00003814697 23 26 19
-130.975410342216 -244.49460208416 1825.99997520447 25 28 19
-125.796049833298 -244.100511074066 1822.99995422363 23 26 17
-121.229134500027 -244.911223649979 1828.9999961853 19 22 13
-116.565555334091 -245.587855577469 1833.99999141693 19 22 15
-111.448466777802 -245.326802134514 1832.00001716614 19 22 15
-106.458097696304 -245.333328843117 1832.00001716614 19 22 15
-101.910442113876 -246.410876512527 1840.0000333786 16 19 12
-97.792774438858 -248.693510890007 1856.99999332428 15 18 11
-93.7319397926331 -251.377761363983 1876.99997425079 15 18 11
-88.8063833117485 -251.918971538544 1881.00004196167 15 18 11
-83.3248496055603 -250.852733850479 1873.00002574921 11 14 7
-76.9260823726654 -246.705651283264 1842.00000762939 10 13 6
-72.5307241082191 -248.853132128716 1858.00004005432 11 14 7
-67.830041050911 -250.196784734726 1868.00003051758 11 14 7
-62.9066526889801 -250.870436429977 1873.00002574921 11 14 7
-57.8631982207298 -251.141965389252 1875 10 13 6
-52.5272861123085 -250.07376074791 1866.99998378754 10 13 6
-47.8191860020161 -252.086013555527 1881.99996948242 11 13 8
-42.8249910473824 -252.892434597015 1888.00001144409 14 16 11
-37.7580113708973 -253.43069434166 1891.99995994568 18 20 15
-32.6346196234226 -253.700762987137 1894.00005340576 15 18 11
-27.5727231055498 -254.640221595764 1901.00002288818 12 15 8
-22.2252178937197 -252.76643037796 1886.99996471405 10 13 6
-17.3431914299726 -256.652235984802 1916.00000858307 11 14 7
-12.2333951294422 -259.06428694725 1934.00001525879 8 11 4
-6.99661113321781 -260.404407978058 1944.00000572205 15 17 12
-1.69654691126198 -260.404676198959 1944.00000572205 10 12 9
19.3530861288309 -258.393228054047 1929.00002002716 13 15 12
24.586571380496 -258.123964071274 1927.00004577637 6 8 3
29.6387244015932 -256.380945444107 1914.00003433228 10 12 7
34.5288217067719 -253.967881202698 1896.00002765656 9 12 5
39.76034745574 -254.367470741272 1899.00004863739 12 15 8
44.7714403271675 -253.427267074585 1891.99995994568 13 16 9
49.7969873249531 -252.754658460617 1886.99996471405 12 15 8
54.4457025825977 -250.474452972412 1870.00000476837 12 14 9
59.6383512020111 -250.872790813446 1873.00002574921 13 15 10
64.9162828922272 -251.538723707199 1878.00002098083 14 17 10
70.2958032488823 -252.472162246704 1884.99999046326 13 16 9
75.1930102705956 -251.664131879807 1878.99994850159 12 15 8
80.4419070482254 -252.061247825623 1881.99996948242 10 13 6
85.4340568184853 -251.654416322708 1878.99994850159 10 13 6
89.9758189916611 -250.042021274567 1866.99998378754 9 12 5
95.9793701767921 -252.447098493576 1884.99999046326 10 13 6
100.685968995094 -251.369804143906 1876.99997425079 15 18 11
104.954071342945 -249.354869127274 1861.99998855591 16 19 12
109.553679823875 -248.277127742767 1853.99997234344 17 20 13
114.232949912548 -247.46698141098 1848.00004959106 17 20 13
119.524478912354 -247.995629906654 1851.99999809265 21 24 17
124.837398529053 -248.524010181427 1855.99994659424 22 25 18
130.031704902649 -248.784273862839 1858.00004005432 23 26 19
134.945586323738 -248.508632183075 1855.99994659424 22 25 16
139.9235278368 -248.36665391922 1855.00001907349 24 27 18
144.895568490028 -248.224407434464 1853.99997234344 31 34 25
149.942502379417 -248.215764760971 1853.99997234344 29 32 23
155.406907200813 -248.876243829727 1858.99996757507 32 34 29
161.761179566383 -250.875115394592 1873.99995326996 20 22 17
173.360899090767 -260.637849569321 1947.00002670288 15 17 14
-149.156510829926 -255.031824111938 1866.99998378754 13 15 14
-143.071055412292 -253.264665603638 1853.99997234344 25 27 22
-136.088117957115 -249.721243977547 1827.99994945526 18 21 14
-130.537271499634 -248.636335134506 1820.00005245209 24 27 18
-125.926554203033 -249.327123165131 1825.00004768372 23 26 17
-121.619552373886 -250.700771808624 1835.00003814697 23 26 17
-116.939887404442 -251.39108300209 1840.0000333786 23 26 17
-111.563429236412 -250.578224658966 1833.99999141693 22 25 16
-106.277361512184 -249.901667237282 1828.9999961853 18 21 14
-101.95966809988 -251.547604799271 1840.99996089935 14 17 10
-98.2081368565559 -254.83301281929 1865.00000953674 13 16 9
-93.7761962413788 -256.615221500397 1878.00002098083 11 14 7
-88.3761122822762 -255.800902843475 1871.99997901917 10 13 6
-82.6080292463303 -253.756433725357 1856.99999332428 10 13 6
-77.4642676115036 -253.488034009933 1855.00001907349 10 13 6
-72.3311379551888 -253.219366073608 1853.00004482269 9 12 5
-68.0437460541725 -256.093382835388 1873.99995326996 10 13 6
-63.6416524648666 -258.967280387878 1894.99998092651 11 14 7
-58.5694052278996 -259.380996227264 1898.00000190735 13 16 9
-52.8616607189178 -256.787866353989 1878.99994850159 15 18 11
-47.5621856749058 -255.834370851517 1871.99997901917 14 16 11
-42.6635928452015 -257.067114114761 1881.00004196167 13 15 10
-37.4364033341408 -256.386250257492 1876.00004673004 11 13 8
-32.6843000948429 -259.258449077606 1896.99995517731 11 14 7
-27.5130104273558 -259.260296821594 1896.99995517731 12 15 8
-22.3533995449543 -259.398519992828 1898.00000190735 15 18 11
-17.2697119414806 -260.766446590424 1907.99999237061 14 17 10
-12.1630663052201 -262.817412614822 1922.99997806549 10 12 7
-7.01777311041951 -266.508132219315 1950.00004768372 15 17 12
-1.68858841061592 -264.458328485489 1934.99994277954 8 10 7
19.522437825799 -265.959471464157 1945.99997997284 59 61 60
24.8019490391016 -265.68478345871 1944.00000572205 10 12 9
29.7762583941221 -262.813031673431 1922.99997806549 11 13 8
34.5995426177979 -259.667724370956 1899.99997615814 8 11 4
40.0300696492195 -261.305391788483 1911.99994087219 14 17 10
45.4075708985329 -262.259393930435 1919.0000295639 14 17 10
49.7147627174854 -257.473200559616 1883.99994373322 12 15 8
54.4714815914631 -255.693435668945 1871.00005149841 11 13 8
60.0167773663998 -257.603108882904 1884.99999046326 11 13 10
65.7764300704002 -260.059088468552 1902.99999713898 11 13 8
71.1118951439857 -260.601490736008 1906.99994564056 8 11 4
75.7086202502251 -258.547157049179 1891.99995994568 9 12 5
80.5652365088463 -257.585823535919 1884.99999046326 8 11 4
85.3834077715874 -256.624191999435 1878.00002098083 8 11 4
90.1631265878677 -255.662322044373 1871.00005149841 10 13 6
95.2607616782188 -255.656629800797 1871.00005149841 13 16 9
100.143499672413 -255.104094743729 1866.99998378754 15 18 11
105.285912752151 -255.23453950882 1868.00003051758 17 20 13
109.901607036591 -254.134893417358 1860.00001430511 20 23 16
114.782378077507 -253.718227148056 1856.99999332428 21 24 17
119.839996099472 -253.711104393005 1856.99999332428 22 25 18
125.031724572182 -253.977000713348 1858.99996757507 23 26 19
130.023956298828 -253.832697868347 1858.00004005432 25 28 19
134.574040770531 -252.868443727493 1850.99995136261 25 28 19
139.311835169792 -252.313852310181 1847.00000286102 26 29 20
145.199596881866 -253.80802154541 1858.00004005432 31 34 25
150.01454949379 -253.389447927475 1855.00001907349 27 30 23
156.06652200222 -255.019515752792 1866.99998378754 26 28 23
163.995876908302 -259.517550468445 1899.99997615814 10 12 7
174.241125583649 -267.292976379395 1957.00001716614 20 22 19
-143.756940960884 -259.554982185364 1863.00003528595 16 18 13
-136.377692222595 -255.244493484497 1832.00001716614 21 24 17
-130.672812461853 -253.859281539917 1822.00002670288 23 26 17
-125.573933124542 -253.588438034058 1820.00005245209 23 26 17
-121.280796825886 -254.989326000214 1830.00004291534 25 28 19
-116.742119193077 -255.972027778625 1837.00001239777 24 27 18
-111.556619405746 -255.560964345932 1833.99999141693 21 24 15
-106.503278017044 -255.428314208984 1832.99994468689 13 16 9
-102.341085672379 -257.525056600571 1848.00004959106 12 15 8
-97.6755544543266 -258.506715297699 1855.00001907349 11 14 7
-93.2711288332939 -260.324269533157 1868.00003051758 10 13 6
-88.3706584572792 -260.88735461235 1871.99997901917 10 13 6
-82.8253403306007 -259.49901342392 1861.99998855591 10 13 6
-77.5847584009171 -258.946537971497 1858.00004005432 10 13 6
-72.2095668315887 -257.836282253265 1850.00002384186 10 13 6
-68.0032297968864 -261.046200990677 1873.00002574921 12 15 8
-63.4362101554871 -263.280272483826 1889.00005817413 13 16 9
-58.0720603466034 -262.308448553085 1881.99996948242 14 17 10
-52.7177155017853 -261.196911334991 1873.99995326996 15 18 11
-47.3813787102699 -259.945601224899 1865.00000953674 12 14 9
-42.5928942859173 -261.760383844376 1878.00002098083 9 11 6
-37.8531031310558 -264.411211013794 1896.99995517731 10 12 7
-32.665029168129 -264.274060726166 1896.00002765656 14 17 10
-27.5693032890558 -264.97283577919 1901.00002288818 17 20 13
-22.3755557090044 -264.835029840469 1899.99997615814 15 18 11
-17.2686334699392 -265.951424837112 1907.99999237061 14 17 10
-12.1053839102387 -266.78866147995 1914.00003433228 11 13 8
-6.90217781811953 -267.346799373627 1917.99998283386 10 12 7
-1.66579522192478 -266.092568635941 1909.00003910065 12 14 11
19.4911248981953 -270.829528570175 1942.999958992 61 63 62
24.7110966593027 -269.991844892502 1937.00003623962 9 11 8
29.8208482563496 -268.456846475601 1925.99999904633 10 12 7
34.7976833581924 -266.364067792892 1911.00001335144 9 11 6
40.0275774300098 -266.501069068909 1911.99994087219 12 15 8
45.1444759964943 -265.94090461731 1907.99999237061 12 14 9
49.3950359523296 -260.920166969299 1871.99997901917 12 14 9
54.3225295841694 -260.08066534996 1866.00005626678 10 12 7
59.5673322677612 -260.773986577988 1871.00005149841 9 11 8
65.5995458364487 -264.533221721649 1898.00000190735 9 11 6
70.8837658166885 -264.947056770325 1901.00002288818 8 11 4
75.8239775896072 -264.106273651123 1894.99998092651 9 12 5
80.7312056422234 -263.265192508698 1889.00005817413 11 14 7
85.6509134173393 -262.563139200211 1883.99994373322 14 17 10
89.9648219347 -260.188549757004 1866.99998378754 17 20 13
95.0512662529945 -260.182827711105 1866.99998378754 21 24 17
100.137367844582 -260.176777839661 1866.99998378754 23 26 19
105.392180383205 -260.588496923447 1870.00000476837 24 27 20
109.835810959339 -259.049028158188 1858.99996757507 26 29 22
114.528141915798 -258.206009864807 1853.00004482269 26 29 22
119.316466152668 -257.641494274139 1848.99997711182 28 31 24
124.553360044956 -258.052080869675 1851.99999809265 28 31 24
128.476589918137 -255.814969539642 1835.99996566772 26 29 20
133.330032229424 -255.52836060524 1833.99999141693 26 29 20
139.077186584473 -256.913334131241 1843.99998188019 28 31 22
144.878312945366 -258.297979831696 1853.99997234344 30 33 24
150.571629405022 -259.403616189957 1861.99998855591 32 35 28
158.481240272522 -264.130920171738 1896.00002765656 26 29 22
167.956322431564 -271.086484193802 1945.99997997284 15 17 12
176.901683211327 -276.787549257278 1986.99998855591 4 6 5
-146.294444799423 -269.302219152451 1896.00002765656 2 4 3
-138.528034090996 -264.339596033096 1860.99994182587 24 26 21
-130.951672792435 -259.37631726265 1825.99997520447 23 26 19
-125.221282243729 -257.821768522263 1815.00005722046 20 23 16
-120.544359087944 -258.397579193115 1819.00000572205 12 15 6
-116.22653901577 -259.825468063354 1828.9999961853 11 14 5
-111.306428909302 -259.974628686905 1830.00004291534 11 14 5
-106.729075312614 -260.975867509842 1837.00001239777 11 14 5
-102.500833570957 -262.971341609955 1850.99995136261 11 14 7
-97.8274345397949 -263.972133398056 1858.00004005432 12 15 8
-93.0156633257866 -264.688521623611 1863.00003528595 12 15 8
-88.412344455719 -266.115009784698 1873.00002574921 12 15 8
-83.3094269037247 -266.120404005051 1873.00002574921 12 15 8
-77.4963796138763 -263.710051774979 1855.99994659424 12 15 8
-72.2440555691719 -263.00436258316 1850.99995136261 15 18 11
-67.6722079515457 -264.855921268463 1863.9999628067 16 19 12
-63.1635785102844 -267.275631427765 1881.00004196167 15 18 11
-58.1609606742859 -267.847865819931 1884.99999046326 11 14 7
-52.6862554252148 -266.146212816238 1873.00002574921 11 14 7
-47.5308150053024 -265.865206718445 1871.00005149841 12 14 9
-42.8850241005421 -268.710076808929 1891.00003242493 14 16 11
-37.6910865306854 -268.428444862366 1889.00005817413 20 22 17
-32.5768254697323 -268.714904785156 1891.00003242493 21 24 17
-27.4225436151028 -268.716812133789 1891.00003242493 15 18 11
-22.4447939544916 -270.849943161011 1906.00001811981 12 15 8
-17.3037387430668 -271.703839302063 1911.99994087219 12 15 8
-12.1046155691147 -271.988987922668 1914.00003433228 13 15 10
-6.88734697178006 -271.989613771439 1914.00003433228 16 18 13
-1.66307191830128 -270.853012800217 1906.00001811981 92 94 91
24.5947185903788 -273.975670337677 1927.99997329712 7 9 6
29.7260656952858 -272.8371322155 1919.99995708466 5 7 4
35.1232215762138 -274.113953113556 1929.00002002716 9 11 6
39.8785062134266 -270.701140165329 1904.99997138977 10 13 6
44.5737987756729 -267.714351415634 1883.99994373322 11 13 8
49.6293753385544 -267.285078763962 1881.00004196167 11 13 8
54.5519851148129 -266.287088394165 1873.99995326996 11 13 8
59.6590749919415 -266.283452510834 1873.99995326996 10 12 9
64.7659674286842 -266.279518604279 1873.99995326996 11 13 8
69.984458386898 -266.701519489288 1876.99997425079 12 15 8
74.938990175724 -266.128599643707 1873.00002574921 13 16 9
80.1705941557884 -266.549944877625 1876.00004673004 14 17 10
85.5546295642853 -267.397195100784 1881.99996948242 16 19 12
89.9591967463493 -265.260487794876 1866.99998378754 18 21 14
94.9944332242012 -265.112638473511 1866.00005626678 23 26 19
100.023873150349 -264.964431524277 1865.00000953674 23 26 19
105.498343706131 -265.952467918396 1871.99997901917 24 27 20
109.769932925701 -263.956844806671 1858.00004005432 26 29 22
114.088445901871 -262.245088815689 1845.99995613098 26 29 22
118.728376924992 -261.385470628738 1840.0000333786 26 29 22
123.940445482731 -261.804103851318 1843.00005435944 25 28 21
128.188833594322 -260.233730077744 1832.00001716614 24 27 18
133.031114935875 -259.941637516022 1830.00004291534 25 28 19
138.163700699806 -260.21733880043 1832.00001716614 28 31 22
144.244372844696 -262.197196483612 1845.99995613098 29 32 23
150.400772690773 -264.176666736603 1860.00001430511 22 25 18
161.313444375992 -274.109095335007 1929.99994754791 30 32 27
169.758558273315 -279.353886842728 1967.00000762939 5 7 4
175.911799073219 -280.621558427811 1975.99995136261 1 2 4
-146.28541469574 -274.451017379761 1896.00002765656 10 12 11
-138.593882322311 -269.538193941116 1861.99998855591 17 19 14
-131.588935852051 -265.638142824173 1835.00003814697 22 25 18
-125.903353095055 -264.198571443558 1825.00004768372 18 21 14
-120.536841452122 -263.337701559067 1819.00000572205 10 13 4
-115.393221378326 -262.910783290863 1815.99998474121 10 13 4
-110.387161374092 -262.773156166077 1815.00005722046 13 16 7
-106.722362339497 -265.965163707733 1837.00001239777 14 17 8
-103.048115968704 -269.446641206741 1860.99994182587 13 16 9
-97.9791954159737 -269.453018903732 1860.99994182587 14 17 10
-93.0097699165344 -269.748687744141 1863.00003528595 15 18 11
-87.7931341528893 -269.320070743561 1860.00001430511 15 18 11
-82.8593671321869 -269.759923219681 1863.00003528595 15 18 11
-77.700212597847 -269.475430250168 1860.99994182587 14 17 10
-72.5126415491104 -269.045829772949 1858.00004005432 15 18 11
-67.7404999732971 -270.208805799484 1866.00005626678 16 19 12
-63.226692378521 -272.674709558487 1883.00001621246 16 19 12
-58.2189448177814 -273.257851600647 1886.99996471405 13 16 9
-53.0204139649868 -272.97180891037 1884.99999046326 13 16 9
-47.8071942925453 -272.540628910065 1881.99996948242 14 16 11
-42.67817735672 -272.543549537659 1881.99996948242 18 20 15
-37.5091023743153 -272.256523370743 1879.99999523163 23 25 20
-32.4369221925735 -272.69321680069 1883.00001621246 21 24 17
-27.5367852300406 -275.012284517288 1899.00004863739 16 19 12
-22.6082000881433 -278.055101633072 1919.99995708466 12 15 8
-17.4383670091629 -279.070168733597 1927.00004577637 13 16 9
-12.1860466897488 -279.071122407913 1927.00004577637 14 16 11
-6.90849218517542 -278.057992458344 1919.99995708466 17 19 14
24.6058963239193 -279.357969760895 1929.00002002716 7 9 6
29.9099329859018 -279.790669679642 1932.000041008 9 11 8
35.2119989693165 -280.078172683716 1934.00001525879 7 9 4
40.0852710008621 -277.324199676514 1914.99996185303 8 10 5
44.9494607746601 -275.149196386337 1899.99997615814 9 11 6
49.309603869915 -270.656943321228 1868.99995803833 10 12 7
55.1306530833244 -274.273872375488 1894.00005340576 13 15 12
59.8780997097492 -272.387623786926 1881.00004196167 15 17 14
64.8654997348785 -271.804392337799 1876.99997425079 14 16 11
69.756306707859 -270.931214094162 1871.00005149841 14 17 10
74.9742239713669 -271.360993385315 1873.99995326996 18 21 14
79.9945667386055 -271.066457033157 1871.99997901917 20 23 16
85.2764695882797 -271.640360355377 1876.00004673004 22 25 18
90.0498628616333 -270.621180534363 1868.99995803833 25 28 21
94.8866158723831 -269.891321659088 1863.9999628067 22 25 18
99.8030304908752 -269.450724124908 1860.99994182587 21 24 17
105.435356497765 -270.892143249512 1871.00005149841 21 24 17
109.763026237488 -269.003123044968 1858.00004005432 23 26 19
113.525107502937 -265.955716371536 1837.00001239777 24 27 20
117.946684360504 -264.645427465439 1827.99994945526 24 27 18
122.991293668747 -264.782637357712 1828.9999961853 24 27 18
128.670617938042 -266.222417354584 1838.99998664856 26 29 20
133.313611149788 -265.490412712097 1833.99999141693 27 30 21
137.702658772469 -264.323860406876 1825.99997520447 28 31 24
143.766671419144 -266.341686248779 1840.0000333786 27 30 23
151.038378477097 -270.385473966599 1868.00003051758 23 25 20
162.55721449852 -281.521052122116 1945.00005245209 5 7 2
169.057801365852 -283.537149429321 1958.99999141693 19 21 18
-138.808473944664 -275.036364793777 1865.00000953674 13 15 12
-132.082596421242 -271.653026342392 1842.00000762939 21 23 18
-127.068117260933 -271.661221981049 1842.00000762939 21 24 17
-121.920697391033 -271.374195814133 1840.0000333786 23 26 17
-115.703575313091 -268.579453229904 1820.99997997284 24 27 18
-111.474804580212 -270.356625318527 1832.99994468689 24 27 18
-107.354573905468 -272.576123476028 1848.00004959106 21 24 15
-103.096902370453 -274.647831916809 1861.99998855591 18 21 14
-97.7096930146217 -273.769289255142 1855.99994659424 19 22 15
-92.7042737603188 -273.922920227051 1856.99999332428 20 23 16
-87.6458957791328 -273.928761482239 1856.99999332428 19 22 15
-82.8095674514771 -274.671852588654 1861.99998855591 17 20 13
-77.6951983571053 -274.52951669693 1860.99994182587 16 19 12
-72.7811381220818 -275.1245200634 1865.00000953674 17 20 13
-67.7724108099937 -275.424063205719 1866.99998378754 17 20 13
-62.9204213619232 -276.461035013199 1873.99995326996 15 18 11
-58.2768805325031 -278.677880764008 1889.00005817413 15 18 11
-53.1576052308083 -278.829008340836 1889.99998569489 17 20 13
-47.9564927518368 -278.537273406982 1888.00001144409 17 19 14
-42.6300466060638 -277.359962463379 1879.99999523163 19 21 16
-37.4468117952347 -276.919990777969 1876.99997425079 21 23 18
-32.3142372071743 -276.774734258652 1876.00004673004 19 22 15
-27.2594951093197 -277.366816997528 1879.99999523163 15 18 11
-22.4183406680822 -280.909359455109 1904.00004386902 15 18 11
-17.3467434942722 -282.828629016876 1917.00005531311 16 19 12
-12.153634801507 -283.567279577255 1922.00005054474 16 18 13
-6.94761890918016 -284.895747900009 1930.99999427795 11 13 8
24.7063301503658 -285.777479410172 1937.00003623962 6 8 5
29.938941821456 -285.333067178726 1934.00001525879 8 10 7
35.5556160211563 -288.134068250656 1952.99994945526 10 12 7
40.6059399247169 -286.213666200638 1940.00005722046 9 11 6
44.8046065866947 -279.424369335175 1894.00005340576 8 10 5
49.8340278863907 -278.683662414551 1889.00005817413 9 11 6
55.0397597253323 -278.975307941437 1891.00003242493 13 15 12
60.03338098526 -278.233885765076 1886.0000371933 15 17 14
64.8612976074219 -276.902079582214 1876.99997425079 15 17 12
69.8636323213577 -276.455134153366 1873.99995326996 16 19 12
75.1694217324257 -277.188003063202 1878.99994850159 17 20 13
80.1603347063065 -276.740431785584 1876.00004673004 21 24 17
85.0891694426537 -276.1450111866 1871.99997901917 22 25 18
89.5623043179512 -274.221748113632 1858.99996757507 24 27 20
93.8625037670136 -272.003173828125 1843.99998188019 22 25 18
99.2604047060013 -273.02947640419 1850.99995136261 22 25 18
105.090528726578 -275.087922811508 1865.00000953674 22 25 18
109.342530369759 -273.016095161438 1850.99995136261 24 27 20
113.456100225449 -270.796537399292 1835.99996566772 26 29 22
118.197284638882 -270.199179649353 1832.00001716614 26 29 20
122.983500361443 -269.749045372009 1828.9999961853 26 29 20
127.752974629402 -269.298642873764 1825.99997520447 27 30 21
133.305221796036 -270.470172166824 1833.99999141693 27 30 21
138.674333691597 -271.198928356171 1838.99998664856 22 25 18
144.929617643356 -273.549497127533 1855.00001907349 20 23 16
154.909759759903 -282.535314559937 1916.00000858307 18 20 15
163.717120885849 -288.866102695465 1958.99999141693 10 12 7
170.514300465584 -291.362345218658 1975.99995136261 8 10 7
-139.916002750397 -282.352209091187 1879.99999523163 5 7 4
-133.50822031498 -279.657542705536 1861.99998855591 12 14 9
-127.12898850441 -276.812225580215 1843.00005435944 21 24 17
-121.581599116325 -275.618642568588 1835.00003814697 24 27 20
-116.522088646889 -275.476098060608 1833.99999141693 24 27 18
