ply
format ascii 1.0
comment KinectMotionCapture
element vertex 784
property float x
property float y
property float z
property uchar red
property uchar green
property uchar blue
end_header
-165.75550936208 348.605659225624 2509.27059498081 40 42 39
-185.540036164328 347.217086962586 2520.85916643922 111 113 112
-195.006059173632 346.503589239381 2520.16890796122 113 115 114
-205.724403815756 345.708585510051 2521.04076969716 117 118 120
-216.412254113887 344.915940143013 2521.93474937941 128 129 131
-226.437247885653 344.16679794668 2522.07443162662 156 157 159
-232.654606313786 343.665766239867 2517.56479799269 166 167 169
-238.872451218841 343.164568167392 2513.05481085859 171 173 172
-243.839244675985 342.744544585014 2506.98207552424 182 183 185
-249.438756007545 342.283157789379 2501.6852021392 181 183 182
-255.043298651897 341.821239336091 2496.38497323221 185 187 184
-264.3676872978 341.11806839783 2495.7977353111 192 195 188
-275.521031689629 340.296676201995 2497.58915941153 167 170 163
184.582561076355 366.895285934475 2564.47545271622 103 105 100
156.971865009023 365.037851393861 2580.26917416341 49 52 45
132.371967256911 363.372741107891 2593.30602072937 53 56 47
99.2549671815275 361.171693049305 2614.98724640821 40 43 34
51.2501732803017 358.034167629306 2651.80907973131 24 30 20
28.6529469493071 356.395257775629 2652.71125743064 35 40 33
86.0053878964839 359.67213198474 2560.91019015362 35 38 31
4.21467669810749 354.425535426985 2633.75042012581 34 37 30
35.7895227933751 356.295913182996 2589.95218964681 32 33 27
20.2918595067882 355.21282564441 2594.76877082961 57 60 53
6.94094082895091 354.265038061766 2597.43685394943 44 47 40
-11.9236693420144 352.973078722756 2605.98737760474 30 33 26
-15.4773427583104 352.639138438556 2598.4688169619 31 34 27
-26.7689244408908 351.709036610755 2587.80852401839 46 49 42
-20.0793560197514 352.012364903406 2569.19200853002 30 33 26
-29.1960834379956 351.330059781719 2567.5200832478 28 31 24
-41.0215401885281 350.479486045468 2568.82442542259 24 27 20
-77.9396675807069 348.070229518028 2597.6299601601 21 24 17
-82.1684968718552 347.693808922892 2590.85708055012 19 22 15
-73.5924441502698 348.11118431094 2569.90358557413 26 29 22
-83.9440234284998 347.353926397662 2569.80647791032 26 29 22
-95.6103800912995 346.515656150254 2571.22592297665 25 28 21
-105.238245745916 345.803978744079 2570.41864500846 23 26 19
-97.532680865626 346.163402435597 2550.0685634346 22 25 18
-91.911999545004 346.392301521181 2531.9121429835 21 24 17
-100.261518675915 345.75831632185 2529.56159148254 26 29 22
-111.235393306961 344.962827627131 2530.24821161978 24 27 20
-121.522079710816 344.210087430671 2530.19816906861 21 24 17
-137.021120570404 343.137382612703 2536.24884083907 20 23 16
-131.576911347117 343.351579329177 2517.96412305109 20 23 16
-135.318122982752 343.000783889275 2510.30982105313 17 20 11
-146.85540854737 342.171882406034 2511.8231744447 20 23 14
-148.668990780811 341.938633256302 2501.86114869153 16 19 12
-156.951418575915 341.309201982121 2499.55925619823 28 30 25
-176.76803443649 339.975541037591 2511.12484375009 102 104 103
-188.820755840377 339.117182182469 2513.49913964661 109 111 110
-201.471487718323 338.22304362324 2516.6753693403 116 117 119
-212.808619643529 337.409599660902 2518.33360219494 126 127 129
-223.478255274431 336.637316398624 2519.24088921626 153 154 156
-230.334926295597 336.097071126907 2515.5026422448 166 167 169
-237.815937098952 335.518925229046 2512.54693717324 177 179 178
-242.15864708083 335.130963955089 2505.6914445644 167 168 170
-247.762673897185 334.666286798284 2500.39157561876 178 180 179
-252.128433207238 334.276234232384 2493.51936346722 188 190 187
-260.843146532204 333.62324816569 2492.13901528742 197 200 193
-272.626077679122 332.78551600438 2494.70928685412 179 182 175
171.174276844792 357.701102180634 2567.06018069956 39 44 37
58.7196756359454 350.755175880214 2655.95168076154 33 39 29
41.6541062239952 349.612117002411 2662.10171730206 25 33 22
45.3768798554548 349.700821447001 2647.50919394406 27 32 25
127.203492281079 354.266981094818 2542.57823481522 26 31 24
60.4159566391362 350.186923350831 2599.12762849943 27 32 25
101.985849697305 352.499998066442 2545.2855724992 30 33 26
63.047815887423 350.06780797956 2573.8620489108 30 31 26
29.2211028421612 347.940372104035 2597.49952910738 29 30 25
27.7265876780683 347.715297134337 2587.76913776286 32 34 29
16.4428687850591 346.915252003368 2588.23112210296 27 29 24
-1.06372310581881 345.751171644714 2595.29638218787 25 27 22
-16.4230666980183 344.714187400008 2600.2134677913 35 37 32
-34.4872519752206 343.520269327029 2608.10940202613 33 35 30
-25.6412216553139 343.898928214834 2587.35142346607 35 37 32
-18.950981716122 344.149639266867 2568.73512825877 38 40 35
-30.1216725242264 343.358198041009 2569.27909265023 37 39 34
-41.262411038141 342.569078733342 2569.84478185993 34 36 31
-53.731756672573 341.703363389982 2571.91731517549 32 34 29
-61.4227749480873 341.115677099282 2568.80902840458 29 31 26
-54.9342931385448 341.349777535974 2550.04668476435 42 45 38
-68.037058474808 340.448029425254 2552.89489273633 39 42 35
-98.5274895392167 338.542132722236 2575.24663271559 37 40 33
-102.130963111651 338.191843376094 2567.69188806556 33 36 29
-95.0972381735133 338.454270305673 2548.08961517836 31 34 27
-92.1355560444261 338.480137910287 2532.9450420668 30 33 26
-92.5445263727953 338.310653856572 2521.5314991839 22 25 18
-106.840700142441 337.342717149282 2525.98461239106 20 23 16
-125.027261552048 336.15280736559 2535.02689048785 18 21 14
-132.656199858092 335.569219638041 2531.96392204872 17 20 13
-124.611759988129 335.882041712181 2510.62422551124 18 21 14
-116.665637927102 336.186857029864 2489.21351021709 19 20 12
-130.859201236162 335.226699797466 2493.74075286449 14 15 7
-131.433032477911 335.043273091411 2482.20792264192 14 17 10
-154.58208771998 333.575035937038 2497.53225525932 19 21 16
-175.691811657884 332.225222518725 2510.63043261258 100 102 101
-189.666641351099 331.282287684544 2515.31662163798 120 122 121
-202.951560512326 330.379578247748 2519.26781417478 132 133 135
-213.013422761258 329.66014409646 2519.38092015318 136 137 139
-222.416531753736 328.978414146162 2518.73672477569 149 150 152
-228.014471855286 328.511590994891 2513.4409628726 160 160 160
-234.874221803844 327.973541214565 2509.70078951859 179 179 179
-237.347040903666 327.681984768065 2500.49590466044 184 184 182
-244.214234735121 327.143119956454 2496.75003647153 162 162 160
-249.834149731132 326.674108745332 2491.43862789255 156 157 152
-261.653617405587 325.858143189338 2493.98252360286 143 144 138
152.097894691174 348.407743913078 2586.53287075605 43 46 39
123.901189207623 346.679119480942 2603.13747054915 42 45 38
77.1373723021584 343.923133026004 2638.3904794149 27 30 23
97.9924113764628 344.760615667199 2595.46184559544 27 30 23
37.449364458185 341.094438353455 2634.3079670947 27 30 23
67.0155913464869 342.238859335734 2570.52324122625 24 27 20
19.1416315798292 339.446716687999 2608.67670506668 20 23 16
7.19175195806754 338.62980782985 2609.89072648902 20 23 16
-1.23848510814462 338.006310564898 2607.4817139576 25 28 21
-13.8259107967809 337.155920187285 2609.46872614589 22 25 18
-32.6086210861567 335.968453130943 2618.07885557018 21 24 17
-21.6227472539852 336.404596687891 2595.16698204525 21 24 17
-43.0964588367022 335.072235211579 2606.7660542782 21 24 17
-32.2297418810769 335.498665988836 2583.76775219338 23 26 19
-32.4158196169411 335.322788564515 2572.51575652387 27 30 23
-39.4590007930289 334.774521000307 2568.64226372629 35 38 31
-42.4223774122856 334.446790851111 2560.31691113257 38 41 34
-35.9277221151251 334.628821429357 2541.55848456414 40 43 36
-45.0430229244874 333.967430194562 2539.8876993941 37 40 33
-77.689157921941 332.040604190385 2564.38202194088 33 36 29
-84.68176360072 331.496023066763 2560.54521107318 30 33 26
-81.6455049734679 331.489173399323 2545.45453433725 27 30 23
-87.3320035196388 331.013647981542 2540.09482492605 25 28 21
-99.6631322837482 330.18281816884 2542.26773130269 24 27 20
-107.323105608801 329.602164991374 2539.18198530301 25 28 21
-116.294102449726 328.951814273357 2537.61586508169 22 25 18
-129.192115468249 328.093077976506 2540.61301471877 19 22 15
-135.495662570987 327.585429956715 2536.04086756234 18 21 14
-115.68515409327 328.461160654395 2501.00107031441 15 16 10
-116.22301830118 328.255771848146 2489.49420211987 17 17 9
-131.715394603416 327.259698150273 2495.55009332192 16 16 8
-140.684268642422 326.609004112479 2493.98551022603 14 15 9
-151.568082508762 325.857979465115 2494.73764255276 11 13 8
-173.973888579969 324.50277586169 2509.36660274089 101 105 104
-191.152842295771 323.424505525665 2517.90484600494 166 170 169
-201.246133295088 322.718895100455 2517.99523863137 184 188 187
-210.043075260915 322.081614187623 2516.55536070466 181 183 182
-216.291156521924 321.577548426403 2512.02344006544 169 169 169
-223.170435619855 321.040549872628 2508.26882046192 172 171 169
-230.674383506898 320.471142874407 2505.29653207314 167 163 160
-236.291101862867 319.999649879256 2499.98742823602 154 149 143
-243.160737000829 319.463163746622 2496.23980234041 155 151 142
-249.404591568928 318.95896991212 2491.71094507236 165 160 154
-261.845084365987 318.135584798508 2495.03964546564 144 141 134
-325.486446171169 314.682245599865 2563.75382414742 137 137 129
124.328309164306 338.811279253161 2614.52316537592 29 32 25
95.4913523471981 337.133641002826 2631.89922267497 35 38 31
89.8079084180861 336.656667812337 2626.54172028762 36 39 32
106.349336634544 337.326377631189 2599.01222992096 38 41 34
111.310016454628 337.395356847687 2582.84662352972 39 42 35
92.6799173960533 336.249032774128 2590.33255586023 37 40 33
67.0187553734864 334.743849945753 2605.07095263053 32 35 28
40.7671473815583 333.211801722427 2620.61651754461 27 30 23
83.1278338744035 335.193127469945 2566.11100757842 21 24 17
43.5336078470838 332.980540695501 2595.44794521103 22 25 18
9.05735042405587 331.034838876374 2619.85051397423 26 29 22
-0.762456889229268 330.348738204036 2618.90422295264 31 34 27
-29.3869548620447 328.708207991807 2637.66952079074 31 34 27
-30.7644086472081 328.452958451574 2628.02354242086 28 31 24
-30.0954109170322 328.300250042827 2616.15648993133 31 34 27
-39.8310678305074 327.620675240247 2615.27123438523 34 37 30
-48.1687725889965 327.012142101069 2612.92937629467 37 40 33
-51.6908239933396 326.646174773898 2605.43387137688 37 40 33
-53.8634796564934 326.347345371003 2596.44654456081 36 39 32
-37.6554689123332 326.968714302347 2567.44007126768 32 35 28
-43.3406185391008 326.49057692809 2562.08103200985 30 33 26
-38.1934576910021 326.552914626972 2544.81553942573 27 30 23
-52.0267681602435 325.667333334395 2548.36957263455 25 28 21
-72.5415980226116 324.450990752734 2559.42930971951 26 29 22
-84.2449509665224 323.674575305354 2560.82224869888 27 30 23
-70.5103044842459 324.158589794791 2533.72748950539 27 30 23
-76.2320905561242 323.6770990155 2528.34216919801 27 30 23
-103.87411896087 322.11463632781 2547.82007562035 27 30 23
-140.641611178861 320.10755044938 2577.97217719018 24 27 20
-136.307093785801 320.124601181846 2561.35238926462 22 25 18
-124.812372616942 320.490075303889 2536.33866434335 19 22 15
-133.094988032666 319.884937095152 2534.03675888902 18 21 14
-125.692452425911 320.045128588387 2513.46599577745 15 16 10
-120.33625560862 320.102674375359 2495.11697692727 18 17 12
-133.220976274656 319.271859393852 2498.12360942428 18 15 10
-146.062143947953 318.444475606774 2501.16183179488 17 18 12
-171.74285763845 316.997826947264 2519.59175599558 14 15 10
-177.391052728471 316.52141663694 2514.25980909502 9 14 10
-183.044147828481 316.044539268967 2508.9240132299 15 20 16
-196.352660927922 315.199963884718 2512.85869095483 3 5 2
-201.353977372384 314.754662054489 2506.76050665388 25 25 23
-211.429428981343 314.066590309066 2506.86392027196 101 97 94
-219.586201419639 313.470728223783 2504.65328806298 119 114 110
-226.47286176218 312.935581203299 2500.8933270161 158 149 144
-232.729173985209 312.430378159817 2496.35543381629 176 166 156
-240.85859735887 311.836470274583 2494.16463742633 129 119 109
-248.975149301689 311.243522971048 2491.98317667682 122 114 103
-263.89631781193 310.330697428246 2498.45357026578 135 131 120
-293.57732861487 308.72706936726 2523.86397505214 124 121 112
153.732213103002 332.177172532601 2586.40008090082 35 38 31
82.2238471765062 328.533725157877 2645.70522758188 31 34 27
75.8630503717819 328.022395174801 2641.09156024484 29 32 25
83.1290122545827 328.162070994641 2622.89205574564 30 33 26
107.471391153151 329.113132040337 2587.43277975615 36 39 32
92.4162745049069 328.183407097111 2591.33561814706 38 41 34
58.9359446457092 326.380568737492 2613.99080642862 34 37 30
75.2130066181489 326.940403755912 2586.26911479229 33 36 29
44.0300424522246 325.251995404159 2606.88488773905 30 33 26
17.9287653734201 323.808340943165 2622.53958399508 28 31 24
1.07337640382843 322.803842881249 2628.84268666158 25 28 21
-19.9143313815122 321.607438399967 2639.55972543887 30 33 26
-15.0067050743323 321.627284847348 2623.35570503377 34 37 30
-26.8551975245503 320.861418328313 2624.64348271999 32 35 28
-44.2134092051563 319.839704490272 2631.81702790041 33 36 29
-37.3246962727938 319.948467943012 2613.34389100891 32 35 28
-44.9810116075711 319.379114323926 2610.26114847597 27 30 23
-48.5111743972337 319.001049787063 2602.75940769008 27 30 23
-67.1113905089182 317.926076960507 2611.50269532087 28 31 24
-52.9000084883346 318.365959693235 2584.7533083571 29 32 25
-54.4559351449521 318.076255508292 2574.97807115135 29 32 25
-93.9846935570463 316.043837800003 2606.83374798265 29 32 25
-82.6497605975707 316.345863179158 2582.93890442716 28 31 24
-65.3728746057796 316.914934445502 2552.23664897856 29 32 25
-96.5551880204827 315.272626247128 2575.32320043352 29 32 25
-86.7859997077503 315.495341567303 2552.7632811833 28 31 24
-76.4573093980505 315.739555240417 2529.37373465821 25 28 21
-96.7954371667108 314.59454839301 2540.56222266849 24 27 20
-111.74514547008 313.695509955023 2545.77696035754 22 25 18
-106.183734595063 313.720034102446 2527.57624381916 21 24 17
-128.979842823018 312.470857687766 2541.92280269301 18 21 14
-135.936622495838 311.933431883014 2538.1119991047 17 20 13
-122.641426733417 312.298675104524 2510.69807110616 15 16 10
-129.659477435374 311.756173643444 2506.84282513204 17 16 11
-134.727744084726 311.300163662725 2500.6963474369 16 15 10
-168.252606706116 309.586025360612 2528.25984876885 17 18 12
-135.872270655933 310.783172128877 2477.63161084827 18 20 15
-148.705257071406 309.983526265171 2480.67590448531 11 13 10
-176.211817521658 308.542450108892 2501.48766599481 7 9 6
-150.646560413952 309.425407470755 2458.26869019962 19 20 15
-155.169543267885 308.98936687725 2451.28227040738 41 40 36
-197.700503422084 306.902020741999 2490.84248536701 137 132 126
-214.738530495225 305.927881968891 2499.48341680875 150 143 137
-224.156060855891 305.285442335377 2498.82867160987 145 135 126
-230.419089862558 304.779486054159 2494.28590545497 134 122 110
-236.682560707981 304.27343050127 2489.74281849889 145 133 121
-244.190825466505 303.714054276206 2486.76745152569 145 135 125
-256.650018583799 302.943864626866 2490.08286510326 132 125 115
163.648577809378 324.697966983031 2588.61034065775 12 17 11
107.849150204406 321.988987129669 2632.13509805413 29 32 25
91.3267057491653 321.026131158874 2637.44443912366 31 34 27
102.915352900261 320.832134873385 2592.73391087118 24 27 20
103.559758935568 320.621909854854 2580.84874000426 23 26 19
58.6679558362242 318.42374294298 2614.99126935936 26 29 22
57.9457787934574 318.15586847655 2604.58550898441 26 29 22
55.0681549157894 317.79306752733 2596.32184826559 26 29 22
26.8167721760859 316.331400876443 2614.12349464885 26 29 22
16.2504062916695 315.637949633497 2613.8710067838 26 29 22
9.20838567331872 315.097090970781 2609.99839282684 35 38 31
-2.01565769359457 314.376832573093 2610.50404136488 26 29 22
-16.68669393648 313.510128513801 2614.68592152854 28 31 24
-41.7027669905288 312.203827610563 2629.89296443516 26 29 22
-43.7999183610491 311.87734843987 2620.96023224064 24 27 20
-45.9246071157744 311.548604828054 2612.0075261388 24 27 20
-50.1363217582722 311.130458079688 2605.24684195167 25 28 21
-57.7838829684572 310.566757443031 2602.17047410393 27 30 23
-85.2040881893605 309.17158613691 2620.57470114379 29 32 25
-83.933355529517 308.984904110231 2607.90865043417 30 33 26
-75.9355490273688 309.077527359234 2587.76936412892 31 34 27
-85.5932902596308 308.430455634346 2586.94046148041 30 33 26
-90.5172878394467 307.980886803423 2580.89860013833 29 32 25
-95.4508924797084 307.530484527224 2574.84947573452 28 31 24
-93.7060031452792 307.355470685594 2561.29187931275 26 29 22
-84.0159315393238 307.505363951622 2538.67423781528 21 24 17
-87.7207789238046 307.101269353594 2531.04602706829 20 23 16
-98.0660307758958 306.424756242214 2530.95391527906 22 25 18
-109.045441639832 305.723352436467 2531.63699864144 22 25 18
-129.203177781975 304.650116327378 2542.95632544744 19 22 15
-145.335598709404 303.743565381835 2549.78401919807 17 20 13
-139.189162185124 303.738912152243 2530.77221581953 16 17 11
-127.91878211994 303.936901146832 2505.59501289935 16 15 10
-155.053458410737 302.590253801667 2525.44150836676 17 16 12
-140.012963821988 302.934258435317 2495.58727279169 15 16 11
-116.741262368418 303.599877614115 2455.64498968899 16 18 13
-125.854415844993 302.705684100514 2441.62362673084 21 22 17
-119.58892255643 302.683852745704 2421.46300650174 14 15 10
-128.031379202719 302.081105682831 2419.04494636279 16 11 5
-194.732731928089 299.201203973139 2488.01414463243 64 55 46
-213.044649141639 298.223528823661 2498.2019557482 86 76 67
-223.096472174587 297.56980841407 2498.32267222158 116 102 91
-224.974634695654 297.23304812124 2488.31360101237 133 117 104
-231.880358229315 296.701322974314 2484.53983798388 144 128 115
-237.537577343969 296.217587393753 2479.20131227135 135 121 110
-252.500810377401 295.378095086071 2485.64158383704 136 126 116
123.426028380869 314.898919489701 2628.56957942244 24 29 23
111.914599600535 314.174635846948 2628.86687575252 35 38 31
81.6614373705526 312.694617187716 2647.68736976505 28 31 24
110.566152567717 313.340836493009 2597.0071572939 28 31 24
99.7874997112049 312.646457469094 2596.60047889594 26 29 22
70.4918910751413 311.214458733471 2614.88033054509 29 32 25
101.767142674206 312.196589246943 2572.09574958094 30 33 26
51.3017474533428 309.929241724124 2612.07868911203 27 30 23
35.7291831801803 309.051583210077 2616.84201350971 21 24 17
39.2298274435876 308.927288885808 2602.08738495157 20 23 16
39.1569554645619 308.660093293143 2590.9169920066 18 21 14
32.7439968941845 308.143159783587 2586.26548310948 28 31 24
-0.880714039817043 306.565223468706 2610.05218227106 19 22 15
-19.7286630144862 305.568554286744 2618.61598520897 15 18 11
-21.1659864987832 305.249307412566 2608.92657633441 21 24 17
-59.2688842210425 303.252030256503 2626.99445054449 24 27 20
-77.8560101402486 302.27624336399 2635.74772993147 26 29 22
-95.6800083012932 301.332890873171 2643.81905009672 32 35 28
-73.8598228879144 301.900856733377 2608.99980950633 33 36 29
-80.7830747405842 301.371475457487 2605.21335169749 32 35 28
-74.824237728587 301.328699698002 2587.30039695999 30 33 26
-82.4582753123453 300.770982416785 2584.23386298454 29 32 25
-89.4108897465959 300.239110424673 2580.42610699771 26 29 22
-86.2922791366627 300.083411567321 2565.39437502101 25 28 21
-88.5882065701078 299.723533484219 2556.31737664431 23 26 19
-121.582584947238 298.224932974514 2581.79645580903 22 25 18
-103.230640478397 298.629085462731 2549.4026245888 21 24 17
-111.536676347142 298.045969866115 2547.08385269713 21 24 17
-114.54921384726 297.657169031495 2538.72225851964 23 26 19
-128.111354830844 296.882618583923 2542.47343066878 20 23 16
-126.544455858682 296.659572173922 2528.78656194046 18 21 14
-136.794175816906 296.006716204108 2528.76382308793 17 20 13
-138.551615195843 295.660815712659 2518.84222036391 16 17 12
-146.831275090023 295.079541879048 2516.54257830798 16 17 12
-130.518603268457 295.376908679225 2485.13996719335 16 18 13
-140.146527797843 294.744932220982 2484.3330502466 13 15 10
-158.104046868473 293.819046087787 2493.54270335475 14 15 9
-155.496591674612 293.621400246829 2478.14021143861 21 21 13
-140.830287487566 293.843877415005 2448.01410169516 20 16 7
-162.548804077964 292.788953337498 2461.90748256418 23 15 4
-198.732893915915 291.236012889373 2493.71984193507 87 71 58
-210.719035945697 290.529852352363 2496.14346803227 116 97 83
-220.149397304927 289.913481177425 2495.4798478876 129 106 92
-222.66223120688 289.535138828125 2486.24551585772 141 120 103
-229.574800743758 289.005424328654 2482.46680019973 132 113 98
-236.483383143603 288.475976821923 2478.69097625483 137 119 105
-251.451144445906 287.67448729568 2485.12845215038 139 125 112
123.145356699876 306.87870116607 2629.5605271733 35 40 34
96.4239878479432 305.614533949798 2644.76690928488 34 37 30
105.209123974562 305.654943327747 2625.19811055331 29 32 25
109.581087958993 305.530296337288 2609.83978736328 31 34 27
103.11992670505 305.009185291635 2605.1533141521 30 33 26
76.6232582174493 303.76303545497 2620.52238313768 25 28 21
75.9278797344511 303.452356079871 2610.13583279532 28 31 24
50.3075920865732 302.24502527458 2624.90536895136 30 33 26
65.2123081439964 302.492478047567 2598.65761993169 29 32 25
50.2387979318648 301.379987760045 2591.50277221037 22 25 18
46.6227299383259 300.960882987458 2583.93884350903 18 21 14
33.1869835620942 300.195222974582 2586.54635573201 16 19 12
8.62851915162288 299.041554871545 2600.85086539624 15 18 11
-7.46829136563121 298.188490809571 2606.46931370856 15 18 11
-73.3501134072614 295.324364597631 2653.80026097879 32 35 28
-105.588416072299 293.646281953621 2666.240240098 36 39 32
-73.3481851589199 294.464246110968 2620.44895733291 37 40 33
-74.1115234619365 294.147669163752 2610.01311159432 35 38 31
-66.0686351191011 294.127642849967 2589.90564100821 31 34 27
-77.7809780648435 293.437052120852 2591.29279213954 24 27 20
-83.3769962670068 292.953338164004 2585.99863238409 26 29 22
-90.3253349516722 292.42415750004 2582.1939896115 22 25 18
-82.5006618741675 292.3863749024 2561.92824018353 20 23 16
-79.4538287070894 292.185949378059 2546.84424865732 19 22 15
-109.81541746056 290.882054927215 2569.29243843749 17 20 13
-120.077573584306 290.244576230619 2569.26076223209 17 20 13
-109.114434820403 290.300646399216 2545.09515131812 19 22 15
-109.491774586626 289.982998596034 2533.70378762615 21 24 17
-119.122707509513 289.364489629954 2532.89475804625 18 21 14
-131.355654910678 288.663375231952 2535.13949522233 16 19 12
-134.398533463454 288.257908607642 2526.75582175275 16 19 12
-121.830386446184 288.347716860189 2500.04848209964 17 18 13
-106.145469285259 288.529728583719 2469.42554504458 13 14 9
-119.726180401967 287.783389671935 2473.16310372788 19 21 16
-155.825867324565 286.334652472202 2503.80213975415 20 22 17
-166.662707159834 285.682265349877 2504.588824177 22 22 14
-165.943119685875 285.389054760009 2491.52269697193 30 27 20
-162.0822358074 285.190012981438 2474.55846745263 25 18 8
-200.834435744166 283.36684230574 2497.09726598511 106 87 73
-214.707399767156 282.628527289048 2501.85804157147 131 109 95
-222.864465836638 282.064749983042 2499.64735901871 139 113 98
-223.484198797907 281.726894327583 2488.08017696997 140 114 97
-229.142961905997 281.237212378342 2482.74050186412 140 119 102
-236.051722359982 280.710319431293 2478.96456178332 134 115 100
-254.743988569442 279.837783525096 2490.11251345212 110 98 84
96.8649703152433 297.699657940422 2645.04649647909 34 37 30
122.98811971387 298.250630172074 2608.40574476448 32 35 28
120.828766424931 297.868535078744 2599.42763936623 26 29 22
130.845574672383 297.880857887889 2578.28119604081 22 25 18
94.2414466248933 296.379793050974 2603.61384588672 23 26 19
61.3887111213232 295.008451716537 2625.49084522148 28 31 24
64.2607987846957 294.790130213003 2611.51512293291 23 26 19
85.5095539638988 295.155203156008 2578.75098041363 22 25 18
67.0019983909493 294.249479208882 2586.32696581914 23 26 19
60.5471576775916 293.728200611607 2581.64507365405 24 27 20
33.7206408141522 292.566302615914 2598.01078637107 25 28 21
4.22026891690042 291.327005770004 2617.37821346458 34 37 30
-11.1752230451674 290.533962016555 2622.27032994993 34 37 30
-77.0177464873718 287.259968970679 2647.39555784654 35 38 31
-63.9499613452537 287.345174852761 2622.28542985023 34 37 30
-76.3431358762747 286.655892623584 2624.41407489273 31 34 27
-55.2526227127332 286.97325484222 2590.2996465888 32 35 28
-64.2747339985181 286.382952412567 2588.69677657198 35 38 31
-78.7050288150613 285.633001799396 2593.05347223547 42 45 38
-82.2686879985344 285.206335853427 2585.52749750017 33 36 29
-81.8087084171144 284.896739155522 2573.50812862382 29 32 25
-80.0510113286228 284.622629539961 2559.95960935368 28 31 24
-84.3706851476438 284.169466418565 2553.1204858907 28 31 24
-100.7116122905 283.369011365396 2559.79727195561 29 32 25
-112.333227716933 282.707168197977 2561.25033901397 28 31 24
-104.703576664786 282.595360692448 2540.8428390071 29 32 25
-101.790793568313 282.345098378988 2525.66141929077 28 31 24
-116.054316170812 281.608384750307 2530.13937321628 27 30 23
-131.577385097573 280.839207251999 2536.17416395378 26 29 22
-126.118151205791 280.655915182508 2517.89832450957 23 26 19
-110.314377132337 280.753709309781 2487.3611227882 18 20 15
-99.2074105607315 280.714657790244 2462.06425728217 17 19 14
-105.693507594677 280.190154427564 2457.35969040916 16 18 13
-149.585870656863 278.654109359311 2497.17082442481 16 19 12
-160.443728169286 278.019010635996 2497.94236025409 19 19 11
-161.663755194525 277.642550170528 2487.1748533157 22 19 10
-172.494045782622 277.009619330721 2487.96638397749 29 19 7
-197.287262181859 276.011233403377 2505.80690781467 67 53 40
-206.740320759889 275.420192000549 2505.126962272 174 151 137
-215.540022449831 274.847229509638 2503.68540954787 181 154 137
-221.804875419932 274.340371201374 2499.14131659401 166 137 119
-225.561503733603 273.897452761723 2491.47537209597 148 119 101
-230.586188093311 273.421381070078 2485.36009203915 141 115 98
-236.865756090719 272.913231729801 2480.80532530862 141 120 103
-253.694887988875 272.142091641939 2489.59871754911 112 96 83
129.123170392107 291.046044462371 2625.16793100568 54 59 53
121.218436435204 290.482048768624 2621.90513165099 39 42 35
121.990553097716 290.170116475783 2610.11202577581 35 38 31
135.681617238134 290.228498942896 2585.45359016091 31 34 27
118.372896589444 289.39105464492 2591.42890917891 29 32 25
87.5287021302564 288.170862514762 2611.05730401703 32 35 28
88.9457749906857 287.873575791171 2598.49677820727 31 34 27
86.0448449635203 287.451879982265 2590.21592404922 21 24 17
63.9721141656038 286.49137964808 2601.38293249639 20 23 16
78.0522159273151 286.543694095593 2575.77145119072 20 23 16
49.7157026989261 285.413820481044 2593.51306526311 21 24 17
44.7002631440196 284.933471773236 2587.40446529865 25 28 21
0.453978509867614 283.378683826653 2622.01820360651 36 39 32
9.50546475038871 283.286553950126 2601.40677979004 33 36 29
-38.6096873613355 281.643655170017 2640.62625592818 34 37 30
-39.9797093628833 281.270715956462 2630.98536337246 37 40 33
-31.0085085375205 281.17203996866 2610.31541131081 36 39 32
-64.895086099791 279.593284842711 2624.03139162997 37 40 33
-56.7377562345337 279.466210227344 2604.00633992503 35 38 31
-62.3283732686684 278.976673793708 2598.71606609956 25 28 21
-69.2852318600707 278.451561890559 2594.90526767382 26 29 22
-76.9170813435485 277.909316286557 2591.84039826605 41 44 37
-77.1041254290146 277.556972563767 2580.5868082325 31 34 27
-73.288929989543 277.303474375372 2564.8245134625 25 28 21
-78.9437975027929 276.808646031244 2559.48734181196 24 27 20
-85.9430628475619 276.280019450794 2555.64607850019 24 27 20
-106.282994027883 275.421850500786 2566.83441759234 25 28 21
-106.580672303321 275.060467628017 2555.50058068835 25 28 21
-97.6400643839055 274.921622449385 2533.57321108223 25 28 21
-106.637594426902 274.343714266356 2531.9882233122 24 27 20
-117.593518346981 273.719823720517 2532.68901995838 24 27 20
-125.238204940721 273.176342976614 2529.61454392217 22 25 18
-126.989548419145 272.772238022663 2519.69706542944 18 21 14
-114.434708418139 272.70076148406 2492.979262297 16 18 13
-100.710155969801 272.64892256236 2464.63943489053 15 17 12
-124.019157556978 271.737813813208 2479.85093543117 14 16 11
-115.604955008914 271.556219377181 2457.54174680388 14 17 10
-140.079091607904 270.625778489654 2474.37859144655 17 17 9
-149.695140489657 270.03514157541 2473.58049280315 21 17 8
-195.583327401056 268.271787821352 2504.53285142497 81 65 52
-210.113484994271 267.583431870278 2510.05279752581 181 158 144
-219.532208369702 267.008669346617 2509.39753028297 184 157 140
-225.152059748547 266.516292255489 2504.08604946864 171 142 124
-228.894792471355 266.063288213346 2496.4301270954 157 128 110
-232.030465782858 265.621881058625 2487.97900267901 149 123 106
-237.680537008476 265.126992345084 2482.64560213097 145 122 106
-248.300917802704 264.529885841346 2483.58948233936 148 126 112
-284.866610630011 263.40828690954 2517.59776212469 105 91 80
164.463957805717 283.927533472288 2591.46528447016 31 36 30
133.26013439977 282.771114620354 2610.83329963413 32 35 28
115.241459702203 281.594915088678 2606.41106548423 32 35 28
102.30347103435 280.910281397571 2608.14478667779 41 44 37
93.699895369157 280.334874407278 2605.61036088347 33 36 29
100.097483608593 280.128082178112 2588.0146354984 17 20 13
92.1832120868071 279.568192291153 2584.74494295611 20 23 16
64.4147817805307 278.528714412705 2601.66349922822 18 21 14
38.1917598337784 277.533785274018 2617.23250739055 16 19 12
36.764347198436 277.136520437043 2607.54959344852 17 20 13
18.4014897421148 275.972596410516 2604.11324715565 30 33 26
-68.8096533810425 273.222255728007 2673.03643989893 28 31 24
-20.1205609268373 273.98232900509 2610.76109086142 34 37 30
-31.2671358917045 273.362068678416 2611.32369888432 34 37 30
-47.2099903064529 272.635429703719 2617.05439362892 30 33 26
-56.9064701948889 272.051979695145 2616.19773075836 30 33 26
-55.620983285138 271.713176295011 2603.54160519462 29 32 25
-68.7249720036964 271.055231335212 2606.39016122169 23 26 19
-70.2148440556884 270.652828265073 2596.66223756644 20 23 16
-75.1286717577138 270.174598711464 2590.62730893657 20 23 16
-70.5852857134544 269.898124467357 2574.15744759187 19 22 15
-74.2017033324509 269.444365162819 2566.59308990753 19 22 15
-77.8367768786792 268.989086118644 2559.01520044562 21 24 17
-112.291189163595 267.891449392082 2585.90826856795 24 27 20
-117.86360055273 267.400126089906 2580.6308888752 23 26 19
-106.147319322033 267.26127141594 2555.77522304631 21 24 17
-107.810294951737 266.844778747205 2545.92174154677 20 23 16
-107.522863926619 266.465346025209 2533.77693480636 20 23 16
-117.158307584118 265.886719367321 2532.96483731043 21 24 17
-131.366345596311 265.219817312281 2537.48307233191 21 24 17
-118.050432895874 265.089586279666 2510.08165280908 18 21 14
-110.083051497015 264.848544613237 2488.68328951236 18 21 14
-123.65271800363 264.193028972274 2492.42960918401 17 20 13
-135.80745472241 263.168706619463 2482.37786164076 15 18 11
-148.640806193447 262.532482792575 2485.42271840607 19 19 11
-170.345124405123 261.339138426446 2486.97473561075 29 19 7
-185.606077793022 260.667452589092 2493.20003331068 82 66 53
-209.683721076912 259.845851631999 2510.32515019178 163 140 126
-220.999037412285 259.251912243699 2512.000309467 168 140 126
-224.093101518348 258.799944387753 2503.57929495958 173 141 126
-229.719938229212 258.304028218526 2498.26273240287 166 137 121
-234.101066187013 257.828393824143 2491.37894570176 154 126 112
-239.74209260544 257.331306659922 2486.0520907919 146 123 107
-247.871343414424 256.793868792715 2483.86170552953 148 126 112
126.45774546125 274.565332477616 2618.2117885412 27 30 23
100.478577259119 273.623516579636 2632.72250940992 31 34 27
104.158958201062 273.31886348282 2618.09726225308 29 32 25
85.5083616884165 272.540108266991 2625.57019735042 27 30 23
84.1184667142074 272.126146522874 2615.91469066551 23 26 19
98.4027831223893 272.034576854348 2590.45052011381 19 22 15
92.6299972696256 271.523932484003 2585.02808130819 22 25 18
62.0189908636979 270.508317648171 2604.82655536692 21 24 17
44.9954955164258 269.77524910564 2611.00916897671 17 20 13
16.0504917515163 268.808474380157 2629.54553803056 18 21 14
6.22366884332815 268.227772251381 2628.59440064188 25 28 21
10.4312309129195 267.922760921244 2613.11627989135 29 32 25
-1.49315353576074 267.301320905123 2614.34977339698 27 30 23
-46.80395305664 266.042235354001 2650.66368767192 28 31 24
-32.1798379929836 265.935128899091 2624.21072909116 33 36 29
-50.2059619509683 265.206944721311 2632.13661382256 33 36 29
-42.7281502965871 264.564030019558 2601.73547004554 27 30 23
-51.0781341044839 264.016839443983 2599.38502132219 24 27 20
-61.4648957388149 263.433835373156 2599.26329184767 22 25 18
-67.7413183318696 262.925434423527 2594.71080401344 23 26 19
-67.2329010913115 262.536052229644 2582.72614450065 24 27 20
-72.1805369938122 262.049166046501 2576.66666373722 22 25 18
-80.5087827677697 261.503730543061 2574.33198226837 23 26 19
-106.967242978562 260.652236597262 2592.20111599453 24 27 20
-121.238660951613 260.012902302622 2596.67383964295 24 27 20
-118.102299333178 259.664158553523 2581.65399794071 21 24 17
-115.693957537852 259.299496212429 2567.34135513038 19 22 15
-109.365475667371 258.994029921989 2548.45999663088 19 22 15
-113.695994495937 258.514069453173 2541.61287565519 18 21 14
-127.261928869079 257.888810705512 2545.36175961015 20 23 16
-138.810724151389 257.29778240445 2546.8679742363 20 23 16
-137.894249555051 256.89838625561 2533.94403685724 19 22 15
-118.118334825517 256.777986381011 2498.87411626525 18 21 14
-120.614113683323 256.317476261907 2489.65202608191 17 20 13
-172.354260331551 255.140366259303 2538.59727535436 14 17 10
-150.857096847206 255.030225830787 2501.07006679652 14 17 10
-154.634544078592 254.552000694745 2493.38885138536 19 19 11
-173.813046764951 253.859615022423 2504.18493787469 22 19 10
-153.302131530868 253.712634752472 2467.17762694079 26 16 6
-191.537414259021 252.768308429132 2501.21151992609 73 56 46
-209.888416125527 252.099894934689 2511.37256421408 155 132 118
-221.834891848886 251.519693112804 2513.82558326904 161 135 120
-226.183560489948 251.038243286759 2506.96529756305 163 131 116
-231.173623057898 250.54789148221 2500.87504325035 162 133 117
-231.169624949019 250.117617708305 2488.52451242025 154 126 112
-235.572890397695 249.631740964601 2481.62462590005 146 123 107
-242.473836033338 249.115770460225 2477.85440627217 148 126 113
-266.696627002608 248.402288932292 2496.10988677396 131 117 106
78.8198885240043 266.084461101285 2676.26965228113 26 31 25
116.75162811643 266.362474737548 2628.4257585644 33 36 29
115.377342599623 265.929985411098 2618.78147366243 27 30 23
90.9091165034366 265.092556406911 2631.91796419065 31 34 27
88.1044375670284 264.635813292812 2623.70670698087 32 35 28
84.5602048269303 264.164979746899 2616.19459117135 24 27 20
88.8519887924799 263.825031713121 2600.77705323228 25 28 21
75.9916114953079 263.195031690785 2602.56731329506 26 29 22
73.8147681409682 262.74335761495 2593.57617654388 26 29 22
59.5834612918575 262.093937934261 2596.84288988839 21 24 17
25.6528261701949 261.131367727225 2620.41093502825 20 23 16
1.03267760363579 260.327521971551 2634.67250045048 26 29 22
-3.85042587056317 259.839884469094 2628.65979681594 31 34 27
40.8586372659654 260.117153229451 2570.90760281719 31 34 27
-51.1869133904561 257.88214414115 2644.9746859828 29 32 25
-22.8963237441304 257.470295953938 2592.6085903671 31 34 27
-42.9833219630602 256.758890760539 2602.746287196 25 28 21
-47.2193089903263 256.277909932597 2595.96768917216 25 28 21
-57.6178435346046 255.710004451205 2595.83720726429 22 25 18
-59.8197466705888 255.256392759705 2586.82818880521 21 24 17
-68.8363233036693 254.708837319802 2585.22954749818 24 27 20
-69.7178313591928 254.270563476442 2574.70712708834 24 27 20
-76.7046331771739 253.75002902325 2570.87493984135 21 24 17
-88.3924681582828 253.169346157342 2572.28011954723 20 23 16
-108.75444870965 252.481553124233 2583.45363204438 20 23 16
-123.015132479873 251.875713237092 2587.93401232427 19 22 15
-107.277906521759 251.638445596742 2558.58190792918 18 21 14
-122.860219108672 251.017185094856 2564.57450090186 18 21 14
-127.804927011078 250.524689126432 2558.51740877054 15 18 11
-144.617969970502 249.89537739849 2566.08814598548 14 17 10
-140.349537149828 249.507861702992 2549.41840273436 15 18 11
-136.152697062025 249.114552265438 2532.69673103687 16 19 12
-130.723045597171 248.729485975944 2514.39842463386 18 21 14
-150.07260799659 248.077987937278 2525.07100786754 15 18 11
-158.970211393579 247.540186409968 2523.55866220386 13 16 9
-142.6184643267 246.80272717685 2479.82788624753 18 19 11
-129.143849409831 246.473844807071 2451.30547051089 22 19 12
-176.501097225614 245.569288697649 2496.01854849264 19 9 0
-201.292003398131 244.889367631898 2513.86236014977 49 35 24
-210.093583560278 244.359399667072 2512.4196634568 142 120 107
-218.877964248942 243.830834386383 2510.98944213409 156 133 119
-223.235011739372 243.340237677728 2504.12303609061 153 124 108
-228.861534276182 242.838443057616 2498.80667150986 145 116 100
-231.364951579531 242.360582163772 2489.57866169222 150 124 107
-235.142213109981 241.871168939357 2481.89752422976 142 119 103
-237.695281441535 241.389303028201 2472.63350103596 143 121 107
-257.60549629688 240.784154144874 2485.36996336543 123 107 94
144.723120216115 259.20202458357 2612.84820297404 34 39 33
139.676516930539 258.694998895241 2606.71687663199 32 35 28
128.835548874024 258.107031290295 2606.26585808751 25 26 20
127.390668423857 257.64902771393 2596.57026817706 32 33 27
89.9821791323538 256.705434763104 2622.55767972548 26 27 21
80.7028559863583 256.146910935508 2620.7685123069 40 41 35
67.1546095557405 255.533919681145 2623.29524413695 23 24 18
67.8896369268234 255.106889342308 2611.4746684486 27 28 22
70.7088134010241 254.703025241553 2597.45964989999 25 26 20
64.9781797100624 254.189246834104 2592.06775222151 24 25 19
24.6777902154363 253.254333222086 2622.13428518205 24 25 19
0.0581507868115949 252.52147916029 2636.39657927617 23 24 18
-0.614431640163504 252.077601226698 2626.02587960435 28 31 24
-11.8049484618201 251.510055969585 2626.5566057727 31 34 27
-30.7406496853133 249.535511661831 2601.70349729786 27 30 23
-50.116256220794 248.887706807726 2611.12188818198 25 28 21
-59.8115471033522 248.344264790928 2610.26628989553 21 24 17
-57.8696596013111 247.918035746227 2596.85052367209 21 24 17
-63.4736368194506 247.414686798658 2591.55020032399 23 26 19
-69.7620256356146 246.904482371836 2586.98902878428 24 27 20
-78.7581679205718 246.369192560109 2585.40555737715 23 26 17
-68.177932690014 246.011477662119 2562.19531224655 22 25 16
-63.0872797098327 245.597561106055 2544.88644358134 21 24 15
-72.8134857971068 245.051719164576 2544.00842204713 19 22 13
-101.217679394434 244.352571773225 2564.17322814734 18 21 12
-117.495705494072 243.761657698543 2570.89696836424 17 20 11
-113.142719888785 243.336603000367 2554.28832908869 18 21 12
-132.002942439936 242.730801107442 2564.08054557517 19 22 13
-135.623470207886 242.242611919474 2556.51303396199 17 20 11
-135.97863379991 241.776139941137 2545.13699242818 19 22 13
-136.374408762315 241.306389190853 2533.73149423766 21 24 15
-134.853937125049 240.846203726775 2520.01006266443 17 20 11
-137.287909328871 240.357064428007 2510.83233795412 17 20 11
-140.39701737794 239.861806997042 2502.40019850113 12 17 10
-137.717949659367 239.3983877223 2487.0482738376 13 16 9
-108.719268406201 239.075934274605 2440.13638273492 18 19 13
-79.9651740108653 238.73367785559 2393.04737957032 21 21 13
-196.404806363796 237.167634085728 2508.72023611676 45 32 23
-207.126294382789 236.638610017766 2509.59116639114 142 123 109
-215.287796117428 236.122729573142 2507.37751093709 155 132 118
-219.65546129512 235.622805894599 2500.50336066258 153 126 109
-226.548678835792 235.112567331245 2496.73877232909 145 118 99
-229.683671072021 234.615412850741 2488.28815374452 143 118 98
-235.335156934374 234.108669786253 2482.95337317448 142 119 101
-237.885222514431 233.610371228949 2473.69173798175 142 120 106
-240.462146745514 233.109904199444 2464.41032691894 133 115 103
-286.246560586974 232.508927289759 2510.26512350312 50 40 30
144.441917808886 251.132116154769 2613.83851429995 25 30 24
122.71383876416 250.447588074689 2624.02143490589 28 29 24
135.790130728734 250.120107280231 2600.15071445356 24 25 19
122.069797733739 249.52001313697 2602.552762387 32 33 27
97.6104618962488 248.819537977969 2615.6963913517 30 31 25
84.7257200150033 248.235886073967 2617.46892929285 43 44 38
81.1661271994755 247.740747077979 2609.94555552496 30 31 25
74.7391456349877 247.21854962528 2605.28385439723 25 26 20
76.1205188272647 246.764571580186 2592.69665546372 24 25 19
67.5436935702818 246.222164147412 2590.18178876046 23 24 18
21.5894097635783 244.907861760976 2614.91273476596 22 23 17
6.12812054887169 244.320907989279 2619.75819730507 26 29 22
-23.9542261639005 243.626996328907 2639.94153754754 29 32 25
-82.2826627586086 242.285475358193 2679.16952106893 38 41 34
-28.1539473566248 242.205237875772 2610.95233246627 35 38 31
-46.8699260422425 241.611309876259 2619.61384344658 22 25 18
-60.6923803945985 241.054687477365 2623.17741272787 22 25 18
-64.8677555418562 240.561250107388 2616.44269045452 22 25 18
-77.2588795329088 240.018007854581 2618.57356169848 25 28 21
-58.9549775323976 239.652378739081 2587.3760410013 25 28 21
-74.7630603328702 239.088923282649 2593.20526112195 23 26 19
-79.6809499751261 238.586722918713 2587.16726648804 25 28 19
-69.7671567703244 238.157180622708 2564.70887059669 23 26 17
-62.6500522596352 237.706337234812 2545.16342848626 21 24 15
-81.089473720974 237.135080434894 2554.02553653457 20 23 14
-78.7428826874739 236.657006006649 2539.66755482459 18 21 12
-105.748442467027 236.058971257049 2558.37669932468 17 20 11
-131.953989232559 235.474470385932 2576.43052777731 19 22 13
-118.347293003344 235.036305636467 2549.23834369514 20 23 14
-123.32961167556 234.529072501994 2543.15361759046 19 22 13
-126.350970738125 234.026787860676 2534.78534813326 21 24 15
-145.107730283731 233.48137079228 2544.65257854449 22 25 16
-137.682061142347 233.00439326499 2524.09565251618 17 20 11
-122.546854884439 232.53616888432 2494.30596135125 17 20 11
-119.871563179131 232.033606496529 2478.95110110754 12 17 10
-107.571395280714 231.541006012286 2452.04654765714 12 15 8
-61.9321521122784 231.080704208456 2385.08374860957 13 16 9
-105.807764932282 230.501976883526 2424.91187423635 20 20 12
-179.413181552274 229.412960002151 2488.88524043348 37 24 15
-201.618842042198 228.896357951575 2503.66324362997 138 119 105
-214.226398796337 228.387578988654 2506.87272381463 151 130 113
-217.965375474064 227.878789964144 2499.21894723968 154 129 109
-224.863303455733 227.370734209014 2495.45124974035 146 119 100
-230.505297359517 226.861796245696 2490.12333897605 143 116 97
-236.775946954936 226.353290272779 2485.57503557903 143 117 100
-239.318264368663 225.838921850599 2476.31864132338 141 118 102
-247.460763289523 225.3327974874 2474.11881083105 132 114 102
101.950493337707 242.783066382865 2655.86574601495 22 27 21
142.020600927408 242.567874159196 2605.86409834496 27 28 22
127.556679866206 241.988472523761 2608.96253933809 27 28 22
111.697899608957 241.404200464767 2613.51986572099 29 30 24
98.7711170624821 240.841279299369 2615.26203249201 27 28 22
90.1830138995883 240.305579300866 2612.73902416854 33 34 28
93.0394186183081 239.832195576975 2598.75064103827 24 25 19
87.2894343062684 239.310244127847 2593.34467428354 24 25 19
82.9542100764087 238.794815346461 2586.49396260804 25 26 20
87.8073261926096 238.321056877269 2570.24763191896 23 24 18
86.2374015303371 237.813462535256 2560.46114360358 22 23 17
31.1700165160747 237.080246477334 2605.76161855885 22 23 17
8.66529369391866 236.498481437523 2617.85242176661 27 30 23
-85.5205119188698 235.189415116763 2694.07837736336 35 38 31
-43.6488052577628 234.361376060463 2628.08795240135 32 35 28
-49.8923888557543 233.853824918016 2623.55927455989 24 27 20
-56.8249779257168 233.344545282873 2619.76614982174 24 27 20
-63.0683238908076 232.837069401167 2615.23764462666 24 27 20
-59.058624546716 232.349320868569 2599.61516336386 25 28 21
-73.513820123519 231.825385823737 2603.95495274825 25 28 21
-72.2956894052846 231.327777449769 2591.24919486532 25 28 21
-81.2817408259774 230.814482336167 2589.6728554715 25 28 19
-75.4062872569905 230.315774337739 2571.69743938702 21 24 15
-81.7172391346726 229.802995253613 2567.11989836135 19 22 13
-71.9408257029894 229.295945394803 2544.56122587253 18 21 12
-111.71324100231 228.77574997372 2577.48326143661 20 23 14
-100.655474650721 228.264433141063 2553.38337415339 21 24 15
-119.580174145273 227.757190281713 2563.12905467151 22 25 16
-112.623614355565 227.238072350935 2543.46688444263 24 27 18
-126.85326509472 226.732807646476 2547.97056513917 22 25 16
-148.915201659983 226.241896156343 2561.61785037442 23 26 17
-137.474511029793 225.707657451753 2536.56040033976 21 24 15
-133.333007591649 225.176862793614 2519.79791753425 17 20 11
-108.411734892654 224.057444340405 2466.22107928197 13 16 9
-94.2068010029267 223.476846174564 2436.99148125817 12 15 8
-116.195545396478 222.992101174869 2450.69185629519 17 18 12
-118.190426988387 222.45095993658 2440.59713771084 20 20 12
-176.430608825117 221.569941362239 2486.0672036252 29 16 7
-199.283933942646 221.123528141713 2501.61138753778 122 103 89
-214.430170824662 220.652657489252 2507.92086284949 145 122 106
-219.427275433023 220.138875723606 2501.82538493404 145 118 101
-225.062119195229 219.627549504084 2496.50293983999 142 113 95
-230.70185168835 219.115862715728 2491.17694897422 141 114 97
-234.474831417488 218.593214183193 2483.49845266049 141 115 100
-238.266128181962 218.069131331773 2475.80696514886 137 114 100
-243.314393739842 217.551411351424 2469.67467409847 127 109 97
-266.269675436175 217.151181874408 2486.38021807017 99 85 74
167.169900247258 235.078409306421 2593.17944944942 21 26 20
128.678403058892 234.456311714373 2619.61843052744 25 26 20
128.724736706604 233.946127714407 2608.53322150107 25 26 20
110.698000790409 233.39175598652 2615.22450637603 26 27 21
103.526874445839 232.864899678485 2611.25837184757 25 26 20
108.545717888173 232.360030847128 2595.1323173309 25 26 20
104.202291842525 231.835097409539 2588.27561184114 19 20 14
92.7197381632539 231.299844926497 2588.59479782829 24 25 19
103.995387151225 230.790651171172 2565.88790570103 26 27 21
106.662849209907 230.265718892778 2551.76229290067 24 25 19
73.9791335342308 229.717129286089 2573.76628019246 23 24 18
-7.73579922622814 228.659199974645 2635.56615242599 28 31 24
-39.0631357372366 227.13690793722 2635.08101310912 36 39 32
-54.9953664769807 226.639288428407 2640.82056921119 30 33 26
-59.1301547758083 226.131708787708 2634.11519757705 26 29 22
-52.2682547448494 225.606053704153 2615.61940998615 26 29 22
-56.4669109727298 225.093352324763 2608.86771318461 25 28 21
-62.7310812560147 224.583778702315 2604.32410137139 23 26 19
-73.7672616295242 224.085358709469 2604.96735393481 24 27 20
-77.979886043178 223.571634036919 2598.20552611413 26 29 22
-79.4982421830042 223.048963008892 2588.45634455481 24 27 18
-79.0236661241075 222.517329091938 2576.4464323142 18 21 12
-84.6485263833501 222.002919808125 2571.13091438116 16 19 10
-96.3133075269649 221.510603425998 2572.55354837652 18 21 12
-100.592383082683 220.991682169279 2565.74352238309 21 24 15
-109.54805024344 220.491660283142 2564.18927641925 24 27 18
