ply
format ascii 1.0
comment KinectMotionCapture
element vertex 759
property float x
property float y
property float z
property uchar red
property uchar green
property uchar blue
end_header
-137.977465987206 563.864707946777 2767.99988746643 111 113 110
-98.0085730552673 550.872564315796 2703.9999961853 215 220 216
-89.478462934494 543.749451637268 2668.99991035461 137 142 138
-81.5697759389877 539.477825164795 2648.00000190735 169 171 168
-73.6066326498985 533.983170986176 2621.00005149841 180 182 179
-66.2213265895844 531.951308250427 2611.00006103516 173 173 171
-58.9581690728664 530.530095100403 2604.00009155273 161 161 159
-51.7528355121613 529.312014579773 2598.00004959106 152 152 150
-44.5799939334393 528.093338012695 2592.00000762939 149 149 147
-37.4396741390228 526.874125003815 2585.99996566772 156 158 155
-30.3671527653933 526.265501976013 2582.99994468689 169 171 168
-23.2656933367252 524.637699127197 2575.00004768372 167 169 166
-16.2203293293715 523.416817188263 2569.00000572205 168 170 167
-9.21475328505039 522.60285615921 2565.00005722046 169 171 168
-2.2309198975563 521.78829908371 2561.00010871887 163 165 162
4.73299995064735 521.177053451538 2558.00008773804 164 166 163
11.6714313626289 520.157635211945 2552.99997329712 165 167 164
18.6044946312904 519.748985767365 2551.00011825562 163 165 162
25.5366247147322 519.543468952179 2549.99995231628 163 165 162
32.4505008757114 519.133746623993 2548.00009727478 163 165 162
39.3688380718231 518.927156925201 2546.99993133545 162 162 160
46.3179759681225 519.127547740936 2548.00009727478 161 161 159
53.2724000513554 519.327342510223 2549.00002479553 162 162 160
60.255728662014 519.730389118195 2551.00011825562 164 164 162
67.1180412173271 519.114136695862 2548.00009727478 163 163 161
74.0219429135323 518.904864788055 2546.99993133545 163 163 161
80.8883905410767 518.491387367249 2545.00007629395 165 165 163
87.8472104668617 518.688499927521 2546.0000038147 162 162 160
94.8484241962433 519.088864326477 2548.00009727478 162 162 160
101.820290088654 519.284904003143 2549.00002479553 164 164 162
108.88260602951 519.887924194336 2552.00004577637 164 164 162
115.870125591755 520.082831382751 2552.99997329712 164 164 162
122.958965599537 520.684778690338 2555.99999427795 157 157 155
130.114555358887 521.489799022675 2559.99994277954 159 159 157
137.237951159477 522.090613842011 2562.99996376038 158 158 156
144.433528184891 522.894501686096 2566.99991226196 154 154 152
151.650443673134 523.697972297668 2571.00009918213 152 152 150
159.073740243912 525.11191368103 2578.00006866455 152 152 150
166.663482785225 526.932597160339 2586.99989318848 151 151 149
174.167409539223 528.345465660095 2594.00010108948 148 148 146
181.638985872269 529.553949832916 2599.99990463257 146 146 144
188.924908638 530.150949954987 2602.9999256134 145 145 143
196.603089570999 531.765699386597 2611.00006103516 140 142 137
204.324185848236 533.379912376404 2618.99995803833 137 139 134
212.088167667389 534.993529319763 2627.00009346008 126 128 123
219.561204314232 535.79193353653 2631.00004196167 126 128 123
227.486222982407 537.60814666748 2640.00010490417 101 103 100
235.459461808205 539.423584938049 2648.9999294281 154 156 153
240.274861454964 534.111678600311 2622.99990653992 206 208 205
244.476705789566 527.78148651123 2592.00000762939 130 132 129
249.964952468872 524.505436420441 2575.99997520447 147 149 146
255.864411592484 522.24737405777 2565.00005722046 150 152 149
261.805832386017 520.192444324493 2555.0000667572 151 153 152
268.112927675247 518.951714038849 2549.00002479553 152 152 150
273.739337921143 516.489148139954 2536.99994087219 160 162 159
280.2954018116 515.85853099823 2533.99991989136 180 182 179
286.834388971329 515.227496623993 2530.99989891052 189 191 188
294.052571058273 515.817523002625 2533.99991989136 175 177 174
300.692558288574 515.389442443848 2532.00006484985 176 178 175
307.320833206177 514.961004257202 2529.99997138977 173 175 172
314.434200525284 515.34628868103 2532.00006484985 176 181 177
322.19210267067 516.74884557724 2539.00003433228 201 206 202
-241.502702236176 551.955342292786 2746.99997901917 206 211 207
-233.952775597572 551.772058010101 2746.00005149841 181 186 182
-226.160138845444 550.985395908356 2742.00010299683 186 188 185
-218.787387013435 551.202833652496 2743.00003051758 187 189 186
-211.177438497543 550.817012786865 2740.9999370575 145 147 144
-204.098030924797 551.83744430542 2746.00005149841 146 146 144
-196.632787585258 551.852464675903 2746.00005149841 130 130 128
-189.37361240387 552.469968795776 2749.00007247925 127 127 125
-181.832864880562 552.282989025116 2747.99990653992 126 126 124
-174.487397074699 552.698493003845 2750 125 125 123
-167.069777846336 552.912473678589 2750.99992752075 126 126 124
-159.762233495712 553.527891635895 2753.99994850159 129 131 128
-152.603775262833 554.745852947235 2759.99999046326 133 135 134
-145.412191748619 555.963277816772 2766.00003242493 111 113 112
-138.835594058037 559.79323387146 2785.00008583069 105 107 106
-89.9883434176445 539.543747901917 2684.00001525879 151 156 152
-81.6993713378906 533.117711544037 2651.99995040894 175 177 174
-73.6123770475388 526.891946792603 2621.00005149841 183 185 182
-66.2011355161667 524.68603849411 2609.99989509583 171 171 169
-58.9174926280975 523.082733154297 2601.99999809265 162 162 160
-51.7568849027157 522.282898426056 2598.00004959106 151 151 149
-44.5662885904312 520.879507064819 2591.00008010864 151 151 149
-37.4715700745583 520.279586315155 2588.00005912781 157 159 156
-30.3460247814655 518.875002861023 2581.00008964539 171 173 170
-23.2675205916166 517.670810222626 2575.00004768372 168 170 167
-16.2216015160084 516.466200351715 2569.00000572205 168 170 167
-9.22266207635403 516.065061092377 2566.99991226196 169 171 168
-2.23283772356808 515.26141166687 2562.99996376038 163 165 162
4.73522208631039 514.457106590271 2559.00001525879 165 167 164
11.6814943030477 513.652384281158 2555.0000667572 168 170 167
18.5913685709238 512.444913387299 2549.00002479553 167 169 166
25.4885572940111 511.639058589935 2545.00007629395 164 166 163
32.4275717139244 511.837840080261 2546.0000038147 163 165 162
39.3873900175095 512.237071990967 2548.00009727478 163 163 161
46.3216006755829 512.233734130859 2548.00009727478 161 161 159
53.2138720154762 511.827707290649 2546.0000038147 162 162 160
60.1659566164017 512.024402618408 2546.99993133545 166 166 164
67.0969411730766 512.019395828247 2546.99993133545 164 164 162
74.0277245640755 512.013912200928 2546.99993133545 164 164 162
80.8946862816811 511.605799198151 2545.00007629395 166 166 164
87.8195539116859 511.599361896515 2545.00007629395 163 163 161
94.7813391685486 511.793196201324 2546.0000038147 162 162 160
101.748295128345 511.986613273621 2546.99993133545 164 164 162
108.720362186432 512.179493904114 2548.00009727478 165 165 163
115.833722054958 512.974858283997 2552.00004577637 166 166 164
122.968457639217 513.769686222076 2555.99999427795 160 160 158
130.175411701202 514.764964580536 2561.00010871887 161 161 159
137.302055954933 515.357673168182 2563.99989128113 159 159 157
144.669696688652 516.753852367401 2571.00009918213 157 157 155
151.839017868042 517.345488071442 2573.99988174438 156 156 154
159.394428133965 519.142508506775 2582.99994468689 152 152 150
166.933879256248 520.738005638123 2591.00008010864 151 151 149
174.382045865059 521.930873394012 2596.99988365173 148 148 146
181.792467832565 522.922277450562 2601.99999809265 146 146 144
189.15693461895 523.712158203125 2605.99994659424 144 144 142
196.919083595276 525.506317615509 2615.00000953674 140 142 137
204.729631543159 527.299821376801 2624.00007247925 138 140 135
212.265506386757 528.289020061493 2628.99994850159 129 131 126
219.911396503448 529.47860956192 2634.99999046326 127 129 124
227.589279413223 530.6676030159 2641.00003242493 110 112 109
236.276924610138 534.066319465637 2657.99999237061 207 209 206
241.483479738235 529.628336429596 2635.99991798401 215 217 214
244.777634739876 521.372973918915 2595.00002861023 165 167 164
250.371426343918 518.341183662415 2579.99992370605 145 147 144
256.282061338425 516.112864017487 2569.00000572205 145 147 144
262.234717607498 514.085054397583 2559.00001525879 151 153 152
268.342673778534 512.458860874176 2551.00011825562 150 150 148
273.97483587265 510.028779506683 2539.00003433228 164 166 163
280.315399169922 509.004533290863 2533.99991989136 185 187 184
286.854773759842 508.381843566895 2530.99989891052 185 187 184
293.841302394867 508.56214761734 2532.00006484985 177 179 176
300.35737156868 507.938623428345 2529.00004386902 176 178 175
306.977897882462 507.515728473663 2526.99995040894 181 183 180
314.08354640007 507.895767688751 2529.00004386902 179 184 180
321.83375954628 509.279549121857 2536.00001335144 201 206 202
-249.891445040703 546.48745059967 2756.99996948242 211 216 212
-241.608411073685 544.721484184265 2747.99990653992 181 186 182
-233.970075845718 544.342577457428 2746.00005149841 179 181 178
-226.341903209686 543.963074684143 2743.99995803833 171 173 170
-219.122737646103 544.57426071167 2746.99997901917 193 195 192
-211.655512452126 544.590294361115 2746.99997901917 139 141 138
-204.559326171875 545.59713602066 2752.00009346008 143 144 139
-197.148859500885 545.810401439667 2753.00002098084 127 128 123
-189.87013399601 546.419739723206 2756.00004196167 119 120 115
-182.309851050377 546.235501766205 2755.00011444092 117 117 115
-174.944832921028 546.645522117615 2756.99996948242 122 122 120
-167.386159300804 546.460211277008 2756.00004196167 125 125 123
-160.122513771057 547.265768051147 2759.99999046326 130 132 131
-153.002500534058 548.665702342987 2766.99995994568 124 126 125
-146.159380674362 551.25480890274 2779.99997138977 109 111 110
-90.5988663434982 535.850584506989 2701.99990272522 189 194 190
-82.013800740242 527.924478054047 2661.99994087219 174 176 173
-73.758527636528 520.790994167328 2625.99992752075 181 183 180
-66.2062838673592 517.623245716095 2609.99989509583 168 168 166
-58.944720774889 516.239881515503 2602.9999256134 161 161 159
-51.8406145274639 516.045868396759 2601.99999809265 151 151 149
-44.6557700634003 514.859616756439 2595.99995613098 155 155 153
-37.532415241003 514.069557189941 2592.00000762939 159 161 158
-30.3483940660954 511.890530586243 2581.00008964539 173 175 172
-23.2693385332823 510.702610015869 2575.00004768372 169 171 168
-16.2228718400002 509.514212608337 2569.00000572205 168 170 167
-9.22697689384222 509.316861629486 2568.00007820129 169 171 168
-2.23301211372018 508.325636386871 2562.99996376038 163 165 162
4.73929336294532 507.928907871246 2561.00010871887 165 167 164
11.6778323426843 506.539881229401 2553.99990081787 169 171 168
18.5782331973314 505.150377750397 2546.99993133545 169 171 168
25.4705119878054 504.355370998383 2542.99998283386 164 166 163
32.4301049113274 504.948139190674 2546.0000038147 163 165 162
39.4213795661926 505.738615989685 2549.99995231628 163 163 161
46.3615730404854 505.735278129578 2549.99995231628 162 162 160
53.2389171421528 505.136430263519 2546.99993133545 163 163 161
60.1233914494514 504.73541021347 2545.00007629395 167 167 165
67.0758113265038 504.928767681122 2546.0000038147 165 165 163
73.9753395318985 504.724979400635 2545.00007629395 162 162 160
80.9009596705437 504.719018936157 2545.00007629395 165 165 163
87.8953710198402 505.109131336212 2546.99993133545 162 162 160
94.9003621935844 505.498707294464 2549.00002479553 160 160 158
101.876005530357 505.689382553101 2549.99995231628 162 162 160
108.856767416 505.879640579224 2551.00011825562 164 164 162
115.933395922184 506.46585226059 2553.99990081787 167 167 165
123.074121773243 507.24995136261 2558.00008773804 162 162 160
130.287051200867 508.231699466705 2562.99996376038 162 162 160
137.473225593567 509.01460647583 2566.99991226196 159 159 157
144.793286919594 510.193705558777 2572.99995422363 158 158 156
152.027562260628 510.975539684296 2576.99990272522 158 158 156
159.591674804688 512.748181819916 2585.99996566772 153 153 151
167.075410485268 514.123797416687 2592.99993515015 151 151 149
174.462392926216 515.102326869965 2598.00004959106 148 148 146
181.736305356026 515.683650970459 2601.0000705719 146 146 144
189.171135425568 516.661047935486 2605.99994659424 144 144 142
196.858540177345 518.232643604279 2614.00008201599 141 143 138
204.822927713394 520.398497581482 2625 138 140 135
212.442800402641 521.572411060333 2631.00004196167 129 131 126
219.844251871109 522.151172161102 2634.0000629425 128 130 125
227.433711290359 523.125767707825 2638.99993896484 110 112 109
238.250106573105 531.235933303833 2680.0000667572 215 217 214
243.97486448288 527.848541736603 2663.00010681152 211 213 210
245.267167687416 515.343308448792 2599.99990463257 209 211 208
250.777840614319 512.154042720795 2584.00011062622 139 141 138
256.599903106689 509.757220745087 2572.00002670288 142 144 141
262.356072664261 507.360279560089 2559.99994277954 146 148 147
268.467128276825 505.75578212738 2552.00004577637 151 151 149
274.102300405502 503.35830450058 2539.99996185303 165 167 164
280.224710702896 501.951336860657 2532.99999237061 185 187 184
286.988437175751 501.733183860779 2532.00006484985 183 185 182
293.745905160904 501.514494419098 2530.99989891052 175 177 174
300.37847161293 501.097500324249 2529.00004386902 174 176 173
306.634843349457 500.085651874542 2523.9999294281 181 183 180
313.856869935989 500.658512115479 2526.99995040894 179 184 180
321.348249912262 501.627147197723 2532.00006484985 199 204 200
-249.819055199623 538.831651210785 2756.00004196167 207 212 208
-241.977855563164 538.06746006012 2752.00009346008 180 185 181
-234.328106045723 537.693858146667 2750 180 182 179
-226.606085896492 537.124216556549 2746.99997901917 176 178 175
-219.45808827877 537.92279958725 2750.99992752075 191 193 190
-212.056532502174 538.134336471558 2752.00009346008 138 140 137
-205.020576715469 539.323031902313 2757.99989700317 140 141 136
-197.521671652794 539.337992668152 2757.99989700317 128 129 124
-190.228849649429 539.939165115356 2760.99991798401 120 121 116
-182.588279247284 539.562046527863 2759.0000629425 117 117 115
-175.148382782936 539.771020412445 2759.99999046326 123 123 121
-167.581051588058 539.588391780853 2759.0000629425 127 127 125
-160.540774464607 541.165292263031 2766.99995994568 130 132 131
-153.567120432854 543.133020401001 2776.99995040894 129 131 130
-147.11694419384 547.25170135498 2798.00009727478 91 93 92
-90.7735079526901 529.515564441681 2707.00001716614 209 214 210
-82.1125730872154 521.306574344635 2664.99996185303 177 179 176
-73.7923234701157 513.879299163818 2627.00009346008 177 179 176
-66.2367790937424 510.754823684692 2611.00006103516 172 172 170
-58.9945837855339 509.585976600647 2605.00001907349 157 157 155
-51.8645569682121 509.19896364212 2602.9999256134 155 155 153
-44.6592383086681 507.833361625671 2595.99995613098 157 157 155
-37.4774001538754 506.271600723267 2588.00005912781 173 175 172
-30.3272288292646 504.513561725616 2578.9999961853 175 177 174
-23.2711471617222 503.733158111572 2575.00004768372 166 168 165
-16.2304453551769 502.756595611572 2569.9999332428 171 173 170
-9.22050699591637 501.975059509277 2565.99998474121 173 175 172
-2.23492854274809 501.779913902283 2565.00005722046 165 167 164
4.74151223897934 501.192927360535 2562.00003623962 165 167 164
11.6878859698772 500.018537044525 2555.99999427795 167 169 166
18.5942649841309 498.647958040237 2549.00002479553 167 169 166
25.4925265908241 497.863799333572 2545.00007629395 166 168 165
32.4453599750996 498.252779245377 2546.99993133545 165 167 164
39.408978074789 498.641222715378 2549.00002479553 165 167 164
46.3288053870201 498.442322015762 2548.00009727478 163 165 162
53.2012395560741 497.851639986038 2545.00007629395 162 164 161
60.0807890295982 497.455984354019 2542.99998283386 163 165 162
67.0019537210464 497.451096773148 2542.99998283386 165 167 164
73.9519745111465 497.641235589981 2543.99991035461 162 164 161
80.9072032570839 497.830927371979 2545.00007629395 163 165 162
87.9711583256722 498.606890439987 2549.00002479553 164 166 163
94.9448943138123 498.795419931412 2549.99995231628 162 164 161
101.923786103725 498.983532190323 2551.00011825562 159 161 158
108.907781541348 499.171078205109 2552.00004577637 165 167 164
115.987665951252 499.749273061752 2555.0000667572 165 165 163
123.083516955376 500.326931476593 2558.00008773804 164 164 162
130.296990275383 501.295208930969 2562.99996376038 162 162 160
137.590810656548 502.45863199234 2569.00000572205 159 159 157
144.97309923172 503.816962242126 2575.99997520447 160 160 158
152.157068252563 504.392504692078 2578.9999961853 161 161 159
159.665435552597 505.945265293121 2586.99989318848 155 155 153
166.959121823311 506.715357303619 2591.00008010864 153 153 151
174.475476145744 508.071482181549 2598.00004959106 148 148 146
181.680038571358 508.449256420136 2599.99990463257 146 146 144
189.330458641052 509.999871253967 2608.00004005432 147 147 145
197.023823857307 511.549890041351 2615.9999370575 141 143 138
204.760119318962 513.099431991577 2624.00007247925 137 139 134
212.216258049011 513.866126537323 2628.00002098084 129 131 126
219.860464334488 515.023410320282 2634.0000629425 129 131 126
227.96756029129 517.157733440399 2644.99998092651 115 117 114
245.94534933567 509.676516056061 2607.00011253357 216 218 215
251.087129116058 505.748510360718 2586.99989318848 132 134 131
256.817936897278 503.188788890839 2573.99988174438 146 148 145
262.579888105392 500.824391841888 2562.00003623962 148 150 149
268.065452575684 498.068749904633 2548.00009727478 153 153 151
273.690074682236 495.703846216202 2536.00001335144 168 170 167
279.691368341446 494.120627641678 2528.00011634827 177 179 176
286.555260419846 494.100719690323 2528.00011634827 176 178 175
293.070077896118 493.494004011154 2525.00009536743 174 176 173
299.686670303345 493.082523345947 2523.00000190735 182 184 181
306.048631668091 492.279797792435 2519.00005340576 185 187 184
313.133239746094 492.649257183075 2520.99990844727 187 192 188
320.101052522659 492.822974920273 2522.0000743866 198 203 199
-258.913695812225 534.631848335266 2773.00000190735 210 215 211
-249.837189912796 531.372666358948 2756.00004196167 190 192 189
-242.083445191383 530.81202507019 2753.00002098084 178 180 177
-234.515696763992 530.636608600616 2752.00009346008 167 169 166
-226.787701249123 530.074954032898 2749.00007247925 179 181 178
-219.474241137505 530.476927757263 2750.99992752075 180 182 179
-212.457492947578 531.649827957153 2756.99996948242 142 144 141
-205.258786678314 532.436549663544 2760.99991798401 134 135 130
-197.822853922844 532.644391059875 2762.00008392334 129 130 125
-190.58758020401 533.430159091949 2766.00003242493 122 123 118
-183.197572827339 533.829748630524 2767.99988746643 117 118 113
-175.605773925781 533.65033864975 2766.99995994568 122 122 120
-167.897343635559 533.084571361542 2763.99993896484 128 128 126
-160.84298491478 534.639835357666 2772.0000743866 125 127 126
-154.131725430489 537.544786930084 2786.99994087219 128 130 129
-90.7133892178535 521.801888942719 2704.99992370605 188 193 189
-81.9956138730049 513.320684432983 2661.00001335144 179 181 178
-73.7979933619499 506.767868995667 2627.00009346008 174 176 173
-66.3687214255333 504.651248455048 2615.9999370575 167 167 165
-59.1350123286247 503.691494464874 2611.00006103516 159 159 157
-51.9681796431541 503.116965293884 2608.00004005432 151 151 149
-44.6970909833908 501.19161605835 2598.00004959106 160 160 158
-37.4658070504665 499.072641134262 2586.99989318848 176 178 175
-30.3295720368624 497.531950473785 2578.9999961853 174 176 173
-23.2548657804728 496.376514434814 2572.99995422363 165 167 164
-16.2190664559603 495.413392782211 2568.00007820129 172 174 171
-9.22121945768595 495.028585195541 2565.99998474121 175 177 174
-2.23422958515584 494.643181562424 2563.99989128113 165 167 164
4.74187871441245 494.257271289825 2562.00003623962 165 167 164
11.6842165589333 492.906183004379 2555.0000667572 167 169 166
18.5957010835409 491.747498512268 2549.00002479553 167 169 166
25.4944935441017 490.97415804863 2545.00007629395 166 168 165
32.4223823845387 490.971922874451 2545.00007629395 165 167 164
39.3810942769051 491.355001926422 2546.99993133545 165 167 164
46.3141873478889 491.351664066315 2546.99993133545 163 165 162
53.2262399792671 491.154968738556 2546.0000038147 163 165 162
60.0617825984955 490.378975868225 2542.00005531311 163 165 162
66.9807642698288 490.374118089676 2542.00005531311 165 167 164
73.9867314696312 490.947425365448 2545.00007629395 163 165 162
81.0087993741035 491.520285606384 2548.00009727478 163 165 162
88.0124047398567 491.89954996109 2549.99995231628 165 167 164
94.9893966317177 492.085546255112 2551.00011825562 163 165 162
102.011479437351 492.463797330856 2552.99997329712 160 162 159
109.001442790031 492.648661136627 2553.99990081787 165 167 164
115.996509790421 492.83304810524 2555.0000667572 164 164 162
123.092867434025 493.402630090714 2558.00008773804 164 164 162
130.306869745255 494.35743689537 2562.99996376038 162 162 160
137.654766440392 495.697498321533 2569.9999332428 159 159 157
145.040333271027 497.036993503571 2576.99990272522 160 160 158
152.227520942688 497.604459524155 2579.99992370605 161 161 159
159.553989768028 498.5571205616 2585.00003814697 156 156 154
166.778281331062 499.123483896255 2588.00005912781 154 154 152
174.354195594788 500.653624534607 2595.99995613098 149 149 147
181.763455271721 501.604735851288 2601.0000705719 147 147 145
189.417123794556 503.133714199066 2608.99996757507 148 148 146
197.113752365112 504.662215709686 2617.00010299683 141 143 138
204.853251576424 506.190061569214 2625 138 140 135
212.393388152122 507.138848304749 2630.00011444092 129 131 126
220.043510198593 508.279979228973 2635.99991798401 130 132 127
228.501379489899 511.155962944031 2651.00002288818 119 121 118
247.378319501877 505.512833595276 2621.99997901917 213 215 212
251.299321651459 499.132722616196 2588.99998664856 138 140 137
257.135659456253 496.80107831955 2576.99990272522 143 145 142
262.906074523926 494.469225406647 2565.00005722046 142 144 143
268.084496259689 491.173267364502 2548.00009727478 152 152 150
273.601531982422 488.648265600204 2535.00008583069 170 172 169
279.37912940979 486.701250076294 2525.00009536743 175 177 174
286.235213279724 486.681401729584 2525.00009536743 174 176 173
292.626202106476 485.89026927948 2520.99990844727 178 180 177
299.113512039185 485.291600227356 2517.99988746643 183 185 182
305.462181568146 484.499841928482 2513.99993896484 187 189 186
312.409430742264 484.671354293823 2515.00010490417 188 193 189
319.99596953392 485.80601811409 2520.99990844727 196 201 197
329.040259122849 489.059895277023 2538.00010681152 200 205 201
-258.838951587677 526.935636997223 2772.0000743866 210 212 209
-250.308483839035 524.862766265869 2760.99991798401 204 206 203
-242.18887090683 523.549854755402 2753.99994850159 174 176 173
-234.617963433266 523.377001285553 2753.00002098084 161 163 160
-226.886749267578 522.823393344879 2750 184 184 182
-219.570100307465 523.21994304657 2752.00009346008 179 179 177
-212.396025657654 523.996233940125 2756.00004196167 142 142 140
-205.348268151283 525.152266025543 2762.00008392334 134 135 130
-198.052361607552 525.737583637238 2765.00010490417 134 135 130
-190.877318382263 526.702582836151 2769.99998092651 127 128 123
-183.475971221924 527.096807956696 2772.0000743866 119 120 115
-175.809249281883 526.729702949524 2769.99998092651 121 121 119
-168.152883648872 526.362240314484 2767.99988746643 126 126 124
-161.203220486641 528.276145458221 2778.00011634827 132 134 133
-155.028238892555 533.042073249817 2802.99997329712 117 118 120
-90.7873809337616 514.858424663544 2707.00001716614 153 158 154
-82.094319164753 506.686508655548 2664.00003433228 179 181 178
-73.915995657444 500.415921211243 2631.00004196167 180 182 179
-66.4752796292305 498.328983783722 2619.99988555908 153 153 151
-59.162188321352 496.812164783478 2611.99998855591 155 155 153
-51.9522316753864 495.865374803543 2607.00011253357 155 155 153
-44.7005107998848 494.157195091248 2598.00004959106 162 162 160
-37.4976471066475 492.448478937149 2588.99998664856 176 178 175
-30.3671788424253 491.119593381882 2582.00001716614 168 170 167
-23.2928022742271 490.170568227768 2576.99990272522 161 163 160
-16.2329450249672 488.840639591217 2569.9999332428 175 177 174
-9.21833328902721 487.89057135582 2565.00005722046 176 178 175
-2.23091500811279 486.939907073975 2559.99994277954 166 168 165
4.73668985068798 486.749678850174 2559.00001525879 167 169 166
11.6942599415779 486.368596553802 2556.99992179871 168 170 167
18.6263117939234 485.606610774994 2552.99997329712 167 169 166
25.5265049636364 484.653919935226 2548.00009727478 166 168 165
32.424870878458 484.081000089645 2545.00007629395 165 167 164
39.3377169966698 483.888030052185 2543.99991035461 165 167 164
46.2995581328869 484.265238046646 2546.0000038147 164 166 163
53.2303117215633 484.261453151703 2546.0000038147 163 165 162
60.1136349141598 483.876705169678 2543.99991035461 164 166 163
67.012220621109 483.681619167328 2542.99998283386 165 167 164
74.0214437246323 484.246879816055 2546.0000038147 165 167 164
81.0149684548378 484.621405601501 2548.00009727478 164 166 163
87.9845842719078 484.805136919022 2549.00002479553 166 168 165
94.8476567864418 484.417825937271 2546.99993133545 165 167 164
101.859383285046 484.790802001953 2549.00002479553 162 164 161
108.924329280853 485.353410243988 2552.00004577637 164 166 163
116.05067551136 486.105650663376 2555.99999427795 162 162 160
123.19840490818 486.857354640961 2559.99994277954 164 164 162
130.367517471313 487.608551979065 2563.99989128113 164 164 162
137.718677520752 488.929718732834 2571.00009918213 160 160 158
145.107507705688 490.250378847122 2578.00006866455 160 160 158
152.474939823151 491.380214691162 2584.00011062622 160 160 158
159.44242477417 491.178393363953 2582.99994468689 157 157 155
166.855156421661 492.307245731354 2588.99998664856 155 155 153
174.434289336205 493.815779685974 2596.99988365173 148 148 146
182.196229696274 495.704114437103 2607.00011253357 146 146 144
189.866751432419 497.211486101151 2615.00000953674 147 147 145
197.504863142967 498.528242111206 2621.99997901917 142 144 139
205.336540937424 500.224649906158 2631.00004196167 139 141 136
212.731972336769 500.779807567596 2634.0000629425 130 132 127
220.727413892746 502.665162086487 2644.00005340576 132 134 129
229.552388191223 506.261050701141 2663.00010681152 125 127 124
252.093851566315 493.645399808884 2596.99988365173 169 171 168
257.852524518967 491.156309843063 2584.00011062622 138 140 137
263.33475112915 488.286703824997 2569.00000572205 139 141 140
268.313854932785 484.656721353531 2549.99995231628 147 147 145
273.512780666351 481.596738100052 2533.99991989136 174 176 173
279.177337884903 479.486912488937 2523.00000190735 181 183 180
285.574942827225 478.707134723663 2519.00005340576 187 189 186
291.950017213821 477.927029132843 2515.00010490417 186 188 185
298.540145158768 477.52657532692 2513.00001144409 182 184 181
304.875582456589 476.745873689651 2509.0000629425 189 191 188
312.058061361313 477.294862270355 2512.00008392334 189 194 190
319.890707731247 478.793412446976 2519.99998092651 195 200 196
329.710751771927 483.141392469406 2542.99998283386 199 204 200
-258.483856916428 518.681228160858 2767.99988746643 207 209 206
-250.235795974731 517.200291156769 2759.99999046326 179 181 178
-242.206305265427 516.093492507935 2753.99994850159 169 171 168
-234.549686312675 515.735924243927 2752.00009346008 158 160 157
-226.903185248375 515.377640724182 2750 189 189 187
-219.745650887489 516.143500804901 2753.99994850159 177 177 175
-212.411522865295 516.534030437469 2756.00004196167 137 138 133
-205.512002110481 518.048584461212 2763.99993896484 133 134 129
-198.281794786453 518.813073635101 2767.99988746643 134 135 130
-191.304862499237 520.326852798462 2776.00002288818 129 130 125
-184.019044041634 521.090447902679 2779.99997138977 121 122 117
-176.393538713455 520.916223526001 2779.00004386902 122 122 120
-168.833658099175 520.928978919983 2779.00004386902 126 126 124
-161.795526742935 522.628307342529 2788.00010681152 121 123 122
-99.939338862896 516.707360744476 2756.00004196167 209 214 210
-90.6600803136826 506.777822971344 2703.00006866455 149 154 150
-82.1621641516685 499.847203493118 2665.99988937378 180 182 179
-73.9777833223343 493.665874004364 2632.99989700317 186 188 185
-66.480316221714 491.233766078949 2619.99988555908 152 152 150
-59.1666772961617 489.738583564758 2611.99998855591 154 154 152
-51.9960410892963 489.18029665947 2608.99996757507 157 157 155
-44.7383262217045 487.496465444565 2599.99990463257 165 165 163
-37.5584363937378 486.187100410461 2592.99993515015 176 178 175
-30.4047800600529 484.689712524414 2585.00003814697 166 168 165
-23.3036167919636 483.379244804382 2578.00006866455 160 162 159
-16.2278637290001 481.693208217621 2569.00000572205 177 179 176
-9.21544060111046 480.756640434265 2563.99989128113 178 180 177
-2.22847075201571 479.444563388824 2556.99992179871 168 170 167
4.73519926890731 479.631990194321 2558.00008773804 168 170 167
11.6860037669539 479.068875312805 2555.0000667572 169 171 168
18.6204351484776 478.505223989487 2552.00004577637 168 170 167
25.4983901977539 477.191001176834 2545.00007629395 166 168 165
32.4018560349941 476.813822984695 2542.99998283386 165 167 164
39.3561795353889 477.186113595963 2545.00007629395 166 168 165
46.3394448161125 477.745324373245 2548.00009727478 164 166 163
53.2552637159824 477.554053068161 2546.99993133545 163 165 162
60.1418279111385 477.174758911133 2545.00007629395 164 166 163
67.0173093676567 476.794987916946 2542.99998283386 166 168 165
73.9979892969131 477.164685726166 2545.00007629395 166 168 165
81.0528993606567 477.908790111542 2549.00002479553 165 167 164
87.9567191004753 477.714896202087 2548.00009727478 167 169 166
94.8548093438149 477.520525455475 2546.99993133545 166 168 165
101.827092468739 477.700650691986 2548.00009727478 162 164 161
108.97520929575 478.630125522614 2552.99997329712 163 165 162
116.104796528816 479.371577501297 2556.99992179871 162 162 160
123.159505426884 479.737609624863 2559.00001525879 165 165 163
130.377262830734 480.665415525436 2563.99989128113 165 165 163
137.675389647484 481.780290603638 2569.9999332428 161 161 159
145.174577832222 483.456879854202 2578.9999961853 160 160 158
152.486264705658 484.383165836334 2584.00011062622 160 160 158
159.516006708145 484.37163233757 2584.00011062622 157 157 155
166.996389627457 485.671758651733 2591.00008010864 155 155 153
174.648687243462 487.346172332764 2599.99990463257 148 148 146
182.419285178185 489.207446575165 2609.99989509583 146 146 144
190.02591073513 490.505874156952 2617.00010299683 147 147 145
197.74529337883 491.991102695465 2625 142 144 139
205.741763114929 494.038075208664 2635.99991798401 141 143 138
213.232040405273 494.772553443909 2640.00010490417 132 134 129
221.244335174561 496.631026268005 2650.00009536743 137 139 134
230.344787240028 500.737607479095 2671.99993133545 140 142 139
253.276705741882 488.863050937653 2608.99996757507 197 199 196
258.968502283096 486.221730709076 2595.00002861023 128 130 127
263.865858316422 482.268691062927 2573.99988174438 151 153 152
268.858850002289 478.690266609192 2555.0000667572 152 152 150
273.747801780701 475.1116335392 2536.00001335144 156 158 155
279.307395219803 472.844272851944 2523.9999294281 159 161 158
285.48127412796 471.700757741928 2517.99988746643 180 182 179
291.970074176788 471.118956804276 2515.00010490417 187 189 186
298.441767692566 470.536798238754 2512.00008392334 188 190 187
304.896354675293 469.954311847687 2509.0000629425 189 191 188
311.83072924614 470.120757818222 2509.99999046326 191 196 192
319.912254810333 471.97237610817 2519.99998092651 196 201 197
329.084485769272 475.321799516678 2538.00010681152 199 204 200
-258.688986301422 511.555254459381 2769.99998092651 201 203 200
-250.525623559952 510.280609130859 2763.00001144409 187 189 186
-242.663398385048 509.559392929077 2759.0000629425 159 161 158
-234.90746319294 509.022355079651 2756.00004196167 152 154 151
-227.249592542648 508.669435977936 2753.99994850159 174 174 172
-219.921112060547 509.054958820343 2756.00004196167 159 159 157
-212.658166885376 509.624719619751 2759.0000629425 136 136 134
-205.824360251427 511.302173137665 2767.99988746643 130 131 126
-198.582798242569 512.05575466156 2772.0000743866 132 133 128
-191.456690430641 513.17834854126 2778.00011634827 130 131 126
-184.098735451698 513.74626159668 2780.99989891052 126 127 122
-176.596939563751 513.944208621979 2782.00006484985 127 127 125
-169.210642576218 514.511048793793 2785.00008583069 129 129 127
-98.8588854670525 503.699362277985 2726.0000705719 213 218 214
-90.5997976660728 499.086946249008 2700.99997520447 154 159 155
-82.0758789777756 492.071837186813 2663.00010681152 188 190 187
-74.011467397213 486.719012260437 2634.0000629425 190 192 189
-66.4345845580101 483.767718076706 2618.00003051758 161 161 159
-59.125829488039 482.294112443924 2609.99989509583 159 159 157
-51.9800372421741 481.928706169128 2608.00004005432 155 155 153
-44.7933301329613 481.008440256119 2602.9999256134 176 176 174
-37.5902503728867 479.533195495605 2595.00002861023 176 178 175
-30.4306019097567 478.057384490967 2586.99989318848 164 166 163
-23.3325026929379 476.950734853745 2581.00008964539 162 164 161
-16.248045489192 475.289046764374 2572.00002670288 182 184 181
-9.21254511922598 473.626852035522 2562.99996376038 181 183 180
-2.22776783630252 472.333759069443 2555.99999427795 170 172 169
4.7300043515861 472.148865461349 2555.0000667572 170 172 169
11.6868885233998 472.148239612579 2555.0000667572 170 172 169
18.6364371329546 471.96227312088 2553.99990081787 170 172 169
25.5504176020622 471.221446990967 2549.99995231628 167 169 166
32.4297919869423 470.295310020447 2545.00007629395 167 169 166
39.3591523170471 470.292568206787 2545.00007629395 166 168 165
46.324759721756 470.658928155899 2546.99993133545 164 166 163
53.3011071383953 471.02478146553 2549.00002479553 164 166 163
60.2172687649727 470.835745334625 2548.00009727478 164 166 163
67.1014189720154 470.461368560791 2546.0000038147 166 168 165
74.0326270461082 470.456093549728 2546.0000038147 167 169 166
80.9953808784485 470.635056495667 2546.99993133545 165 167 164
87.8942757844925 470.443964004517 2546.0000038147 167 169 166
94.8246866464615 470.43713927269 2546.0000038147 167 169 166
101.794742047787 470.614582300186 2546.99993133545 162 164 161
108.897969126701 471.345782279968 2551.00011825562 163 165 162
116.113439202309 472.446024417877 2556.99992179871 163 163 161
123.168677091599 472.806692123413 2559.00001525879 167 167 165
130.336105823517 473.536342382431 2562.99996376038 166 166 164
137.578442692757 474.45023059845 2568.00007820129 162 162 160
145.129039883614 476.287364959717 2578.00006866455 160 160 158
152.43849158287 477.200090885162 2582.99994468689 159 159 157
159.712925553322 477.927595376968 2586.99989318848 158 158 156
167.073100805283 478.839367628098 2592.00000762939 156 156 154
174.930185079575 481.043696403503 2604.00009155273 149 149 147
182.502523064613 482.3237657547 2611.00006103516 147 147 145
190.112352371216 483.603298664093 2618.00003051758 147 147 145
197.684317827225 484.697580337524 2624.00007247925 143 145 140
205.600544810295 486.530184745789 2634.0000629425 141 143 138
213.247418403625 487.623363733292 2640.00010490417 133 135 130
221.343725919724 489.639490842819 2651.00002288818 139 141 136
230.533719062805 493.871331214905 2674.00002479553 147 149 146
254.945009946823 484.937816858292 2625.99992752075 214 216 213
259.685307741165 480.487793684006 2601.99999809265 129 131 128
264.089375734329 475.668430328369 2575.99997520447 151 153 152
268.667072057724 471.402943134308 2552.99997329712 155 155 153
273.550868034363 467.875897884369 2533.99991989136 155 157 154
279.326677322388 466.010510921478 2523.9999294281 155 157 154
285.274147987366 464.51410651207 2516.00003242493 166 168 165
291.757822036743 463.940531015396 2513.00001144409 175 177 174
298.105627298355 463.182032108307 2509.0000629425 182 184 181
304.552406072617 462.607830762863 2506.00004196167 186 188 185
311.47900223732 462.771713733673 2506.99996948242 189 194 190
319.298923015594 464.227288961411 2515.00010490417 195 200 196
327.939391136169 466.789871454239 2529.00004386902 198 203 199
-267.388939857483 506.218433380127 2782.00006484985 208 213 209
-258.520394563675 503.689289093018 2767.99988746643 195 197 194
-250.543355941772 502.797424793243 2763.00001144409 168 170 167
-243.032470345497 502.814769744873 2763.00001144409 156 158 155
-235.350370407104 502.467751502991 2760.99991798401 151 153 150
-227.678462862968 502.12025642395 2759.0000629425 162 164 161
-220.176294445992 502.136170864105 2759.0000629425 155 157 154
-212.904691696167 502.697706222534 2762.00008392334 136 136 134
-205.987945199013 504.168748855591 2769.99998092651 129 129 127
-198.812112212181 505.093395709991 2775.00009536743 130 132 129
-191.608428955078 506.017625331879 2779.99997138977 131 133 130
-184.376955032349 506.941318511963 2785.00008583069 124 126 123
-176.927238702774 507.318556308746 2786.99994087219 129 131 128
-170.134454965591 509.697556495667 2799.99995231628 131 133 130
-98.7574309110641 495.768308639526 2723.00004959106 214 219 215
-90.4052779078484 490.677326917648 2694.9999332428 176 178 175
-81.7737728357315 483.03684592247 2653.00011634827 190 192 189
-73.8764852285385 478.672802448273 2628.99994850159 183 185 182
-66.3634166121483 476.128995418549 2615.00000953674 153 155 152
-59.1529197990894 475.405395030975 2611.00006103516 162 164 161
-51.983930170536 474.863290786743 2608.00004005432 165 165 163
-44.7794795036316 473.774403333664 2601.99999809265 187 187 185
-37.5496111810207 471.956640481949 2592.00000762939 174 176 173
-30.3858295083046 470.32043337822 2582.99994468689 162 164 161
-23.2980884611607 469.229936599731 2576.99990272522 165 167 164
-16.2303131073713 467.774778604507 2569.00000572205 182 184 181
-9.21323709189892 466.683208942413 2562.99996376038 179 181 178
-2.23055039532483 465.955346822739 2559.00001525879 171 173 170
4.73591405898333 465.773165225983 2558.00008773804 168 170 167
11.6877667605877 465.226292610168 2555.0000667572 170 172 169
18.630538135767 464.860916137695 2552.99997329712 171 173 170
25.5322959274054 463.948935270309 2548.00009727478 167 169 166
32.4322246015072 463.400483131409 2545.00007629395 167 169 166
39.3466353416443 463.215678930283 2543.99991035461 166 168 165
46.3100373744965 463.576674461365 2546.0000038147 165 167 164
53.2632730901241 463.755011558533 2546.99993133545 167 169 166
60.1981282234192 463.750779628754 2546.99993133545 164 166 163
67.1064332127571 463.56400847435 2546.0000038147 164 166 163
73.979988694191 463.194608688354 2543.99991035461 167 169 166
80.8742046356201 463.006734848022 2542.99998283386 167 169 166
87.7627208828926 462.818384170532 2542.00005531311 165 167 164
94.7944968938828 463.357895612717 2545.00007629395 165 167 164
101.842269301414 463.896751403809 2548.00009727478 163 165 162
108.906045556068 464.435160160065 2551.00011825562 163 165 162
115.985803306103 464.97306227684 2553.99990081787 164 166 163
123.081505298615 465.510427951813 2556.99992179871 163 165 162
130.345717072487 466.593444347382 2562.99996376038 163 165 162
137.64214515686 467.67583489418 2569.00000572205 160 162 159
145.083397626877 469.121873378754 2576.99990272522 157 159 156
152.272611856461 469.657123088837 2579.99992370605 159 161 158
159.724608063698 470.91993689537 2586.99989318848 157 159 156
167.085275053978 471.818268299103 2592.00000762939 155 157 154
174.875721335411 473.808139562607 2602.9999256134 151 153 150
182.445839047432 475.069314241409 2609.99989509583 147 149 146
190.053477883339 476.330071687698 2617.00010299683 148 150 147
197.698563337326 477.590203285217 2624.00007247925 146 146 144
205.45919239521 479.031831026077 2631.99996948242 144 144 142
213.343471288681 480.654835700989 2641.00003242493 136 138 135
221.442997455597 482.641249895096 2651.99995040894 141 146 142
230.463922023773 486.447006464005 2673.00009727478 157 162 158
255.739629268646 479.281663894653 2634.0000629425 209 214 210
260.701537132263 475.260645151138 2611.99998855591 136 138 135
264.722883701324 469.783902168274 2582.00001716614 148 148 146
269.001394510269 465.034991502762 2555.99999427795 163 165 162
273.677676916122 461.195677518845 2535.00008583069 167 169 166
279.235154390335 458.99361371994 2523.00000190735 168 170 167
285.180240869522 457.519054412842 2515.00010490417 167 169 166
291.661560535431 456.95373415947 2512.00008392334 168 170 167
297.76930809021 455.842405557632 2506.00004196167 176 178 175
303.965151309967 454.912692308426 2500.99992752075 179 181 178
310.754328966141 454.892158508301 2500.99992752075 186 188 185
318.304419517517 455.962538719177 2506.99996948242 197 199 196
326.275229454041 457.578092813492 2516.00003242493 200 202 199
-267.023086547852 497.965723276138 2778.00011634827 201 206 202
-258.912116289139 496.908456087112 2772.0000743866 184 186 183
-250.923633575439 496.029853820801 2766.99995994568 166 168 165
-243.401437997818 496.047228574753 2766.99995994568 149 151 148
-235.793247818947 495.884776115417 2766.00003242493 145 147 144
-228.107243776321 495.542585849762 2763.99993896484 154 156 153
-220.511183142662 495.379120111465 2763.00001144409 149 151 148
-213.459521532059 496.470361948013 2769.00005340576 136 136 134
-206.151440739632 497.023195028305 2772.0000743866 127 127 125
-198.969677090645 497.93416261673 2776.99995040894 129 131 128
-191.622227430344 498.486071825027 2779.99997138977 133 135 132
-184.390276670456 499.396204948425 2785.00008583069 128 130 127
-177.003547549248 499.947160482407 2788.00010681152 130 132 129
-170.268326997757 502.470135688782 2802.00004577637 130 132 129
-98.547101020813 487.314015626907 2717.00000762939 207 212 208
-90.0093987584114 481.222808361053 2683.00008773804 181 183 180
-81.4407467842102 473.875254392624 2641.99995994568 188 190 187
-73.7414509057999 470.652461051941 2624.00007247925 164 166 163
-66.3937106728554 469.222664833069 2615.9999370575 155 157 154
-59.2026226222515 468.689233064651 2612.99991607666 161 163 160
-51.9877970218658 467.79653429985 2608.00004005432 170 170 168
-44.7139628231525 466.006398200989 2598.00004959106 192 192 190
-37.5234261155128 464.574426412582 2589.99991416931 170 172 169
-30.3763318806887 463.14200758934 2582.00001716614 160 162 159
-23.3088675886393 462.426513433456 2578.00006866455 164 166 163
-16.2441600114107 461.172372102737 2571.00009918213 182 184 181
-9.21392347663641 459.738284349442 2562.99996376038 179 181 178
-2.22984491847456 458.841860294342 2558.00008773804 172 174 171
4.73256362602115 458.482980728149 2555.99999427795 169 171 168
11.688637547195 458.30300450325 2555.0000667572 171 173 170
18.6246298253536 457.763731479645 2552.00004577637 171 173 170
25.5341976881027 457.044661045074 2548.00009727478 167 169 166
32.4473865330219 456.683754920959 2546.0000038147 167 169 166
39.3341034650803 456.142991781235 2542.99998283386 165 167 164
46.2589114904404 456.139773130417 2542.99998283386 165 167 164
53.1835742294788 456.136077642441 2542.99998283386 167 169 166
60.1553320884705 456.49066567421 2545.00007629395 165 167 164
67.1114176511765 456.665277481079 2546.0000038147 165 167 164
74.0145593881607 456.480741500854 2545.00007629395 167 169 166
80.9119939804077 456.295669078827 2543.99991035461 167 169 166
87.7692103385925 455.930709838867 2542.00005531311 166 168 165
94.7269722819328 456.103354692459 2542.99998283386 165 167 164
101.769827306271 456.634163856506 2546.0000038147 164 166 163
108.785971999168 456.985205411911 2548.00009727478 164 166 163
115.948908030987 457.873702049255 2552.99997329712 164 166 163
123.138673603535 458.761721849442 2558.00008773804 163 165 162
130.45696914196 460.007846355438 2565.00005722046 163 165 162
137.652203440666 460.715442895889 2569.00000572205 160 162 159
145.037665963173 461.960554122925 2575.99997520447 157 159 156
152.283668518066 462.667018175125 2579.99992370605 158 160 157
159.736201167107 463.911056518555 2586.99989318848 157 159 156
166.968435049057 464.437216520309 2589.99991416931 155 157 154
174.686789512634 466.218143701553 2599.99990463257 151 153 150
182.249248027802 467.460513114929 2607.00011253357 147 149 146
190.067112445831 469.240248203278 2617.00010299683 148 150 147
197.788059711456 470.660835504532 2625 146 146 144
205.786108970642 472.618758678436 2635.99991798401 144 144 142
213.924139738083 474.755346775055 2648.00000190735 137 139 136
221.709221601486 475.994944572449 2654.99997138977 141 146 142
230.738863348961 479.743927717209 2676.00011825562 159 164 160
256.728380918503 473.939388990402 2644.00005340576 207 212 208
261.218696832657 469.081819057465 2617.00010299683 134 136 133
265.663981437683 464.403420686722 2591.00008010864 140 140 138
269.335627555847 458.649575710297 2559.00001525879 152 154 151
273.804366588593 454.508811235428 2536.00001335144 165 167 164
278.922110795975 451.622545719147 2519.99998092651 168 170 167
284.972757101059 450.348973274231 2513.00001144409 166 168 165
291.216760873795 449.433565139771 2507.99989700317 169 171 168
297.313988208771 448.338687419891 2502.00009346008 175 177 174
303.742378950119 447.781056165695 2499.00007247925 178 180 177
310.402154922485 447.581499814987 2497.99990653992 184 186 183
317.817568778992 448.456645011902 2503.00002098084 196 198 195
325.129479169846 449.152201414108 2506.99996948242 199 201 198
-279.039770364761 498.365044593811 2822.99995422363 208 213 209
-267.04153418541 490.439474582672 2778.00011634827 197 202 198
-258.74325633049 489.045232534409 2769.99998092651 178 180 177
-250.850409269333 488.356649875641 2766.00003242493 155 157 154
-243.330478668213 488.373816013336 2766.00003242493 148 150 147
-235.895022749901 488.56708407402 2766.99995994568 145 147 144
-228.53596508503 488.936483860016 2769.00005340576 150 152 149
-221.165254712105 489.305377006531 2770.99990844727 146 148 145
-213.783010840416 489.673942327499 2773.00000190735 136 136 134
-206.463605165482 490.218549966812 2776.00002288818 127 127 125
-199.198827147484 490.939229726791 2779.99997138977 126 128 125
-191.773787140846 491.306364536285 2782.00006484985 129 131 128
-184.469684958458 492.026150226593 2786.00001335144 126 128 125
-177.079737186432 492.568880319595 2789.00003433228 131 133 130
-170.523673295975 495.583772659302 2805.99999427795 130 132 129
-98.1553122401237 478.007674217224 2706.00008964539 177 182 178
-89.5127356052399 471.301883459091 2667.99998283386 188 190 187
-81.2617614865303 465.655297040939 2635.99991798401 183 185 182
-73.69065284729 463.187783956528 2621.99997901917 160 162 159
-66.4239972829819 462.309688329697 2617.00010299683 161 163 160
-59.2069774866104 461.607575416565 2612.99991607666 160 162 159
-51.9118867814541 460.021793842316 2604.00009155273 188 188 186
-44.6484200656414 458.258777856827 2594.00010108948 193 193 191
-37.4972224235535 457.20174908638 2588.00005912781 165 167 164
-30.3785763680935 456.144273281097 2582.00001716614 163 165 162
-23.3196336776018 455.616295337677 2578.9999961853 171 173 170
-16.2516795098782 454.381108283997 2572.00002670288 184 186 183
-9.22539085149765 453.322023153305 2565.99998474121 180 182 179
-2.23175319842994 452.262461185455 2559.99994277954 174 176 173
4.7384686768055 452.085733413696 2559.00001525879 171 173 170
11.6940764710307 451.555103063583 2555.99999427795 171 173 170
18.6260063201189 450.847327709198 2552.00004577637 171 173 170
25.5060195922852 449.609071016312 2545.00007629395 166 168 165
32.4115455150604 449.253618717194 2542.99998283386 167 169 166
39.3060632050037 448.89760017395 2540.99988937378 164 166 163
46.2623275816441 449.247866868973 2542.99998283386 164 166 163
