ply
format ascii 1.0
comment KinectMotionCapture
element vertex 802
property float x
property float y
property float z
property uchar red
property uchar green
property uchar blue
end_header
3.82267727279206 145.176736480845 3008.54907503657 13 20 12
-0.462343542563026 145.897703757773 3014.11451471952 11 18 10
-35.5207976196055 144.097331285275 3001.01587692001 17 24 16
192.289585324953 92.1948549467883 2660.60497712015 59 52 46
187.619898087886 92.9681466692172 2666.54466271608 66 53 47
192.250938783204 94.7955317018369 2680.09705663482 57 42 37
87.6671888354554 101.284457059869 2731.97875433096 52 55 48
79.7841018165526 101.720307412563 2735.49129198724 19 22 15
218.815288209013 119.816439650024 2866.82285203679 18 21 14
221.830664467175 121.290646700298 2877.78075838193 14 17 10
214.309756803273 121.68088820697 2880.94072539422 19 22 15
210.855282264743 122.486207523187 2887.08586246969 18 21 14
203.322409246989 122.877885723055 2890.25716107061 18 21 14
200.695151467932 123.764482775679 2896.98609402119 18 21 14
200.544404579625 124.895555687631 2905.4707474176 13 16 9
204.534088765844 126.432442150534 2916.86879691517 11 14 7
197.014630381437 126.822377624996 2920.02703216093 15 18 11
196.92872232158 127.945258144617 2928.4485104742 18 21 14
191.892598915313 128.578799979881 2933.35581825764 18 21 14
186.857368470255 129.212218186542 2938.26225758964 20 23 16
185.154843735248 130.167731454206 2945.47964048865 21 24 15
196.827225746557 132.406203577501 2961.89849864799 19 22 13
195.188498001439 133.353674220896 2969.0537188893 19 22 13
191.049960200663 134.059580436047 2974.4759247917 21 24 15
181.031308932468 134.207799966911 2975.90055523167 24 27 18
182.787443987393 135.469575713397 2985.30648532512 27 30 19
174.440302332801 135.778163268232 2987.88139832086 26 29 18
160.153286462062 135.536632804978 2986.51729835751 23 26 17
147.521389858807 135.45753478648 2986.31945168542 20 23 14
139.957863622049 135.852896719632 2989.52064493178 19 22 13
141.759194630664 137.108950841935 2998.88254042866 19 22 13
145.300721446251 138.516743486569 3009.3277875125 20 23 14
143.744753796164 139.453731150035 3016.40237513587 20 23 14
137.056594794079 139.924322800425 3020.14044401825 21 24 15
130.361380950684 140.395756051967 3023.88505623206 24 27 18
128.831263797669 141.329477478426 3030.93445667811 21 24 15
95.515635210289 140.516065308514 3025.87833600999 19 22 13
67.9337989153952 139.166794457111 3016.62458383123 18 21 12
33.294714335693 137.222596223896 3003.13076330606 23 26 17
11.5995605095125 136.430172873135 2997.86818750532 13 16 7
3.80899366215948 136.854048159005 3001.2906211732 16 22 12
3.88726660297678 137.956120488213 3009.55214076722 15 22 14
-29.3527789232133 136.206571339742 2997.47410336604 14 21 13
11.3156857021028 141.840132648579 3038.44390048513 5 10 3
80.5190193419039 92.8770644929575 2727.56640387169 38 41 34
74.22618775237 93.481344265563 2732.30905706103 14 17 10
84.8514728030665 95.9062719198359 2749.73980209316 41 44 37
202.68640980843 110.983208535154 2855.804401012 17 20 13
210.5322781033 113.005530296288 2870.38667783231 14 17 10
213.560009626878 114.505673062998 2881.32848192869 18 21 14
204.395478193776 114.718937386761 2883.31259231392 17 20 13
205.838615089412 116.042294186849 2893.01989471169 17 20 13
203.217061080101 116.936775187618 2899.7419984905 17 20 13
199.786849816456 117.744945376108 2905.86295825966 14 17 10
202.127802607082 119.14335469739 2916.08453278941 12 15 8
198.728501415517 119.947617123498 2922.17537596562 13 16 9
203.609068536944 121.59070310015 2934.09031645683 15 18 11
196.930246082739 122.055301774182 2937.81966192644 16 19 12
193.568657741583 122.854795154058 2943.87376054765 21 24 17
171.891330542223 121.821430948335 2937.21218427837 23 26 17
181.862210936579 123.952343344084 2952.50206165751 21 24 15
192.740661746657 126.157143828758 2968.29703472991 20 23 14
189.434922803226 126.949536752905 2974.29638567584 19 22 13
175.209270131136 126.671137118995 2972.87680039643 22 25 14
170.21066377174 127.300424770544 2977.74748196422 27 30 19
169.435759383595 128.338599337494 2985.44875400181 28 31 20
162.755598118642 128.803314270783 2989.17941174722 19 22 13
154.371897589945 129.106273894395 2991.79179789315 18 21 14
145.973613727841 129.411066450575 2994.41839459811 17 20 13
142.674295160777 130.202618657076 3000.41149427309 18 21 14
149.634338349664 131.960053315088 3013.07840223927 20 23 16
140.382733072115 132.184153708138 3015.14737667292 23 26 19
133.686670610257 132.650849283871 3018.89353180383 22 25 18
126.123851253325 133.038552901878 3022.09515500371 21 24 17
119.412394676325 133.507225867464 3025.85664230315 18 21 14
115.285520080854 134.214838695792 3031.26701423359 14 17 10
73.9333321395064 131.519657283795 3013.21411150257 18 21 14
58.4524018689678 131.211129726671 3011.62857901101 17 20 11
38.5771940884525 130.515140831642 3007.37833554818 23 26 17
9.92137012212257 129.043402954406 2997.79226025883 12 18 8
-3.98778128472355 128.913212635947 2997.45338858991 16 22 12
-10.0553129006586 129.488917467471 3001.97653893873 15 22 14
-30.1643675980667 128.822408553512 2997.95448963493 15 22 14
86.2013659766658 85.8588945575992 2732.88007302234 116 119 112
79.922181396408 86.459235205747 2737.60975673061 9 12 5
86.531911811202 88.4901520021517 2752.00135707913 106 109 102
159.430803151092 97.8232959643065 2815.68224696987 13 16 9
201.132192397142 103.641825404191 2855.59899646216 17 20 13
215.466274418096 106.417624485473 2874.96296774591 22 25 18
212.81086192447 107.32498149207 2881.71679043213 18 21 14
197.120764519839 106.820122840216 2878.95073448713 17 20 13
198.546246246385 108.167811754417 2888.67197245296 16 19 12
200.823172404813 109.599158007178 2898.95259615288 16 19 12
198.208300110279 110.501394142255 2905.66691868467 15 18 11
194.782839421668 111.314863710008 2911.78237781665 14 17 10
184.764793093318 111.431682092995 2913.21104861835 12 14 9
207.807919922017 115.01922175167 2937.97694146502 15 18 11
211.916394842301 116.601617126156 2949.25064165235 18 21 14
205.265635884652 117.057783998633 2952.95336587161 22 25 18
183.615880665231 115.967445360301 2946.27283101492 22 25 18
177.751621241105 116.515450918686 2950.59822301284 22 25 16
195.314066851859 119.457172206846 2970.98292409338 21 24 15
192.85293671736 120.340012418276 2977.54744509658 19 22 11
171.909964432509 119.351507786387 2971.56692263373 20 23 12
161.0055005717 119.389096495815 2972.47061994226 18 21 10
165.276138966491 120.950996207035 2983.58598081028 17 20 9
174.669061214648 123.012959824224 2998.04306045401 17 20 13
175.644797748469 124.226379713273 3006.81383763024 17 20 13
153.68970592688 123.174496289033 3000.43082286936 17 20 13
152.112567168915 124.136883869089 3007.52301746123 15 18 11
141.155300109839 124.18107043032 3008.4778361246 15 18 11
134.452901343991 124.64376422834 3012.23121260203 19 22 15
110.582119556382 123.451412297859 3004.93711100296 16 19 12
106.407128370056 124.16834210426 3010.39388637412 15 18 11
113.44211641957 125.954704439893 3022.98243532968 17 20 13
73.8833938135763 123.302607406531 3005.97604579145 15 18 11
62.742194720014 123.370009487121 3007.11041828245 16 19 12
47.2364697187779 123.032808760093 3005.553745207 14 17 8
36.9028616146134 123.189349289471 3007.28990260106 21 24 15
16.0879504784091 122.37558552501 3002.57329621834 11 17 7
-6.5425258160885 121.408787918947 2996.84837257631 13 21 10
-20.4949738066409 121.257667272968 2996.55558854832 16 24 13
-30.098205029252 121.513122561674 2998.96909850352 15 22 14
79.9917423832848 78.8285937775016 2738.66848711298 5 8 1
95.4639098806447 81.9136319360759 2759.69077377153 176 179 172
137.690837191781 88.0168388126947 2800.4604903132 12 15 8
195.530363202048 95.8315193667153 2852.39701457654 18 21 14
207.415621031464 98.4003749640483 2869.97222484417 20 23 16
200.673176104412 98.8631955315866 2873.7650111732 20 23 16
189.846856653616 98.8725417633634 2874.59528415325 18 21 14
186.350657288568 99.7008321672898 2880.77879732353 15 18 11
191.055986826886 101.431815288983 2892.8544223236 14 17 10
181.847879385813 101.624519896295 2894.88484304604 12 15 8
194.023975795965 104.156712051373 2912.17666514437 11 14 7
198.031409039814 105.78207077413 2923.54435124596 13 15 10
208.698668768957 108.117121583913 2939.52945140055 14 17 10
210.321756617187 109.462059268879 2949.05520803886 18 21 14
206.991076482984 110.269488872093 2955.07744138332 21 24 17
186.178479146272 109.213762195653 2948.9773900585 21 24 17
191.172500132211 110.908354398113 2960.77171874541 17 20 11
203.744938500187 113.390623366811 2977.67768388775 17 20 11
192.916174125809 113.400298320934 2978.51033612805 20 23 12
180.379954131952 113.237876761557 2978.22979635143 21 24 15
172.865231953491 113.604424171264 2981.38678522042 17 20 11
171.25121529535 114.582754156393 2988.51290598983 14 17 8
176.425187149116 116.254706393231 3000.13222482385 17 20 13
178.252913012144 117.573804420197 3009.45825413653 18 21 14
160.555735840348 116.900052638915 3005.87640176576 17 20 13
152.175964116729 117.182007339954 3008.48799106855 13 16 9
148.906469051713 117.981689179438 3014.45027400893 13 16 9
129.37983323385 117.151227063379 3009.87410635967 17 20 13
120.084589624367 117.35489804963 3011.98909591744 14 17 10
109.051126238565 117.390397455129 3013.02120045945 14 17 10
86.7868273516139 116.324068968132 3006.94736785936 21 24 17
79.9951442444797 116.793178425331 3010.78845677593 20 23 16
59.3441071608352 115.910780676452 3005.91926510944 18 21 14
49.0369172068528 116.048381084891 3007.63198823144 15 18 11
29.141487423006 115.264429966245 3003.41516413707 22 25 16
3.0804276089671 113.902107576246 2995.48734392075 12 18 8
-3.85576838317192 114.389396619001 2999.46891149163 14 21 13
-36.1859450122974 112.461752566429 2987.93093033409 17 24 16
-66.8803682551258 110.715202909175 2977.57567484597 17 24 16
169.256437318602 84.3048847282433 2824.9275254495 31 34 27
211.787772269725 90.5296762675883 2865.37699054464 23 26 19
190.439145124937 89.2942560132555 2858.41887405784 15 18 11
172.267577323032 88.4438043090732 2853.91696760726 14 17 10
194.804869808976 92.2798663643324 2879.14842993221 13 16 9
206.032318904751 94.7925367511961 2895.96824882839 15 18 11
192.759842520307 94.5027270529648 2895.02074112507 17 20 13
185.198080924486 94.8675841899145 2898.22469065244 15 18 11
197.381602281927 97.4561318440609 2915.5011481922 13 16 9
202.221346742522 99.2030956261337 2927.44093525281 11 14 7
211.243861837628 101.404619795544 2942.24520768648 11 14 7
207.069765411152 102.127931067479 2947.70048921206 16 19 12
192.92916305257 101.751205908573 2946.21064234173 19 22 15
187.075615271098 102.293498783122 2950.52624185232 20 23 16
184.558247492486 103.200677485611 2957.14301044912 17 20 13
197.951331542722 105.833081551724 2974.62878171349 17 20 13
183.754393693975 105.463486939512 2973.19382292599 16 19 12
178.762490479992 106.093524475552 2978.05773733869 16 19 12
172.929116894666 106.633295264044 2982.3536763375 17 20 13
177.226286535927 108.252316371924 2993.43424876809 17 20 13
172.256577192299 108.879565231838 2998.27653650455 15 18 11
168.984516427868 109.685551339317 3004.24077329631 14 17 10
147.865195800194 108.617775361357 2998.44708361512 14 17 10
147.978613720997 109.782427807599 3006.66445441051 15 18 11
143.845272530338 110.500604137128 3012.0796864847 14 17 10
156.838554701635 112.987029875825 3028.56713314034 14 17 10
142.457198124348 112.640746829017 3027.31185943731 15 18 11
107.395832900346 110.188848653364 3012.89549834644 16 19 12
94.6086805146145 110.034360247828 3012.86296562774 16 19 12
80.9238500460205 109.796694655438 3012.31722474961 17 20 13
71.5298294837647 109.999902260659 3014.53036976919 19 22 15
34.3520635472254 107.422131829967 2999.40007325891 24 26 21
-22.9687034624586 102.867398293994 2971.97298966464 20 22 17
-16.8982899016887 104.655644162001 2984.10184980158 13 18 12
-32.6135937963681 104.281260915356 2982.75844938363 12 17 11
-42.2462665132897 104.514641810072 2985.2044577637 25 30 24
183.519079245354 80.0001342418917 2845.40893993677 15 18 11
188.070827905239 81.8163550068018 2857.62481277502 10 13 6
209.7522256622 85.6536382057545 2882.28910141606 12 15 8
158.994139303109 80.9055755504979 2854.04172799377 12 15 8
199.559120767943 86.9409500375581 2892.22074113129 17 20 13
204.294950318631 88.7339314497715 2904.25691584795 19 22 15
191.012023021678 88.4189226323502 2903.32351047404 15 18 11
187.568968490894 89.2523289337399 2909.45349391086 11 14 7
188.25988194755 90.5599252510659 2918.49318537819 13 16 9
195.595063821054 92.6224907784506 2932.15972403545 13 16 9
198.844537498321 94.2047548732429 2942.86919739884 18 21 14
184.684856471621 93.8012370220013 2941.40225587621 20 23 16
176.313457226758 94.0615575007005 2944.00872871245 21 24 17
182.118493597952 95.9188746299299 2956.39090361939 18 21 14
180.444448426426 96.9274260972742 2963.5721668681 17 20 13
181.302730458679 98.2139450595789 2972.44877408957 15 18 11
175.464529766832 98.7521508274594 2976.74973778587 14 17 10
176.363458148022 100.033551199964 2985.58673910732 16 19 12
172.22383453025 100.755786632318 2991.00794763288 17 20 13
173.167150786777 102.031594893394 2999.80169764957 14 17 10
148.779838049529 101.724438157769 2999.97457188659 14 17 10
125.886039573439 100.431543889366 2993.14241869006 15 18 11
131.097845356283 102.164601878223 3004.71513646975 14 17 10
131.220719200917 103.344811244513 3012.92081808701 14 17 10
131.367405691854 104.521967189125 3021.10296684686 15 18 11
101.441238098348 102.523199367533 3010.0224377186 16 19 12
100.706725214515 103.612410269591 3017.67571940528 17 20 13
89.627040160086 103.617094896299 3018.75827715837 17 20 13
104.492658118374 106.322770520539 3036.18788029742 20 23 16
18.8009209736029 98.6143719027747 2990.63831386446 10 12 7
-18.5530202012618 95.9595851914539 2975.69400710084 21 23 18
-60.4061557678559 92.8768130814603 2958.19617634494 18 23 17
-28.1783909900928 97.3749046669365 2986.46020614261 15 20 14
141.933077907584 66.3177712704085 2806.53987970749 24 27 20
167.395455850134 70.7770279675678 2834.44289399227 7 10 3
184.891469959495 74.2227373333017 2856.23598263569 19 22 15
207.377773570038 78.2500336674202 2881.49015116675 19 22 15
150.907910664023 72.6587497617924 2849.12024311566 17 20 13
187.365491353352 78.3548707358437 2884.34288519028 15 18 11
203.541271405591 81.5634658731956 2904.64821251303 16 19 12
192.72019715925 81.5169014497884 2905.48154049794 14 17 10
192.573424011309 82.7477498980571 2913.94750113074 11 14 7
166.874116667211 80.9449394807054 2904.30831214244 11 14 7
173.212632712676 84.1847768409831 2925.8754388682 12 15 8
165.640167437074 84.5358504717481 2929.09205450402 16 19 12
187.205221392576 88.2756404109128 2952.4693744033 17 20 13
182.183482979446 88.9104701809423 2957.3622073197 19 22 15
185.529452907526 90.5081133603514 2967.97358545757 19 22 15
176.335965294225 90.6600656158633 2969.9955116547 18 21 14
183.094300072661 92.6345867239677 2982.83063377174 17 20 13
183.168041656995 93.8376892268972 2991.08172085418 13 16 9
175.666026801064 94.1799367461263 2994.22968267725 12 15 8
163.921453363605 94.0481929958835 2994.57540131837 13 16 9
172.506037625356 96.196027695286 3008.40557150587 13 16 9
135.241177130552 93.2286969981508 2992.00242869898 13 16 9
108.056012648284 91.4118463593954 2982.42388363477 14 17 10
96.1448561423923 91.3011970333916 2982.93190397869 13 16 9
109.028844269393 93.9158733360012 2999.50892585864 14 17 10
114.272877908107 95.6777566502184 3011.04504268855 15 18 11
101.506734174392 95.4732133022527 3010.99938400846 16 19 12
78.3645122144065 94.1555833446389 3004.41723708588 16 19 12
81.0549457230549 95.634159212611 3014.28026135776 16 19 12
51.7502892115811 93.6811526708097 3003.99237051598 17 20 13
-35.0062069687906 86.86755827848 2966.45309614424 21 23 18
-64.6944546422801 84.9630624480571 2956.5389471349 13 18 12
-76.148124742875 84.9967259053281 2957.98859450884 12 17 11
185.610170987218 64.4762098497024 2839.95890905777 23 26 19
177.986798962336 64.825891401132 2843.22628159689 16 19 12
179.278468996526 66.3009786387758 2853.06156713476 25 28 21
188.736150577394 68.7914576921438 2868.80825256918 22 25 18
189.295990873646 70.1543609240713 2877.96992728459 19 22 15
159.645060264089 67.7601721837127 2865.25727964191 15 18 11
202.788044972181 74.3876250033346 2905.03985432516 16 19 12
196.070885648891 74.8276321258369 2908.81090349307 15 18 11
188.523851962747 75.167822696562 2912.00387369613 13 16 9
190.041518301189 76.6145354655195 2921.61927313911 10 13 6
164.301113474547 74.7499063953179 2912.03003132841 10 13 6
155.042969970187 74.8969792853613 2914.11688294924 12 15 8
168.198912027372 77.7390897003543 2931.80680736954 16 19 12
189.768954269394 81.5652021641639 2955.16641539512 17 20 13
195.604377494387 83.4899394750157 2967.50845103364 18 21 14
183.084587543367 83.2303133455805 2967.2259627746 19 22 15
183.109855647694 84.4562517342873 2975.52180960532 19 22 15
186.52132700628 86.0731611173659 2986.06529631791 18 21 14
180.705402400057 86.6042207364031 2990.34519572957 13 16 9
166.442405101542 86.1554847700473 2988.98753200981 12 15 8
167.372012954148 87.4719441658047 2997.78922429628 13 16 9
161.543208286264 88.0046202886455 3002.08133703902 13 16 9
140.407888207626 86.7866434054083 2996.32573467736 13 16 9
114.939312763684 85.0927026907824 2987.85858176656 14 17 10
99.6276040643087 84.5718744238786 2986.13604986348 13 16 9
99.6785729301077 85.7946668048008 2994.4068404367 14 17 10
106.617252476654 87.7848411568845 3007.06090183239 15 18 11
89.5343177261307 87.0784241991992 3004.29049703165 16 19 12
12.9339857987101 79.7676840987382 2963.82436377017 14 17 10
4.24880342088851 80.0473264057937 2966.73957213821 12 15 8
-32.2524182701653 78.5203928267997 2960.70118487126 11 13 8
-29.7201181032625 80.0437833700605 2970.71427645771 5 7 2
-30.637715365105 81.1843319531179 2978.5421137934 16 21 15
211.519047010604 60.6086053921793 2860.14711899968 17 20 13
205.576702381603 61.153037258346 2864.55024110851 27 30 23
206.934409548763 62.6419218514225 2874.31824939602 18 21 14
207.510590926955 64.0221289187181 2883.46113967618 19 22 15
198.33122784038 64.1460079661785 2885.47285137538 17 20 13
207.112717835992 66.5636404194991 2900.48452458587 17 20 13
216.780410854232 69.0767541700452 2916.01932016009 19 22 15
192.852760770512 67.3307823044578 2907.44660508663 19 22 15
191.0594856955 68.3882477147622 2914.73903593264 17 20 13
184.332780023079 68.8246577367482 2918.52043425824 11 14 7
188.349274049821 70.5999623806934 2929.85662308481 11 14 7
190.751732519124 72.1644238045252 2939.99291698017 14 17 10
201.497960717687 74.7486988937118 2955.8627650376 16 19 12
203.158750274287 76.1995004445747 2965.33543668902 17 20 13
199.008433889728 76.932644329555 2970.76531318353 15 18 11
198.209588546589 78.0720247373178 2978.47540076428 14 17 10
186.529474048871 77.8899313909741 2978.76455237367 13 16 9
183.224586163891 78.723759504069 2984.75727194514 14 17 10
179.928077080437 79.5564927762843 2990.74149521784 17 20 13
163.130474114072 78.7766690840555 2987.69893906275 18 21 14
159.820526216547 79.6111866898551 2993.69658139476 14 17 10
158.215643271904 80.6450533863167 3000.80542394996 13 16 9
147.275195044911 80.5770657307668 3001.76045840669 13 16 9
126.083237359694 79.3155359975343 2996.06753511783 14 17 10
106.526868204042 78.2622041195944 2991.55383316601 13 16 9
100.601310250521 78.8050706100811 2995.94085506177 14 17 10
104.109787611404 80.4373445704495 3006.38574250225 15 18 11
30.2716670219354 73.1763432620324 2967.42006913062 16 19 12
47.4737111738133 76.3968747672925 2986.70453684149 14 17 10
-64.9770367773992 66.1353025832267 2932.67898596935 12 15 8
-73.1258943281423 67.7905056215972 2944.77734948843 9 11 6
-78.4974560733804 68.4709085589891 2950.01082645072 11 16 10
191.398458505466 50.7532645197848 2846.15834022024 23 26 19
206.453571299376 54.1055371719992 2866.13836190535 24 27 20
215.115419523646 56.5846460958606 2881.25975496792 19 22 15
197.817444951888 55.6200861464166 2877.32413199226 16 19 12
195.13724839408 56.5907167025038 2884.0932138176 18 21 14
212.08268768209 60.1244010453579 2905.0031194167 15 18 11
227.495646541925 63.4315136028509 2924.63446931068 15 18 11
207.699249359277 62.1524320416206 2918.97523728283 17 20 13
187.834076983446 60.8821440137852 2913.38333820008 16 19 12
190.174382640525 62.479251920907 2923.57652562079 11 14 7
206.607962050013 65.8675595745356 2943.5992929394 11 14 7
199.935364523796 66.2922191180897 2947.32835994954 14 17 10
224.82604898424 70.7130658313257 2972.97059481464 14 17 10
219.87893585483 71.3399750186882 2977.79049437981 11 14 7
195.735475987713 69.5598855113862 2969.43712418407 8 11 4
202.458045604809 71.6538843274656 2982.29010288196 8 11 4
179.048320846939 69.9912595799305 2974.60767095367 9 12 5
171.52363623268 70.3136931729196 2977.78141051352 9 12 5
170.727301373845 71.4667899706513 2985.4866400278 11 14 7
152.219966378412 70.4455104122017 2981.3434036462 11 14 7
142.960846530342 70.5669296376079 2983.4350163912 17 20 13
150.647488646396 72.7492781289858 2996.73450812032 15 18 11
147.341270285346 73.5892924755823 3002.72763455158 14 17 10
136.374883866943 73.5062501783719 3003.71065108528 12 15 8
126.236238759844 73.5287368977738 3005.27302043574 12 15 8
70.7098966439625 68.1507269960432 2977.60263560048 12 15 8
37.2613192768556 65.4458589206817 2964.45595980246 13 16 9
-89.754616381672 54.3985439863999 2909.42297205117 12 15 8
-47.7288091731385 61.9089605355643 2953.01823748822 12 14 9
-101.083079091537 58.3602885238408 2937.09068421366 3 8 2
184.19925415079 42.5354453767069 2841.76864926325 19 22 15
189.523092492655 44.6314557361516 2854.59338217154 20 23 16
179.482301140846 44.6252536421738 2856.06282149054 17 20 13
181.61883011914 46.2727772035882 2866.45091075397 16 19 12
173.193055831502 46.4882571301237 2869.11800622552 19 22 15
222.772986575168 54.4846850237234 2913.64221464755 19 22 15
207.902802055637 53.8119454556937 2911.50403297292 18 21 14
199.555240557773 54.0175747696862 2914.09458006226 16 19 12
194.485312623284 54.6604052953229 2919.03408337757 13 16 9
197.665757433136 56.3889661183896 2929.79048083418 11 14 7
188.48271577992 56.4875117503369 2931.80992751417 10 13 6
175.136988361975 56.0479795872958 2930.95728808487 13 16 9
172.553374249296 57.0152281177916 2937.63096197636 14 17 10
214.115533663057 63.6835835586064 2974.72620836106 12 15 8
195.801576097846 62.5949927112072 2970.40089391173 9 12 5
153.16576352569 58.4081035156837 2949.59205737836 9 12 5
152.282392348388 59.5862641925824 2957.3803486551 9 12 5
144.695576921344 59.9089511632414 2960.61540973941 9 12 5
158.157868714354 62.8922426681244 2977.98059568191 10 13 6
154.819669041869 63.7421470900239 2984.0036804374 11 14 7
141.335141311251 63.3204482970421 2983.28623600612 12 15 8
137.142863689103 64.0655160557362 2988.75601828654 12 15 8
138.0563774772 65.4423466467484 2997.56476938069 12 15 8
130.47708657675 65.7641955978202 3000.79248235778 13 16 9
95.5592629184179 62.7307307724043 2986.31919982513 14 17 10
98.1679211786695 64.3190039812733 2996.24721490845 14 17 10
44.1932731879575 59.0119463474597 2969.85930678987 13 16 9
57.9230834200923 61.9614576191231 2986.9638356714 14 17 10
-10.1251327052845 55.0281022874618 2952.11965439414 16 19 12
-35.5969378671626 57.1938397241968 2970.00821614244 10 12 7
186.690372785266 35.6310800417025 2844.5664596101 18 21 14
180.688200539162 36.1764439542546 2849.02919151307 19 22 15
164.135589418748 35.2531194307124 2845.7645641935 17 20 13
163.795028954212 36.5918407201163 2854.40667709558 17 20 13
183.044180013104 40.6279330337669 2877.20577296754 19 22 15
184.433232428308 42.1792686444407 2886.93342472725 17 20 13
192.406953030284 44.6227651374201 2901.32649287516 17 20 13
195.517439886591 46.3876394874638 2912.14699249039 16 19 12
194.552652653503 47.5898425251836 2920.01223982166 13 16 9
187.008830184411 47.8992372120275 2923.20657285691 12 15 8
165.397721114196 46.3223637095064 2916.55957144322 10 13 6
169.402945830629 48.1898437573284 2927.89366521907 9 12 5
233.26472058317 58.0112253595095 2980.63830234818 13 16 9
194.197244559437 54.1143140202333 2961.91117138487 14 17 10
185.852620671637 54.3095500055957 2964.50067535542 13 16 9
158.25274965238 51.9810537626599 2953.99265169206 12 15 8
133.903162806631 50.1039887763705 2945.85830156666 11 14 7
110.305756826067 48.3474514457408 2938.3761201057 10 13 6
147.274278050054 54.4548564094522 2971.61403160654 10 13 6
144.755085346746 55.4227092797051 2978.22330692305 10 13 6
125.323982312513 54.2174081686619 2973.60767484718 11 14 7
119.398738832392 54.7537337016602 2977.99535121686 10 13 6
119.421247486676 56.0470730469266 2986.28397639031 10 13 6
111.79946554094 56.3667638295869 2989.55420257985 11 14 7
90.5035391589904 54.966260399079 2983.98506199555 12 15 8
75.982331370152 54.4338169451631 2982.89651488184 12 15 8
97.448448653088 58.4051619583815 3004.92060946099 13 16 9
56.2722464974579 54.5602923517303 2986.86287365628 14 17 10
-14.3630759297841 47.1109796072287 2950.41291966637 16 19 12
-21.3823424020103 47.5703328102705 2954.48144419888 11 14 7
-97.0337079300965 40.9741122821726 2924.30331781955 8 11 4
190.469685467741 30.3291336911152 2857.18418762394 21 24 17
158.525705276043 27.1668650769549 2842.61102818858 21 24 17
151.665633824281 27.600311304341 2846.52529875212 19 22 15
169.254435104628 31.491305979207 2868.16043538888 19 22 15
177.964415566419 34.1037125200224 2883.21433109849 14 17 10
175.274203893855 35.1014671564217 2889.98934915361 14 17 10
189.838136553436 38.5018311426666 2909.0331027772 16 19 12
198.735235280149 41.0906189685886 2923.90467811938 13 16 9
178.002836145546 39.5673251436847 2917.79409501466 12 15 8
162.158777250768 38.7357711564143 2915.22921053325 10 13 6
198.478013975099 45.0608801632727 2949.07935673594 10 13 6
205.086498826516 47.2842778915937 2962.02683603191 13 16 9
206.754072889376 48.8226351419969 2971.47949203218 15 18 11
164.220471709275 44.380741946007 2950.60684755543 14 17 10
179.233790507269 47.7243357314002 2969.21274471132 13 16 9
149.064037226515 44.9936028834494 2957.06503672287 12 15 8
149.87362764275 46.4223160225283 2965.96897920161 11 14 7
165.031019143805 49.7476643680464 2984.43416885963 11 14 7
120.339162877392 45.1425794241394 2962.8950046221 11 14 7
116.930148028677 46.0133634682268 2968.98532389538 13 16 9
108.44118403927 46.216866940708 2971.71693778958 12 15 8
111.838578420873 47.9733131857227 2982.25377966116 11 14 7
108.459662256684 48.8404003410172 2988.31509473631 11 14 7
62.3920893016914 44.1914024373754 2966.73128066394 11 14 7
81.1865928884661 47.9300249567231 2987.19199546689 14 17 10
79.5026800987078 49.019367498282 2994.37111652089 13 16 9
66.6584592971455 48.6823237677703 2994.42223518004 14 17 10
18.451913525722 43.8676221975737 2972.15312502831 15 18 11
-46.5134821652731 38.3381353204618 2948.21027304594 9 12 5
-91.7556668410531 34.0220257777989 2928.59179193387 10 12 7
-76.316641239333 37.3118180722233 2946.78256993543 6 8 3
206.725913642315 25.496344459468 2870.09634812156 21 24 17
178.066759606156 22.7139944140117 2857.87313106944 21 24 17
164.747442597529 22.1911894982826 2857.00657338975 18 21 14
158.726562385002 22.7345833053197 2861.48783591867 17 20 13
165.514645399141 26.5236903943947 2883.94460133239 15 18 11
171.844571942192 28.8205181143033 2897.15750238373 17 20 13
197.98026871053 33.9169895112159 2924.29772106668 13 16 9
195.393489147964 34.9102978888439 2930.97034882068 11 14 7
165.53476623747 32.0593020686553 2918.53155789146 10 13 6
155.450797086327 32.0118821571431 2920.05030322091 10 13 6
162.788596240234 34.4023623175013 2933.6654393985 13 16 9
151.867930318893 34.2397972798952 2934.61480822904 14 17 10
173.468965814712 38.5836444761994 2957.86711852808 15 18 11
168.426934236727 39.2247272876382 2962.77917866038 14 17 10
160.870471504278 39.5208074240793 2965.98803154874 13 16 9
128.932542037084 36.4912792941766 2952.80615398662 12 15 8
149.936955691402 40.6895170852017 2975.25519244076 13 16 9
139.82562372242 40.6458783913042 2976.8005505905 13 16 9
109.383535042989 37.8694275656409 2964.93003277594 11 14 7
98.3326596241074 37.7236369839089 2966.00588446315 11 14 7
116.157625124429 41.4400137084315 2986.01574351939 11 14 7
96.6004376134624 40.1600850105843 2981.53600727553 12 15 8
81.2482500448191 39.453468304659 2979.88146878017 13 16 9
87.2466866438311 41.5715369659603 2992.03305543934 14 17 10
73.567301536881 41.0953921850408 2991.51715435652 13 16 9
58.1306764085454 40.3995364085284 2989.94453530348 15 18 11
15.9375614277111 36.2369299624504 2971.52666101532 17 20 13
-28.1481270226203 31.8718208743401 2952.18391348437 14 17 10
-67.2136273366148 28.1978843645402 2936.25602150709 12 15 8
203.285599837923 19.2390747733463 2877.27127094888 21 24 17
184.334303389504 17.8358853670972 2872.20843164406 17 20 13
169.393562669411 17.0441759813753 2870.1575591647 17 20 13
163.395275866467 17.5826003566836 2874.61745842575 15 18 11
164.765081341266 19.2026932044071 2884.3537225502 17 20 13
161.24126900912 20.0994351785919 2890.55453869281 17 20 13
187.350789659877 25.302379824078 2917.70501394782 13 16 9
203.710369364231 29.0537039664721 2937.74761038904 11 14 7
175.525326705332 26.3578989003687 2926.45771173821 10 13 6
150.547666189587 24.1514860700371 2917.57881620155 10 13 6
144.582925448981 24.6859598287917 2922.0056497842 13 16 9
151.936992143304 27.1154921835536 2935.5991979984 13 16 9
161.853590872459 29.8920256157757 2950.84755536627 15 18 11
171.841084236049 32.6596380993614 2966.02716966844 14 17 10
161.777221573109 32.5941213421478 2967.52828582177 13 16 9
146.648972327285 31.8269128045695 2965.65999086569 13 16 9
151.69008614263 33.8778831349866 2977.35522098716 13 16 9
121.321437398431 31.0116226216022 2965.42505006389 13 16 9
103.529720959862 29.9103569158149 2961.99992511191 12 15 8
104.339122299714 31.3781403295063 2970.89861861876 11 14 7
107.726362253794 33.1909509564936 2981.43721335594 11 14 7
96.6697864723365 33.0275912887271 2982.5213222907 11 14 7
89.8568632961401 33.446137836301 2986.39097608579 11 14 7
77.9019195971165 33.1728000042057 2986.96652304994 14 17 10
57.3395878629617 31.751237172895 2982.08927186581 13 16 9
30.6905239230137 29.5336615366905 2973.45450733539 15 18 11
33.2410882829697 31.2287240728318 2983.42442710456 17 20 13
-34.9840995080424 23.5325199636547 2948.86873002356 14 17 10
-34.3587310952858 26.3704362838524 2966.24945965062 0 4 0
197.676187231369 11.2265511089469 2874.1067071799 22 25 16
189.28311338617 11.3861745365427 2876.74958619486 20 23 12
175.169471225245 10.6843268343311 2875.28102041962 17 20 9
169.184789183677 11.2187879267876 2879.72799572298 15 18 9
167.292109251025 12.3679063218061 2887.10559079098 17 20 13
170.341471423724 14.2505848940406 2897.96937670803 17 20 13
173.43069336118 16.1282458806853 2908.7943228864 16 19 12
194.705606417295 20.6872082571238 2932.33868365935 13 16 9
183.861979557676 20.477906169761 2933.2184592783 11 14 7
164.705244899888 19.0558729169895 2928.3624082646 10 13 6
133.854497557882 15.9430729975186 2915.53015963252 11 14 7
126.196851719352 16.2368145569326 2918.84017232364 11 14 7
157.750201879267 22.21277572464 2948.97238664539 16 19 12
150.16207464464 22.4977000574068 2952.2143316754 15 18 11
149.270324924973 23.747045659592 2960.00042186771 13 16 9
160.163219317265 26.6756257928956 2975.67374009148 13 16 9
145.020971708452 25.878428962634 2973.82411581534 13 16 9
119.702587901514 23.6513922466814 2965.28627390295 13 16 9
96.8308380986596 21.7943075229462 2958.51561315086 11 14 7
105.25697980729 24.355792309302 2972.44198183362 11 14 7
113.745919958506 26.909294014214 2986.30717063051 12 15 8
110.370500697022 27.793695612936 2992.36211632041 13 16 9
101.880753802771 27.9666339932427 2995.09902515797 14 17 10
64.279416624319 24.1240818207509 2979.15936602381 15 18 11
41.113275919368 22.3046240208387 2972.6751407045 10 13 6
29.9022269746438 22.1427469908964 2973.91276248268 11 14 7
28.1424916537922 23.2758206022155 2981.16071299791 17 20 13
-4.68763976819853 20.1886306029144 2968.87366540719 8 11 4
179.088088712498 1.15182339989883 2861.46272494581 26 29 20
182.847719978011 3.20110495836901 2873.0134886231 18 21 12
155.677569830744 0.455283424758313 2862.14042627712 16 19 10
167.621186610296 3.76097415952065 2879.54911917503 16 19 10
176.371180706888 6.55402180936276 2894.53658207675 18 21 14
181.083422666462 8.71209700454095 2906.54221891839 19 22 15
179.260619519381 9.86378163714602 2913.85038385855 17 20 13
174.154906655801 10.5141898006706 2918.82430216587 14 17 10
183.104540049975 13.2820697449146 2933.61724006977 12 15 8
172.233019277164 13.0579521945935 2934.52690447582 11 14 7
150.537404052284 11.2243858041109 2928.00175801968 12 15 8
128.764940983619 9.40057931213573 2921.5511422577 12 15 8
149.474907026212 13.8888559042705 2944.25004177687 14 17 10
169.469341016066 18.2384053990174 2966.26273184661 14 17 10
173.652037272432 20.2345666551605 2977.40123689142 14 17 10
168.63516131003 20.8740703598637 2982.28855051687 14 17 10
145.932507577431 18.939213109395 2975.3614696128 13 16 9
123.993560755436 17.1369711902 2969.07332528652 13 16 9
134.129714313814 19.9840093437059 2984.09324089634 12 15 8
112.959573067587 18.3138301455629 2978.4393896155 12 15 8
116.365655831822 20.17929062314 2988.95149153872 12 15 8
99.3655440394665 19.1272647625148 2986.14992316109 14 17 10
89.9970031467414 19.1720348116141 2988.36152133576 15 18 11
91.7348551007593 20.7903173565367 2997.73257742758 17 20 13
35.1808348166438 14.2029443907698 2969.84452622025 7 10 3
26.5353960771799 14.385544470332 2972.73461136672 14 17 10
9.25972277237541 13.3688341671983 2970.20179786252 22 25 18
-15.8407253993449 11.2800620148669 2962.84435436026 4 7 0
147.953749282996 -9.54176939000406 2848.61561600672 19 22 13
122.331096251703 -12.0920190130308 2839.01111718282 18 21 12
142.364525347406 -7.43393145165111 2862.35639206222 18 21 12
177.260375222942 -0.482631937470834 2896.11052244606 18 21 14
200.85489160879 4.65230726295124 2921.51741949465 17 20 13
188.381623596817 4.14847536391671 2921.22482776852 16 19 12
192.369614200743 6.19926383390362 2932.54860452613 14 17 10
185.654301747201 6.59015836182497 2936.3254163871 12 15 8
178.103326918959 6.8549344686949 2939.53344642736 11 14 7
160.574617667837 5.59989179335169 2935.86987961922 12 15 8
130.501016397408 2.45436882508476 2923.68799706177 12 15 8
157.88961787568 8.0366522052327 2950.92916936518 11 14 7
169.538719818926 11.2050566128687 2967.23336354876 12 15 8
174.559650912178 13.3572556272109 2978.93367385634 15 18 11
165.343277266746 13.36933701139 2980.99866123341 16 19 12
149.371009355304 12.3815209591984 2978.58418566577 13 16 9
135.03762704585 11.650154823537 2977.33852575995 13 16 9
141.814263150244 14.0439719119583 2990.09350262699 13 16 9
138.470110992189 14.9362567494855 2996.11657232371 13 16 9
106.236373893728 11.6012193411559 2983.27359025022 13 16 9
92.6210937860033 11.0110998363451 2982.71087736994 14 17 10
91.7751347847289 12.2829171544798 2990.44783755017 15 18 11
81.536522329877 12.1930604785698 2992.12641810149 20 23 16
69.5599179585757 11.8594009006748 2992.73238996111 7 10 3
31.765243655725 7.83763944239324 2977.0112045037 20 23 16
15.3630758453986 6.90499946002449 2975.01547089172 11 14 7
130.137654626519 -19.751258730887 2836.642187395 20 23 14
160.710599671384 -13.2929798067439 2867.67667213528 19 22 13
147.338347026394 -13.941606926395 2866.88127679183 18 21 12
173.236278070608 -8.29934064777682 2894.1765942665 17 20 13
204.20801280301 -1.89162126898718 2924.82288547258 15 18 11
195.033961491843 -1.89846023091694 2926.84864256497 15 18 11
188.315824634294 -1.51219250783013 2930.62894294061 14 17 10
179.110585374992 -1.514922826862 2932.68506287092 12 15 8
180.659150962989 0.171170494365602 2942.23439856124 11 14 7
168.950585008444 -0.218356039330347 2942.58246142234 12 15 8
171.364403646704 1.59287304535527 2952.67100234949 11 14 7
152.118901029857 0.0461514858701162 2947.92152810865 11 14 7
181.317551113278 5.97421088243794 2976.14800848092 12 15 8
173.790665588688 6.22860115981921 2979.33365250761 15 18 11
174.655485500926 7.76677832014866 2988.16657254584 16 19 12
149.440986771547 5.333759912383 2979.55635306181 15 18 11
155.366539201887 7.63900681285545 2991.7526499159 14 17 10
153.728818986234 8.79028859920789 2998.87674646763 14 17 10
138.540035988648 7.90355410397603 2997.08656614824 13 16 9
123.305464197677 7.02263453602708 2995.34065749185 13 16 9
97.8033733790258 4.62653508006228 2987.01056459891 14 17 10
90.1387058330885 4.89886254545535 2990.33037710103 15 18 11
80.7518240017542 4.92004837106674 2992.5633359948 13 16 9
89.3572546677968 7.58993755468629 3006.2956459699 22 25 18
68.7996526501791 5.97576122622684 3001.4421662981 5 8 1
67.1266403693691 7.13180172449929 3008.6006050567 27 30 23
179.527675580037 -17.4590993817037 2882.19806744573 19 22 13
163.749481901365 -18.5417313846398 2879.60488705213 15 18 9
207.561294596978 -8.41358204590159 2928.12494514799 15 18 11
196.749719945389 -8.70079064964541 2928.98440699964 16 19 12
166.943540062679 -12.0417188551949 2916.5658518597 13 16 9
169.261405020373 -10.1936116351044 2926.74422563779 11 14 7
158.357376440747 -10.4688423279379 2927.69338743472 10 13 6
166.529497600669 -7.70054324240549 2941.84143521436 11 14 7
117.144781498386 -12.5907966340527 2925.0044979391 11 14 7
148.770028502639 -6.14671609098433 2954.99612979236 12 15 8
178.890245573821 0.0131692285224028 2983.69046391207 14 17 10
170.524220389924 0.128959612023138 2986.31296171127 15 18 11
189.93459308747 4.55952730746262 3007.47674950589 15 18 11
148.684047847633 -0.41638090074575 2988.24309517643 15 18 11
144.492695591723 0.357601291217202 2993.70768501388 14 17 10
152.177630220571 2.95033915757714 3006.94855477463 13 16 9
147.173110796753 3.5900320757391 3011.82357020893 13 16 9
115.762865515026 0.21648626556231 2999.58544943067 13 16 9
89.3564409348837 -2.36651595199272 2990.76408816022 14 17 10
85.101948079751 -1.58428641120567 2996.29015859153 9 12 5
84.2826461747315 -0.287767853316356 3003.99699704867 30 33 26
117.865887041186 6.1449237894779 3033.46324248648 28 31 24
160.366399922447 -29.4203101380963 2860.48303904602 20 23 14
182.044126112074 -24.2377118091485 2884.95213661902 20 23 14
191.596830175061 -21.120717528421 2900.51152680502 17 20 11
190.575193069442 -19.7854364554736 2908.41389586662 14 17 8
187.932228014462 -18.7249024675724 2915.13271857131 15 18 11
181.187972588159 -18.3452726643428 2918.93959831149 17 20 13
166.190215676931 -19.3208884022386 2916.97286287331 13 16 9
160.239478489917 -18.8015069687062 2921.38802135931 10 13 6
158.428700285529 -17.6060150612394 2928.67743281553 10 13 6
139.193934813762 -19.2450496233142 2923.93094025236 11 14 7
134.045640873139 -18.5869294275903 2928.94600236366 11 14 7
113.045092795364 -20.4822127969216 2923.1566750157 9 12 5
144.65976581441 -13.9174298837041 2953.14130507697 10 13 6
187.342751232933 -5.63396590887827 2990.30175165184 14 17 10
172.274898667469 -6.60007420538233 2988.40321703883 15 18 11
159.687649338054 -7.16015948907828 2988.23212467156 16 19 12
196.865789877897 0.139854675828832 3021.08527613191 16 19 12
162.329083856794 -3.88145701329623 3006.37954148658 14 17 10
125.962093313409 -8.15079586070172 2990.69414609869 13 16 9
138.744804147619 -4.72239680377928 3007.25146995981 11 14 7
112.426878605716 -7.38373767116102 2998.35346841237 12 15 8
95.404313747582 -8.58176120871679 2995.59611249586 14 17 10
70.6275469643627 -10.9579093199794 2987.95972263116 15 18 11
82.6392530932383 -7.67189539544438 3003.8864628629 16 19 12
12.2145715149382 -16.9879955627744 2967.50324976198 10 13 6
188.894454174567 -31.7972043111713 2882.10076791237 20 23 14
184.560722337703 -30.9997060234146 2887.70360495176 19 22 13
197.386404541974 -27.2770558386304 2905.59133889472 16 19 10
172.631889653125 -29.9625933057931 2896.56167086393 15 18 9
162.559086802989 -30.1374537356648 2898.08782570238 16 19 12
159.86857137694 -29.0621683972137 2904.85168638529 17 20 13
168.735685871967 -26.0518506734633 2919.69073457797 13 16 9
165.27084945468 -25.1211474342458 2925.82796730516 11 14 7
180.870997553451 -21.0213570740788 2945.15627808466 10 13 6
173.315622900465 -20.7863657606137 2948.37307939538 11 14 7
121.631846667783 -27.828737309283 2921.38402755425 11 14 7
122.295898852331 -26.2068636774912 2930.40394261205 9 12 5
157.275537346593 -18.9780638880587 2962.61660807966 10 13 6
165.61907670971 -16.1440419587445 2976.58472124189 13 16 9
162.263443045093 -15.2268253597356 2982.6155073409 15 18 11
157.232129669195 -14.5828627346751 2987.51649850489 16 19 12
158.109895271756 -12.9880342704367 2996.32819024329 16 19 12
158.169781327847 -11.5323261418412 3004.55570106894 15 18 11
131.968796753277 -14.2756484806651 2995.55369223791 14 17 10
91.2248398542408 -19.303451675742 2977.2415675714 13 16 9
96.3148693626086 -17.0281535451631 2988.8550681357 12 15 8
96.3299824320334 -15.5665357104659 2997.12616574699 14 17 10
80.1121155886237 -16.6608906760224 2994.97131995429 7 10 3
56.9843779225829 -18.8217895175457 2988.49976252847 11 14 7
10.5696997208962 -24.586850282095 2967.42558270065 22 25 18
119.049148972061 -51.2292643114622 2832.46725324783 21 24 17
183.817617753416 -38.3141906559945 2888.10534926367 18 21 12
179.486747195859 -37.5137803080887 2893.7049146092 15 18 9
168.610074032131 -37.8481318247598 2894.63598794769 17 20 11
155.244847645349 -38.6035969548797 2893.84940603725 18 21 14
155.827581499219 -36.9523806978379 2902.94573457231 17 20 13
155.613719424331 -35.4457099650657 2911.43754908813 14 17 10
185.18042989618 -28.8738888036021 2940.62030166377 11 14 7
187.570341724486 -26.9605414016545 2950.71748936391 11 14 7
143.491038153029 -32.9077812715525 2928.76842115702 11 14 7
131.69331720441 -33.3702537725352 2929.2157976273 11 14 7
141.558152594923 -30.1942026717189 2944.4568460607 10 13 6
151.493400324654 -27.0271772914298 2959.62897015593 11 14 7
129.647989665463 -29.1622888192578 2953.29714102005 12 15 8
148.892511162929 -24.4742668684578 2974.58756988157 13 16 9
142.14606393175 -24.103434581572 2978.39792638546 14 17 10
155.648985525183 -20.4064535415743 2995.61728333392 14 17 10
130.324798555113 -23.0823721609125 2987.15188643958 16 19 12
88.799095044708 -28.3695181753722 2968.23746915223 16 19 12
85.3490607801586 -27.4340929206416 2974.35896736911 15 18 11
61.4661860182366 -29.8011380291878 2967.25083125299 13 16 9
76.767870448287 -25.8410403977811 2985.47892023223 14 17 10
82.7516879058408 -23.4006184472821 2997.59738023961 13 16 9
59.6304151661058 -25.6184558760925 2991.12781854474 8 11 4
40.7260071576383 -27.1431373640547 2987.45328412024 14 17 10
113.086051461055 -61.3535313022529 2820.04697765077 23 25 20
172.481344824822 -47.518294108328 2880.88471651728 19 22 15
177.925340085023 -44.9745556341957 2893.5239578096 16 19 10
171.139061547493 -44.6044349923292 2897.37431041233 17 20 11
165.166384738579 -44.0891870735483 2901.81186619888 18 21 12
162.48160136727 -42.9974791653766 2908.56760761807 17 20 11
173.003061632321 -39.6075213040341 2924.54191183629 14 17 10
136.486038405015 -44.4057955854953 2907.66643038786 12 15 8
148.703273867162 -40.7341489037701 2924.74932775999 11 14 7
110.347141202882 -45.7953478591821 2906.90515068607 11 14 7
129.269321864826 -40.9875847478529 2928.49763322911 11 14 7
143.299195662018 -37.049219280765 2946.57495165426 11 14 7
109.75411214865 -41.2302443422389 2932.32537392627 11 14 7
137.264257353012 -35.0286904538449 2959.35432360225 11 14 7
131.322416480161 -34.5164878846935 2963.76204679179 12 15 8
143.060306281313 -31.0323607944228 2979.93140964533 13 16 9
148.968756780046 -28.5469384076916 2992.11805911213 13 16 9
107.557503879809 -33.9642980309028 2973.1092361915 15 18 11
87.1767208578436 -35.8415071417059 2968.11871093151 17 20 13
88.82170103319 -34.056589079742 2977.55769925779 16 19 12
76.0192794920038 -34.660163656909 2977.60670377622 14 17 10
70.0121276929746 -34.1392263727397 2982.07799069386 14 17 10
70.8466784349722 -32.4997946878884 2990.9260030911 13 16 9
77.7116921423922 -29.8872806282797 3003.56089637505 22 25 18
45.956598927992 -33.548868248505 2991.70778714545 19 22 15
36.9277888138058 -82.7275041164574 2765.63338669161 22 24 19
178.814866690576 -52.0033862789553 2895.09641215805 18 21 12
154.836594051234 -54.7293626697935 2886.71881027151 16 19 10
171.805050717933 -50.0971438457478 2907.44383419873 17 20 11
176.539358209082 -47.6787019732621 2919.38907756013 18 21 12
166.479035038724 -47.9020731466454 2920.91034760077 15 18 11
148.130997964361 -49.5844185119256 2916.70663126625 13 16 9
109.839093016677 -54.7614062109109 2898.81578864601 11 14 7
133.672205075579 -48.9916518586258 2923.89159341998 11 14 7
144.324825101777 -45.5663951707422 2939.73043690533 11 14 7
138.366700575223 -45.0545132835707 2944.15437740037 12 15 8
133.24175082844 -44.3972573432709 2949.14638611866 11 14 7
139.851609469933 -41.714276680556 2962.02423722179 10 13 6
127.194862190112 -42.3606436494062 2961.93490974202 10 13 6
133.028539489288 -39.8301335149595 2974.18914615191 11 14 7
150.72861859618 -35.2907976858902 2994.20104840476 12 15 8
141.466003090621 -35.3634685647699 2996.32481882197 13 16 9
86.4028561769383 -43.1804467921763 2968.55495275703 16 19 12
120.336125074138 -35.9312264997162 2998.96984192584 17 20 13
99.0886537852682 -37.9973789899496 2993.45096735814 15 18 11
76.0614784341844 -40.3395766684637 2986.90634595592 15 18 11
69.20929028264 -39.964642679756 2990.82109852713 9 12 5
40.9133341162988 -43.1441553049272 2981.1300775545 23 26 19
36.5774412743307 -42.3352706686455 2986.73303976458 15 18 11
34.8303376438941 -41.1018102683177 2993.95360970091 14 17 10
122.921990439523 -71.1149707363935 2847.14791700753 21 24 17
129.529835654618 -66.6106430994114 2869.67761409347 15 18 9
166.133471456221 -58.3059657505459 2904.37001563152 17 20 11
186.483584353494 -53.0144656690848 2927.30720072066 19 22 13
187.165661514888 -51.3177921158196 2936.29816131426 16 19 12
160.601762315881 -54.5380460865451 2926.31011303935 13 16 9
138.908547113819 -56.8535502994215 2919.85381352475 11 14 7
124.612101691751 -57.8235391068058 2918.60674307039 11 14 7
139.404318292195 -53.6030109324592 2937.30224961523 11 14 7
151.787712497909 -49.838149256745 2954.20603392133 12 15 8
159.236513472651 -46.9696103049925 2967.64062461132 11 14 7
134.057991173908 -49.8572068260778 2959.06186644647 10 13 6
111.307320012729 -52.2915079438029 2952.25594730228 10 13 6
144.889317162406 -44.8728429318844 2982.9946106536 11 14 7
141.517990504303 -43.9299130290368 2989.03717971205 11 14 7
140.69260880286 -42.5488406848788 2996.73755848423 12 15 8
110.212313824092 -44.7552093137736 2993.32285378028 16 19 12
103.420543353725 -44.3929173219363 2997.17981702456 15 18 11
91.5001552324082 -44.9022114996693 2997.75592403407 15 18 11
54.7396856117892 -49.6173431685269 2982.52714717088 14 17 10
53.8500565861573 -48.227743904315 2990.29006421067 15 18 11
38.3712938608358 -49.3000058189066 2988.81525891917 15 18 11
9.06561314748444 -52.6771444103403 2978.73887121997 16 19 12
-39.0976986431779 -114.370717244084 2702.68635848928 13 15 10
70.8486015801424 -88.2884146413552 2810.70683626633 20 23 14
113.620347089741 -78.5761757349788 2850.40212692517 17 20 11
122.236403945895 -75.3020921634728 2865.45149458746 16 19 12
162.924385954956 -66.0951522696011 2903.03961038424 14 17 10
196.427469338164 -58.2848931231808 2935.21600598987 16 19 12
197.132690797365 -56.5718249857295 2944.18156084123 16 19 12
188.774961422659 -56.5297889838428 2946.80672164466 13 16 9
117.444337905098 -67.9881029908533 2905.97142759681 11 14 7
135.480912545717 -63.0880920595223 2927.01312434745 9 12 5
141.142808589652 -60.4647802792116 2939.42422604046 10 13 6
141.850704186879 -58.7515627665304 2948.38710335563 13 16 9
161.817948330209 -53.5838059130158 2970.30586265461 13 16 9
119.046023015045 -59.6886716865317 2949.91566418777 12 15 8
113.061766875616 -59.1776233121967 2954.36567695352 11 14 7
