ply
format ascii 1.0
comment KinectMotionCapture
element vertex 802
property float x
property float y
property float z
property uchar red
property uchar green
property uchar blue
end_header
-60.6613233685493 96.7687964439392 2384.0000629425 18 21 14
-53.9943277835846 96.4858531951904 2377.00009346008 17 20 13
-47.7850027382374 97.055159509182 2391.00003242493 16 19 12
-41.2747263908386 97.0966666936874 2391.99995994568 16 19 12
-34.6571505069733 96.8538969755173 2385.99991798401 14 17 10
-27.765516191721 95.5555811524391 2354.00009155273 14 17 10
-21.4020274579525 95.8402305841446 2361.00006103516 14 17 10
-14.9748884141445 95.9623903036118 2364.00008201599 13 16 9
-8.61780624836683 97.0586463809013 2391.00003242493 8 11 4
11.0262669622898 97.5862741470337 2404.00004386902 18 21 14
17.7069269120693 98.2354804873466 2420.00007629395 15 18 11
24.344265460968 98.3568280935287 2423.00009727478 8 11 4
31.1895478516817 99.0869253873825 2440.99998474121 5 7 2
37.6212410628796 98.4773337841034 2426.00011825562 8 10 5
43.3143153786659 96.4062884449959 2375 10 12 7
49.5674535632133 95.9588289260864 2364.00008201599 13 15 10
55.7840242981911 95.5518335103989 2354.00009155273 14 16 11
62.5800266861916 96.1188897490501 2368.00003051758 14 16 11
69.2480951547623 96.4016765356064 2375 15 17 12
75.699009001255 96.3596031069756 2374.00007247925 16 18 13
82.1095407009125 96.2768197059631 2371.99997901917 14 16 11
88.5087996721268 96.1938872933388 2369.99988555908 12 14 9
94.4559872150421 95.6643968820572 2357.00011253357 12 15 8
100.674234330654 95.4594612121582 2351.99999809265 15 18 11
107.229068875313 95.5791175365448 2355.00001907349 17 20 11
113.89634013176 95.7797840237617 2359.99989509583 18 21 12
120.488457381725 95.8991646766663 2362.99991607666 19 22 13
127.203911542892 96.0995852947235 2368.00003051758 20 23 16
133.550986647606 96.0157886147499 2365.9999370575 20 23 16
139.413252472878 95.607228577137 2355.99994659424 18 21 14
145.839393138885 95.6043526530266 2355.99994659424 16 19 12
152.782022953033 95.9260016679764 2364.00008201599 16 18 13
160.23913025856 96.531517803669 2378.99994850159 15 17 12
167.707338929176 97.0963016152382 2392.99988746643 19 20 15
176.489010453224 98.3506813645363 2424.00002479553 22 21 16
217.494532465935 96.0111171007156 2367.00010299683 91 63 60
223.563730716705 95.8445593714714 2362.99991607666 118 85 80
230.291709303856 95.9618464112282 2365.9999370575 87 54 47
238.035678863525 96.4845716953278 2378.99994850159 94 69 62
-191.272675991058 93.661867082119 2474.99990463257 15 18 11
-182.214379310608 92.4921706318855 2444.00000572205 22 25 18
-173.324346542358 91.3222655653954 2413.00010681152 21 24 17
-164.879083633423 90.3035551309586 2385.99991798401 21 24 17
-158.107101917267 90.1551842689514 2381.99996948242 23 26 19
-152.629256248474 90.7636657357216 2398.00000190735 22 25 18
-145.114049315453 90.1608541607857 2381.99996948242 21 24 17
-138.151124119759 89.8607149720192 2374.00007247925 17 20 13
-130.621150135994 89.1440436244011 2355.00001907349 16 19 12
-124.512746930122 89.3735736608505 2361.00006103516 14 17 10
-117.720983922482 89.1108736395836 2354.00009155273 14 17 10
-111.912563443184 89.6051749587059 2367.00010299683 18 21 14
-105.008043348789 89.2286747694016 2357.00011253357 19 22 15
-97.6139903068542 88.3598849177361 2334.00011062622 20 23 16
-90.9314528107643 88.0588069558144 2325.99997520447 20 23 16
-84.6922323107719 88.174045085907 2328.9999961853 19 22 15
-79.411692917347 89.3871188163757 2361.00006103516 20 23 16
-73.307141661644 89.8050367832184 2371.99997901917 19 22 15
-67.0013576745987 90.033546090126 2378.00002098084 18 21 14
-60.5353005230427 90.0726318359375 2378.99994850159 17 20 13
-54.1089698672295 90.1873037219048 2381.99996948242 16 19 12
-47.8459149599075 90.6426459550858 2394.00005340576 16 19 12
-41.2582978606224 90.5299037694931 2391.00003242493 17 20 13
-34.6287861466408 90.2655869722366 2384.0000629425 13 16 9
-27.8250426054001 89.3196016550064 2358.99996757507 12 15 8
-21.2664771825075 88.8278558850288 2345.99995613098 13 16 9
-14.9308443069458 89.2447158694267 2357.00011253357 14 17 10
11.0081396996975 90.8730030059814 2400.00009536743 17 20 13
17.7584979683161 91.8950438499451 2427.00004577637 15 18 11
24.5657898485661 92.5761833786964 2444.9999332428 8 11 4
30.9857279062271 91.8183848261833 2424.99995231628 6 8 3
37.2497960925102 90.9468755125999 2401.99995040894 9 11 6
43.4246063232422 90.1509895920753 2381.00004196167 11 13 8
49.6523082256317 89.6578803658485 2368.00003051758 14 16 11
55.9036210179329 89.316114783287 2358.99996757507 15 17 12
62.5284016132355 89.5799994468689 2365.9999370575 13 15 10
69.1619962453842 89.8059010505676 2371.99997901917 14 16 11
75.4135176539421 89.5395055413246 2365.00000953674 12 14 9
81.6957578063011 89.3486961722374 2359.99989509583 11 13 8
87.6889303326607 88.8927802443504 2348.00004959106 13 15 10
93.8967913389206 88.7017622590065 2342.99993515015 14 17 10
99.9057367444038 88.3591994643211 2334.00011062622 15 18 11
107.367776334286 89.2658084630966 2358.00004005432 16 19 10
114.332921802998 89.6801054477692 2368.99995803833 17 20 11
120.898753404617 89.7535979747772 2371.00005149841 19 22 13
126.991525292397 89.4862785935402 2364.00008201599 19 22 15
133.440718054771 89.4838348031044 2364.00008201599 20 23 16
140.007719397545 89.5569548010826 2365.9999370575 17 20 13
146.08983695507 89.3271490931511 2359.99989509583 16 18 13
152.591079473495 89.3622189760208 2361.00006103516 17 19 14
159.568652510643 89.6620824933052 2368.99995803833 15 17 12
168.481528759003 90.9836888313293 2404.00004386902 19 21 16
176.492407917976 91.7374044656754 2424.00002479553 21 22 16
185.064852237701 92.7179977297783 2450.00004768372 22 23 15
212.209135293961 90.0508835911751 2380.00011444092 83 59 55
217.774271965027 89.6686092019081 2369.99988555908 109 81 78
224.135622382164 89.6267592906952 2368.99995803833 71 42 36
231.366708874702 89.9252966046333 2377.00009346008 80 53 44
-189.421281218529 86.0666930675507 2450.99997520447 13 16 9
-181.919410824776 85.6836289167404 2440.00005722046 23 26 19
-174.979567527771 85.5462402105331 2436.00010871887 22 25 18
-165.158480405807 83.9337483048439 2390.00010490417 19 22 15
-157.578930258751 83.3746418356895 2374.00007247925 21 24 17
-152.250126004219 84.0094983577728 2391.99995994568 22 25 18
-145.543143153191 83.9067250490189 2388.99993896484 22 25 18
-136.698767542839 82.5042873620987 2348.99997711182 21 24 17
-131.067246198654 82.9983502626419 2362.99991607666 20 23 16
-124.515019357204 82.9303488135338 2361.00006103516 16 19 12
-117.723137140274 82.686610519886 2354.00009155273 15 18 11
-110.968977212906 82.4427232146263 2346.99988365173 14 17 10
-105.009958148003 82.7959030866623 2357.00011253357 17 20 13
-97.9085341095924 82.2356417775154 2341.00008010864 21 24 17
-91.1285951733589 81.8860232830048 2331.00008964539 22 25 18
-84.8028883337975 81.922709941864 2332.00001716614 23 26 19
-79.7831490635872 83.3293795585632 2371.99997901917 20 23 16
-73.2157826423645 83.2253471016884 2368.99995803833 20 23 16
-66.3263723254204 82.6996117830276 2354.00009155273 19 22 15
-60.1547323167324 83.0520540475845 2364.00008201599 19 22 15
-53.8600943982601 83.298996090889 2371.00005149841 18 21 14
-47.4670603871346 83.4404230117798 2375 18 21 14
-40.7758876681328 83.0196142196655 2362.99991607666 16 19 12
-33.903144299984 82.0014178752899 2334.00011062622 15 18 11
-27.9317181557417 83.1965059041977 2368.00003051758 14 17 10
-21.4028488844633 82.9510092735291 2361.00006103516 14 17 10
-14.9374539032578 82.8459337353706 2358.00004005432 13 16 9
10.9349563717842 83.759568631649 2384.0000629425 18 21 14
17.619801685214 84.6025347709656 2407.99999237061 16 19 12
24.4054868817329 85.3399634361267 2428.99990081787 9 12 5
30.8329667896032 84.77733284235 2413.00010681152 9 11 6
37.2194722294807 84.319993853569 2400.00009536743 7 9 4
43.6625070869923 84.108479321003 2394.00005340576 6 8 3
49.967747181654 83.7211608886719 2382.99989700317 7 9 4
55.9520535171032 82.9473212361336 2361.00006103516 7 9 4
62.4238476157188 82.9813927412033 2361.99998855591 9 11 6
68.8425302505493 82.9451009631157 2361.00006103516 10 12 7
75.8613422513008 83.5761800408363 2378.99994850159 11 13 8
81.2818557024002 82.4857354164124 2348.00004959106 12 14 9
87.6158624887466 82.4139788746834 2345.99995613098 14 16 11
93.4175997972488 81.8854421377182 2331.00008964539 16 19 12
99.95037317276 82.0242390036583 2335.00003814697 15 18 7
106.914393603802 82.4790820479393 2348.00004959106 15 18 9
114.335022866726 83.2147970795631 2368.99995803833 16 19 10
120.798967778683 83.2127258181572 2368.99995803833 17 20 11
126.83267891407 82.9295590519905 2361.00006103516 18 21 14
133.273780345917 82.9272717237473 2361.00006103516 18 21 14
140.306144952774 83.276130259037 2371.00005149841 16 19 12
147.082939743996 83.4492146968842 2375.99992752075 16 18 13
153.240144252777 83.2710042595863 2371.00005149841 18 20 15
160.177752375603 83.514116704464 2378.00002098084 17 19 14
167.293101549149 83.8273614645004 2387.00008392334 20 23 16
174.602463841438 84.2106938362122 2398.00000190735 15 18 11
182.046666741371 84.6290215849876 2410.00008583069 19 25 15
190.025150775909 85.2578803896904 2427.99997329712 18 25 17
213.104531168938 83.9098766446114 2390.00010490417 88 64 60
218.605130910873 83.5200324654579 2378.99994850159 99 69 67
225.180312991142 83.551399409771 2380.00011444092 65 38 31
233.220115303993 84.1091945767403 2395.99990844727 79 57 46
-189.81084227562 79.5413702726364 2456.00008964539 10 13 6
-182.220637798309 79.1556760668755 2444.00000572205 24 27 20
-173.473998904228 78.2192423939705 2414.99996185303 23 26 19
-164.74661231041 77.2178843617439 2384.0000629425 18 21 14
-156.98416531086 76.605036854744 2365.00000953674 21 24 17
-151.998072862625 77.3525312542915 2388.00001144409 22 25 18
-144.205287098885 76.6746625304222 2367.00010299683 23 26 19
-136.875659227371 76.1910229921341 2351.99999809265 24 27 20
-130.459323525429 76.1931762099266 2351.99999809265 23 26 19
-124.622598290443 76.5515938401222 2362.99991607666 19 22 15
-117.225013673306 75.9380236268044 2344.00010108948 18 21 14
-110.734447836876 75.8750811219215 2342.00000762939 14 17 10
-105.50183057785 76.7191872000694 2368.00003051758 16 19 12
-98.7048521637917 76.4616578817368 2359.99989509583 18 21 14
-91.7947664856911 76.0744214057922 2348.00004959106 19 22 15
-85.4225531220436 76.1082768440247 2348.99997711182 19 22 15
-79.5154273509979 76.59562677145 2364.00008201599 21 24 17
-72.5679993629456 76.0784596204758 2348.00004959106 21 24 17
-66.1866143345833 76.1119946837425 2348.99997711182 20 23 16
-59.9776320159435 76.3722509145737 2357.00011253357 20 23 16
-53.6565706133842 76.5351951122284 2361.99998855591 19 22 15
-47.0881275832653 76.3416066765785 2355.99994659424 19 22 15
-40.2589030563831 75.5970478057861 2332.99994468689 17 20 13
-33.5986763238907 74.9495923519135 2312.99996376038 17 20 13
-27.625510469079 75.8898034691811 2342.00000762939 17 20 13
-21.5935874730349 77.1863609552383 2381.99996948242 15 18 11
-15.045402571559 76.9598335027695 2375 12 15 8
-8.36957711726427 75.2426013350487 2322.00002670288 12 15 8
4.29023383185267 74.8862251639366 2311.00010871887 13 16 9
10.802123695612 76.3118863105774 2355.00001907349 18 21 14
17.5469312816858 77.7050405740738 2398.00000190735 16 19 12
24.2853350937366 78.3203765749931 2417.00005531311 10 13 6
30.8973863720894 78.3523172140121 2417.99998283386 8 10 5
36.8324033915997 76.9584104418755 2375 6 8 3
43.3896742761135 77.0873576402664 2378.99994850159 5 7 2
50.0524826347828 77.3458108305931 2387.00008392334 7 9 4
56.1425946652889 76.7616778612137 2368.99995803833 8 10 5
62.319204211235 76.404295861721 2358.00004005432 13 15 10
68.8145458698273 76.4680057764053 2359.99989509583 14 16 11
75.2248615026474 76.4344334602356 2358.99996757507 16 19 12
81.9409862160683 76.6923576593399 2367.00010299683 15 17 12
88.6630713939667 76.9177600741386 2374.00007247925 14 17 10
94.8619544506073 76.6894742846489 2367.00010299683 14 17 10
100.722581148148 76.2342810630798 2352.9999256134 17 20 11
107.052810490131 76.1677995324135 2351.0000705719 17 20 11
113.999113440514 76.5223726630211 2361.99998855591 17 20 11
121.106967329979 76.9416242837906 2375 19 22 13
126.888528466225 76.5184611082077 2361.99998855591 20 23 16
133.163139224052 76.4191746711731 2358.99996757507 17 20 13
140.19013941288 76.7409130930901 2368.99995803833 15 18 11
147.76636660099 77.3216784000397 2387.00008392334 16 18 13
153.953671455383 77.1572887897491 2381.99996948242 18 20 15
158.563807606697 76.2478187680244 2354.00009155273 18 20 15
165.824055671692 76.633907854557 2365.9999370575 21 24 17
171.838477253914 76.4368772506714 2359.99989509583 19 22 13
179.40579354763 76.9199058413506 2375 16 21 14
189.79349732399 78.5363018512726 2424.99995231628 21 28 20
214.445501565933 77.8758749365807 2404.99997138977 66 47 43
220.262736082077 77.6134505867958 2397.0000743866 76 55 50
227.265477180481 77.7718424797058 2401.99995040894 72 53 46
-192.055016756058 73.7002193927765 2484.99989509583 10 13 6
-181.477829813957 72.1903517842293 2434.00001525879 21 24 17
-172.183662652969 71.0955336689949 2397.0000743866 25 28 21
-163.021475076675 69.9708759784698 2358.99996757507 19 22 15
-157.650366425514 70.4478174448013 2375 19 22 15
-150.727391242981 70.2424496412277 2368.00003051758 18 21 14
-143.963813781738 70.0963065028191 2362.99991607666 19 22 15
-137.634322047234 70.1577141880989 2365.00000953674 21 24 17
-131.515234708786 70.3376978635788 2371.00005149841 21 24 17
-125.679329037666 70.6956014037132 2382.99989700317 19 22 15
-118.427120149136 70.2524110674858 2368.00003051758 19 22 15
-112.249232828617 70.4321414232254 2374.00007247925 16 19 12
-106.038130819798 70.6117823719978 2380.00011444092 14 17 10
-98.580926656723 69.9309185147285 2357.00011253357 16 19 12
-92.3435315489769 70.0806826353073 2361.99998855591 18 21 14
-86.1875712871552 70.3193843364716 2369.99988555908 18 21 14
-79.9539536237717 70.5283358693123 2377.00009346008 15 18 11
-73.094554245472 70.1734274625778 2365.00000953674 16 19 12
-66.6103139519691 70.1448023319244 2364.00008201599 17 20 13
-60.0803643465042 70.0567364692688 2361.00006103516 18 21 14
-53.6346957087517 70.0575932860374 2361.00006103516 19 22 15
-46.948965638876 69.7022750973701 2348.99997711182 20 23 16
-40.2940511703491 69.28750872612 2335.00003814697 17 20 11
-33.8316261768341 69.1100209951401 2328.9999961853 17 20 11
-27.6141501963139 69.4665759801865 2341.00008010864 20 23 14
-21.3944874703884 70.0307488441467 2359.99989509583 20 23 14
-15.0519758462906 70.5058127641678 2375.99992752075 19 22 13
-8.2435505464673 67.8649842739105 2286.99994087219 17 20 13
-1.97792984545231 67.1528726816177 2263.00001144409 16 19 12
4.27359296008945 68.3101564645767 2302.00004577637 20 23 16
10.8068808913231 69.9124559760094 2355.99994659424 19 22 15
17.4740329384804 70.86181640625 2388.00001144409 13 16 9
24.3962425738573 72.0484629273415 2427.99997329712 5 8 1
30.8850929141045 71.7216283082962 2417.00005531311 9 11 6
36.9725599884987 70.7418844103813 2384.0000629425 11 13 8
43.2991646230221 70.4445466399193 2374.00007247925 12 14 9
49.9903634190559 70.7405656576157 2384.0000629425 13 16 9
56.1434775590897 70.2946782112122 2368.99995803833 13 16 9
62.399473041296 70.0564160943031 2361.00006103516 15 18 11
68.524032831192 69.7290226817131 2349.99990463257 15 18 11
75.0347152352333 69.8169693350792 2352.9999256134 14 17 8
82.3923125863075 70.6169009208679 2380.00011444092 15 18 9
89.4487798213959 71.0606798529625 2394.99998092651 15 18 9
95.4645946621895 70.6735774874687 2381.99996948242 17 20 11
101.195029914379 70.1380670070648 2364.00008201599 19 22 15
107.100017368793 69.7804763913155 2351.99999809265 16 19 12
114.049144089222 70.1051726937294 2362.99991607666 17 20 13
120.751909911633 70.2517777681351 2368.00003051758 19 22 15
127.051666378975 70.1609328389168 2365.00000953674 20 23 16
132.770031690598 69.7733461856842 2351.99999809265 17 20 13
138.949573040009 69.6526691317558 2348.00004959106 16 19 12
146.530538797379 70.214182138443 2367.00010299683 16 19 12
154.149934649467 70.7459151744843 2384.99999046326 19 22 15
159.03776884079 70.0317099690437 2361.00006103516 20 23 16
164.214596152306 69.4954395294189 2342.99993515015 20 23 16
171.913921833038 70.0268670916557 2361.00006103516 24 25 17
180.843815207481 71.0030496120453 2394.00005340576 20 21 13
189.56159055233 71.8307793140411 2421.99993133545 26 27 19
216.41044318676 71.967326104641 2427.00004577637 64 55 50
222.195759415627 71.6973021626472 2417.99998283386 88 79 72
-190.357357263565 66.3271173834801 2463.00005912781 12 15 8
-181.10753595829 65.4139667749405 2428.99990081787 23 26 19
-170.24652659893 63.8273730874062 2369.99988555908 22 25 18
-165.92626273632 64.6644979715347 2401.00002288818 21 24 17
-157.453432679176 63.8856068253517 2371.99997901917 20 23 16
-151.556998491287 64.1300827264786 2381.00004196167 18 21 14
-144.514173269272 63.8896524906158 2371.99997901917 18 21 14
-138.625606894493 64.1609057784081 2381.99996948242 20 23 16
-131.794452667236 64.0011131763458 2375.99992752075 21 24 17
-125.206455588341 63.9489740133286 2374.00007247925 20 23 16
-119.329012930393 64.273864030838 2385.99991798401 19 22 15
-112.960062921047 64.3562525510788 2388.99993896484 17 20 13
-105.816856026649 63.9805942773819 2375 14 17 10
-98.456859588623 63.4162575006485 2354.00009155273 15 18 11
-92.3057571053505 63.6061280965805 2361.00006103516 17 20 13
-86.5161046385765 64.0922784805298 2378.99994850159 18 21 14
-80.7623788714409 64.6861270070076 2401.00002288818 16 19 12
-74.1464421153069 64.6332949399948 2398.9999294281 15 18 11
-67.2029927372932 64.2570778727531 2384.99999046326 14 17 10
-60.3357031941414 63.8807564973831 2371.00005149841 14 17 10
-53.7717677652836 63.7737587094307 2367.00010299683 18 21 14
-47.1295267343521 63.5319724678993 2358.00004005432 19 22 15
-40.6052507460117 63.3978471159935 2352.9999256134 18 21 12
-33.9483246207237 62.9672706127167 2336.99989318848 18 21 12
-27.6617333292961 63.1832405924797 2345.00002861023 20 23 14
-21.4038621634245 63.6146888136864 2361.00006103516 21 24 15
-14.8684745654464 63.2377117872238 2346.99988365173 21 24 17
-1.9884470384568 61.2979643046856 2275.00009536743 18 21 14
4.29964531213045 62.4026581645012 2315.99998474121 20 23 16
10.8391456305981 63.668929040432 2362.99991607666 18 21 14
17.5547767430544 64.6387189626694 2398.9999294281 12 15 8
24.3262574076653 65.2312040328979 2421.0000038147 6 8 3
30.9494286775589 65.257765352726 2421.99993133545 11 13 8
37.0971634984016 64.4489899277687 2391.99995994568 13 15 10
43.3909818530083 64.098171889782 2378.99994850159 13 15 10
49.6136285364628 63.7472718954086 2365.9999370575 14 17 10
55.9072941541672 63.5579526424408 2358.99996757507 14 17 10
62.3210743069649 63.5301992297173 2358.00004005432 15 18 11
68.7874630093575 63.5562464594841 2358.99996757507 14 17 10
75.4822418093681 63.7708008289337 2367.00010299683 14 17 8
81.9434523582459 63.7697279453278 2367.00010299683 15 18 9
88.9645218849182 64.1726702451706 2381.99996948242 15 18 9
95.2655747532845 64.0367195010185 2377.00009346008 17 20 11
101.153656840324 63.6582151055336 2362.99991607666 17 20 13
107.420302927494 63.5490566492081 2358.99996757507 15 18 11
114.09904062748 63.6822432279587 2364.00008201599 16 19 12
121.008582413197 63.9230981469154 2372.99990653992 19 22 15
127.322062849998 63.8405978679657 2369.99988555908 19 22 15
132.546126842499 63.2462501525879 2348.00004959106 18 21 14
138.418927788734 63.0020052194595 2338.99998664856 17 20 13
145.542100071907 63.3233264088631 2351.0000705719 17 20 13
153.570383787155 63.9946758747101 2375.99992752075 18 21 14
160.050421953201 63.9925748109818 2375.99992752075 19 22 15
166.179358959198 63.8557374477386 2371.00005149841 19 22 15
175.192981958389 64.7960677742958 2405.99989891052 23 24 16
183.641344308853 65.4669553041458 2430.99999427795 22 23 15
-190.746188163757 59.7272403538227 2467.99993515015 18 21 14
-180.886164307594 58.713011443615 2426.00011825562 24 27 20
-171.398043632507 57.7470287680626 2385.99991798401 21 24 17
-165.928348898888 58.1120885908604 2401.00002288818 25 28 21
-159.911513328552 58.3076737821102 2408.99991989136 20 23 16
-151.304319500923 57.5350113213062 2377.00009346008 19 22 15
-144.698783755302 57.4883781373501 2375 19 22 15
-138.860166072845 57.7563531696796 2385.99991798401 20 23 16
-132.295355200768 57.7337928116322 2384.99999046326 21 24 17
-125.78821182251 57.7353611588478 2384.99999046326 21 24 17
-119.630627334118 57.9063072800636 2391.99995994568 22 25 18
-112.488679587841 57.5930029153824 2378.99994850159 18 21 14
-105.907328426838 57.5459189713001 2377.00009346008 16 19 12
-99.4201228022575 57.5471743941307 2377.00009346008 13 16 9
-92.9715931415558 57.572565972805 2378.00002098084 15 18 11
-86.6990685462952 57.7189289033413 2384.0000629425 17 20 13
-80.9652432799339 58.2768097519875 2407.00006484985 20 23 16
-74.4873955845833 58.3504028618336 2410.00008583069 18 21 14
-67.5701797008514 58.0607317388058 2398.00000190735 11 14 7
-60.3619292378426 57.4319958686829 2371.99997901917 10 13 6
-53.6134466528893 57.1421422064304 2359.99989509583 11 14 7
-47.3300106823444 57.3364719748497 2368.00003051758 13 16 9
-40.7783500850201 57.2159439325333 2362.99991607666 14 17 8
-34.1085605323315 56.8532086908817 2348.00004959106 15 18 9
-27.992382645607 57.4589259922504 2372.99990653992 17 20 11
-21.5219967067242 57.4834495782852 2374.00007247925 17 20 13
-15.0080425664783 57.3626048862934 2368.99995803833 14 17 10
-2.01906473375857 55.9341944754124 2309.99994277954 21 24 17
4.36468003317714 56.9269508123398 2351.0000705719 17 20 13
10.9860738739371 57.9922683537006 2394.99998092651 13 16 9
17.6940429955721 58.5490129888058 2417.99998283386 8 11 4
24.3064761161804 58.5729591548443 2418.99991035461 9 11 6
30.8092720806599 58.3789199590683 2411.00001335144 13 15 10
37.2217185795307 58.1121481955051 2400.00009536743 13 15 10
43.48274320364 57.7242411673069 2384.0000629425 13 15 10
49.4465231895447 57.0941269397736 2358.00004005432 13 16 9
56.1924204230309 57.4082396924496 2371.00005149841 13 16 9
63.3526593446732 58.0370351672173 2397.0000743866 14 17 10
69.4881901144981 57.6972439885139 2382.99989700317 14 17 10
75.7064521312714 57.4784465134144 2374.00007247925 15 18 9
81.5983042120934 57.0658855140209 2357.00011253357 15 18 9
88.0319401621819 57.0648424327374 2357.00011253357 16 19 10
94.5854634046555 57.1363531053066 2359.99989509583 16 19 10
101.06935352087 57.1593753993511 2361.00006103516 17 20 13
107.421681284904 57.1096800267696 2358.99996757507 16 19 12
113.907441496849 57.1325421333313 2359.99989509583 17 20 13
120.500184595585 57.2037361562252 2362.99991607666 20 23 16
126.947641372681 57.2022385895252 2362.99991607666 20 23 16
133.50747525692 57.2490692138672 2365.00000953674 19 22 15
139.663457870483 57.1263879537582 2359.99989509583 18 21 14
146.967828273773 57.4635453522205 2374.00007247925 16 19 12
154.154047369957 57.7279813587666 2384.99999046326 18 21 14
159.513548016548 57.3146231472492 2368.00003051758 19 22 15
167.372971773148 57.7967315912247 2388.00001144409 19 22 15
175.413653254509 58.3029352128506 2408.99991989136 23 24 16
183.719202876091 58.8574297726154 2431.99992179871 22 23 15
-193.608015775681 53.786925971508 2505.00011444092 30 33 26
-183.050483465195 52.7153015136719 2454.99992370605 23 26 19
-173.339560627937 51.8153347074986 2413.00010681152 25 28 21
-167.450621724129 52.0318783819675 2423.00009727478 25 28 21
-159.581452608109 51.6256093978882 2404.00004386902 17 20 13
-151.369675993919 51.0689094662666 2378.00002098084 19 22 15
-144.334882497787 50.8772134780884 2368.99995803833 19 22 15
-138.454362750053 51.0934926569462 2378.99994850159 20 23 16
-132.185935974121 51.1808544397354 2382.99989700317 20 23 16
-125.736922025681 51.2037239968777 2384.0000629425 21 24 17
-118.981815874577 51.097646355629 2378.99994850159 21 24 17
-111.544288694859 50.6693199276924 2358.99996757507 19 22 15
-104.883775115013 50.5630970001221 2354.00009155273 17 20 13
-99.7558757662773 51.2300804257393 2384.99999046326 15 18 11
-93.3636352419853 51.2955747544765 2388.00001144409 14 17 10
-86.7364332079887 51.232110708952 2384.99999046326 16 19 12
-80.2261605858803 51.2330196797848 2384.99999046326 21 24 17
-74.0246325731277 51.4486730098724 2394.99998092651 19 22 15
-67.2046393156052 51.2346215546131 2384.99999046326 13 16 9
-60.76979637146 51.2997694313526 2388.00001144409 10 13 6
-53.7049435079098 50.7848151028156 2364.00008201599 10 13 6
-47.0307432115078 50.5490563809872 2352.9999256134 10 13 6
-41.0376861691475 51.0866157710552 2378.00002098084 11 14 5
-34.7045548260212 51.323339343071 2388.99993896484 13 16 7
-28.0280988663435 51.0444007813931 2375.99992752075 16 19 10
-21.6129049658775 51.2165427207947 2384.0000629425 14 17 10
-14.9131901562214 50.5722388625145 2354.00009155273 10 13 6
-2.05754721537232 50.5724288523197 2354.00009155273 20 23 16
4.44084918126464 51.3887889683247 2391.99995994568 14 17 10
11.0871195793152 51.9257970154285 2417.00005531311 5 7 2
17.7893768996 52.2264018654823 2430.99999427795 2 4 0
24.2364257574081 51.8179833889008 2411.99994087219 11 13 8
30.6690633296967 51.5598878264427 2400.00009536743 15 17 12
37.2841879725456 51.6454465687275 2404.00004386902 14 16 11
43.8480451703072 51.645003259182 2404.00004386902 14 16 11
49.7616454958916 50.9785227477551 2372.99990653992 14 17 10
56.5011724829674 51.2142479419708 2384.0000629425 15 18 11
63.591256737709 51.6862012445927 2405.99989891052 14 17 10
69.8097571730614 51.4276959002018 2394.00005340576 14 17 10
75.5159854888916 50.8683770895004 2368.00003051758 15 18 9
81.3222900032997 50.4593700170517 2348.99997711182 16 19 10
87.5847637653351 50.372526049614 2345.00002861023 16 19 10
94.5063978433609 50.6507903337479 2358.00004005432 16 19 10
100.899286568165 50.6282486021519 2357.00011253357 17 20 13
107.377380132675 50.6485961377621 2358.00004005432 17 20 13
113.715678453445 50.6044439971447 2355.99994659424 19 22 15
120.399594306946 50.7105775177479 2361.00006103516 22 25 18
127.002820372581 50.7736764848232 2364.00008201599 22 25 18
133.84772837162 50.9226098656654 2371.00005149841 20 23 16
141.381278634071 51.3077229261398 2388.99993896484 19 22 15
148.702904582024 51.5853576362133 2401.99995040894 17 20 13
153.509452939034 51.0038994252682 2375 19 22 15
159.31324660778 50.787478685379 2365.00000953674 20 23 16
165.482446551323 50.6998524069786 2361.00006103516 21 24 17
174.760282039642 51.5355132520199 2400.00009536743 22 25 16
183.721244335175 52.2207356989384 2431.99992179871 24 27 18
-184.096187353134 46.277966350317 2469.00010108948 21 24 17
-176.071062684059 45.9422394633293 2450.99997520447 24 27 20
-164.964362978935 44.7441674768925 2387.00008392334 22 25 18
-159.715786576271 45.1018400490284 2405.99989891052 14 17 10
-151.56215429306 44.634647667408 2381.00004196167 18 21 14
-144.458189606667 44.4485694169998 2371.00005149841 18 21 14
-138.688549399376 44.6748584508896 2382.99989700317 17 20 13
-133.13028216362 44.9948459863663 2400.00009536743 17 20 13
-126.001879572868 44.789832085371 2388.99993896484 17 20 13
-118.983022868633 44.6035005152225 2378.99994850159 18 21 14
-111.356273293495 44.1546104848385 2355.00001907349 19 22 15
-105.330400168896 44.3243831396103 2364.00008201599 19 22 15
-99.4641035795212 44.5878468453884 2378.00002098084 15 18 11
-93.5991704463959 44.8887720704079 2394.00005340576 13 16 9
-86.0463157296181 44.3646013736725 2365.9999370575 14 17 10
-79.8233076930046 44.4966480135918 2372.99990653992 19 22 15
-73.5308527946472 44.6098893880844 2378.99994850159 18 21 14
-67.092627286911 44.6480624377728 2381.00004196167 15 18 11
-60.9994567930698 44.9487045407295 2397.0000743866 13 16 9
-54.4324666261673 44.9305027723312 2395.99990844727 10 13 6
-48.2105016708374 45.2310293912888 2411.99994087219 9 12 5
-41.4005108177662 44.9876748025417 2398.9999294281 8 11 2
-34.9082909524441 45.0630560517311 2403.00011634827 11 14 7
-28.287909924984 44.9695885181427 2398.00000190735 13 16 9
-21.4590057730675 44.3884879350662 2367.00010299683 13 16 9
-14.8309832438827 43.9010784029961 2341.00008010864 10 13 6
-8.44582077115774 43.9386963844299 2342.99993515015 18 21 14
-2.09165713749826 44.8764078319073 2392.99988746643 19 22 15
4.50401799753308 45.4952530562878 2426.00011825562 16 18 13
11.2110869958997 45.8327308297157 2444.00000572205 4 6 1
17.8334694355726 45.7013249397278 2437.00003623962 5 7 2
24.266816675663 45.2885515987873 2414.99996185303 8 10 5
30.797166749835 45.1945252716541 2410.00008583069 14 16 11
37.5482328236103 45.4004816710949 2421.0000038147 13 15 10
44.2497693002224 45.4938560724258 2426.00011825562 13 15 10
50.3073818981647 44.9870824813843 2398.9999294281 14 17 10
56.4306490123272 44.6490272879601 2381.00004196167 15 18 11
63.2483065128326 44.8734797537327 2392.99988746643 13 16 9
69.839634001255 44.9103526771069 2394.99998092651 14 17 10
75.6124332547188 44.4596260786057 2371.00005149841 16 19 10
81.5654620528221 44.1776029765606 2355.99994659424 16 19 10
87.8471061587334 44.1017970442772 2351.99999809265 16 19 10
94.0664783120155 44.0071746706963 2346.99988365173 15 18 9
100.47222673893 44.0062582492828 2346.99988365173 16 19 10
107.105240225792 44.0990217030048 2351.99999809265 17 20 11
113.909892737865 44.2479737102985 2359.99989509583 19 22 13
120.757766067982 44.3968586623669 2368.00003051758 22 25 16
127.272725105286 44.4144383072853 2368.99995803833 21 24 15
133.736163377762 44.4132089614868 2368.99995803833 21 24 15
141.027599573135 44.6743816137314 2382.99989700317 19 22 13
146.785244345665 44.4480739533901 2371.00005149841 18 21 12
152.347549796104 44.1842339932919 2357.00011253357 19 22 13
157.159224152565 43.7328927218914 2332.99994468689 23 26 17
165.063560009003 44.1437847912312 2355.00001907349 23 26 17
172.795936465263 44.4796159863472 2372.99990653992 20 25 18
183.94972383976 45.6400774419308 2434.99994277954 23 28 21
-182.233676314354 39.139449596405 2444.00000572205 24 27 20
-172.408878803253 38.4362041950226 2400.00009536743 15 18 11
-169.596135616302 39.3023900687695 2453.9999961853 25 28 21
-158.721432089806 38.2946953177452 2391.00003242493 22 25 18
-151.627123355865 38.1517857313156 2381.99996948242 18 21 14
-144.642218947411 38.0248390138149 2374.00007247925 18 21 14
-138.340577483177 38.0740240216255 2377.00009346008 16 19 12
-134.240865707397 38.7638881802559 2420.00007629395 15 18 11
-127.005115151405 38.5727137327194 2407.99999237061 15 18 11
-118.333891034126 37.9009172320366 2365.9999370575 15 18 11
-111.877389252186 37.9018411040306 2365.9999370575 17 20 13
-105.509549379349 37.9347652196884 2368.00003051758 17 20 13
-99.4649827480316 38.0957908928394 2378.00002098084 15 18 11
-92.270664870739 37.8082059323788 2359.99989509583 15 18 11
-85.4288190603256 37.6327000558376 2348.99997711182 15 18 11
-79.4203579425812 37.8256179392338 2361.00006103516 18 21 14
-73.4387785196304 38.0665585398674 2375.99992752075 18 21 14
-67.3749968409538 38.3074544370174 2391.00003242493 16 19 12
-61.1017905175686 38.4681932628155 2401.00002288818 15 18 11
-54.7055639326572 38.5808199644089 2407.99999237061 14 17 10
-48.1909476220608 38.6293083429337 2411.00001335144 11 14 7
-41.7460240423679 38.7578494846821 2418.99991035461 10 13 6
-35.1700931787491 38.7902148067951 2421.0000038147 10 13 6
-28.3471457660198 38.5020673274994 2403.00011634827 11 14 7
-21.5589236468077 38.1017066538334 2378.00002098084 10 13 6
-14.9261457845569 37.7493612468243 2355.99994659424 10 12 7
-8.644157089293 38.4224094450474 2398.00000190735 7 9 4
-2.10653524845839 38.6147275567055 2410.00008583069 6 8 3
4.53190598636866 39.1114167869091 2440.99998474121 5 7 2
11.2157743424177 39.1754433512688 2444.9999332428 5 7 2
17.8702156990767 39.1272567212582 2441.99991226196 6 8 3
24.3273265659809 38.7906096875668 2421.0000038147 8 10 7
30.6952074170113 38.4859591722488 2401.99995040894 10 12 7
37.5485643744469 38.7901030480862 2421.0000038147 11 13 8
44.2136824131012 38.8378351926804 2424.00002479553 11 13 8
50.2658858895302 38.4048521518707 2397.0000743866 9 12 5
56.7392595112324 38.3563525974751 2394.00005340576 9 12 5
63.248872756958 38.339838385582 2392.99988746643 13 16 9
69.9860602617264 38.4514480829239 2400.00009536743 12 15 8
75.8044496178627 38.0823649466038 2377.00009346008 13 16 7
82.674041390419 38.2579490542412 2388.00001144409 14 17 8
88.6322408914566 38.0169376730919 2372.99990653992 17 20 11
94.3879559636116 37.7278290688992 2355.00001907349 20 23 14
100.38748383522 37.5668406486511 2345.00002861023 20 23 14
107.242792844772 37.7261973917484 2355.00001907349 20 23 14
113.766111433506 37.7573445439339 2357.00011253357 20 23 14
121.166795492172 38.0607582628727 2375.99992752075 20 23 14
127.59618461132 38.0437336862087 2375 20 23 14
133.680880069733 37.9305630922318 2368.00003051758 17 20 11
139.371767640114 37.7212353050709 2355.00001907349 17 20 11
146.353155374527 37.8642454743385 2364.00008201599 20 23 14
150.797560811043 37.3665355145931 2332.99994468689 21 24 15
157.430037856102 37.4293737113476 2336.99989318848 23 26 17
165.345326066017 37.780437618494 2358.99996757507 23 26 17
174.54506456852 38.3876673877239 2397.0000743866 24 29 22
184.102401137352 39.0268340706825 2437.00003623962 20 27 19
-180.967390537262 32.2435162961483 2427.00004577637 15 18 11
-171.691760420799 31.7531116306782 2390.00010490417 24 27 20
-165.519878268242 31.8206548690796 2394.99998092651 19 22 15
-158.457055687904 31.7154303193092 2387.00008392334 12 15 8
-151.246279478073 31.5702967345715 2375.99992752075 17 20 13
-144.094914197922 31.4251184463501 2365.00000953674 17 20 13
-139.971181750298 31.957570463419 2404.99997138977 15 18 11
-134.019941091537 32.1046523749828 2415.99988937378 15 18 11
-126.531347632408 31.8796224892139 2398.9999294281 15 18 11
-119.235031306744 31.6811129450798 2384.0000629425 16 19 12
-113.060362637043 31.7749120295048 2391.00003242493 17 20 13
-106.579683721066 31.7889377474785 2391.99995994568 18 21 14
-99.3820577859879 31.5769910812378 2375.99992752075 18 21 14
-92.3495516180992 31.3915759325027 2361.99998855591 17 20 13
-85.9386250376701 31.4054675400257 2362.99991607666 16 19 12
-79.3200433254242 31.3395746052265 2358.00004005432 18 21 14
-73.5320448875427 31.6191948950291 2378.99994850159 18 21 14
-67.4600452184677 31.8190418183804 2394.00005340576 17 20 13
-61.0258989036083 31.8726375699043 2398.00000190735 16 19 12
-54.3879233300686 31.8198651075363 2394.00005340576 13 16 9
-48.211295157671 32.0594571530819 2411.99994087219 12 15 8
-41.6773073375225 32.0996381342411 2414.99996185303 10 13 6
-35.3010967373848 32.299280166626 2430.0000667572 10 13 6
-28.5479035228491 32.1665778756142 2420.00007629395 10 13 6
-21.6588098555803 31.7546986043453 2388.99993896484 10 13 6
-15.097314491868 31.6750705242157 2382.99989700317 10 12 7
-8.73434171080589 32.2068333625793 2423.00009727478 7 9 4
-2.13015102781355 32.3929600417614 2437.00003623962 7 9 4
4.51523065567017 32.3264896869659 2431.99992179871 6 8 3
11.1378747969866 32.2732701897621 2427.99997329712 5 7 2
17.7971702069044 32.326340675354 2431.99992179871 6 8 3
24.4179461151361 32.2996154427528 2430.0000667572 8 10 7
30.9126824140549 32.1532115340233 2418.99991035461 11 13 8
37.25416213274 31.9270193576813 2401.99995040894 12 14 9
43.8856855034828 31.9799073040485 2405.99989891052 12 14 9
50.4759661853313 31.9928862154484 2407.00006484985 10 13 6
56.8818859755993 31.8994782865047 2400.00009536743 11 14 7
63.3550733327866 31.8591967225075 2397.0000743866 12 15 8
70.0157359242439 31.9119095802307 2401.00002288818 12 15 8
76.6979530453682 31.9645777344704 2404.99997138977 12 15 6
83.0901116132736 31.8975858390331 2400.00009536743 13 16 7
89.1558080911636 31.7242257297039 2387.00008392334 15 18 9
94.8696285486221 31.4578041434288 2367.00010299683 19 22 13
101.372852921486 31.4704328775406 2368.00003051758 20 23 14
107.835590839386 31.4697287976742 2368.00003051758 20 23 14
114.008277654648 31.3892476260662 2361.99998855591 21 24 15
120.606735348701 31.4283296465874 2365.00000953674 22 25 16
127.167344093323 31.4540825784206 2367.00010299683 22 25 16
133.343145251274 31.3867703080177 2361.99998855591 19 22 13
139.017701148987 31.2131177634001 2348.99997711182 19 22 13
145.05410194397 31.1324447393417 2342.99993515015 21 24 15
151.445046067238 31.1314649879932 2342.99993515015 22 25 16
157.498553395271 31.064011156559 2338.00005912781 22 25 16
165.486723184586 31.3685275614262 2361.00006103516 22 25 16
175.492972135544 32.0184156298637 2410.00008583069 13 18 11
182.592809200287 32.1102365851402 2417.00005531311 19 26 18
193.252354860306 32.7998213469982 2469.00010108948 26 33 25
-175.89807510376 24.9018892645836 2358.99996757507 25 28 21
-172.3393201828 25.3250524401665 2398.9999294281 20 23 16
-166.626617312431 25.4526194185019 2411.00001335144 21 24 17
-158.059686422348 25.136761367321 2381.00004196167 19 22 15
-151.183530688286 25.0742305070162 2375 17 20 13
-145.131558179855 25.1489151269197 2381.99996948242 16 19 12
-138.866201043129 25.1918956637383 2385.99991798401 15 18 11
-131.968289613724 25.1187086105347 2378.99994850159 15 18 11
-126.004680991173 25.2249781042337 2388.99993896484 15 18 11
-120.336063206196 25.4051350057125 2405.99989891052 15 18 11
-114.006772637367 25.4585556685925 2411.00001335144 13 16 9
-106.936790049076 25.3429897129536 2400.00009536743 15 18 11
-99.5499789714813 25.1323506236076 2380.00011444092 16 19 12
-92.6628932356834 25.0272620469332 2369.99988555908 15 18 11
-86.0118716955185 24.9749403446913 2365.00000953674 15 18 11
-79.7914639115334 25.0493083149195 2371.99997901917 14 17 10
-73.3779519796371 25.0708404928446 2374.00007247925 15 18 11
-67.3759058117867 25.2507496625185 2391.00003242493 18 21 14
-60.7208833098412 25.1982882618904 2385.99991798401 17 20 13
-54.2292222380638 25.2091623842716 2387.00008392334 13 16 9
-48.1116510927677 25.4206601530313 2407.00006484985 12 15 8
-41.4359532296658 25.3575332462788 2401.00002288818 11 14 7
-35.0107662379742 25.4527907818556 2410.00008583069 10 13 6
-28.3593293279409 25.3895949572325 2404.00004386902 10 13 6
-21.758671849966 25.3474861383438 2400.00009536743 9 11 6
-15.2051104232669 25.3475848585367 2400.00009536743 10 12 7
-8.82090907543898 25.8440393954515 2447.00002670288 10 12 7
-2.14240164496005 25.8863158524036 2450.99997520447 7 9 4
4.48741018772125 25.5272183567286 2417.00005531311 6 8 3
11.0737215727568 25.4954900592566 2414.00003433228 6 8 5
17.7314169704914 25.5904644727707 2423.00009727478 7 9 6
24.5587732642889 25.812141597271 2444.00000572205 9 11 8
31.1045609414577 25.7063768804073 2434.00001525879 10 12 7
37.1458195149899 25.2943001687527 2394.99998092651 13 15 10
43.4299521148205 25.1462254673243 2381.00004196167 13 15 10
50.1407459378242 25.2515859901905 2391.00003242493 13 16 9
56.8822361528873 25.3463461995125 2400.00009536743 14 17 10
63.5404735803604 25.3882650285959 2404.00004386902 13 16 9
69.8995217680931 25.3139808773994 2397.0000743866 12 15 8
76.4432922005653 25.3135897219181 2397.0000743866 12 15 6
82.8828811645508 25.2814795821905 2394.00005340576 13 16 7
89.1189947724342 25.196535512805 2385.99991798401 14 17 8
95.3511521220207 25.1221209764481 2378.99994850159 15 18 9
101.587496697903 25.0582341104746 2372.99990653992 17 20 11
108.155019581318 25.0787958502769 2375 17 20 11
114.202030003071 24.9831695109606 2365.9999370575 18 21 12
120.505452156067 24.9508656561375 2362.99991607666 19 22 13
126.89945101738 24.9396488070488 2361.99998855591 20 23 14
133.96492600441 25.0551030039787 2372.99990653992 20 23 14
139.491990208626 24.8854476958513 2357.00011253357 20 23 14
145.17879486084 24.7579980641603 2345.00002861023 21 24 15
151.058107614517 24.6727559715509 2336.99989318848 21 24 15
158.644676208496 24.8619727790356 2355.00001907349 22 25 16
165.137246251106 24.8716827481985 2355.99994659424 23 26 17
174.256071448326 25.2613872289658 2392.99988746643 25 30 23
183.198258280754 25.5982521921396 2424.99995231628 25 30 23
192.392483353615 25.9456131607294 2457.99994468689 20 25 18
-180.745601654053 18.9723074436188 2424.00002479553 29 32 25
-173.130318522453 18.8634134829044 2410.00008583069 18 21 14
-166.834726929665 18.895385786891 2414.00003433228 29 32 25
-159.65361893177 18.8255701214075 2404.99997138977 22 25 18
-152.775660157204 18.787045031786 2400.00009536743 18 21 14
-145.315021276474 18.670205026865 2384.99999046326 18 21 14
-137.644648551941 18.5141935944557 2365.00000953674 16 19 12
-131.580591201782 18.5695197433233 2371.99997901917 15 18 11
-126.321718096733 18.7500901520252 2394.99998092651 15 18 11
-120.686739683151 18.8915003091097 2413.00010681152 15 18 11
-117.128200829029 19.3930342793465 2476.99999809265 13 16 9
-107.828423380852 18.9472064375877 2420.00007629395 11 14 7
-100.136026740074 18.7440514564514 2394.00005340576 11 14 7
-93.875378370285 18.7992434948683 2401.00002288818 11 14 7
-87.4670296907425 18.8309252262115 2404.99997138977 12 15 8
-80.6328132748604 18.7686197459698 2397.0000743866 11 14 7
-74.1819441318512 18.7924169003963 2400.00009536743 13 16 9
-67.1226158738136 18.6517536640167 2381.99996948242 16 19 12
-60.3139810264111 18.5580421239138 2369.99988555908 16 19 12
-53.8659766316414 18.5661017894745 2371.00005149841 13 16 9
-47.412283718586 18.5741353780031 2371.99997901917 11 14 7
-41.5742136538029 18.86404491961 2408.99991989136 12 15 8
-34.7058549523354 18.7075864523649 2388.99993896484 11 13 8
-28.1471163034439 18.6842177063227 2385.99991798401 10 12 7
-21.8131691217422 18.8409350812435 2405.99989891052 9 11 6
-15.2621995657682 18.8645012676716 2408.99991989136 9 11 6
-8.75966995954514 19.0289989113808 2430.0000667572 8 10 5
-2.13017431087792 19.0838351845741 2437.00003623962 7 9 4
4.51527955010533 19.0446767956018 2431.99992179871 6 8 5
11.0921217128634 18.9350135624409 2417.99998283386 6 8 5
17.8046822547913 19.0524198114872 2433.00008773804 7 9 6
24.5488397777081 19.1306415945292 2443.00007820129 9 11 8
31.0791432857513 19.0443899482489 2431.99992179871 10 12 7
37.1770150959492 18.7701787799597 2397.0000743866 12 14 9
43.3571934700012 18.6134036630392 2377.00009346008 12 14 9
49.6796183288097 18.5505729168653 2368.99995803833 13 16 9
56.3373789191246 18.6130069196224 2377.00009346008 14 17 10
62.7213940024376 18.5814462602139 2372.99990653992 14 17 10
69.170817732811 18.5733530670404 2371.99997901917 14 17 10
75.7739245891571 18.6043828725815 2375.99992752075 14 17 8
82.1562111377716 18.5805801302195 2372.99990653992 14 17 8
88.7458994984627 18.6037290841341 2375.99992752075 15 18 9
95.1511934399605 18.5877047479153 2374.00007247925 16 19 10
101.159878075123 18.5011904686689 2362.99991607666 17 20 11
107.654593884945 18.5086075216532 2364.00008201599 17 20 11
113.478548824787 18.4063892811537 2351.0000705719 17 20 11
120.353020727634 18.4763893485069 2359.99989509583 17 20 11
126.416519284248 18.4211004525423 2352.9999256134 17 20 11
133.457481861115 18.506707623601 2364.00008201599 18 21 12
139.966085553169 18.5139961540699 2365.00000953674 18 21 12
145.798563957214 18.4351559728384 2355.00001907349 19 22 13
152.545467019081 18.4737127274275 2359.99989509583 20 23 14
159.453809261322 18.5278989374638 2367.00010299683 22 25 16
167.80149936676 18.7386032193899 2394.00005340576 24 27 18
173.018932342529 18.597049638629 2375.99992752075 17 22 15
183.879017829895 19.050320610404 2434.00001525879 24 29 23
191.688880324364 19.1669911146164 2448.99988174438 18 23 17
-183.505088090897 12.545108795166 2460.99996566772 8 11 4
-175.142347812653 12.4283144250512 2437.99996376038 12 15 8
-167.388141155243 12.3471831902862 2421.99993133545 19 22 15
-159.587755799294 12.2558325529099 2404.00004386902 22 25 18
-153.030768036842 12.2562320902944 2404.00004386902 19 22 15
-145.132705569267 12.1444463729858 2381.99996948242 19 22 15
-138.052493333817 12.0938224717975 2371.99997901917 19 22 15
-132.080286741257 12.1400579810143 2381.00004196167 19 22 15
-126.480370759964 12.2270677238703 2398.00000190735 20 23 16
-121.437355875969 12.3803531751037 2427.99997329712 20 23 16
-114.29139226675 12.3245678842068 2417.00005531311 20 23 16
-107.026748359203 12.2483661398292 2401.99995040894 17 20 13
-100.261829793453 12.2231356799603 2397.0000743866 15 18 11
-94.0711721777916 12.2692808508873 2405.99989891052 12 15 8
-88.303804397583 12.3817073181272 2427.99997329712 12 15 8
-81.6758871078491 12.3819271102548 2427.99997329712 10 13 6
-74.3676349520683 12.2699365019798 2405.99989891052 11 14 7
-66.9819414615631 12.1222268790007 2377.00009346008 14 17 10
-60.0342452526093 12.0305949822068 2358.99996757507 15 18 11
-53.4572154283524 12.0001435279846 2352.9999256134 14 17 10
-47.3324880003929 12.0767755433917 2368.00003051758 14 17 10
-41.4535403251648 12.2502893209457 2401.99995040894 13 15 10
-34.9093563854694 12.2554916888475 2403.00011634827 11 13 8
-21.7225775122643 12.2199365869164 2395.99990844727 9 11 6
-15.3256058692932 12.3372888192534 2418.99991035461 9 11 6
-8.74888338148594 12.3781226575375 2427.00004577637 9 11 8
-2.12668511085212 12.4087380245328 2433.00008773804 8 10 7
4.51900810003281 12.4138342216611 2434.00001525879 7 9 6
11.1472075805068 12.3934140428901 2430.0000667572 6 8 5
17.5998341292143 12.2658712789416 2404.99997138977 7 9 6
24.0263901650906 12.1944146230817 2391.00003242493 10 12 9
30.8236628770828 12.3014450073242 2411.99994087219 10 12 7
37.3322367668152 12.2758569195867 2407.00006484985 12 14 9
43.2296507060528 12.0870498940349 2369.99988555908 12 14 9
49.5329909026623 12.0461285114288 2361.99998855591 12 15 8
55.8872371912003 12.025591917336 2358.00004005432 13 16 9
62.0872527360916 11.9795389473438 2348.99997711182 14 17 10
68.6169639229774 11.999768204987 2352.9999256134 14 17 10
75.2958059310913 12.0403803884983 2361.00006103516 15 18 9
81.6717892885208 12.0299775153399 2358.99996757507 16 19 10
88.5967910289764 12.0960520580411 2371.99997901917 17 20 11
95.0312688946724 12.090714648366 2371.00005149841 16 19 10
101.11740231514 12.0445666834712 2361.99998855591 18 21 12
106.561988592148 11.9321150705218 2339.99991416931 18 21 12
113.961592316628 12.0389126241207 2361.00006103516 18 21 12
120.404414832592 12.0386118069291 2361.00006103516 18 21 12
127.330258488655 12.0841823518276 2369.99988555908 18 21 12
133.288532495499 12.037961743772 2361.00006103516 18 21 12
139.848157763481 12.0478076860309 2362.99991607666 18 21 12
147.099152207375 12.1137220412493 2375.99992752075 18 21 12
154.226556420326 12.1643217280507 2385.99991798401 20 23 14
160.532146692276 12.1486270800233 2382.99989700317 22 25 16
166.330099105835 12.0972339063883 2372.99990653992 24 27 18
176.07793211937 12.3262004926801 2417.99998283386 23 28 21
182.897493243217 12.3410420492291 2421.0000038147 20 25 19
-183.207154273987 5.81879308447242 2457.00001716614 12 15 8
-175.358191132545 5.78111037611961 2440.99998474121 20 23 16
-165.660679340363 5.67710259929299 2397.0000743866 15 18 11
-159.322530031204 5.68439951166511 2400.00009536743 19 22 15
-152.458146214485 5.67274075001478 2394.99998092651 18 21 14
-145.559474825859 5.65870618447661 2388.99993896484 19 22 15
-138.925775885582 5.65413758158684 2387.00008392334 19 22 15
-132.857143878937 5.67324832081795 2394.99998092651 20 23 16
-126.849815249443 5.69709204137325 2404.99997138977 23 26 19
-120.637334883213 5.71382138878107 2411.99994087219 23 26 19
-114.055171608925 5.71396201848984 2411.99994087219 22 25 18
-106.98240250349 5.6880353949964 2401.00002288818 21 24 17
-100.345678627491 5.68342115730047 2398.9999294281 20 23 16
-94.2668467760086 5.7119675911963 2411.00001335144 15 18 11
-88.0857482552528 5.73813775554299 2421.99993133545 13 16 9
-81.776961684227 5.75956283137202 2430.99999427795 11 14 7
-74.336864054203 5.69805689156055 2404.99997138977 11 14 7
-67.1793147921562 5.64838759601116 2384.0000629425 14 17 10
-59.7289651632309 5.56079996749759 2346.99988365173 15 18 11
-53.6390729248524 5.5940393358469 2361.00006103516 16 19 12
