ply
format ascii 1.0
comment KinectMotionCapture
element vertex 762
property float x
property float y
property float z
property uchar red
property uchar green
property uchar blue
end_header
49.953680485487 694.483935832977 2752.00009346008 148 147 143
57.4315264821053 694.479525089264 2752.00009346008 148 147 143
64.9092122912407 694.474518299103 2752.00009346008 146 145 141
72.3078399896622 693.711996078491 2749.00007247925 146 145 141
79.835057258606 694.210410118103 2750.99992752075 149 148 144
87.1825069189072 693.194210529327 2746.99997901917 154 153 149
94.5424661040306 692.429900169373 2743.99995803833 161 160 156
101.737186312675 690.655529499054 2736.99998855591 159 158 154
109.172835946083 690.647125244141 2736.99998855591 157 156 152
116.608195006847 690.63800573349 2736.99998855591 156 155 151
123.997941613197 690.376043319702 2736.00006103516 155 154 150
131.381914019585 690.113425254822 2734.99989509583 152 153 148
138.557121157646 688.841044902802 2730.00001907349 151 152 147
145.918697118759 688.577353954315 2729.00009155273 149 150 145
153.386816382408 688.817739486694 2730.00001907349 149 150 145
161.095604300499 690.066814422607 2734.99989509583 149 150 145
168.646305799484 690.55837392807 2736.99998855591 150 151 146
176.078766584396 690.544784069061 2736.99998855591 149 150 145
183.309659361839 689.773738384247 2733.99996757507 146 147 142
190.942376852036 690.51593542099 2736.99998855591 144 145 140
198.808372020721 692.014396190643 2743.00003051758 140 141 136
206.706434488297 693.512380123138 2749.00007247925 139 140 135
214.558690786362 694.757401943207 2753.99994850159 144 144 142
222.760051488876 697.010934352875 2763.00001144409 152 152 150
230.843052268028 698.759257793427 2769.99998092651 131 131 129
238.275125622749 698.48906993866 2769.00005340576 137 137 135
245.434910058975 697.461664676666 2765.00010490417 141 141 139
252.389430999756 695.929288864136 2759.0000629425 145 145 143
259.781748056412 695.65761089325 2757.99989700317 146 146 144
266.877353191376 694.628834724426 2753.99994850159 149 149 147
274.548381567001 695.113003253937 2756.00004196167 150 150 148
281.820267438889 694.587767124176 2753.99994850159 154 154 152
289.710938930511 695.575475692749 2757.99989700317 155 155 153
297.622680664063 696.562588214874 2762.00008392334 191 193 190
306.107759475708 698.81010055542 2770.99990844727 168 170 167
314.867377281189 701.561510562897 2782.00006484985 189 191 188
-158.129572868347 714.908003807068 2864.00008201599 191 193 190
-150.245234370232 714.421033859253 2861.99998855591 163 165 162
-142.172247171402 712.934911251068 2855.99994659424 179 181 178
-134.178578853607 711.6978764534 2851.0000705719 156 156 154
-126.256048679352 710.709810256958 2846.99988365173 165 165 163
-118.604727089405 711.218953132629 2848.99997711182 148 148 146
-110.82548648119 710.978627204895 2848.00004959106 142 142 140
-102.978989481926 710.23827791214 2845.00002861023 143 143 141
-94.9476510286331 707.999467849731 2835.99996566772 139 139 137
-86.9342088699341 705.510318279266 2825.99997520447 185 185 183
-78.9187997579575 702.52126455307 2813.99989128113 145 145 143
-70.9177255630493 699.032247066498 2799.99995231628 173 173 171
-63.0377903580666 696.041822433472 2788.00010681152 175 175 173
-55.3820207715034 695.047914981842 2783.99991989136 176 176 174
-47.7822162210941 694.552838802338 2782.00006484985 174 174 172
-40.1208624243736 692.808866500854 2775.00009536743 176 175 173
-32.532662153244 691.813111305237 2770.99990844727 177 176 174
-24.9661188572645 690.816819667816 2766.99995994568 175 174 172
-17.4338631331921 690.319299697876 2765.00010490417 172 171 169
-9.90166421979666 689.072072505951 2759.99999046326 168 167 165
-2.39574746228755 687.574565410614 2753.99994850159 163 162 158
5.08125964552164 686.575829982758 2750 160 159 155
12.5456405803561 686.075747013092 2747.99990653992 156 155 151
20.0209729373455 686.324119567871 2749.00007247925 155 154 150
27.4716783314943 685.822784900665 2746.99997901917 155 154 149
34.9496006965637 686.069965362549 2747.99990653992 154 153 148
42.4174219369888 686.066746711731 2747.99990653992 149 148 144
49.9395951628685 686.812043190002 2750.99992752075 149 148 144
57.4570707976818 687.306940555573 2753.00002098084 149 148 144
64.9380907416344 687.301993370056 2753.00002098084 147 146 142
72.3663121461868 686.797022819519 2750.99992752075 147 146 142
79.8125118017197 686.541259288788 2750 149 148 144
87.189570069313 685.785472393036 2746.99997901917 153 152 148
94.5501253008842 685.029208660126 2743.99995803833 160 159 155
101.745404303074 683.273732662201 2736.99998855591 158 157 153
109.221518039703 683.514893054962 2737.99991607666 155 154 150
116.702787578106 683.755457401276 2739.00008201599 155 154 150
124.143853783607 683.745682239532 2739.00008201599 154 153 149
131.536558270454 683.485805988312 2737.99991607666 152 153 148
138.720467686653 682.226896286011 2733.00004005432 151 152 147
145.983785390854 681.466698646545 2730.00001907349 150 151 146
153.399020433426 681.454718112946 2730.00001907349 150 151 146
160.990580916405 682.191133499146 2733.00004005432 150 151 146
168.598026037216 682.926893234253 2736.00006103516 152 153 148
176.028326153755 682.913303375244 2736.00006103516 148 149 144
183.659344911575 683.647930622101 2739.00008201599 146 147 142
191.306188702583 684.38196182251 2742.00010299683 145 146 141
198.968857526779 685.115456581116 2744.99988555908 142 143 138
206.722527742386 686.097979545593 2749.00007247925 140 141 136
214.731156826019 687.828660011292 2756.00004196167 133 133 131
223.341658711433 691.305696964264 2769.99998092651 145 145 143
231.277510523796 692.535996437073 2775.00009536743 132 132 130
238.723620772362 692.268311977386 2773.9999294281 134 134 132
245.631143450737 690.503001213074 2766.99995994568 138 138 136
252.500087022781 688.737273216248 2759.99999046326 142 142 140
259.801357984543 688.218712806702 2757.99989700317 144 144 142
266.80052280426 686.951220035553 2753.00002098084 147 147 145
274.469286203384 687.429964542389 2755.00011444092 149 149 147
281.73890709877 686.910152435303 2753.00002098084 155 155 153
289.627313613892 687.886893749237 2756.99996948242 158 158 156
297.536790370941 688.863217830658 2760.99991798401 191 193 190
305.909246206284 690.837025642395 2769.00005340576 166 168 165
314.663946628571 693.558692932129 2779.99997138977 177 179 176
325.67971944809 701.019704341888 2809.99994277954 202 204 201
-167.833492159843 715.317785739899 2897.0000743866 214 216 213
-158.19738805294 707.42928981781 2865.00000953674 170 172 169
-150.30974149704 706.947803497314 2862.99991607666 165 167 164
-142.283216118813 705.724835395813 2858.00004005432 171 173 170
-134.377613663673 704.995155334473 2855.00001907349 154 154 152
-126.399248838425 703.770935535431 2849.99990463257 162 162 160
-118.780821561813 704.521596431732 2852.9999256134 154 154 152
-110.990099608898 704.283952713013 2851.99999809265 141 141 139
-103.168316185474 703.798711299896 2849.99990463257 133 133 131
-95.1897129416466 702.07804441452 2842.99993515015 127 127 125
-87.1258527040482 699.369013309479 2832.00001716614 156 156 154
-79.0934860706329 696.412324905396 2819.9999332428 134 134 132
-71.0754692554474 692.961037158966 2805.99999427795 179 179 177
-63.1785839796066 690.003037452698 2793.99991035461 175 175 173
-55.4661191999912 688.526153564453 2788.00010681152 177 177 175
-47.8204675018787 687.54243850708 2783.99991989136 178 178 176
-40.124136954546 685.323476791382 2775.00009536743 175 174 172
-32.5235761702061 684.091508388519 2769.99998092651 175 174 172
-24.9591376632452 683.106005191803 2766.00003242493 169 168 166
-17.4100641161203 681.872963905334 2760.99991798401 164 163 161
-9.89529769867659 681.133091449738 2757.99989700317 161 160 158
-2.39507388323545 679.898858070374 2753.00002098084 161 160 156
5.08721824735403 679.898679256439 2753.00002098084 155 154 150
12.5649310648441 679.651021957397 2752.00009346008 155 154 150
20.0444590300322 679.649710655212 2752.00009346008 156 155 151
27.4939276278019 678.906917572021 2749.00007247925 155 154 149
34.9397324025631 678.410351276398 2746.99997901917 153 152 147
42.4208864569664 678.654134273529 2747.99990653992 150 149 145
49.9436631798744 679.391264915466 2750.99992752075 150 149 145
57.4617497622967 679.880857467651 2753.00002098084 150 149 145
64.9197772145271 679.628908634186 2752.00009346008 147 146 142
72.3721981048584 679.376363754272 2750.99992752075 147 146 142
79.818993806839 679.123222827911 2750 150 149 145
87.29188144207 679.116427898407 2750 151 150 146
94.6266949176788 678.121209144592 2746.00005149841 158 157 153
101.976685225964 677.372455596924 2743.00003051758 155 154 150
109.310120344162 676.623106002808 2740.00000953674 150 149 145
116.712190210819 676.367104053497 2739.00008201599 153 152 148
124.063178896904 675.86350440979 2736.99998855591 153 152 148
131.499052047729 675.853252410889 2736.99998855591 151 152 147
138.833090662956 675.348520278931 2734.99989509583 151 152 147
146.155878901482 674.843311309814 2733.00004005432 150 151 146
153.635993599892 675.078213214874 2733.99996757507 150 151 146
161.121174693108 675.312638282776 2734.99989509583 149 150 145
168.857872486115 676.534175872803 2740.00000953674 153 154 149
176.170885562897 676.026701927185 2737.99991607666 149 150 145
183.942005038261 677.246987819672 2743.00003051758 148 149 144
191.460758447647 677.479207515717 2743.99995803833 147 148 143
199.12938773632 678.204536437988 2746.99997901917 145 146 141
206.889033317566 679.176270961761 2750.99992752075 144 145 140
215.137392282486 681.628584861755 2760.99991798401 134 134 132
223.762080073357 685.067892074585 2775.00009536743 138 138 136
231.795400381088 686.531484127045 2780.99989891052 127 127 125
239.172279834747 686.019718647003 2779.00004386902 131 131 129
245.916232466698 683.779418468475 2769.99998092651 136 136 134
252.610743045807 681.538820266724 2760.99991798401 140 140 138
259.821027517319 680.778801441193 2757.99989700317 142 142 140
267.014443874359 680.018424987793 2755.00011444092 146 146 144
274.589478969574 680.244922637939 2756.00004196167 148 148 146
281.964629888535 679.977297782898 2755.00011444092 155 155 153
289.75385427475 680.696427822113 2757.99989700317 158 158 156
297.343254089355 680.921494960785 2759.0000629425 190 192 189
305.600255727768 682.626843452454 2766.00003242493 164 166 163
314.007729291916 684.578418731689 2773.9999294281 171 173 170
324.660211801529 691.218316555023 2801.00011825562 200 202 199
-166.688069701195 702.617526054382 2877.00009346008 214 216 213
-158.375665545464 700.432479381561 2868.00003051758 164 166 163
-150.426760315895 699.712157249451 2865.00000953674 165 167 164
-142.443969845772 698.746919631958 2861.00006103516 168 170 167
-134.4825476408 697.781085968018 2857.00011253357 153 153 151
-126.498132944107 696.57039642334 2851.99999809265 160 160 158
-118.790403008461 696.824550628662 2852.9999256134 155 155 153
-110.999062657356 696.589589118958 2851.99999809265 141 141 139
-103.212878108025 696.354031562805 2851.0000705719 130 130 128
-95.3313633799553 695.384979248047 2846.99988365173 124 124 122
-87.2867628931999 692.949891090393 2836.99989318848 145 145 143
-79.2121142148972 689.781248569489 2823.99988174438 133 133 131
-71.1065903306007 685.634970664978 2806.99992179871 172 172 170
-63.2289573550224 682.953596115112 2796.0000038147 172 172 170
-55.4706379771233 681.004405021667 2788.00010681152 175 175 173
-47.7900132536888 679.54295873642 2782.00006484985 179 179 177
-40.084034204483 677.103996276855 2772.0000743866 175 174 172
-32.4910096824169 675.885617733002 2766.99995994568 174 173 171
-24.9341037124395 674.910843372345 2763.00001144409 167 166 164
-17.3862632364035 673.447012901306 2756.99996948242 162 161 159
-9.8817553371191 672.715306282043 2753.99994850159 159 158 156
-2.39439960569143 672.227263450623 2752.00009346008 161 160 156
5.08763501420617 672.471463680267 2753.00002098084 154 153 149
12.5705255195498 672.470688819885 2753.00002098084 155 154 150
20.053381100297 672.4693775177 2753.00002098084 156 155 151
27.5261793285608 672.223150730133 2752.00009346008 154 153 148
34.9934659898281 671.976268291473 2750.99992752075 151 150 145
42.4706637859344 671.973168849945 2750.99992752075 149 148 144
49.9477386474609 671.969294548035 2750.99992752075 149 148 144
57.4455671012402 672.209322452545 2752.00009346008 149 148 144
64.9014711380005 671.95999622345 2750.99992752075 147 146 142
72.3517760634422 671.710133552551 2750 147 146 142
79.7093585133553 670.726954936981 2746.00005149841 150 149 145
87.203711271286 670.964419841766 2746.99997901917 150 149 145
94.6688279509544 670.957088470459 2746.99997901917 158 157 153
102.13366150856 670.949161052704 2746.99997901917 154 153 149
109.438635408878 669.963598251343 2743.00003051758 149 148 144
116.80680513382 669.465899467468 2740.9999370575 151 150 146
124.118469655514 668.723523616791 2737.99991607666 152 151 147
131.557658314705 668.713271617889 2737.99991607666 149 150 145
138.945728540421 668.458223342896 2736.99998855591 149 150 145
146.381467580795 668.446779251099 2736.99998855591 149 150 145
153.873041272163 668.679058551788 2737.99991607666 148 149 144
161.251813173294 668.422341346741 2736.99998855591 148 149 144
168.871253728867 669.141888618469 2740.00000953674 148 149 144
176.313519477844 669.12829875946 2740.00000953674 152 153 148
184.157699346542 670.579314231873 2746.00005149841 152 153 148
191.754877567291 671.052813529968 2747.99990653992 150 151 146
199.289962649345 671.281814575195 2749.00007247925 146 147 142
207.130789756775 672.486841678619 2753.99994850159 146 147 142
215.309962630272 674.668073654175 2763.00001144409 146 146 144
223.860040307045 677.825331687927 2776.00002288818 133 133 131
231.813281774521 679.028511047363 2780.99989891052 116 116 114
239.190623164177 678.522109985352 2779.00004386902 133 133 131
246.023818850517 676.550269126892 2770.99990844727 134 134 132
252.90447473526 674.822151660919 2763.99993896484 139 139 137
260.029166936874 673.826158046722 2759.99999046326 142 142 140
267.422288656235 673.562049865723 2759.0000629425 147 147 145
274.909019470215 673.541724681854 2759.0000629425 147 147 145
282.395094633102 673.520863056183 2759.0000629425 152 152 150
290.19570350647 674.231827259064 2762.00008392334 156 156 154
297.688573598862 674.210011959076 2762.00008392334 188 190 187
305.622696876526 675.16416311264 2766.00003242493 162 164 161
313.804298639297 676.606059074402 2772.0000743866 164 166 163
323.40869307518 680.976212024689 2789.99996185303 196 198 195
-166.643366217613 694.612860679626 2875.99992752075 215 217 214
-158.609196543694 693.659782409668 2871.99997901917 171 172 167
-150.543823838234 692.464470863342 2867.00010299683 165 166 161
-142.604753375053 691.751599311829 2864.00008201599 161 162 157
-134.587481617928 690.555036067963 2858.99996757507 157 158 153
-126.685738563538 689.840853214264 2855.99994659424 154 154 152
-118.924900889397 689.850807189941 2855.99994659424 156 156 154
-111.163713037968 689.860045909882 2855.99994659424 145 145 143
-103.438444435596 690.110266208649 2857.00011253357 132 132 130
-95.5400243401527 689.152181148529 2852.9999256134 120 120 118
-87.5092372298241 686.985611915588 2844.00010108948 141 141 139
-79.3027058243752 682.885825634003 2826.99990272522 140 140 138
-71.1377114057541 678.302407264709 2808.00008773804 176 176 174
-63.2567256689072 675.650656223297 2796.99993133545 173 173 171
-55.4751604795456 673.481404781342 2788.00010681152 174 174 172
-47.7767325937748 671.794652938843 2780.99989891052 176 176 174
-40.0728397071362 669.382572174072 2770.99990844727 172 173 168
-32.4701741337776 667.936146259308 2765.00010490417 170 171 166
-24.9090660363436 666.730642318726 2759.99999046326 156 157 152
-17.3750724643469 665.52460193634 2755.00011444092 158 159 154
-9.87897533923388 665.042519569397 2753.00002098084 161 162 157
-2.39372509531677 664.559841156006 2750.99992752075 157 158 153
5.09174773469567 665.52609205246 2755.00011444092 154 155 150
12.5806862488389 665.525376796722 2755.00011444092 155 156 151
20.0695917010307 665.524005889893 2755.00011444092 157 158 153
27.5284294039011 664.797306060791 2752.00009346008 148 149 144
35.0090488791466 664.79480266571 2752.00009346008 149 150 145
42.4586907029152 664.308488368988 2750 150 151 146
49.8973429203033 663.821578025818 2747.99990653992 150 151 146
57.4084855616093 664.300262928009 2750 149 150 145
64.8831576108933 664.295315742493 2750 147 148 143
72.3576545715332 664.289772510529 2750 147 148 143
79.6577781438828 662.834227085114 2743.99995803833 146 147 142
87.2425436973572 663.793683052063 2747.99990653992 151 152 147
94.6764796972275 663.544714450836 2746.99997901917 156 157 152
102.216280996799 664.019882678986 2749.00007247925 154 155 150
109.447464346886 662.562012672424 2743.00003051758 150 151 146
116.858832538128 662.311375141144 2742.00010299683 149 150 145
124.128453433514 661.335527896881 2737.99991607666 148 149 144
131.56820833683 661.325216293335 2737.99991607666 148 148 146
138.906091451645 660.831332206726 2736.00006103516 148 148 146
146.446660161018 661.303043365479 2737.99991607666 147 147 145
153.941497206688 661.532580852509 2739.00008201599 147 147 145
161.441370844841 661.761522293091 2740.00000953674 150 150 148
168.884620070457 661.74840927124 2740.00000953674 151 151 149
176.391765475273 661.976277828217 2740.9999370575 154 154 152
184.038028120995 662.68652677536 2743.99995803833 151 151 149
191.839724779129 663.879334926605 2749.00007247925 150 150 148
199.523061513901 664.588451385498 2752.00009346008 148 148 146
207.598239183426 666.504502296448 2759.99999046326 144 144 142
215.794295072556 668.661415576935 2769.00005340576 139 139 137
223.796710371971 670.093238353729 2775.00009536743 137 137 135
231.831133365631 671.524405479431 2780.99989891052 133 133 131
239.208996295929 671.023368835449 2779.00004386902 136 136 134
246.397793292999 670.038938522339 2775.00009536743 132 132 130
253.198236227036 668.088257312775 2766.99995994568 142 142 140
260.519981384277 667.585909366608 2765.00010490417 142 142 140
267.830193042755 667.082965373993 2763.00001144409 144 144 142
275.427877902985 667.30397939682 2763.99993896484 148 148 146
282.825648784637 667.041718959808 2763.00001144409 153 153 151
290.63755273819 667.744576931 2766.00003242493 153 153 151
298.249512910843 667.964100837708 2766.99995994568 191 193 190
305.976688861847 668.424546718597 2769.00005340576 165 167 164
313.827246427536 669.126093387604 2772.0000743866 163 165 162
322.85264134407 672.240853309631 2785.00008583069 196 198 195
-166.598677635193 686.612367630005 2875 213 215 212
-158.621817827225 685.908854007721 2871.99997901917 170 171 166
-150.66085755825 685.204684734344 2868.99995803833 164 165 160
-142.665982246399 684.261202812195 2865.00000953674 161 162 157
-134.692475199699 683.316946029663 2861.00006103516 158 159 154
-126.829028129578 682.849705219269 2858.99996757507 148 148 146
-119.017764925957 682.620763778687 2858.00004005432 153 153 151
-111.289471387863 682.868957519531 2858.99996757507 146 146 144
-103.483028709888 682.638764381409 2858.00004005432 129 129 127
-95.681719481945 682.407915592194 2857.00011253357 120 120 118
-87.73173391819 680.982232093811 2851.0000705719 136 136 134
-79.5616433024406 677.406191825867 2835.99996566772 141 141 139
-71.3208466768265 672.396242618561 2815.00005722046 177 177 175
-63.2618740200996 668.102145195007 2796.99993133545 173 173 171
-55.4796867072582 665.95721244812 2788.00010681152 172 172 170
-47.7978102862835 664.52819108963 2782.00006484985 174 174 172
-40.1339642703533 662.859737873077 2775.00009536743 169 170 165
-32.5198099017143 661.429524421692 2769.00005340576 175 176 171
-24.9381773173809 659.998595714569 2763.00001144409 149 150 145
-17.3891074955463 658.567130565643 2756.99996948242 151 152 147
-9.88337211310863 657.851576805115 2753.99994850159 149 150 145
-2.39479099400342 657.374382019043 2752.00009346008 151 152 147
5.09216403588653 658.090949058533 2755.00011444092 145 146 141
12.572580948472 657.612442970276 2753.00002098084 159 160 155
20.0639460235834 657.849967479706 2753.99994850159 151 152 147
27.5406837463379 657.609164714813 2753.00002098084 147 148 143
35.0246280431747 657.606601715088 2753.00002098084 145 146 141
42.4775928258896 657.125651836395 2750.99992752075 149 150 145
49.901407212019 656.405329704285 2747.99990653992 149 150 145
57.4131682515144 656.878650188446 2750 149 150 145
64.8176521062851 656.157076358795 2746.99997901917 149 150 145
72.2319632768631 655.673742294312 2744.99988555908 149 150 145
79.5771479606628 654.712200164795 2740.9999370575 149 150 145
87.1226042509079 655.422031879425 2743.99995803833 151 152 147
94.615213572979 655.653536319733 2744.99988555908 156 157 152
102.038607001305 655.406653881073 2743.99995803833 154 155 150
109.336599707603 654.442846775055 2740.00000953674 150 151 146
116.825625300407 654.67244386673 2740.9999370575 149 150 145
124.138429760933 653.946220874786 2737.99991607666 148 149 144
131.578758358955 653.935968875885 2737.99991607666 148 148 146
138.917192816734 653.447508811951 2736.00006103516 147 147 145
146.458327770233 653.913676738739 2737.99991607666 143 143 141
153.897538781166 653.901815414429 2737.99991607666 143 143 141
161.45421564579 654.366910457611 2740.00000953674 145 145 143
168.89800131321 654.353797435761 2740.00000953674 149 149 147
176.663145422935 655.534148216248 2744.99988555908 152 152 150
184.387922286987 656.475186347961 2749.00007247925 150 150 148
192.273527383804 657.893240451813 2755.00011444092 149 149 147
200.046211481094 658.833026885986 2759.0000629425 147 147 145
208.065748214722 660.488665103912 2766.00003242493 145 145 143
216.044872999191 661.904871463776 2772.0000743866 139 139 137
223.975330591202 663.081645965576 2776.99995040894 138 138 136
232.015758752823 664.496719837189 2782.99999237061 136 136 134
239.485636353493 664.239883422852 2782.00006484985 129 129 127
246.771842241287 663.504898548126 2779.00004386902 130 130 128
253.858119249344 662.292003631592 2773.9999294281 141 141 139
261.293530464172 662.033677101135 2773.00000190735 142 142 140
268.529027700424 661.297500133514 2769.99998092651 145 145 143
275.747537612915 660.560727119446 2766.99995994568 146 146 144
283.256232738495 660.539865493774 2766.99995994568 155 155 153
290.869325399399 660.757124423981 2767.99988746643 159 159 157
298.487186431885 660.974025726318 2769.00005340576 191 193 190
306.220233440399 661.429047584534 2770.99990844727 163 165 162
314.3031001091 662.599802017212 2776.00002288818 162 164 161
323.339819908142 665.679335594177 2789.00003433228 196 198 195
-176.243290305138 685.922205448151 2904.99997138977 211 216 212
-166.843727231026 679.796636104584 2878.99994850159 205 207 204
-158.800184726715 678.865134716034 2875 166 167 162
-150.882959365845 678.405165672302 2872.99990653992 162 163 158
-142.876595258713 677.472412586212 2868.99995803833 159 160 155
-134.797424077988 676.066756248474 2862.99991607666 158 159 154
-126.883581280708 675.368785858154 2859.99989509583 145 145 143
-119.069002568722 675.142586231232 2858.99996757507 150 150 148
-111.37630790472 675.624191761017 2861.00006103516 148 148 146
-103.600025177002 675.632834434509 2861.00006103516 127 127 125
-95.8569347858429 675.877094268799 2861.99998855591 120 120 118
-87.9235044121742 674.703776836395 2857.00011253357 132 132 130
-79.8206105828285 671.876609325409 2845.00002861023 142 142 140
-71.5293437242508 666.68713092804 2822.99995422363 178 178 176
-63.4253621101379 662.205576896667 2803.99990081787 173 173 171
-55.6235089898109 660.084903240204 2795.00007629395 170 170 168
-47.9219853878021 658.672094345093 2789.00003433228 169 169 167
-40.2384847402573 657.022535800934 2782.00006484985 170 171 166
-32.5811840593815 655.136108398438 2773.9999294281 177 178 173
-24.967297911644 653.249204158783 2766.00003242493 142 143 138
-17.4157582223415 652.069985866547 2760.99991798401 150 151 146
-9.90212429314852 651.598751544952 2759.0000629425 146 147 142
-2.40107881836593 651.5993475914 2759.0000629425 146 147 142
5.1036705262959 652.071475982666 2760.99991798401 142 143 138
12.6055786386132 651.834607124329 2759.99999046326 160 161 156
20.1020147651434 651.597142219543 2759.0000629425 147 148 143
27.5629423558712 650.650560855865 2755.00011444092 147 148 143
35.0020378828049 649.703204631805 2750.99992752075 143 144 139
42.4501746892929 649.227738380432 2749.00007247925 148 149 144
49.8691573739052 648.515522480011 2746.00005149841 149 150 145
57.3969632387161 649.219632148743 2749.00007247925 149 150 145
64.7521317005157 648.033797740936 2743.99995803833 150 151 146
72.2378343343735 648.264408111572 2744.99988555908 150 151 146
79.5836076140404 647.313594818115 2740.9999370575 150 151 146
87.0979204773903 647.779166698456 2743.00003051758 151 152 147
94.5194587111473 647.535681724548 2742.00010299683 156 157 152
101.898096501827 647.055387496948 2740.00000953674 154 155 150
109.265588223934 646.57461643219 2737.99991607666 150 151 146
116.749793291092 646.801710128784 2739.00008201599 149 150 145
124.10306930542 646.319687366486 2736.99998855591 148 149 144
131.637379527092 646.781742572784 2739.00008201599 148 148 146
139.08064365387 646.770834922791 2739.00008201599 147 147 145
146.523535251617 646.759450435638 2739.00008201599 142 142 140
154.022231698036 646.983623504639 2740.00000953674 141 141 139
161.525949835777 647.207260131836 2740.9999370575 142 142 140
169.157952070236 647.902429103851 2743.99995803833 147 147 145
176.998898386955 649.305403232574 2750 149 149 147
184.73781645298 650.235593318939 2753.99994850159 148 148 146
192.637607455254 651.637434959412 2759.99999046326 148 148 146
200.351908802986 652.330338954926 2763.00001144409 146 146 144
208.232417702675 653.494834899902 2767.99988746643 144 144 142
216.295465826988 655.130982398987 2775.00009536743 139 139 137
224.234655499458 656.294286251068 2779.99997138977 137 137 135
232.617288827896 658.637404441834 2789.99996185303 136 136 134
240.020573139191 658.147096633911 2788.00010681152 122 122 120
247.412368655205 657.656311988831 2786.00001335144 128 128 126
254.335075616837 655.98475933075 2779.00004386902 141 141 139
261.78452372551 655.729115009308 2778.00011634827 143 143 141
268.937081098557 654.764890670776 2773.9999294281 145 145 143
276.06725692749 653.800308704376 2769.99998092651 145 145 143
283.277422189713 653.071165084839 2766.99995994568 156 156 154
290.996074676514 653.521835803986 2769.00005340576 161 161 159
298.724889755249 653.971970081329 2770.99990844727 190 192 189
306.574314832687 654.657602310181 2773.9999294281 162 164 161
314.552575349808 655.578792095184 2778.00011634827 162 164 161
323.24743270874 657.915353775024 2788.00010681152 197 199 196
-176.317930221558 678.313195705414 2905.99989891052 212 217 213
-167.030841112137 672.724664211273 2881.99996948242 200 202 199
-158.868059515953 671.337127685547 2875.99992752075 164 165 160
-150.894999504089 670.649170875549 2872.99990653992 160 161 156
-142.888024449348 669.727087020874 2868.99995803833 158 159 154
-134.808227419853 668.33758354187 2862.99991607666 157 158 153
-126.893758773804 667.64771938324 2859.99989509583 144 144 142
-119.161888957024 667.891144752502 2861.00006103516 142 142 140
-111.502081155777 668.600738048553 2864.00008201599 148 148 146
-103.717043995857 668.609440326691 2864.00008201599 126 126 124
-95.965176820755 668.850958347321 2865.00000953674 117 117 115
-87.9921764135361 667.457640171051 2858.99996757507 132 132 130
-79.9954384565353 665.596783161163 2851.0000705719 144 144 142
-71.712538599968 660.70020198822 2829.99992370605 178 178 176
-63.6114850640297 656.503319740295 2812.00003623962 172 172 170
-55.7275488972664 653.706610202789 2799.99995231628 164 164 162
-47.9258857667446 651.142716407776 2789.00003433228 159 159 157
-40.2562320232391 649.745523929596 2782.99999237061 181 182 177
-32.5838401913643 647.647202014923 2773.9999294281 162 163 158
-25.0054411590099 646.715700626373 2769.99998092651 142 143 138
-17.4550265073776 646.016955375671 2766.99995994568 147 148 143
-9.92805790156126 645.784616470337 2766.00003242493 147 148 143
-2.40649678744376 645.55162191391 2765.00010490417 140 141 136
5.10963285341859 645.318031311035 2763.99993896484 153 154 149
12.6157430931926 644.850492477417 2762.00008392334 155 156 151
20.1109405606985 644.382119178772 2759.99999046326 145 146 141
27.5751948356628 643.446326255798 2756.00004196167 148 149 144
35.0048914551735 642.276346683502 2750.99992752075 146 147 142
42.5154082477093 642.740190029144 2753.00002098084 149 150 145
49.9458648264408 642.036020755768 2750 150 151 146
57.4433915317059 642.26508140564 2750.99992752075 151 152 147
64.7809952497482 640.859305858612 2744.99988555908 152 153 148
72.2436979413033 640.853822231293 2744.99988555908 152 153 148
79.6771720051765 640.614151954651 2743.99995803833 151 152 147
87.104968726635 640.373945236206 2743.00003051758 151 152 147
94.5615842938423 640.366673469543 2743.00003051758 156 157 152
101.980708539486 640.125274658203 2742.00010299683 154 155 150
109.43403840065 640.116751194 2742.00010299683 150 151 146
116.716533899307 639.173805713654 2737.99991607666 149 150 145
124.113038182259 638.93073797226 2736.99998855591 148 149 144
131.647929549217 639.387369155884 2739.00008201599 148 148 146
139.244109392166 640.076875686646 2742.00010299683 147 147 145
146.695718169212 640.065431594849 2742.00010299683 143 143 141
154.315546154976 640.75368642807 2744.99988555908 143 143 141
161.774486303329 640.741169452667 2744.99988555908 145 145 143
169.541254639626 641.895174980164 2750 146 146 144
177.463442087173 643.515348434448 2756.99996948242 145 145 143
185.423195362091 645.13486623764 2763.99993896484 145 145 143
193.280905485153 646.287083625793 2769.00005340576 145 145 143
200.875177979469 646.505057811737 2769.99998092651 141 141 139
208.549574017525 646.955847740173 2772.0000743866 142 142 140
216.546103358269 648.339688777924 2778.00011634827 141 141 139
224.736005067825 650.189697742462 2786.00001335144 138 138 136
233.135491609573 652.5057554245 2796.0000038147 138 138 136
240.813851356506 652.720868587494 2796.99993133545 112 112 110
247.786492109299 651.06862783432 2789.99996185303 132 132 130
254.903584718704 649.882793426514 2785.00008583069 141 141 139
261.89860701561 648.463010787964 2779.00004386902 142 142 140
269.05432343483 647.509634494781 2775.00009536743 145 145 143
275.988340377808 646.089136600494 2769.00005340576 146 146 144
283.196210861206 645.368158817291 2766.00003242493 155 155 153
290.807515382767 645.580112934113 2766.99995994568 159 159 157
298.63914847374 646.258234977722 2769.99998092651 188 190 187
306.817919015884 647.635579109192 2776.00002288818 158 160 157
314.915329217911 648.779332637787 2780.99989891052 162 164 161
323.270976543427 650.389015674591 2788.00010681152 197 199 196
-175.785779953003 668.390214443207 2897.0000743866 212 217 213
-166.928201913834 664.481580257416 2880.00011444092 197 199 196
-158.770218491554 663.110136985779 2874.00007247925 162 163 158
-150.69691836834 661.968767642975 2868.99995803833 159 160 155
-142.849639058113 661.74978017807 2868.00003051758 157 158 153
-134.866133332253 660.837948322296 2864.00008201599 156 157 152
-127.08143889904 660.848379135132 2864.00008201599 145 145 143
-119.338072836399 661.08900308609 2865.00000953674 137 137 135
-111.666813492775 661.790549755096 2868.00003051758 146 146 144
-103.906475007534 662.029981613159 2868.99995803833 125 125 123
-96.1739122867584 662.499606609344 2871.00005149841 114 114 112
-88.2147550582886 661.353230476379 2865.9999370575 133 133 131
-80.0860896706581 658.590912818909 2854.00009155273 141 141 139
-71.7690363526344 653.520286083221 2832.00001716614 180 180 178
-63.7071430683136 649.833500385284 2815.99998474121 171 171 169
-55.8116920292377 647.069156169891 2803.99990081787 157 157 155
-47.9813404381275 644.304215908051 2792.00005531311 158 158 156
-40.2739681303501 642.461657524109 2783.99991989136 183 184 179
-32.656978815794 641.541540622711 2779.99997138977 150 151 146
-25.0797010958195 641.082346439362 2778.00011634827 147 148 143
-17.5069216638803 640.391826629639 2775.00009536743 143 144 139
-9.95040498673916 639.700651168823 2772.0000743866 145 146 141
-2.41104490123689 639.239490032196 2769.99998092651 141 142 137
5.11744478717446 638.777852058411 2767.99988746643 162 163 158
12.6350428909063 638.315618038177 2766.00003242493 150 151 146
20.1198682188988 637.16048002243 2760.99991798401 146 147 142
27.5874454528093 636.235415935516 2756.99996948242 149 150 145
35.0204706192017 635.079026222229 2752.00009346008 149 150 145
42.5497554242611 635.768175125122 2755.00011444092 150 151 146
50.0044152140617 635.302841663361 2753.00002098084 151 152 147
57.4898272752762 635.298550128937 2753.00002098084 152 153 148
64.8570582270622 634.139716625214 2747.99990653992 153 154 149
72.3285228013992 634.134113788605 2747.99990653992 152 153 148
79.6836242079735 633.204936981201 2743.99995803833 151 152 147
87.1437638998032 633.198201656342 2743.99995803833 151 152 147
94.6036875247955 633.190870285034 2743.99995803833 156 157 152
102.100506424904 633.413672447205 2744.99988555908 154 155 150
109.522677958012 633.174419403076 2743.99995803833 150 151 146
116.768561303616 632.011651992798 2739.00008201599 149 150 145
124.213688075542 632.001996040344 2739.00008201599 148 149 144
131.850719451904 632.91472196579 2743.00003051758 148 148 146
139.50914144516 633.826732635498 2746.99997901917 148 148 146
146.921411156654 633.584678173065 2746.00005149841 145 145 143
154.440268874168 633.803427219391 2746.99997901917 145 145 143
161.905199289322 633.790850639343 2746.99997901917 148 148 146
169.739618897438 635.162055492401 2753.00002098084 148 148 146
177.606180310249 636.532664299011 2759.0000629425 145 145 143
185.571938753128 638.13328742981 2766.00003242493 146 146 144
193.43563914299 639.271914958954 2770.99990844727 145 145 143
201.108440756798 639.717936515808 2773.00000190735 140 140 138
208.791524171829 640.163421630859 2775.00009536743 142 142 140
216.952681541443 641.992330551147 2782.99999237061 140 140 138
225.237399339676 644.051373004913 2792.00005531311 137 137 135
233.487010002136 645.879089832306 2799.99995231628 137 137 135
241.176724433899 646.09158039093 2801.00011825562 107 107 105
247.983083128929 643.996953964233 2792.00005531311 132 132 130
254.922986030579 642.36319065094 2785.00008583069 142 142 140
261.918425559998 640.959680080414 2779.00004386902 142 142 140
269.074589014053 640.017032623291 2775.00009536743 144 144 142
276.308059692383 639.30469751358 2772.0000743866 147 147 145
283.319771289825 638.130605220795 2766.99995994568 154 154 152
291.039317846298 638.570427894592 2769.00005340576 156 156 154
298.769056797028 639.009773731232 2770.99990844727 188 190 187
307.282656431198 641.062915325165 2779.99997138977 157 159 156
315.164864063263 641.731858253479 2782.99999237061 161 163 160
323.410481214523 643.092095851898 2789.00003433228 197 199 196
-175.435572862625 659.198641777039 2891.00003242493 204 209 205
-166.941404342651 656.703948974609 2880.00011444092 187 189 186
-158.782824873924 655.348718166351 2874.00007247925 162 163 158
-150.76145529747 654.448866844177 2869.99988555908 155 156 151
-142.811208963394 653.776466846466 2867.00010299683 144 145 140
-135.018184781075 653.787553310394 2867.00010299683 158 159 154
-127.357870340347 654.482126235962 2869.99988555908 143 143 141
-119.680903851986 655.176103115082 2872.99990653992 139 139 137
-111.870475113392 655.185401439667 2872.99990653992 134 134 132
-104.095958173275 655.422270298004 2874.00007247925 130 130 128
-96.3156744837761 655.658304691315 2875 111 111 109
-88.4065702557564 654.981553554535 2871.99997901917 131 131 129
-80.2048295736313 651.795566082001 2858.00004005432 135 135 133
-71.8762204051018 646.784365177155 2835.99996566772 165 165 163
-63.8028085231781 643.140852451324 2819.9999332428 175 175 173
-55.8958500623703 640.408992767334 2808.00008773804 151 151 149
-48.0196066200733 637.220144271851 2793.99991035461 156 156 154
-40.291715413332 635.171234607697 2785.00008583069 167 168 163
-32.6831303536892 634.489953517914 2782.00006484985 146 147 142
-25.1178573817015 634.49227809906 2782.00006484985 148 149 144
-17.5335835665464 633.809804916382 2779.00004386902 145 146 141
-9.95480455458164 632.442474365234 2773.00000190735 149 150 145
-2.40950030274689 631.30259513855 2767.99988746643 163 164 159
5.11046545580029 630.390167236328 2763.99993896484 159 160 155
12.6177985221148 629.933416843414 2762.00008392334 147 148 143
20.0996398925781 629.019737243652 2757.99989700317 146 147 142
27.5696776807308 628.333628177643 2755.00011444092 153 154 149
35.0105911493301 627.418756484985 2750.99992752075 153 154 149
42.5377711653709 628.099858760834 2753.99994850159 148 149 144
50.0266402959824 628.096044063568 2753.99994850159 152 153 148
57.5362592935562 628.3198595047 2755.00011444092 154 155 150
64.9095177650452 627.174496650696 2750 153 154 149
72.3607018589973 626.940965652466 2749.00007247925 154 155 150
79.8062235116959 626.706659793854 2747.99990653992 151 152 147
87.2460827231407 626.471877098084 2746.99997901917 151 152 147
94.6802794933319 626.23655796051 2746.00005149841 157 158 153
102.183118462563 626.456618309021 2746.99997901917 155 156 151
109.651230275631 626.448154449463 2746.99997901917 152 153 148
116.991095244884 625.754952430725 2743.99995803833 149 150 145
124.541096389294 626.201331615448 2746.00005149841 147 148 143
132.053539156914 626.419126987457 2746.99997901917 148 148 146
139.62185382843 626.864373683929 2749.00007247925 148 148 146
146.93309366703 626.16890668869 2746.00005149841 147 147 145
154.45251762867 626.384913921356 2746.99997901917 147 147 145
162.035882472992 626.82843208313 2749.00007247925 150 150 148
169.814676046371 627.955436706543 2753.99994850159 149 149 147
177.748888731003 629.53782081604 2760.99991798401 146 146 144
185.653612017632 630.891561508179 2766.99995994568 147 147 145
193.520605564117 632.016777992249 2772.0000743866 145 145 143
201.341718435287 632.913410663605 2776.00002288818 140 140 138
209.334477782249 634.265422821045 2782.00006484985 142 142 140
217.671141028404 636.528670787811 2792.00005531311 138 138 136
225.900188088417 638.335406780243 2799.99995231628 134 134 132
233.921930193901 639.457643032074 2805.0000667572 134 134 132
241.539627313614 639.439344406128 2805.0000667572 103 103 101
248.357266187668 637.368977069855 2796.0000038147 131 131 129
255.033880472183 635.070323944092 2786.00001335144 142 142 140
261.844009160995 633.227229118347 2778.00011634827 142 142 140
268.9009308815 632.067441940308 2773.00000190735 144 144 142
276.528149843216 632.274866104126 2773.9999294281 148 148 146
283.545702695847 631.114423274994 2769.00005340576 153 153 151
291.060924530029 631.092965602875 2769.00005340576 153 153 151
298.359811306 630.61535358429 2766.99995994568 187 189 186
306.752532720566 632.416248321533 2775.00009536743 157 159 156
314.848124980927 633.5329413414 2779.99997138977 161 163 160
323.202043771744 635.104894638062 2786.99994087219 197 199 196
332.779943943024 638.954997062683 2803.99990081787 191 196 192
-175.328016281128 650.939345359802 2888.99993896484 198 203 199
-166.954606771469 648.925006389618 2880.00011444092 187 189 186
-158.684879541397 647.135257720947 2871.99997901917 163 164 159
-150.773420929909 646.696865558624 2869.99988555908 155 156 151
-142.922207713127 646.483182907104 2868.99995803833 144 145 140
-135.264441370964 647.170305252075 2871.99997901917 156 157 152
-127.634331583977 648.082137107849 2875.99992752075 151 152 147
-119.898796081543 648.542702198029 2878.00002098084 147 147 145
-112.11309581995 648.777365684509 2878.99994850159 144 144 142
-104.321658611298 649.011433124542 2880.00011444092 122 122 120
-96.5914502739906 649.695456027985 2882.99989700317 116 116 114
-88.7523218989372 649.702966213226 2882.99989700317 127 127 125
-80.5200189352036 646.554827690125 2868.99995803833 134 134 132
-72.0848068594933 640.926957130432 2844.00010108948 164 164 162
-63.8984739780426 636.425137519836 2823.99988174438 168 168 166
-55.9999123215675 633.9510679245 2812.99996376038 148 148 146
-48.1438189744949 631.25091791153 2801.00011825562 164 164 162
-40.3817892074585 629.000782966614 2790.99988937378 160 161 156
-32.7562764286995 628.327608108521 2788.00010681152 145 146 141
-25.1560136675835 627.87926197052 2786.00001335144 148 149 144
-17.5476260483265 626.754105091095 2780.99989891052 144 145 140
-9.95920225977898 625.177621841431 2773.9999294281 145 146 141
-2.40882555954158 623.600542545319 2766.99995994568 164 165 160
5.11272996664047 623.149693012238 2765.00010490417 154 155 150
12.6279592514038 622.923612594604 2763.99993896484 147 148 143
20.1085619628429 621.795475482941 2759.0000629425 148 149 144
27.5719128549099 620.891988277435 2755.00011444092 154 155 150
34.9879749119282 619.53729391098 2749.00007247925 153 154 149
42.5257682800293 620.43559551239 2753.00002098084 149 150 145
50.0125326216221 620.431900024414 2753.00002098084 153 154 149
57.540912181139 620.878219604492 2755.00011444092 155 156 151
64.9147629737854 619.746446609497 2750 152 153 148
72.3402202129364 619.290173053741 2747.99990653992 153 154 149
79.7255411744118 618.607997894287 2744.99988555908 150 151 146
87.1260687708855 618.150591850281 2743.00003051758 151 152 147
94.5844426751137 618.143260478973 2743.00003051758 156 157 152
102.0797342062 618.360757827759 2743.99995803833 154 155 150
109.540246427059 618.352174758911 2743.99995803833 151 152 147
117.000460624695 618.34317445755 2743.99995803833 150 151 146
124.596394598484 619.009494781494 2746.99997901917 147 148 143
132.160216569901 619.449973106384 2749.00007247925 150 150 148
139.58215713501 619.213819503784 2747.99990653992 151 151 149
146.944746375084 618.75182390213 2746.00005149841 149 149 147
154.408514499664 618.739902973175 2746.00005149841 148 148 146
162.225544452667 620.079338550568 2752.00009346008 150 150 148
170.013040304184 621.192753314972 2756.99996948242 148 148 146
177.827253937721 622.305691242218 2762.00008392334 147 147 145
185.60104072094 623.192667961121 2766.00003242493 146 146 144
193.39607656002 624.079048633575 2769.99998092651 145 145 143
201.502472162247 625.866115093231 2778.00011634827 143 143 141
209.802240133286 628.103077411652 2788.00010681152 143 143 141
218.311712145805 630.789875984192 2799.99995231628 132 132 130
226.401701569557 632.124423980713 2805.99999427795 140 140 138
234.273463487625 632.782518863678 2809.00001525879 139 139 137
241.816461086273 632.539093494415 2808.00008773804 96 96 94
248.82036447525 630.943536758423 2801.00011825562 125 125 123
255.41940331459 628.446578979492 2789.99996185303 141 141 139
262.240827083588 626.625120639801 2782.00006484985 142 142 140
269.406050443649 625.704169273376 2778.00011634827 147 147 145
276.947617530823 625.683665275574 2778.00011634827 147 147 145
283.976465463638 624.536573886871 2773.00000190735 151 151 149
291.292756795883 624.064743518829 2770.99990844727 157 157 155
298.489660024643 623.367369174957 2767.99988746643 182 184 181
306.443423032761 624.245882034302 2772.0000743866 156 158 155
314.191550016403 624.67360496521 2773.9999294281 157 159 156
322.4136531353 626.001536846161 2779.99997138977 194 196 193
331.973165273666 629.80580329895 2796.99993133545 191 196 192
-183.447226881981 644.011199474335 2892.99988746643 215 220 216
-175.341814756393 643.134772777557 2888.99993896484 181 186 182
-167.141675949097 641.81250333786 2882.99989700317 186 188 185
-158.973723649979 640.489637851715 2877.00009346008 164 165 160
-151.048079133034 640.056669712067 2875 153 154 149
-143.182665109634 639.845728874207 2874.00007247925 144 145 140
-135.32230257988 639.634132385254 2872.99990653992 149 150 145
-127.644523978233 640.312552452087 2875.99992752075 148 149 144
-119.950041174889 640.990257263184 2878.99994850159 135 135 133
-112.316802144051 642.112851142883 2884.0000629425 134 134 132
-104.583598673344 642.789483070374 2887.00008392334 124 124 122
-96.833772957325 643.465518951416 2890.00010490417 120 120 118
-88.9134034514427 643.027603626251 2888.00001144409 97 97 95
-80.6387737393379 639.694571495056 2872.99990653992 128 128 126
-72.2173526883125 634.35697555542 2848.99997711182 163 163 161
-64.0620365738869 630.354523658752 2831.00008964539 145 145 143
-56.12388625741 627.687394618988 2819.00000572205 157 157 155
-48.2336543500423 624.79704618454 2805.99999427795 188 188 186
-40.413998067379 621.905982494354 2792.99998283386 147 148 143
-32.7471755445004 620.572924613953 2786.99994087219 146 147 142
-25.1490212976933 620.129942893982 2785.00008583069 147 148 143
-17.5427366048098 619.018256664276 2779.99997138977 143 144 139
-9.96000878512859 617.683351039886 2773.9999294281 142 143 138
-2.40902043879032 616.125166416168 2766.99995994568 164 165 160
5.11499354615808 615.902423858643 2766.00003242493 149 150 145
12.6289827749133 615.456402301788 2763.99993896484 147 148 143
20.1101899147034 614.341735839844 2759.0000629425 150 151 146
27.5541264563799 613.003730773926 2753.00002098084 156 157 152
34.9908098578453 612.110614776611 2749.00007247925 154 155 150
42.5137653946877 612.775504589081 2752.00009346008 151 152 147
49.9983988702297 612.771689891815 2752.00009346008 154 155 150
57.482898235321 612.767398357391 2752.00009346008 154 155 150
64.8727938532829 611.871778964996 2747.99990653992 152 153 148
72.3197236657143 611.643612384796 2746.99997901917 152 153 148
79.7900408506393 611.637473106384 2746.99997901917 149 150 145
87.1648341417313 610.962808132172 2743.99995803833 152 153 148
94.6610048413277 611.178159713745 2744.99988555908 156 157 152
102.087907493114 610.947668552399 2743.99995803833 153 154 149
109.668791294098 611.607134342194 2746.99997901917 151 152 147
117.137730121613 611.598134040833 2746.99997901917 150 151 146
124.69706684351 612.033724784851 2749.00007247925 148 149 144
132.122650742531 611.800849437714 2747.99990653992 151 151 149
139.593243598938 611.790060997009 2747.99990653992 151 151 149
146.956399083138 611.33348941803 2746.00005149841 150 150 148
154.533177614212 611.766874790192 2747.99990653992 149 149 147
162.297278642654 612.867414951324 2753.00002098084 150 150 148
170.088067650795 613.967418670654 2757.99989700317 149 149 147
177.905559539795 615.066826343536 2763.00001144409 147 147 145
185.68266928196 615.943074226379 2766.99995994568 146 146 144
193.690434098244 617.486476898193 2773.9999294281 145 145 143
201.808258891106 619.251847267151 2782.00006484985 143 143 141
210.194766521454 621.684432029724 2792.99998283386 142 142 140
218.562498688698 623.893678188324 2802.99997329712 128 128 126
226.580515503883 624.989449977875 2808.00008773804 139 139 137
234.625041484833 626.084685325623 2812.99996376038 140 140 138
242.437779903412 626.511573791504 2815.00005722046 79 79 77
249.549999833107 625.157535076141 2809.00001525879 114 114 112
256.171196699142 622.690320014954 2798.00009727478 141 141 139
262.731909751892 620.222628116608 2786.99994087219 142 142 140
269.814193248749 619.089961051941 2782.00006484985 147 147 145
277.068018913269 618.401944637299 2779.00004386902 146 146 144
284.099996089935 617.268443107605 2773.9999294281 152 152 150
291.419476270676 616.802036762238 2772.0000743866 158 158 156
298.727363348007 616.335332393646 2769.99998092651 180 182 179
306.465893983841 616.758048534393 2772.0000743866 155 157 154
313.761353492737 616.290390491486 2769.99998092651 157 159 156
321.973145008087 617.602229118347 2776.00002288818 192 194 191
331.641018390656 621.583104133606 2793.99991035461 191 196 192
-183.334767818451 635.754704475403 2891.00003242493 213 218 214
-175.41629076004 635.548770427704 2890.00010490417 174 179 175
