ply
format ascii 1.0
comment KinectMotionCapture
element vertex 792
property float x
property float y
property float z
property uchar red
property uchar green
property uchar blue
end_header
-48.028772288089 268.457715217907 2925.22121770272 21 24 17
-58.9817815477121 267.890573683848 2925.92412021639 20 23 16
-63.89311019413 267.446425093582 2921.12650693828 21 24 17
-94.2861417300107 266.495436798691 2939.8482863491 21 24 17
-85.6856027744637 266.321360829775 2922.61465603655 21 24 17
-71.2105436993424 266.256721937984 2899.75926305988 21 24 17
-80.6217570231322 265.722879951562 2899.10964728434 20 23 16
-56.689368053481 265.828870794242 2867.0542847632 20 23 16
-62.466275922413 265.360411949385 2862.86410812729 19 20 14
-77.0775640752541 264.725982120939 2867.09047747128 18 19 13
-83.5640357176726 264.245854346538 2863.6209004369 14 15 9
-87.120445211222 263.819864800134 2857.33522121184 11 10 5
-87.7731760979996 263.445872386591 2848.2143029583 12 11 6
-106.640035796054 262.741565521276 2856.76587798202 21 11 2
-113.82735298691 262.250496651132 2854.02351874021 84 70 59
-115.946586386435 261.849324277197 2846.30943710501 134 115 101
-115.926971100501 261.484005822659 2836.44092424676 139 113 98
-115.943705738503 261.115743552394 2826.5460456419 150 119 101
-118.145388764447 260.707899307191 2818.77216071861 145 112 95
-120.370394026254 260.2981802599 2810.98165398959 148 117 99
-120.482702424537 259.922172092035 2801.01715821474 141 118 104
-107.857556206608 259.753451071735 2778.0552333615 134 116 104
226.613971549723 277.487236531222 2967.50020367064 151 158 150
230.519977961515 277.220157562082 2955.50907528776 35 40 33
221.294006093384 276.665846563821 2953.7586046879 38 41 34
203.932358556622 275.937848117074 2958.46077913381 10 11 5
158.173938463594 274.608311532108 2985.8040014965 24 25 19
151.551554326049 274.119309638005 2982.23585364471 20 21 15
143.315479087214 273.596663514114 2979.96810399649 20 21 15
142.350217490042 273.226157026092 2971.85567984736 25 28 21
123.663220655319 272.487904990208 2978.06739610179 30 33 26
101.695717018273 271.337214992335 2978.19350952154 28 31 24
43.2881376964058 269.808321362368 3017.36317171157 37 40 33
33.6971999519879 269.273030750384 3016.58355700745 30 33 26
32.8544203674088 268.912450405328 3008.55997296101 21 24 17
16.9523251490036 268.254235127295 3013.08552486719 22 25 18
25.5646026520679 268.077073148233 2997.0954250762 25 28 21
34.8835425495677 267.908616065755 2980.3829018757 25 28 21
30.7806375071058 267.478080599917 2974.93606996766 25 28 21
6.32575257190915 266.661000657686 2986.84700375398 26 29 22
0.700053995497552 266.204206149168 2982.76650104335 25 28 21
-16.5968168855815 265.530122307163 2988.75123766369 22 25 18
-29.1738385890197 264.947128334344 2990.74714633838 21 24 17
-34.7497553617622 264.494378842567 2986.70275200843 19 22 15
-31.8408193822157 264.194964135382 2975.22340435597 18 21 14
-20.5198653599941 264.042996104312 2956.25686307526 19 22 15
-26.17108127166 263.584138141049 2952.15785185192 19 22 15
-21.1155036053312 263.312957869142 2938.52938921818 19 22 15
-35.1885990556204 262.705887190829 2941.91100788814 21 24 17
-31.7240366697984 262.402912752465 2929.59939101531 20 23 16
-50.3024037696864 261.722171694255 2937.12518321644 22 25 18
-58.9784617174631 261.212487336618 2935.77358299592 26 29 22
-59.3456327088988 260.841863991639 2926.85969026966 20 23 16
-63.5030354791852 260.406951031865 2921.37362409983 22 27 20
-77.4129250390463 259.813144701759 2924.87332691227 22 27 20
-98.7480628246016 259.103347227513 2935.3409710283 21 26 19
-99.8753821601404 258.719710388369 2927.11100125832 18 23 16
-86.9160319142639 258.554752833105 2905.62669820612 18 23 16
-65.9204206279322 258.506712584173 2876.38206366438 19 24 17
-67.2379140702517 258.107656452539 2868.01415452412 21 22 16
-76.6817966687869 257.584376031076 2867.34120406755 18 19 13
-80.9662133369728 257.139190242112 2861.76271630159 15 14 9
-69.8917138876107 256.918603671335 2841.38183616875 12 9 4
-81.5386222742727 256.362532185628 2842.81680909786 16 11 7
-104.063128405059 255.653607248578 2854.89262687305 26 13 5
-110.532146912198 255.177156726436 2851.43601509193 89 75 66
-111.936376686459 254.771113191482 2843.00519354103 127 105 94
-114.088910592722 254.353008207656 2835.26688589082 140 114 101
-114.827406844161 253.952355651319 2826.08365945524 147 116 98
-115.597775640326 253.549124797394 2816.87731487221 145 112 93
-114.971563729212 253.161916204162 2806.21309486888 147 116 96
-112.962151114975 252.789657233941 2794.0815890386 139 116 100
-102.484559745943 252.520711651257 2773.26775255175 140 122 108
191.678038508648 269.444669176461 2995.24406630707 22 27 20
213.715227013616 269.484956970645 2969.22530845384 29 34 27
204.53461175024 268.944712986553 2967.50778907692 29 32 25
177.431875960663 268.080679104774 2979.96936917543 25 26 20
169.146317793432 267.561673387173 2977.66576673577 17 18 12
147.085851647575 266.798476422213 2986.372297736 22 23 17
147.759503424127 266.441202266202 2976.97795063359 24 25 19
145.977782715589 266.038825842588 2969.50853305222 27 30 23
91.8834228764824 264.731761792338 3004.39525497528 30 33 26
72.5486595726848 264.035597584201 3011.37264130461 22 27 20
47.6642051850762 262.888275520625 3014.32494740455 32 35 28
44.4272734184024 262.470593683126 3008.27090648187 24 27 20
29.2738582529566 261.856786020882 3012.10408636318 20 23 16
27.6243973962682 261.465141946626 3004.73089560946 21 24 17
25.1630747065654 261.059003084001 2998.00413209724 24 27 20
27.4049372577911 260.726149372245 2987.27637041162 25 28 21
17.8310830367945 260.205368529167 2986.50891893602 28 31 24
7.49563479702919 259.674186711619 2986.42465012624 28 31 24
7.33017726109653 259.300158141691 2977.65696654052 27 30 23
6.35497629530768 258.911806397674 2969.53724674122 22 25 18
-14.8226086397669 258.220339893317 2978.88416050169 18 21 14
-25.0805439232396 257.695461760602 2978.85611441753 20 23 16
-20.6532611271568 257.385754269257 2966.00732338213 19 22 15
-19.3614365220602 257.027183958072 2955.82576528409 18 21 14
-19.6446087350612 256.643598649573 2946.97269941005 20 23 16
-11.5446243864734 256.374936262815 2930.61105838792 22 25 18
-12.6781748535283 255.973735906295 2922.37648257505 26 29 22
-37.4173930161379 255.250283681153 2935.31680800889 27 30 23
-56.7392945036722 254.606695166426 2943.53911555579 30 33 26
-60.1027042584632 254.178761600384 2937.39333611332 30 33 26
-56.6943560692754 253.837763579707 2925.04077577274 22 25 18
-49.5807602612768 253.540452858935 2909.1989721667 20 23 16
-71.7776580067155 252.869198929403 2920.27743443382 21 24 17
-99.8580513766112 252.131718648838 2936.97137170087 20 23 16
-92.7828283783354 251.831314238486 2921.101735156 18 21 14
-79.8392325735406 251.595911905847 2899.60536007953 18 21 14
-91.4535446085874 251.063888133837 2901.064379083 18 21 14
-94.9089146912381 250.628547696534 2894.85189811907 21 24 17
-85.859725258564 250.334135118821 2876.70785795422 21 22 16
-75.4311279389161 250.048851579857 2857.09345850963 18 17 12
-73.8845562204928 249.659621147696 2845.86138010185 14 11 6
-84.7896585293813 249.133790111138 2846.5992206323 15 10 6
-98.57541347341 248.579822361177 2850.18911306719 19 6 0
-107.961484253737 248.074494069681 2849.55816256248 89 72 64
-111.54097659792 247.62915435477 2843.25565207395 128 106 93
-113.69267562646 247.196878373896 2835.51787786553 134 108 95
-114.430106037985 246.776586434996 2826.3353246027 139 108 90
-113.766314651178 246.36721039829 2815.69852895784 142 109 90
-110.999989221511 245.974240580929 2802.88028937004 141 110 92
-105.438999685621 245.602452649122 2787.14762773054 135 112 96
-97.1098257735006 245.249695848448 2768.48133742395 132 114 100
176.48261721655 262.320620223296 3016.305804589 201 208 201
190.435528090656 262.152560238356 2996.77677575462 23 28 21
163.286425697415 261.35539480212 3009.20508241448 27 32 25
168.142456636972 261.044473585127 2996.66709391046 17 20 13
168.863370060064 260.668593323552 2987.30661906363 24 25 19
184.189135596748 260.503565983318 2966.30244949784 21 22 16
162.086056550033 259.791107428936 2974.97864097391 23 24 18
107.710390749425 258.624918906324 3009.66215176443 25 26 20
142.344717811542 258.727614547899 2973.01358614329 27 30 23
150.207351152764 258.444030159658 2957.7145508799 30 33 26
68.1236716983324 256.92399871908 3015.53966023954 25 30 23
71.2795686138126 256.583279534956 3004.23942510165 42 45 38
74.3865512219375 256.238569741514 2992.90371072526 28 31 24
52.7732446831828 255.565912287582 3001.93485586801 20 23 16
41.564339778156 255.033846676789 3002.4524318337 19 22 15
35.134104290476 254.564770397743 2999.02367756603 21 24 17
27.9180025430055 254.086065702539 2996.26051441181 24 27 20
18.3487185123266 253.57879126721 2995.49644437733 24 27 20
11.1550043314281 253.101902081567 2992.74951964381 27 30 23
6.31726068000216 252.653792555731 2988.00522963604 28 31 24
9.27942116759128 252.297265517278 2976.56417628011 27 30 23
4.40913165617518 251.84651007885 2971.7962796818 21 24 17
-6.67531943599364 251.324569555713 2972.40412615798 16 19 12
-20.0517573037065 250.779062642312 2975.05574750335 21 24 17
-13.3204735442842 250.457699407393 2960.17171253283 21 24 17
-18.2033293475377 250.005931560166 2955.39470123333 21 24 17
-20.7895769205113 249.578113827548 2948.57726719945 23 26 19
-13.4475731401433 249.25215202668 2932.90089628368 26 29 22
-14.5735872845041 248.834542676993 2924.67170059718 27 30 23
-31.7025408995764 248.255265896602 2930.77834976662 27 30 23
-57.1107336596448 247.599723526006 2944.46939632116 28 31 24
-59.7152300376094 247.170457308575 2937.63872600223 28 31 24
-49.5177506346831 246.859644548175 2919.09198604319 22 25 18
-49.9407577952766 246.444966025168 2910.13709886112 20 21 15
-62.3919028826545 245.920527412978 2912.22455477558 21 22 16
-81.5325441806651 245.3405587807 2920.57858394939 20 23 16
-83.4517030861723 244.912793829471 2913.00940588806 18 21 14
-68.3014111721898 244.624882880295 2889.40733606028 17 20 13
-87.3592987342173 244.051678810931 2897.82109497018 18 21 14
-106.339164133454 243.484844972137 2906.29174055446 21 24 17
-101.670896685134 243.104365515204 2892.38195485615 21 22 16
-68.4255759266526 242.931169568914 2851.01966711274 18 19 13
-60.3078422704828 242.559864778705 2833.43504193223 14 11 6
-77.0933138359817 242.008726686392 2839.7911255747 13 10 5
-93.0859390719534 241.467801143671 2845.48668106398 20 7 1
-104.664826977262 240.960194101579 2846.97150345063 92 75 67
-108.252646452619 240.505429194244 2840.66290870656 132 110 97
-111.133625633242 240.053893608976 2833.63169730481 137 111 98
-111.876325277929 239.613428449098 2824.44492760405 138 107 89
-112.651134413344 239.170389223702 2815.23516248708 138 107 87
-108.456206441 238.751596752691 2800.98234331513 135 106 88
-105.036341799418 238.324063068806 2787.40265654726 132 109 95
-96.7041048257187 237.916117750763 2768.73830717867 129 111 97
177.704439982048 255.135140846809 3015.92009748788 186 193 186
180.969527053994 254.772748372078 3004.69861236813 27 32 25
177.624900481634 254.328884814681 2998.56666304394 31 36 29
188.988992272589 254.055012744811 2980.86551793657 26 29 22
205.154668587376 253.829561594087 2959.23487493071 16 17 11
165.882529368478 252.972190117774 2981.40135586784 28 29 23
155.996837315371 252.452366155885 2980.40814581662 25 26 20
131.567747359325 251.775963864585 2991.10345486466 24 25 19
127.41264255262 251.323082323738 2985.61866904624 24 27 20
83.0098459368802 250.447578538159 3012.71187493449 30 33 26
78.9452530690959 250.00205934569 3007.29274044396 33 38 31
74.0706193326015 249.547667933741 3002.52167620726 37 40 33
68.3926316265575 249.084950593296 2998.40323799033 21 24 17
57.1418713487497 248.568098827973 2998.89054916419 18 21 14
32.4263076840556 247.925426639156 3010.61339478599 19 22 15
24.4389332180659 247.445927553311 3008.5261521838 20 23 16
5.41183805909817 246.866813882551 3015.72746107835 22 25 18
7.71393380046925 246.482924097493 3005.0428107329 22 25 18
8.40100122784326 246.081732863026 2995.65796647342 24 27 20
7.48656063927378 245.664307289344 2987.58214590357 25 28 21
10.4479671529165 245.277017473972 2976.14068463333 25 28 21
-1.4302754068598 244.766158294004 2977.40818749268 22 25 18
-18.7084006076077 244.215274409764 2983.40713728882 21 24 17
-20.4401094291431 243.78839943106 2975.97385030163 23 26 19
-7.52922386483545 243.469040573921 2955.68866872364 24 27 20
-18.5846629003292 242.968105357221 2956.31765305486 27 30 23
-22.7031236325246 242.518187817499 2950.85974079835 27 30 23
-31.4229370088706 242.036167457635 2949.47656145747 27 30 23
-29.4429239389342 241.626079988957 2938.55858829051 27 30 23
-36.6385538677849 241.153989585631 2935.81000462017 25 28 21
-47.620089349298 240.659130153133 2936.49288846692 23 26 19
-57.0587174836339 240.175710897474 2935.82365451122 22 25 18
-53.6531699116989 239.767539316654 2923.4687236961 20 23 16
-44.2846697704402 239.388158488242 2905.55572829739 19 20 14
-59.0022924934093 238.874604892433 2909.70562570416 21 22 16
-63.2001048577273 238.418308370992 2904.18986296825 21 22 16
-71.8810191598123 237.939576583942 2902.83519353074 19 22 15
-65.6790413956565 237.530787178215 2887.56701051751 18 21 14
-80.2995648726441 237.025193897511 2891.78704308343 18 21 14
-94.129561278053 236.52690898386 2895.34544046036 20 23 16
-96.1247502059417 236.078756389921 2887.72104334582 21 22 16
-52.603725048151 235.796893061442 2836.51559187727 18 19 13
-67.2307282247335 235.290849532576 2840.73092489008 10 9 4
-66.4740160369184 234.838463450363 2830.16127166253 10 9 4
-94.8737643507191 234.29582599291 2847.85972526188 18 8 0
-102.09299511317 233.82208792845 2845.09431897489 92 75 67
-105.68695130457 233.358079010735 2838.78122877166 134 112 99
-106.409971482854 232.899476868552 2829.60892774571 141 115 102
-108.603067754484 232.435384922355 2821.84098263817 140 109 91
-109.385597247482 231.971987999933 2812.62551775348 138 107 89
-107.341363835114 231.510411870706 2800.51880185386 133 104 88
-101.784297252585 231.049411072908 2784.78284450099 127 105 91
-90.6167922169445 230.588509029172 2763.23313222804 124 106 94
205.218342765096 247.751048635075 2986.42311201605 29 34 27
208.372996882027 247.348979134464 2975.12137071851 33 38 31
185.301208520837 246.725888914914 2984.33081343666 23 26 19
148.451366956867 245.997963587499 3004.54852094389 24 25 19
164.65553393176 245.701159943865 2982.94541922452 24 25 19
146.65863540203 245.13228859751 2988.42322378506 26 27 21
143.29398412449 244.677927968715 2982.27641047798 26 27 21
110.052943708464 244.004531652614 3000.17005015935 25 28 21
85.8139942254592 243.406021156841 3011.0035906314 30 33 26
66.4913450671212 242.848848409676 3017.99046278245 32 37 30
67.2555758818674 242.43150433944 3008.66147409192 30 33 26
67.1856821810417 242.006056192918 2999.96280631941 19 22 15
53.5498611300609 241.493109748229 3002.42656018491 19 22 15
43.9269365389841 241.007747236069 3001.62371595167 19 22 15
21.6566098362461 240.449890536061 3011.41448575071 19 22 15
12.1108119025166 239.970820951148 3010.66758415226 20 23 16
20.6957476261191 239.59190626467 2994.65693628162 20 23 16
10.3565552604907 239.108050864427 2994.5698985157 23 26 19
8.65548846855946 238.669419690305 2987.15905951928 25 28 21
3.80843315723522 238.213939188638 2982.40798195508 27 30 23
-1.82253356783013 237.754470973778 2978.32364670821 27 30 23
-26.0882785495238 237.213680996372 2990.37309154642 26 29 20
-30.1199424587408 236.764776621504 2984.97781081408 23 26 17
-22.5810139351244 236.360488446644 2969.44379810875 25 28 19
-19.7366346630763 235.932957522731 2957.91729746444 27 30 21
-40.7382944819865 235.418662431793 2967.39264050418 25 28 19
-42.5169753344699 234.973714624871 2959.92521094689 23 26 17
-39.7392767910854 234.540766882337 2948.35034458208 20 23 14
-38.5329146670266 234.09954040335 2938.1064142379 19 22 13
-50.2677125577113 233.62183117513 2939.47836558719 19 22 13
-58.9416448348197 233.154012735551 2938.12851836982 16 19 10
-52.5098701864293 232.719431115584 2923.02678937943 20 21 13
-48.4063300523794 232.274796720378 2909.94262694794 19 19 11
-51.1115728029814 231.814311544532 2903.03876530328 21 21 13
-62.0617942852295 231.340715690861 2903.74416256356 22 23 15
-76.7106771056219 230.865186621373 2907.94408359441 20 21 13
-71.9776804973036 230.412009540379 2894.08085321778 18 21 12
-65.0836995408619 229.955294188472 2878.07903870315 18 21 12
-68.612360204265 229.487676842246 2871.81326434423 22 25 16
-71.4186161890369 229.019079413681 2864.83613496023 21 24 15
-79.3860153720989 228.549133273979 2862.76342125448 16 19 10
-54.3807538812884 228.071163806751 2829.01248131065 9 10 2
-89.4423283273971 227.609237690635 2852.99825688899 8 9 1
-94.4787534041596 227.138658835305 2848.10982466434 16 3 0
-96.6173492684337 226.66470241449 2840.3816325767 87 70 60
-100.949766173976 226.191650264157 2834.7682072657 121 99 86
-102.406355753603 225.71342694819 2826.29906336965 122 99 85
-105.329036286214 225.235554660361 2819.2374883673 128 101 84
-106.119238094428 224.751805799875 2810.016358571 131 104 87
-104.081953744658 224.258933103739 2797.9041521473 128 100 86
-96.3935101054814 223.747516243819 2780.00791025374 125 106 92
-81.6856561155603 223.209242416901 2754.84850848916 113 99 88
219.604723382632 240.518403241045 2975.81837648998 31 36 29
207.956876223309 240.006536194953 2976.01785615775 34 39 32
168.520451649887 239.359155750022 2998.06630678134 18 21 14
168.431035851229 238.912503986558 2989.35337962299 32 33 27
182.959162812776 238.529868129326 2969.00491923079 19 20 14
165.723530676792 238.000919290168 2973.79974763256 27 28 22
129.931415405163 237.400037432749 2993.54983037312 28 29 23
101.566024442552 236.840784375935 3007.56770182367 26 29 22
95.8641213337694 236.375024360575 3003.43191140917 30 33 26
82.1327434050922 235.881131844225 3005.82649056665 30 35 28
87.6607369012743 235.453785432933 2992.53999571455 25 28 21
44.418800584332 234.872061819721 3019.24089095566 18 21 14
61.1042827023396 234.47721088251 2996.75117159723 20 23 16
60.1959565965355 234.026297621243 2988.6796139247 19 22 15
53.7171680356035 233.559792609663 2985.21567552203 19 22 15
49.6109311042452 233.098759743578 2979.76656825829 19 22 15
20.294000959078 232.587270085035 2995.565258315 19 22 15
14.6681206678991 232.127650095788 2991.48460956383 22 25 18
5.9086441695233 231.663170088506 2990.07276642468 26 29 22
1.07053310785243 231.205124526987 2985.3281597454 29 32 25
-10.7816177572047 230.739133233021 2986.61480429576 31 34 27
-15.6105819941399 230.281843602266 2981.87683217388 29 32 23
-32.8349361985349 229.816488943307 2987.91519493519 24 27 18
-33.0061439901324 229.362987920525 2979.14264584576 25 28 19
-37.0593280588696 228.906316405779 2973.73201982545 27 30 21
-38.8186364070597 228.448670417887 2966.27856949116 23 26 17
-35.2420347542208 227.98747954855 2954.04766535363 18 21 12
-30.1920647429648 227.521072688537 2940.41414874989 17 20 11
-38.9063820107689 227.060365992615 2939.03535609032 18 21 12
-46.8450668127958 226.600232684851 2936.98350775611 20 23 14
-44.1762158942149 226.127707317546 2925.32924047967 17 20 11
-53.6306422404826 225.669358143434 2924.64897552492 20 21 13
-52.5302497416564 225.194301447088 2914.32805418117 18 18 10
-50.720322636721 224.71444769558 2903.28642868839 22 19 12
-62.4195298131172 224.261111659253 2904.68400948401 22 22 14
-76.3222480961345 223.81615278532 2908.18995932681 20 21 13
-68.6126657125412 223.316047405198 2891.54384080725 17 20 11
-51.3451618574172 222.78061212433 2865.76992497499 17 20 11
-45.3032398936812 222.26990534093 2850.38519786467 23 26 17
-57.021012947297 221.815169813171 2851.76931277098 21 24 15
-62.8261981131326 221.341222030801 2847.55860951652 17 20 11
-76.6913246432488 220.899487739534 2851.09182675639 9 10 2
-79.5527034376717 220.414936109769 2844.07436238309 9 10 2
-89.7149725543587 219.961834703408 2844.11603030813 17 4 0
-92.5919013574041 219.476097185707 2837.087581872 88 71 61
-96.2112500178605 218.992526256961 2830.7559850406 113 91 78
-95.5153342749418 218.484814452187 2820.14168445997 109 86 72
-96.2989805700882 217.981851330448 2810.92520957098 108 82 67
-96.3974296163548 217.472115822203 2800.97037785785 124 98 81
-93.6721665613094 216.941961609623 2788.12167641237 117 91 76
-83.8733210094875 216.361922347647 2768.04955795288 120 102 90
197.796201490202 233.118870859669 2993.3197782675 27 32 25
206.71968835591 232.668104150023 2977.55389492313 22 27 20
196.741739601946 232.180196210643 2976.49396768155 21 24 17
166.381304428477 231.665187354697 2991.5361808483 21 22 16
172.780046097654 231.204653822875 2977.64541072397 21 22 16
162.876772292874 230.722772983247 2976.63964747514 23 24 18
118.992062540012 230.216750904068 3002.87496597828 24 25 19
122.949106331849 229.753245520888 2990.91954626586 27 30 23
110.748516068378 229.280216290607 2991.95385848873 31 34 27
117.051794649411 228.811777420542 2977.99384509242 24 29 22
73.6369730254225 228.344134331585 3004.57028440226 20 23 16
77.5472247298961 227.876741183788 2992.58092441482 21 24 17
68.6608432894831 227.412316140946 2991.07708545331 21 24 17
68.5279450134972 226.942228451485 2982.3325182116 20 23 16
80.2447425903186 226.457298963156 2963.65095137889 19 22 15
63.4283343463173 226.000275395134 2968.75004844231 17 20 13
46.6727754806713 225.548208286877 2973.89298714711 18 21 14
6.4129476216781 225.141741021374 2999.05115979406 18 21 14
-0.756434344539869 224.686525406534 2996.32198378315 22 25 18
-7.13674486316451 224.230242341698 2992.92948599115 27 30 23
-9.61914934834995 223.764778309757 2986.1871393418 28 31 24
-19.1102641219807 223.316463289226 2985.48003451103 24 27 18
-26.2569711958343 222.863114465452 2982.76730546916 25 28 19
-38.0298996038919 222.424999462049 2984.11181574522 24 27 18
-36.6762674975134 221.945294649962 2973.97444965377 20 23 14
-33.8271984990364 221.456701709841 2962.45074492406 19 22 13
-19.5414973696519 220.919537402404 2940.69102000327 19 22 13
-18.3511215850714 220.426513657854 2930.43523845707 21 24 15
-27.8601014436903 219.976807376028 2929.71517579792 22 25 16
-38.8665417507204 219.535851429526 2930.37998415992 23 26 17
-43.030752603473 219.064143913758 2924.88879629413 23 26 17
-48.7141883294198 218.599379607909 2920.76639832303 23 24 16
-51.388452530595 218.118369065303 2913.88488972493 24 24 16
-54.0812089112879 217.635846357561 2906.98967361482 24 24 16
-49.3111626263334 217.107745265022 2893.15321631159 21 22 14
-61.0150162335978 216.675480002041 2894.54783001496 20 21 13
-74.172090911176 216.255572204901 2897.35910860258 22 25 16
-50.9496608822018 215.5967530412 2866.02024440981 25 28 19
-49.3414568238082 215.072552559871 2854.83216095068 20 23 14
-52.2014207957069 214.576543072715 2847.81595865314 18 21 12
-74.1887535598642 214.221712424109 2859.0476473168 18 21 12
-69.7012246042914 213.670713075201 2845.0062711881 15 16 8
-68.1986065734892 213.138011223947 2833.74160310313 13 14 6
-82.7648813190858 212.734265216441 2838.0017720857 23 10 1
-90.0177519914649 212.272708869593 2835.21174673588 98 80 68
-94.3672908612316 211.78627523472 2829.58613604477 116 97 83
-94.3960139371576 211.259673200917 2819.68147026627 105 82 68
-93.0221183351185 210.716640481079 2808.32343621774 86 63 49
-88.8240919365488 210.142251674233 2794.07207503496 111 88 72
-81.8282260835961 209.534355328115 2776.90802218838 101 79 65
-71.3482497284119 208.88347964694 2756.09398007765 92 75 65
216.299769043861 225.815820749068 2979.52355070273 23 28 21
203.840130633702 225.343082839692 2980.36978039428 21 26 19
200.418004545595 224.857819061864 2974.18144031693 21 24 17
173.309619858894 224.417003532443 2986.64077461672 19 20 14
171.551835247002 223.93112423231 2979.18858034112 20 21 15
129.175095166199 223.539912400954 3004.04756651934 22 23 17
125.052568159335 223.065574597747 2998.58628836307 23 24 18
116.882765251863 222.601885607021 2996.36687957168 28 31 24
132.886102335046 222.065142860322 2974.61697663903 31 34 27
117.447024941764 221.62190335762 2978.2439378364 23 28 21
105.263455419988 221.171577805272 2979.29070375677 21 24 17
68.3516876322487 220.817255692182 3000.70074310297 21 24 17
59.4910178229151 220.365335139964 2999.21560638925 21 24 17
53.0303309058553 219.904672797876 2995.76481984881 20 23 16
40.235328823782 219.472655303256 2997.60347462072 18 21 14
66.190204723517 218.861297340256 2967.01062252409 18 21 14
39.9718595253162 218.493162860028 2980.11582806435 19 22 15
-4.20307991151958 218.228210939396 3008.61234167906 18 21 14
-2.72398724965051 217.733521419272 2998.56584872125 20 23 16
-2.06642597223627 217.239970249492 2989.15885252566 24 27 20
-5.34035823834889 216.766585711932 2983.07770700615 23 26 19
-7.07473525289748 216.282442126729 2975.64249018915 21 24 15
-15.8039249941058 215.841270010036 2974.25272062568 23 26 17
-29.923764008847 215.437600308896 2977.60118967724 24 27 18
-25.5097996827589 214.909614389226 2964.74193265246 23 26 17
-23.4579334613729 214.393451395278 2953.87551007496 20 23 14
-26.0462493348865 213.907829105131 2947.05598941737 18 21 12
-28.6532411688702 213.420704212282 2940.22321702352 24 27 18
-28.2328336481823 212.90783181414 2930.64449961976 25 28 19
-30.126381594312 212.410734708128 2923.09353630842 27 30 21
-33.5572190990592 211.924620426438 2916.89858235424 26 29 20
-47.571049127447 211.529765565146 2920.32423870828 25 26 18
-55.5156453834385 211.084556909626 2918.26788615421 26 26 18
-56.6937701813446 210.577735861159 2910.00075694504 26 26 18
-58.6474556034999 210.075834160708 2902.4061743577 24 25 17
-58.3860258485469 209.550105194502 2892.71214545776 23 24 16
-61.1362592533149 209.051440458336 2885.77518126372 24 27 18
-62.4220146131571 208.535922537952 2877.42998431187 26 29 20
-67.4325220833847 208.057489328175 2872.56000605243 17 20 11
-61.3890114418241 207.45803485232 2857.17598108401 19 20 12
-79.6757235094672 207.124042818239 2864.91525107143 15 15 7
-86.8947290705575 206.67011771396 2862.14981391724 11 11 3
-72.1851268814522 205.959435138693 2838.22613728148 12 12 4
-83.8257668275708 205.554008607655 2839.66641738331 20 6 0
-90.3482276157428 205.08883477956 2836.17082679381 111 93 81
-93.2469252134158 204.578369717756 2829.12647244399 118 99 85
-91.8329674753637 204.010607436257 2817.79735503271 86 63 49
-87.585389523904 203.401279890305 2803.58173785651 94 71 57
-81.2481391162745 202.757862845124 2787.17539180494 111 88 74
-72.1257057479061 202.068916347552 2767.84711823387 95 73 60
-65.9493809366725 201.412447598416 2751.32404767371 82 68 57
221.641079179837 218.453136779792 2975.94747823444 21 26 19
212.450425773272 217.984834492099 2974.22304639217 17 22 15
184.447570839635 217.61259723365 2987.26993306673 16 19 12
184.322181826076 217.103840897279 2978.53031910827 21 22 16
136.123536927968 216.856645923378 3007.81545707103 20 21 15
147.433429303152 216.28808705477 2990.07382348079 24 25 19
124.635657184298 215.915036557568 2999.48287844428 27 28 22
86.5827766443559 215.644726755521 3021.30116297197 29 32 25
84.1466043815027 215.160126167966 3014.59223411681 25 30 23
93.6401480119287 214.086385673961 2989.35555961412 20 23 16
65.543688231565 213.777483099501 3003.56994756952 24 27 20
60.6748772528194 213.30705916692 2998.80302316629 24 27 20
53.4173729052352 212.854488549747 2996.00968428092 21 24 17
26.3585627815681 212.559376272783 3009.74102536135 21 24 17
28.6537020581323 212.035151437263 2999.05091577843 18 21 14
23.8121895927987 211.56693898871 2994.30379185176 21 24 17
3.24966028160478 211.234536625754 3002.86335466138 21 24 17
-2.34204261080873 210.776049900024 2998.80748757617 21 24 17
1.44230449197114 210.231435716681 2986.72646551625 23 26 19
4.39370763800406 209.689778975973 2975.27697069244 21 24 17
-1.25119358518577 209.226937784304 2971.18251694571 19 22 13
-5.3473350924349 208.748606291791 2965.74034597239 16 19 10
-22.5879951070107 208.403640033873 2971.7674980949 17 20 11
-28.2072372404674 207.942922322492 2967.69165592576 22 25 16
-25.3767274757688 207.391379363531 2956.15417835716 22 25 16
-29.4901022282226 206.91169201625 2950.69980224596 21 24 15
-41.251487726861 206.517334340368 2952.05260738586 22 25 16
-39.2691379683741 205.967553494225 2941.1356205598 23 26 17
-35.0534571181675 205.38718100564 2928.13206378645 24 27 18
-40.7401536097554 204.921043546839 2924.00729506146 23 26 17
-52.4684652301848 204.52949506995 2925.38438486767 21 24 15
-53.6224965607146 204.007603451284 2917.13435071475 24 25 17
-57.055885693476 203.512567330228 2910.93750184009 24 25 17
-58.2581111084628 202.986778921223 2902.65251102882 24 27 18
-57.9954385095429 202.438657092818 2892.95926966873 26 29 20
-62.9772124746 201.959235835662 2888.11011593573 25 28 19
-63.5134311531351 201.41692428998 2879.07280729886 23 26 17
-63.3419478315507 200.861444985047 2869.31342361848 18 21 12
-57.3069090080518 200.216832395014 2853.9230285136 25 26 18
-76.3421774040582 199.938840202836 2862.35467984602 23 24 16
-78.4390564087767 199.411211703364 2854.6564573405 17 14 7
-80.5588816731422 198.881721410557 2846.94129669429 19 16 9
-83.4305326971629 198.361886994611 2839.91650152529 67 53 42
-87.0472976836541 197.852241827575 2833.58664558313 114 96 82
-88.5055962212984 197.305910275202 2825.1159178453 93 74 60
-88.5474058338385 196.733301223432 2815.20182679954 79 57 43
-86.4660139450233 196.121119060386 2803.12128502324 124 102 88
-80.1282072246072 195.43055404632 2786.71480896391 103 81 67
-73.8666103685901 194.733825541697 2770.2533500052 110 91 77
-70.5338474903265 194.081949254734 2756.60938497075 94 82 70
232.745979186316 211.012485809097 2967.90331478771 23 28 21
217.7791547625 210.598842288983 2970.63802999833 16 21 14
176.658691085911 210.408055785475 2993.93836521061 19 22 15
143.075202590396 210.169409165207 3011.58595906388 24 25 19
137.330086726667 209.698008859392 3007.41881423193 23 24 18
132.396504451555 209.219133967365 3002.60489292791 26 27 21
123.407822416277 208.7776338449 3001.02701020122 28 29 23
108.780940797315 208.39166848429 3004.00800292413 28 31 24
77.2825967205053 208.175931776075 3020.69720525053 23 28 21
61.9929997121442 207.809581973627 3024.43321190751 20 25 18
65.9861075424475 207.248736855901 3012.50344274127 20 23 16
52.3459050967965 206.869627546281 3014.96469835175 25 28 21
61.0616998174933 206.252114976802 2999.04770441546 25 28 21
51.4198360674905 205.830895304392 2998.23145567785 22 25 18
37.043832533461 205.465403226072 3001.39441897975 23 26 19
19.5538158018582 205.140518560563 3007.24090881378 21 24 17
31.2896523180375 204.47462901919 2988.57222711617 23 26 19
12.2765654294321 204.172816803872 2995.78480101438 22 25 18
6.66077340091409 203.711803555246 2991.71145840298 21 24 17
4.17021615606972 203.211117261761 2984.96302323646 22 25 18
7.89604433436786 202.628271406922 2972.8396803854 21 24 17
1.46530203538831 202.174426083267 2969.4106358672 19 22 13
2.01283703208111 201.626899785091 2959.92360587798 15 18 9
-19.1138216876188 201.373800348284 2969.30995203143 15 18 9
-23.200482964447 200.890217670781 2963.87462688117 19 22 13
-33.4442629693781 200.493695791992 2963.85749241025 22 25 16
-31.403509279881 199.920701146044 2952.9827262577 20 23 14
-42.3954662492347 199.536838722437 2953.65832309022 20 23 14
-48.0252250193185 199.074776159729 2949.57485037481 20 23 14
-46.8194999352733 198.507352741605 2939.32981901435 20 23 14
-47.1691934729086 197.960376609695 2930.42770280571 20 23 14
-57.3683516528374 197.567633891859 2930.44293479021 19 22 13
-61.5180416130541 197.079057207739 2924.96189350663 22 25 16
-60.4218945089752 196.502734347258 2914.63738165255 21 24 15
-57.8692600349817 195.897900280419 2902.89849090262 23 26 17
-57.6052972718304 195.327404359239 2893.20607148092 27 30 21
-61.8427104441197 194.831758456509 2887.66140196182 24 27 18
-63.1219451437492 194.282749257147 2879.32046785877 21 24 15
-55.5510762168423 193.571633580428 2862.57301866244 18 21 12
-60.5997145707668 193.08356939606 2857.67534972887 19 20 12
-75.9496222603722 192.786709149616 2862.60302449342 21 21 13
-80.9784749013462 192.300377674661 2857.72000189895 19 16 9
-80.1646560519054 191.701235352778 2847.19070868283 13 8 2
-81.5781723732674 191.14150756242 2838.75267115172 100 84 71
-82.292317466472 190.565168195121 2829.58591302507 101 83 69
-83.0385238017202 189.98625680399 2820.39619446905 60 41 27
-82.372343243883 189.375246640101 2809.76010946865 98 76 62
-80.3067110489781 188.731054150751 2797.66768653827 115 93 79
-73.9841058429096 187.992070388865 2781.25023980329 102 83 69
-69.8842420009849 187.29285548172 2766.92708621951 107 89 77
-61.5669105801744 186.49559375521 2748.24995953316 74 61 52
247.970740089367 203.455086796882 2956.66965745222 11 18 10
244.458877632173 202.936195991513 2950.4158007613 18 23 16
162.314831127403 203.334693624741 3005.73649875042 25 28 21
126.31540254422 203.220638769196 3025.3387615219 29 30 24
129.576419023012 202.643259893435 3014.11353107082 26 27 21
126.289679269965 202.142711089418 3008.02296353835 29 30 24
125.419835921084 201.610131418898 2999.9788891811 29 30 24
134.21872993262 200.949681304371 2984.12191820703 24 27 20
110.705821867348 200.708582302974 2994.24855532777 23 26 19
104.164659329945 200.247942485912 2990.73943040679 18 21 14
94.4213999426586 199.83159999959 2989.84970251174 20 23 16
28.7524330685773 200.200084866159 3034.88125358949 27 30 23
42.3190214450373 199.47012122386 3015.06932517923 27 30 23
54.1900787072094 198.754553566492 2996.4984162567 25 28 21
55.6591475635519 198.183416336298 2986.44426960562 27 30 23
48.3927282012555 197.739946783532 2983.64480861153 27 30 23
32.4629796584168 197.430099724275 2988.15207858639 29 32 25
28.3809375643767 196.940842190804 2982.72007323604 23 26 19
21.937322779622 196.488107719991 2979.28199728189 19 22 15
10.0254439767893 196.124081068583 2980.52586024652 19 22 15
10.619720129859 195.557925349095 2971.07291403439 18 21 14
4.95952279102996 195.09271733696 2966.96735981858 17 20 11
1.62378533428775 194.587937793315 2960.8412513755 17 20 9
-14.865813426675 194.308956606845 2966.17786695038 16 19 8
-32.836416775077 194.06202218402 2972.91140075222 16 19 8
-35.3670688584788 193.546572141083 2966.13382520026 19 22 11
-32.5517493786101 192.932374489649 2954.58501851164 20 23 12
-34.3707611910193 192.398586768301 2947.08819666613 19 22 11
-37.7365451698499 191.89144033307 2940.9402948692 18 21 10
-44.1554757064857 191.440874434709 2937.51982956052 16 19 8
-36.9351737868093 190.727573331537 2921.75327241876 17 20 9
-54.717259060499 190.496269438068 2928.62354616785 18 21 10
-60.3796349143044 190.031101513254 2924.51641290309 20 23 12
-58.5333820297738 189.41433775162 2913.50042726698 18 21 10
-51.4908288542577 188.686554870115 2897.60494291417 21 27 15
-54.2291868923746 188.154297841974 2890.67641727526 26 32 20
-58.475265781293 187.651933620573 2885.12572624065 21 27 15
-60.5044402081509 187.101162301116 2877.47617252854 16 22 10
-69.2166239682428 186.693072310887 2876.09919300823 20 23 12
-81.6007599039055 186.367582583263 2878.23593852511 16 18 7
-85.1197561516082 185.848263220842 2871.97690822648 23 20 11
-77.6527723664566 185.078830667441 2855.1538550874 6 2 0
-77.5774621703693 184.470637495341 2845.32419197276 23 16 8
-78.2675459353315 183.876504923448 2836.17508076738 100 82 70
-78.9895269367291 183.27980325563 2827.00283356161 94 72 59
-76.8452793714576 182.611251653483 2814.96757168426 59 40 25
-78.3621716326299 182.026201529134 2806.45417198859 112 93 78
-74.8656357192206 181.315160776522 2792.92862984273 99 80 66
-69.9917957656575 180.563675249835 2777.93124666954 100 82 70
-61.6061687020235 179.716501081149 2759.3030816588 86 70 57
265.086384211787 196.352954560413 2952.9845253549 50 55 49
256.612826961818 195.895231977805 2950.54494877923 22 27 21
236.653932903056 195.6080799154 2957.07196113182 21 26 20
147.126311966241 195.812718587177 3009.50953424343 26 28 23
145.446098017809 195.276244373412 3002.11302184698 28 31 24
122.617465476066 195.071556571666 3011.50085269859 27 30 23
124.190363723459 194.483932445103 3001.52189067953 23 26 19
151.584048027182 193.470799433987 2970.73469532459 21 24 17
153.006461067281 192.87075571049 2960.64687493656 19 22 15
126.257030876877 192.741767462222 2973.36829695487 17 20 13
110.842878240764 192.429773015081 2977.01399142271 19 22 15
92.282834698584 192.177684703168 2983.32020134334 24 27 20
47.4846516261493 192.396382677174 3011.36736212799 27 30 23
37.880477693411 192.0045960851 3010.57887910464 30 33 26
34.6401128954708 191.498894873194 3004.52190366885 30 33 26
29.0137890952633 191.035938108981 3000.4409165071 24 27 20
38.366873741472 190.291399485096 2983.74993312002 23 26 19
21.6899358750187 190.034798197643 2988.95085593792 20 23 16
20.754363736728 189.479650203492 2980.8590190655 19 22 15
16.6640415028994 188.983698119399 2975.42127183292 20 23 16
15.6827825611963 188.424789240843 2967.29629657208 21 24 17
5.34467080512613 188.052259788338 2967.21090052799 18 21 12
5.11044526990867 187.475154658495 2958.39233692919 17 20 11
-20.6667050949574 187.426056693379 2971.81869552553 17 20 11
-22.4337509133457 186.882229897165 2964.3594940882 19 22 13
-32.6791442889016 186.517390898953 2964.34135053052 20 23 14
-26.8027439826846 185.80560656772 2950.07065137003 21 24 15
-20.229041710234 185.071544908079 2935.07029181777 17 20 11
-29.7307739292993 184.688273808605 2934.35611411152 16 19 10
-29.3326021714688 184.083622989611 2924.76051817591 15 18 9
-46.3979206686191 183.874932900461 2930.91546937205 16 19 10
-53.5768604032918 183.443792692917 2928.17948667749 19 22 13
-56.2279202173768 182.907092174122 2921.31422287707 24 25 17
-53.6400680748081 182.243694489177 2909.6005655304 20 21 13
-54.0972078094246 181.648538291149 2900.62031523902 20 23 14
-56.0794702846303 181.087296059099 2893.00471596457 20 26 16
-58.8295152728386 180.542631803524 2886.0679498381 16 24 13
-44.5249411119808 179.568453446404 2863.08436171205 13 21 10
-49.5832252912769 179.07303144536 2858.17995752205 17 20 11
-73.0946385291991 179.051473794623 2870.77886355365 15 16 8
-72.9588628133237 178.425710751868 2860.99323866687 19 19 11
-72.1257414894223 177.777663557799 2850.4776905136 7 2 0
-77.1836789841445 177.28243851514 2845.57324416325 32 25 19
-76.4145659347712 176.629276039187 2835.01156361288 104 84 73
-76.4128351688951 175.992703246008 2825.12841745065 80 57 43
-74.2734382447241 175.29304289885 2813.08948166812 91 72 57
-75.7959636351686 174.690546780762 2804.57191002943 89 70 56
-70.1431541886186 173.881688364735 2788.90359675453 97 79 67
-61.6896566096914 172.984602966509 2770.32467419555 81 69 57
-53.3254444966564 172.08027698183 2751.68099002191 69 59 49
238.078044871624 188.764752368473 2965.48047621597 24 29 23
188.595375442456 189.061684614631 2995.07259013457 21 26 20
160.644473679924 188.987137276198 3008.15835215271 29 34 28
163.042054683778 188.359893699393 2997.54198295389 23 25 20
158.061449301337 187.867351681749 2992.69390436915 26 29 22
143.323748771669 187.561068575231 2995.59496570503 24 27 20
136.738434062109 187.101258046196 2992.05383813271 21 24 17
149.555908774335 186.259670584161 2972.93333247292 17 20 13
158.24130391864 185.490178944471 2956.99353143099 16 19 12
144.337501212243 185.169943549804 2959.26399579492 18 19 13
120.054252816397 185.067224229311 2970.06793431971 15 18 11
88.6751696765722 185.122475902657 2986.84496405406 20 23 16
47.8674154120906 185.391040574261 3011.60935232618 24 27 20
23.9499050595895 185.318375788789 3022.67857439597 28 31 24
4.09722281475355 185.16802517112 3030.51831151464 29 32 25
13.5809374762861 184.38167659978 3013.92210731485 23 26 19
28.5007019610077 183.465574510063 2992.61981458033 23 26 19
9.49105776208503 183.302146487798 2999.83558510097 22 25 18
8.59152038438094 182.732965403565 2991.76979951515 21 24 17
15.4847448526492 181.980705137563 2977.00097624205 20 23 16
20.7472638501769 181.25911808088 2963.5205428735 18 21 14
8.06220294435134 180.956674618371 2965.43955266835 17 20 11
-10.0121658707757 180.787813208008 2972.09826012409 16 19 10
-10.2330735096341 180.192078985257 2963.28925659256 14 17 8
-17.4248461635931 179.764638443065 2960.54369530346 14 17 8
-22.302415168183 179.280353905399 2955.7703518137 15 18 9
-26.4186498750472 178.776295478178 2950.31348453917 15 18 9
-24.4291551714033 178.115208222373 2939.40111344742 16 19 10
-18.673405366302 177.351876882643 2925.04298554512 17 20 11
-45.6665830769545 177.438484346607 2940.05887507736 20 23 14
-56.6228817549372 177.113595148787 2940.76062007729 21 24 15
-55.4591433642551 176.467122624663 2930.48504574449 22 25 16
-43.0338165751352 175.510785413922 2909.84435135006 21 21 13
-44.2378686298552 174.91683069313 2901.55769109286 19 19 11
-54.4580621263599 174.570231208052 2901.55790785203 17 20 11
-59.4249032524798 174.078901332373 2896.71981341018 19 25 15
-36.8446990098812 172.804235475603 2866.14730328338 16 24 13
-24.8272388727158 171.814545752765 2845.21106318862 13 21 10
-47.7087141619399 171.827708227743 2857.03176391785 14 20 10
-63.8474516614602 171.653816967213 2862.62325861009 13 14 6
-44.604470918856 170.43449028994 2834.57253972296 19 19 11
-59.2604928401785 170.217857731018 2838.76859682905 14 9 3
-65.8186611727134 169.760821395488 2835.24716229661 29 20 15
-70.1857069702445 169.23682533962 2829.60837572186 85 65 54
-70.9274615778619 168.599053531265 2820.42158617859 50 27 13
-69.5265733070443 167.89034233389 2809.08228049755 90 71 57
-70.3387672954234 167.246908957992 2799.84439926696 101 83 71
-64.6989320989058 166.392542616538 2784.16645017471 81 65 52
-62.0037395776027 165.625714682351 2771.29504563554 78 68 58
240.953850553307 181.307828541962 2963.82203397346 20 25 19
174.203707089109 182.116894011046 3006.83671758897 19 24 18
160.217817523978 181.816997933876 3009.04777845984 28 33 27
157.715774406209 181.269692073921 3002.29078080163 23 25 20
169.05079451662 180.413082737431 2984.5659038105 31 33 28
172.165241598417 179.731635040705 2973.23360046948 21 24 17
156.586047415463 179.470819002414 2976.76020650361 18 21 14
143.484085049091 179.158297762884 2978.37694448667 14 17 10
135.258353136693 178.735968617066 2976.11720106179 14 17 10
145.538563678336 177.877521223147 2958.86269742259 18 19 13
131.674152703414 177.587331842967 2961.16186988232 15 18 11
129.84816176754 177.010154464846 2953.65947446708 18 21 14
98.4919493796972 177.154365406717 2970.45353429386 21 24 17
29.8958672430292 178.237308515162 3018.30721691569 23 26 19
2.09418229967762 178.333344088777 3032.73705005577 23 26 19
25.0331594152371 177.153639310148 3004.89547077317 20 23 16
21.7851976618348 176.629805676721 2998.83319077497 21 24 17
-1.13982475569929 176.616090750617 3009.386856016 22 25 18
-8.28261443200118 176.197594938903 3006.6771433166 22 25 18
6.48277759025362 175.19698819283 2985.26251465682 21 24 17
11.7736836429239 174.438829984436 2971.80247443026 19 22 15
-0.886139471491409 174.162564675429 2973.73961775919 19 22 13
-18.161019274878 174.017641549613 2979.74297648442 17 20 11
-9.07619416092009 173.145803590455 2962.85688124124 15 18 9
5.32259773745514 172.114990323477 2941.17634332604 14 17 8
1.91951649771971 171.578400691893 2935.00125481311 14 17 8
-20.6674557156048 171.592664462948 2945.80041605616 14 17 8
-30.1607730379758 171.236407150498 2945.09247531826 18 21 12
-33.5338164208696 170.702340536032 2938.93917466838 19 22 13
-42.2424443421199 170.325505418206 2937.5646366866 21 24 15
-50.9345139160005 169.950078922972 2936.20210933915 22 25 16
-50.5404532678064 169.300215407485 2926.60359863823 22 25 16
-47.9216243540797 168.577892718095 2914.91180407027 18 19 11
-49.8608054574903 167.991638180193 2907.3276031864 17 18 10
-56.318095419988 167.544708323681 2903.87934872856 16 19 10
-58.2901623936465 166.955834471397 2896.27129490819 16 22 12
-43.8992102471272 165.839470497494 2873.34930935214 14 22 11
-40.0248393549314 165.050319784203 2860.09727220345 13 21 10
-56.9402016508285 164.935559634736 2866.36140562375 18 24 14
-44.2621807601018 163.848748903414 2844.66819707304 21 22 14
-46.415589096461 163.245206782306 2836.92861073116 16 16 8
-52.9947701871878 162.788596552438 2833.39194576018 14 9 3
-58.839038196731 162.307356566626 2829.1528735818 33 26 20
-61.7668023539761 161.725458003021 2822.08708643787 36 18 8
-64.7132735239733 161.142088770618 2815.00773073194 51 31 20
-63.3284367280449 160.404102183302 2803.65664070858 90 72 62
-61.9887853338104 159.66247001048 2792.27277635761 81 64 54
-59.9735124514567 158.891319763292 2780.14320382077 85 71 62
-56.5711897360688 158.064024966948 2766.54877566741 42 33 24
205.929994613521 174.759656421677 2991.50972883072 27 32 26
177.884134665281 174.82408000952 3004.52735754867 21 26 20
157.331459386107 174.713929508169 3011.86015287669 26 31 25
157.291024365716 174.093964273973 3003.18156058589 21 23 18
172.707148796501 173.075631574477 2982.23886642795 27 29 24
189.634949857114 172.005800550281 2959.92109585813 18 21 14
182.115839643788 171.5614487239 2956.93844940454 15 18 11
152.772928465022 171.694707098694 2971.48623992521 12 15 8
121.13691406107 171.903028848387 2988.07779003312 13 16 9
130.655409827367 171.014480352867 2971.50598725865 17 18 12
148.109889697619 169.899844851072 2948.33504830213 16 19 12
148.640329052062 169.238600306702 2938.83504931167 17 20 13
102.871510988808 169.866296853078 2967.4156843647 17 20 13
73.2300418609557 170.062890627914 2982.98269576904 16 19 12
50.0652033236992 170.089151100263 2993.36301014725 15 18 11
29.3691406861232 170.054858849049 3001.82728178532 14 17 10
30.8442133679896 169.383390307541 2991.77697923761 15 18 11
11.8251010136832 169.31126047831 2998.98634853371 19 22 15
-0.0599650641230909 169.034969458387 3000.25038749021 20 23 16
4.51747046885576 168.267130168059 2987.50812485032 20 23 16
10.597343606976 167.447046979396 2973.38437893294 19 22 15
-3.61549456605559 167.242992942906 2976.66673647967 19 22 13
-11.5751314713974 166.85015891968 2974.60004040277 17 20 11
-6.37249039966581 166.045804789841 2961.07548653939 15 18 9
8.79484790604312 164.91851869209 2938.71655903335 14 17 8
3.07613228015935 164.446344588974 2934.56854837779 14 17 8
0.424056350134538 163.874890827113 2927.70266641823 14 17 8
-26.7180679801022 164.101636790971 2942.61129119638 19 22 13
-28.5744193313486 163.507798678954 2935.08709695524 21 24 15
-31.9743253572533 162.962795953921 2928.9142676086 22 25 16
-33.1140049855465 162.340039482796 2920.67412641055 21 24 15
-43.3526096897854 162.023672450431 2920.66114962565 19 22 13
-37.7368359052406 161.165566363663 2906.20077558901 17 18 10
-35.9459272550127 160.432366660139 2895.14407996534 16 17 9
-49.9366121988345 160.24700403459 2898.5875758046 16 19 10
-46.6952178547584 159.457404024371 2886.11171480121 15 21 11
-47.9774592748412 158.823150734054 2877.76816928421 13 21 10
-45.5733881047333 158.052672565937 2865.92074280476 12 20 9
-46.9215419882132 157.41310203494 2857.52938900353 15 21 11
-39.4369953724818 156.4453014807 2840.71806276211 16 17 9
-32.7686193288546 155.498285776552 2824.54992448657 16 16 8
-47.4610560712949 155.34348791061 2828.71989691662 21 16 10
-48.1984816723882 154.666493990473 2819.53604689483 19 12 6
-52.6154142864248 154.126403231399 2813.86101477932 33 19 10
-52.6782930594976 153.417126064136 2803.9309579985 66 49 39
-52.0522066221103 152.67666359733 2793.26485773607 86 69 59
-46.4063504709333 151.733856351437 2777.59082539173 66 53 44
-44.4358089934391 150.928317187172 2765.42894639528 75 65 56
210.448133376623 167.350108213471 2988.57172111948 22 27 21
183.209070254268 167.463646680258 3000.93942622175 23 28 22
167.558801010199 167.261775321219 3004.41480699369 16 21 15
162.587928668581 166.760298482506 2999.57373884133 16 18 13
212.237936043856 164.680257367969 2951.56687814998 14 16 11
181.903764840717 164.901485783684 2966.63185981626 14 17 10
195.49047673365 163.84205961482 2946.8328505799 13 16 9
127.979921860796 164.537250427459 2983.12024131669 13 16 9
123.005209878573 164.035153457583 2978.27609210881 15 16 10
117.223069808966 163.557273700951 2974.08207482019 15 18 11
