ply
format ascii 1.0
comment KinectMotionCapture
element vertex 784
property float x
property float y
property float z
property uchar red
property uchar green
property uchar blue
end_header
-164.300093934308 379.781451966751 2752.56841616525 144 146 143
-190.157287638878 377.667094007301 2769.63198752904 177 179 176
-201.456206272888 376.751133618409 2771.31740274807 178 180 179
-209.295874692865 376.119864976043 2769.33646666811 197 199 198
-215.074898412652 375.65815940525 2765.14479041342 202 204 203
-221.5353083578 375.140225182205 2761.69391456246 206 207 209
-229.348909416509 374.510694887969 2759.73188407406 209 210 212
-236.474057313439 373.937719303408 2757.03417780652 211 212 214
-242.917137897711 373.420808085035 2753.5958695608 210 211 213
-246.669797910103 373.125477704356 2747.16858596087 206 208 207
-248.428039869515 372.994390106107 2738.48252612798 197 199 196
-247.544514787158 373.080986674875 2726.77220122117 195 197 194
-244.045750435393 373.383110897275 2712.01836976897 186 188 183
210.129602488435 402.083463915227 2700.51030290292 128 129 123
189.362964403659 400.44701737601 2708.91529766584 40 39 34
171.692476737326 399.053556972346 2714.62554772106 14 13 8
159.345726173918 398.077847721661 2715.55106457287 9 8 3
156.021538798089 397.810072269287 2708.19949287318 14 13 8
149.691294487709 397.306370283044 2703.60801232862 12 13 8
143.359896747851 396.802537516267 2699.01569497598 28 30 25
127.375344756419 395.541333699611 2703.47841795186 50 52 47
116.628588830368 394.691033763504 2703.09436702637 72 74 69
106.645371096921 393.900627624021 2702.02879349907 70 72 67
98.154525006426 393.22723325933 2699.57559145385 68 70 65
86.7411610716027 392.324560471104 2699.94307350705 71 73 68
76.0888872996919 391.481541244333 2699.62755158967 45 47 42
66.1912460359124 390.697671950492 2698.62404738194 37 39 34
57.0413614774705 389.97241628963 2696.92816270525 19 21 16
47.9080879860687 389.248398868373 2695.24403154047 16 18 13
42.4044742017959 388.80896542208 2690.01708200908 11 13 8
35.4545511115085 388.256050128612 2686.21117044645 13 15 10
27.7895826893708 387.646982801627 2683.12195394805 15 17 12
17.2683700129541 386.813891040951 2682.90119682333 17 19 14
8.91380203008252 386.150625629613 2680.54683699178 17 19 14
-0.140215399959676 385.43243886304 2678.9201897707 68 70 65
-9.88715405462481 384.65986995844 2678.02628481619 55 57 52
-18.1987335868881 383.999751032062 2675.70310416748 26 28 23
-27.9080145647965 383.229998421565 2674.83621785457 20 22 17
-31.9739215172639 382.902540494194 2668.18169213039 19 21 16
-36.7549202965844 382.518896894785 2662.24382759483 20 22 17
-42.2440596158342 382.079642800655 2657.02737182049 17 19 14
-62.3583792590043 380.494116403882 2667.14054069265 3 5 0
-101.81638824093 377.392802280365 2697.80676001846 58 60 57
-165.275053662745 372.411046522144 2754.29438775322 135 137 134
-189.753293310894 370.484001394224 2769.88846785886 162 164 161
-200.366226745749 369.643356975859 2770.83651324945 169 171 170
-208.893698712334 368.966048885526 2769.59177713042 184 186 185
-213.989905753942 368.557454215618 2764.66032164576 186 188 187
-221.81422698484 367.935038735184 2762.6905559137 198 199 201
-228.947566156529 367.366654131353 2759.98664039347 207 208 210
-236.07309382187 366.798778281445 2757.28868465485 212 213 215
-240.494141351928 366.442619030292 2751.61160119825 209 210 212
-246.268682866553 365.98032066706 2747.42317118712 204 206 205
-250.0350634438 365.675148702617 2740.98589140735 196 198 197
-250.478392768519 365.630043131927 2730.7834020625 194 196 193
-246.30114434474 365.946486698295 2715.28615961775 185 187 182
219.674819899793 394.801794955887 2692.57162863916 121 122 116
198.123155124348 393.157928433944 2701.64253984623 56 55 50
178.165511643559 391.633726973068 2709.39922949961 39 38 33
160.539923639067 390.284350505634 2715.14225157174 50 50 42
148.972925657615 389.388431814863 2715.39839523667 27 27 19
145.652654231097 389.109353426 2708.0496050406 26 27 21
153.485908759229 389.664117172897 2690.26344558881 14 16 11
136.728213394358 388.380056377468 2695.40062128768 14 16 11
120.030900359453 387.100745332608 2700.58159348459 14 16 11
110.037909540589 386.322701461932 2699.50929233346 15 17 12
97.1216984317009 385.326292719851 2701.25722134217 19 21 16
81.3087483101453 384.113641981226 2705.8445881066 26 28 23
67.0151420582776 383.01467381121 2709.06356775578 27 29 24
58.6040505898424 382.355118821531 2706.66825163729 34 36 31
48.7507759201753 381.587905208201 2705.69699408477 27 29 24
46.8931613696837 381.417494324986 2696.93899223672 24 26 21
41.3942735662025 380.975162403585 2691.7151595113 27 29 24
30.1249739482183 380.102225467792 2692.18722748022 27 29 24
16.9858265495781 379.057528157821 2683.89241863604 24 26 21
5.77706277601564 378.189189113489 2684.4083936197 23 25 20
-3.9782724796722 377.429267438929 2683.50817137361 26 28 23
-10.8745808746145 376.882445930707 2679.74145159109 25 27 22
-34.7441181148003 375.070899229006 2693.30671587247 23 25 20
-40.1704534014911 374.633715899257 2688.13579857046 24 26 21
-47.0080346750892 374.091312993446 2684.41137923557 24 26 21
-48.937106097005 373.914311342808 2675.60124891591 23 26 19
-60.6733067930594 373.007027524171 2676.97000746166 21 24 17
-73.7678378289401 371.998743675227 2679.8236450292 15 18 11
-100.701575296933 369.960888466415 2697.34223097501 10 12 7
-166.251026482396 365.051144019517 2756.01997260623 88 90 85
-191.418769486957 363.146589787666 2772.34936756411 154 156 153
-202.026171299716 362.325220262144 2773.30152057673 152 154 153
-209.862470263319 361.709922270764 2771.3231079821 174 176 175
-214.954006071753 361.298544178209 2766.39473019845 185 187 186
-222.774428292885 360.684300872747 2764.42783233546 199 200 202
-229.225242567373 360.171762106164 2760.98423439701 199 200 202
-237.025170991874 359.558944629099 2759.03190566963 200 201 203
-242.790093031925 359.097164171396 2754.85045164422 206 207 209
-247.883883190231 358.685105987309 2749.92073066646 196 197 199
-250.973486255175 358.42160762983 2742.73923580434 188 190 189
-250.075979223243 358.453648188707 2731.03877037422 188 190 189
-245.896506314726 358.728705203726 2715.54293087489 192 194 189
-235.15266304951 359.48991859135 2692.45725076956 175 178 171
230.739815882001 387.562275267773 2683.26422557702 106 107 99
207.642398813637 385.862285807756 2693.68467142064 82 82 74
183.132996689208 384.062550669715 2705.55110719074 94 91 84
147.454413859161 381.468793995397 2727.8437654527 57 54 45
60.4604051620763 374.852337853755 2726.50268696461 25 28 21
30.2729565042505 372.546803713179 2724.36954166784 27 30 23
-15.9289533616072 368.941745577141 2706.91518496598 21 26 19
-102.238715531066 362.675023391915 2762.88771048122 17 22 15
-74.3034204818116 364.591863010363 2723.86243032184 17 22 15
-55.7212378127936 365.846581206816 2694.10988522785 17 22 15
-66.0316025067709 365.0616924343 2694.04251493997 16 21 14
-75.6176772743624 364.328028948113 2693.2651262368 22 25 16
-83.7897851793241 363.694129796823 2691.04318435552 12 15 8
-101.669675758792 362.376367125356 2699.0723849295 0 2 0
-156.846883123395 358.432803371125 2746.7470595337 49 52 45
-191.705629725441 355.922326124163 2773.33986076484 151 153 148
-200.249034293615 355.265011049579 2772.08367603147 145 147 144
-206.033944979696 354.801760648166 2767.88772436441 154 156 155
-211.136569857877 354.386372961326 2762.95158204508 161 163 162
-222.373568278868 353.539817697067 2764.68223609861 187 188 190
-230.182140876301 352.934271167343 2762.7239723316 191 192 194
-237.301759923072 352.377134981694 2760.03035427521 195 196 198
-240.367034020639 352.104435448456 2752.86644939497 201 202 204
-246.13949015047 351.641596566844 2748.67952838596 202 203 205
-249.902875079381 351.31948346848 2742.24433440542 179 181 180
-251.677096982494 351.136483369155 2733.54642742326 175 177 176
-248.154395516716 351.324061261072 2718.8093682961 194 196 191
-240.051023948806 351.831525116505 2698.74841513233 184 187 180
207.237129965605 377.985795823828 2715.58311911995 110 110 102
203.893041909069 377.681853865265 2708.21693780163 112 112 102
193.725150797797 376.916428753498 2707.01791161248 115 112 103
172.269520770211 375.388672590041 2716.15902857961 99 95 86
147.893740619368 373.664785996916 2728.12271395784 42 38 27
112.379535236141 371.190495552624 2750.53513805899 32 29 20
49.1460811266178 366.390673767075 2738.01989046719 26 29 22
26.6352218717842 364.722272074632 2738.98452812122 33 36 29
39.4320947768318 365.502675334381 2716.15219358691 21 24 17
26.0023289764399 364.522519163851 2718.76295479163 21 24 17
-3.61197960703041 362.379159806772 2726.92699440106 22 27 20
-23.7046922373085 360.875348341721 2725.94002746636 19 24 17
-61.8338433700254 358.087759465213 2732.86894831742 18 23 16
-77.7657335661437 356.944426517718 2738.60548062097 16 21 14
-60.4800506911163 358.017640734558 2710.38252353962 16 21 14
-63.735640263489 357.719434288611 2703.08052571263 15 20 13
-67.0099082369122 357.419677343987 2695.76497966052 14 19 12
-84.9785773369398 356.141215356043 2703.729727379 13 16 7
-96.6033819209751 355.285789289898 2705.17920753638 17 20 11
-113.749426524115 354.063609164562 2712.50554175786 22 25 18
-155.745787472457 351.190965980052 2746.27354930633 12 15 8
-188.543157203234 348.93227380053 2770.6565575998 150 152 147
-198.471747452859 348.193480476758 2770.86617723664 143 145 142
-204.261137050955 347.729456494792 2766.66697479234 130 132 131
-210.73473619905 347.219990405719 2763.20658069946 139 141 140
-221.291892289372 346.440053632497 2764.19536777363 174 175 177
-229.782104793211 345.797226560852 2762.97781648746 176 177 181
-234.871829854912 345.379456101613 2758.05101345118 172 173 177
-238.617657674445 345.050341446969 2751.62851152965 176 177 181
-245.739330442016 344.497967751785 2748.93342881017 187 188 190
-249.502288578403 344.167293586963 2742.49850085714 209 211 210
-250.607783947226 344.011566330126 2733.05046952415 203 205 204
-248.416530040367 344.072556058682 2719.81764771143 182 184 181
-247.606163722129 344.041721588586 2708.05369364386 184 186 181
229.74185254371 371.474098559709 2696.04587169804 106 106 96
201.305611097026 369.551328617442 2711.24051226802 105 105 95
179.801631423598 368.073980547825 2720.347129349 101 98 89
159.892863964115 366.699976513394 2728.14001105287 90 86 75
133.295190622412 364.899934869308 2742.19801726376 32 28 17
101.567238718866 362.774316326937 2761.18146578389 24 22 10
100.63433948996 362.615153069751 2751.85824119506 25 28 21
53.462333456817 359.508536149684 2785.57853240934 22 25 18
87.7186838128861 361.388926677609 2722.72743170731 28 31 24
79.2876294237232 360.750964940921 2720.31775341565 20 23 16
48.1061717798585 358.668756820519 2739.69729269271 26 29 22
51.4806412616395 358.78116393184 2726.0874329113 31 34 27
44.5786072051706 358.241127096348 2722.31630236322 31 34 27
26.7647472840662 357.009953063039 2729.15847745291 16 19 12
40.2151705269254 357.75854988465 2705.56442329384 18 21 14
5.81032632742362 355.47883857229 2728.78203257368 15 20 13
7.96060510222496 355.407904956328 2705.63795680789 13 18 11
-7.51498868457712 354.32713551971 2710.47054838372 12 17 10
-17.2187376948232 353.611070267603 2709.60794424928 13 18 11
-22.6282255438295 353.165730097648 2704.44919869839 17 22 15
-39.4035454614017 352.005063094637 2710.80925962597 16 21 14
-44.7887592999061 351.56153256273 2705.66811998949 14 19 12
-49.4736718221902 351.16183981704 2699.79953466313 14 19 12
-44.3208666490262 351.379346080893 2683.7742508363 14 19 12
-60.2758108957986 350.271911057368 2689.49425259659 13 19 9
-78.2670162244101 349.037880032491 2697.44288837362 17 20 11
-96.1841189859529 347.809732654331 2705.44527248476 13 16 7
-118.889265780592 346.2833494342 2718.6210360295 15 18 11
-138.720084440036 344.938357240203 2728.94123364515 12 15 8
-180.548530779682 342.221564145209 2762.83146101134 124 126 121
-193.942224300369 341.2822797245 2766.70390991113 137 139 136
-200.430570958598 340.77406841906 2763.23283138915 129 131 130
-208.282585168036 340.180946764969 2761.24313880496 145 147 146
-220.210207393774 339.33446526744 2763.70847640365 174 175 177
-230.740619218726 338.57543969999 2764.71675688592 174 175 179
-234.471940155077 338.238949431119 2758.30473395466 184 185 189
-238.217387677089 337.901240071496 2751.88246418504 189 190 194
-243.994378431993 337.437324376877 2747.69225047527 186 187 189
-248.43159722425 337.056226394229 2742.00331780599 193 195 194
-250.874476931725 336.798189262485 2734.05563754044 207 209 208
-251.34252673793 336.661634207383 2723.83447010431 184 186 183
-252.510556249187 336.48111059264 2714.34098083848 180 182 177
249.21200017159 364.619796616845 2679.24720729023 55 56 48
213.888538435221 362.358761027459 2700.56394908034 55 55 45
178.731135193204 360.111003374183 2722.00084299522 57 57 47
160.332334769953 358.876817355492 2728.41896697535 54 51 42
131.474446836756 357.014027896545 2744.54358192807 18 16 4
117.743815295185 356.064036880923 2746.93639192867 24 24 12
89.8510550175939 354.263547326776 2762.52592744788 33 36 27
59.103087149011 352.294077052626 2780.98524712439 36 39 30
-6.43254276244432 348.240369626569 2832.26653535914 32 35 26
31.3855476651907 350.388264072523 2786.82009398783 34 37 28
71.8982280817739 352.692202101226 2738.38736780259 35 38 29
90.7702786338551 353.696034059883 2710.07901444108 36 39 30
52.6427358287709 351.165253369674 2725.6562473457 27 30 21
43.5482695980749 350.496625735711 2724.00052895258 28 31 22
27.9198696916176 349.439062209183 2728.72246565374 21 24 15
15.2501483368379 348.558657178639 2730.6493734502 28 31 22
26.4914694462606 349.100407523067 2709.15825065646 26 32 22
22.480573448473 348.734188914209 2702.54340721683 24 29 22
10.5461549811476 347.897595265172 2703.76883152966 21 27 17
2.22996733216485 347.276063465431 2701.4425058102 18 24 14
-18.936778673873 345.894097146719 2712.02881605315 17 23 13
-39.299693615287 344.561528205597 2721.96305416771 16 22 12
-39.6903422222095 344.410291258061 2711.7982166231 15 21 11
-36.5773745624545 344.464905782688 2697.99849585934 13 19 9
-24.3477506062411 345.055459682149 2674.75369435487 14 20 10
-42.4873100404741 343.855913412374 2682.59495974678 15 21 11
-53.5393493598819 343.074577166816 2683.22498831826 14 20 10
-72.9513724541353 341.802878556102 2692.61381991688 12 15 4
-85.311095949206 340.94657405493 2694.76586832848 26 29 20
-92.7688494222512 340.37822542531 2691.82677814007 18 21 12
-129.997571694755 338.067778555637 2720.40795098783 16 19 12
-174.621930695485 335.329300180874 2757.21198722889 95 97 92
-192.851575741138 334.137087550507 2766.22302141409 131 133 130
-200.714210118036 333.551021599925 2764.22566578239 150 152 151
-209.931957378202 332.886242223174 2763.71592893846 179 181 180
-220.491364525508 332.143813968642 2764.70327416143 191 192 194
-230.341453989995 331.443193665522 2764.96999404658 198 199 203
-234.749401711929 331.058828643452 2759.30226405266 208 209 213
-240.516746856341 330.595395631778 2755.11904509666 199 200 204
-244.93977544442 330.209669890202 2749.44067024573 205 206 208
-247.3610377221 329.939348792362 2741.50830421865 203 205 204
-249.13706607562 329.705681486686 2732.80883106266 197 199 196
-250.274503762348 329.508114859285 2723.33743213707 223 225 220
-253.435057789398 329.193276683639 2716.10424336205 222 224 219
246.621201365955 356.373939403895 2682.26775604704 104 107 100
220.405988116226 354.733829037842 2695.36878919496 55 56 50
187.494756538123 352.71653541377 2714.73003834283 59 60 52
160.771337737344 351.053373854221 2728.69758231151 52 52 44
149.961097147338 350.293431440919 2728.26796767695 25 25 17
78.4278248167691 346.102113253814 2783.84658525886 27 28 20
76.0716906705934 345.824756457449 2775.96169084403 26 29 22
79.6571415265803 345.88179363316 2762.50449550371 22 25 18
76.4938049068466 345.557402533327 2755.26924118043 19 22 15
71.0883486263785 345.106426629419 2750.11309517649 19 22 15
39.07388318077 343.160772886219 2770.12479210186 20 23 16
27.1054918844995 342.343230661308 2771.32539080816 19 22 15
36.2277715017609 342.560172196677 2742.1210067705 20 23 16
40.3265429234523 342.640373329639 2727.80071468685 26 29 22
23.9790847242309 341.578048415034 2733.23669767497 21 24 17
8.41798243351466 340.560969025539 2738.00762491412 18 21 14
1.59597589614036 340.03159737865 2734.29456204379 17 20 13
10.6472609108956 340.384502338351 2714.91998869583 20 22 17
8.09810667066824 340.091157766832 2706.89508891434 23 26 19
-9.53013466713548 338.96140299764 2713.87233658493 25 28 21
-20.6561961043887 338.19321055981 2714.44877151945 25 28 21
-36.7402726564357 337.15166697525 2720.07549626896 25 28 21
-41.3983326004468 336.742270927023 2714.22662227753 25 28 21
-21.2814549544245 337.698152042882 2683.11472892023 27 30 21
-25.3305312351266 337.319707069562 2676.47214584976 28 31 22
-23.7642657129571 337.249483532423 2664.02092310423 28 31 22
-52.4126816730406 335.519692642603 2682.76843016 25 28 19
-62.7388833823046 334.797513989278 2682.68989692088 17 18 10
-73.0394716363718 334.07731780535 2682.62964698663 24 27 18
-85.3994487808898 333.245189000898 2684.781633977 19 22 13
-109.496188049003 331.773674122607 2699.41924809406 17 20 11
-161.788356891816 328.769088796079 2744.24966380951 73 76 69
-186.943343696433 327.248137479272 2760.59024903334 115 117 112
-198.254335352965 326.482171661907 2762.26767201277 172 174 173
-208.163267493495 325.793064635436 2762.4917939033 178 180 179
-220.091534299806 324.995229597051 2764.95691063569 178 179 181
-228.583698843477 324.384087841908 2763.73810476656 180 179 184
-234.350257154236 323.920419853458 2759.55545501287 197 198 202
-240.792598535056 323.420251979201 2756.11776743985 210 211 215
-243.867514393293 323.101254036621 2748.94663853097 220 221 223
-246.960938492715 322.780689508303 2741.76208466801 210 210 210
-247.399483787883 322.60189890809 2731.56238622724 202 202 200
-247.874043964673 322.420135534577 2721.33627029549 188 189 183
-244.401301024578 322.448265097467 2706.56218752968 213 214 208
189.989032685468 345.271495393273 2733.79217247395 64 66 61
198.086323208105 345.5312382871 2716.1959240106 43 45 40
187.180738890851 344.779538503198 2715.69723442396 43 46 39
168.75510377507 343.629762299311 2722.09633291515 38 39 33
70.6006107294135 338.094997934379 2791.71849393753 42 43 35
6.93900174629292 334.568017355496 2840.65556354752 41 44 37
33.1029804814307 335.784466840563 2806.5181483992 40 43 36
91.7921692982131 338.707202741241 2741.62215495245 40 43 36
72.2574748204137 337.509341176981 2749.68710234018 40 43 36
60.1921822537888 336.705449173989 2750.8175243887 38 41 34
61.4257530677813 336.599011441678 2739.35997734631 34 37 30
39.837282554597 335.297879267362 2749.64127441189 42 45 38
39.5837344962087 335.113106270932 2739.57535963706 60 63 56
32.7207028592742 334.582773904554 2735.83284640733 55 58 51
24.4047829938974 333.976894273921 2733.50679409124 33 36 29
14.6492157450711 333.29652509919 2732.60680661747 29 32 25
-18.2445724103202 331.416625133974 2754.45147005909 32 34 29
-9.84997198741966 331.679179101369 2735.83572549679 28 30 25
-46.8613180198483 329.592026105021 2762.10524231209 22 25 18
-19.8615881489683 330.813441420741 2724.86830178616 20 23 16
-31.6706598243766 330.029700417677 2726.18486037256 19 22 15
-39.1691723422301 329.468575964309 2723.2162596746 16 19 12
-38.8447101509382 329.309229835002 2712.33474350504 15 18 11
-22.9785598733463 329.945101949199 2685.55059498391 15 18 9
-17.8415052473009 330.028048368961 2669.51291720018 16 19 10
-36.0041739423509 328.919075233785 2677.33818344354 17 20 11
-47.0760524307283 328.173658378205 2677.95401211684 17 20 11
-58.1180520810982 327.430579893976 2678.59151244176 19 20 14
-69.1301737187216 326.689854650197 2679.25068389538 20 23 16
-89.148014162767 325.493444109034 2689.43576354647 14 17 10
-111.849789032814 324.163794120685 2702.61496796391 20 23 16
-136.518580668277 322.737883320773 2718.07345121154 44 47 40
-184.474948780366 320.141667047012 2758.63824114778 190 192 187
-197.852449903089 319.293071982237 2762.52259314487 223 223 221
-207.078412073098 318.654313921622 2762.00703294058 217 217 215
-217.646619306858 317.948886045286 2762.98818620728 213 211 212
-225.466560819918 317.381748606946 2761.02187542033 216 214 215
-232.596742840326 316.849371863395 2758.32072545038 148 146 147
-239.043717044449 316.351203495437 2754.87968957277 147 146 144
-242.122482206241 316.020523721511 2747.70571105082 150 146 145
-245.219593047817 315.688306310676 2740.51813108862 174 171 166
-244.324266160959 315.553115344244 2728.81523816417 184 181 174
-242.14147886771 315.480066409589 2715.57589426732 168 165 156
-237.356123259015 315.533576587609 2699.28311325992 104 101 92
185.624965615151 336.981429273259 2728.11620856621 53 55 50
180.05395674149 336.510674469113 2722.84024424738 39 42 35
179.760188909525 336.300410211662 2712.74533865912 28 29 23
-12.7250679572573 326.067666963938 2849.82506663376 29 32 25
38.6771532755756 328.399182561887 2791.99455547247 31 34 27
71.2019923238323 329.797891089332 2751.35326827375 32 35 28
70.2293218664023 329.556266950206 2742.00079499198 31 34 27
83.9661796786304 330.029322952461 2718.61298769649 27 30 23
63.0434911749194 328.815395414749 2728.14203495168 29 32 25
64.1881930875936 328.673734727023 2716.61988653496 33 36 29
44.8342067040648 327.5390759439 2724.8164476883 29 32 25
19.7321434932194 326.129406687318 2738.72559428485 30 33 26
-0.173786175553303 324.973680612945 2747.75667541386 35 38 31
-3.34822852759253 324.625011323258 2740.5132473344 33 35 30
-31.7999137415494 323.062905296617 2758.16918143418 33 35 30
-23.423191394699 323.268535074075 2739.54018834076 28 31 24
-20.8738195473719 323.192769666426 2726.56628117398 24 27 20
-20.5235866165274 323.010352483841 2715.70303542704 20 23 16
-25.2042891986202 322.587180834349 2709.83767752791 19 22 15
-14.260472914704 322.905443298402 2688.1294606499 18 21 14
-19.0095158019099 322.47669424817 2682.2145331545 15 18 9
-28.7118907642867 321.813423152298 2681.35319250949 15 18 9
-25.0168997354456 321.782726742619 2666.73992416107 15 18 9
-49.4576107604185 320.425741965464 2681.12876592839 15 18 9
-59.7922979251519 319.734894846568 2681.04424010192 16 17 11
-70.7989082997655 319.013375634526 2681.70750407004 19 22 15
-84.5563593584178 318.164234492095 2685.31641948405 13 16 9
-99.6522859637523 317.254228228262 2690.42510485136 20 23 16
-151.020349695788 314.456845088462 2723.57522387986 92 94 89
-189.901027042975 312.453350959115 2754.66581838027 149 150 145
-200.520254733164 311.762709976286 2755.61006072781 151 150 146
-212.4734082178 311.011572452726 2758.05737310809 129 125 122
-222.348483886574 310.357264468885 2758.30621454155 131 127 126
-230.165366460792 309.798186342541 2756.34216206665 148 143 140
-235.943844370711 309.332746192123 2752.1508625648 167 159 156
-239.030701383997 308.990052938708 2744.97066275935 184 176 173
-242.136255129471 308.645795656036 2737.77719584863 178 171 163
-240.5796685413 308.512516291927 2725.31863724709 157 150 142
-239.072549211933 308.375188454307 2712.82419826764 104 100 89
-232.300891744861 308.473845532848 2694.26615418049 127 123 112
217.518475954031 330.783797689528 2710.44594909248 39 41 36
195.17538388519 329.536345430272 2720.18047678729 29 31 26
179.736977945008 328.608731331256 2723.80547128252 48 51 44
145.479027317918 326.821566607957 2744.66198843504 49 52 45
130.951317630386 325.941003094595 2747.71236777033 51 54 45
111.968133393479 324.859055230255 2754.94266719805 43 46 37
102.037361948995 324.191208405511 2753.91602836899 28 31 24
103.810010666767 323.836721573826 2731.7318008921 18 21 14
101.713516630829 323.301769463935 2712.91760726927 24 27 20
75.5512667001908 321.903929815098 2727.29329843564 15 18 11
64.9424548976865 321.207577673753 2727.0100259251 17 20 13
49.9620364373028 320.316572781747 2730.96721075123 26 29 22
59.8746580961649 320.538103002304 2710.98163112729 26 29 22
32.5392822710571 319.098133001409 2726.97705263389 16 19 12
11.8666347211991 317.958537190222 2736.68773641751 15 18 11
2.1414614207691 317.306951148855 2735.80992795781 29 31 26
-4.67558918262934 316.784571477501 2732.10049316552 28 30 25
-15.8072065847528 316.072135829098 2732.67347735869 29 32 25
-7.53859421607217 316.213569809725 2713.96549339353 30 33 26
-12.9484596242759 315.751941267555 2708.80639163811 32 35 28
-17.6509057939609 315.321015093515 2702.9252320701 26 29 22
-21.6523407901743 314.920265538484 2696.31707220638 24 27 20
-19.9992629399384 314.764946914649 2683.92805606971 24 27 18
-27.5790334583932 314.207141350797 2680.90086100084 25 28 19
-42.1927843649668 313.345219934172 2685.12429275235 25 28 19
-58.1585598632195 312.426836780971 2690.83740029229 24 27 18
-62.1675431849766 312.025285293978 2684.22376442435 24 25 20
-66.1908240775215 311.622545672392 2677.59975792407 23 25 20
-75.7912894991848 310.980520088074 2676.81269576971 18 20 15
-80.5185642831578 310.547228634066 2670.91323095171 22 24 19
-97.001469744237 309.613230075248 2677.48641747959 16 19 12
-126.504998634162 308.129137675431 2698.08564717022 6 7 1
-173.021872849028 305.930836591172 2737.22589921337 71 70 65
-191.906912679141 304.908225713488 2746.99801390502 82 81 76
-209.344644997407 303.949650769577 2755.3492693183 120 115 111
-221.268982307855 303.225134381957 2757.81731152249 133 128 124
-228.410899600876 302.702041812789 2755.10770142915 179 168 162
-233.518458291903 302.264014796879 2750.16786781093 182 169 161
-237.284704529334 301.881485474785 2743.73029358669 172 159 151
-238.380985279776 301.608966216385 2734.2883505527 134 121 112
-238.171340744765 301.38908163052 2723.32299949753 131 121 111
-236.002518497603 301.248201979302 2710.07289398777 145 137 126
249.187369139003 324.156445138639 2682.72980124127 61 66 60
170.332882843579 320.328137118318 2733.00295329567 38 41 34
133.077986514194 318.516440664945 2756.62723728638 40 43 36
116.327575424342 317.573412639929 2761.77142090989 45 48 39
101.138718497483 316.698152389039 2765.5778784701 44 47 38
95.7307192966867 316.233740959148 2760.41982099535 42 45 38
90.3170442527825 315.768865145091 2755.25794110563 31 34 27
88.6179055898877 315.458188691336 2746.61381686076 19 22 15
68.3462733418376 314.376424093589 2755.38046149205 19 22 15
70.0819607600964 313.965528279668 2733.16915425773 26 29 22
29.3469123510905 312.047317721419 2761.6808709501 25 28 21
42.3260548829214 312.338918280959 2738.97789719901 23 26 19
41.3045451219443 312.053704216582 2729.59009294928 21 24 17
57.0084970876232 312.448753747189 2703.92247470272 19 22 15
31.9019972642831 311.180359834985 2717.82882621464 22 25 18
13.4262097522782 310.185081781473 2725.42768183332 19 21 16
4.41004517487764 309.574770839902 2723.82902136526 18 20 15
-6.0292199988119 308.907799277932 2723.66880564268 20 23 16
-0.656612540582247 308.876494844505 2707.80130643085 22 25 18
-3.94010368644593 308.495885465845 2700.47866477069 24 27 20
-25.7842051894428 307.374129022997 2711.81030020193 28 31 24
-31.180670617341 306.910255310976 2706.66090100597 27 30 23
-24.5338480639654 306.923467964189 2689.24696526211 26 29 20
-31.3919537566945 306.399796552857 2685.50805669351 26 29 20
-51.628900681201 305.34938253871 2695.53504088214 23 26 17
-62.6510698118827 304.664211625575 2696.18721008726 21 24 15
-60.3448562502984 304.501640444586 2683.03659260152 20 21 16
-67.8607159606379 303.953847883988 2680.05577855921 19 21 16
-69.8047194031088 303.622838031814 2671.23404361728 18 20 15
-76.6292838615801 303.101649436835 2667.51916790413 14 16 11
-77.9218049302761 302.794047291469 2657.93478837372 18 20 15
-99.912421991049 301.689147995857 2670.39562804133 21 22 16
-127.295809988317 300.38182827533 2688.82728413494 22 22 14
-142.907288040133 299.529714824319 2694.797565124 25 21 12
-177.560726240932 297.955737902071 2721.54394235547 41 34 24
-218.829656734637 296.13886518937 2755.84462745022 103 93 83
-225.30061899116 295.645933981435 2752.38622864874 133 114 100
-229.741148344182 295.229505654904 2746.69471712815 145 123 109
-232.844679014129 294.862739486045 2739.50260277612 154 132 118
-236.637866096006 294.46937600386 2733.04544368163 158 139 124
-237.769291135987 294.174368886822 2723.5779098967 160 143 127
-237.598940861746 293.926167551359 2712.5839301634 151 138 121
187.175576653694 313.662263110713 2739.0033398905 12 17 11
181.626019577395 313.183171840553 2733.74288421155 23 28 22
141.990886690415 311.386832440453 2759.34687159899 32 35 28
119.9162195849 310.274934674329 2769.2763784114 38 41 34
109.226684297336 309.603983567638 2768.93471638507 41 44 35
89.5535169342434 308.590295459376 2776.90050917498 42 45 36
75.9467764973341 307.811313246965 2779.38399667462 40 43 36
89.9978373667962 308.085695121841 2756.2226610801 41 44 37
94.9989736558026 308.011991123274 2741.32099083418 40 43 36
90.2878565102378 307.568593815482 2735.43318784494 30 33 26
77.4294758954666 306.818096844175 2737.2242850046 22 25 18
43.2207919464664 305.268355371013 2759.35275584824 21 24 17
42.2688326475638 304.969001310473 2750.01500411385 25 28 21
52.2817874705011 305.076707573505 2730.10158160098 36 39 32
43.1924843313327 304.471027578112 2728.4499248853 32 35 28
26.8322438502668 303.597089499771 2733.87730146397 22 25 18
34.5081956400901 303.611706506006 2715.97437395044 23 26 19
18.1962288539204 302.741629749877 2721.43705919613 25 27 22
1.94499562122852 301.876417922661 2726.94350165565 27 29 24
-5.6067119092047 301.331012350482 2723.93671285409 30 33 26
-10.2796613462528 300.890483013431 2718.07659297813 30 33 26
-19.255667333637 300.293787183459 2716.50711329223 29 32 25
-31.0685174327152 299.5955508745 2717.8213659168 26 29 22
-22.9361607048673 299.615008988229 2699.01428397497 25 28 21
-23.3998363315577 299.322962814531 2688.79549988175 21 24 15
-35.2071212897249 298.625098930291 2690.11378868214 19 22 13
-48.3890428007807 297.879971690323 2692.90540796933 13 16 7
-61.52792014817 297.138294167769 2695.72824836286 10 13 4
-63.4225784488713 296.794363120726 2686.94221931887 17 18 13
-68.1361507438236 296.350326307815 2681.05263330023 16 18 13
-79.1204973928326 295.686878177786 2681.73233085966 17 19 14
-82.4471270013571 295.291012038941 2674.37833992879 10 12 7
-78.8800917383787 295.13291538525 2659.67166840763 19 21 16
-83.6441149743774 294.684690665782 2653.74548821258 14 15 7
-101.467496111109 293.78773069146 2661.81749065916 19 19 11
-124.009088201841 292.73294533195 2675.11450171235 32 25 15
-156.681426026385 291.338350890624 2699.59252512836 21 13 2
-219.110306232752 288.943860110151 2756.83977114969 97 85 73
-224.223323460347 288.499183136107 2751.89594683847 135 112 96
-230.017362595773 288.031360289351 2747.69335460334 147 121 104
-233.117934481037 287.653453461843 2740.5030342308 156 130 113
-237.579917345806 287.229364212334 2734.79622627465 154 131 113
-239.374937278956 286.893047570677 2726.08246577815 154 133 114
-237.195809197315 286.686295103335 2712.83949752894 149 132 114
166.41363368209 305.355143225368 2768.37504504706 65 70 64
202.850246679612 306.358068871358 2725.62674607639 24 29 23
160.032456119439 304.563372498917 2753.86400631134 21 26 20
140.14893622652 303.581525132614 2761.67747134287 14 19 12
125.630671232988 302.790457512323 2764.73515065274 25 28 21
111.912576408923 302.029354005484 2767.13800553988 48 51 42
99.7389712564507 301.323687804524 2768.19070149348 47 50 41
69.6309476444252 300.001059041226 2785.88187569221 40 43 36
95.6497324650845 300.61298673557 2751.63614435464 37 40 33
93.1948268747176 300.241815695141 2743.67917322439 31 34 27
83.2959645295448 299.615879206247 2742.67558378949 30 33 26
61.5793978975261 298.589829500717 2752.86541459175 31 34 27
68.7245071989948 298.54355461846 2735.81239622945 29 32 25
69.9051076644279 298.292722716558 2724.31571846601 32 35 28
62.9742342327417 297.767872334253 2720.52405303878 35 38 31
50.1981495317194 297.048073176005 2722.37466927605 31 34 27
31.6293660905207 296.137585123112 2729.90624516207 27 30 23
20.4009302315309 295.473469020222 2730.40928833767 28 31 24
20.0697852442997 295.169757242641 2720.28651944476 25 27 22
5.25646869509178 294.389305113322 2724.36569446098 25 27 22
-8.78489577626573 293.636526359942 2727.7692830776 22 25 18
-18.4717567959551 293.02755626277 2726.91975834301 20 23 16
-25.2748956753819 292.51288101686 2723.22044748076 20 23 16
-22.0863196811996 292.320131385908 2709.47428386396 19 22 15
-21.0899411605872 292.05425036336 2697.84398345447 19 22 15
-35.0287492651486 291.309664065789 2701.32195886645 17 20 11
-40.4381409810945 290.838193764538 2696.1631506502 17 20 11
-55.0132218093502 290.076830415149 2700.41512451318 17 20 11
-61.1072778319175 289.58466738176 2695.99492034603 17 20 11
-65.8018166199976 289.136218650591 2690.11910977548 15 16 11
-64.2242552773489 288.88251464928 2677.67514624655 14 16 11
-78.003909163691 288.150655455838 2681.26856041312 14 16 11
-76.4769708819504 287.892814949139 2668.78787819478 12 17 11
-77.7651728472613 287.546169121172 2659.20643191063 15 18 11
-79.7744144053627 287.175908028144 2650.33720565116 15 15 7
-140.02562985329 284.734626108796 2693.10619623552 23 15 2
-189.031909385043 282.959139664332 2735.38440787124 81 65 50
-218.03094799062 281.794798866109 2756.35097294025 135 118 102
-223.824125288845 281.326696709856 2752.14900405453 162 133 115
-228.266292279804 280.898384854738 2746.45624518284 161 130 110
-230.69697644279 280.528571957512 2738.51654508445 157 126 106
-235.165303444616 280.09810453329 2732.80510582124 152 125 104
-236.966060328604 279.744469777767 2724.08709876699 152 127 105
-236.125963254957 279.465511875402 2712.34344036441 144 126 106
171.430146305653 297.758033189105 2764.56233251625 68 75 68
181.952954810377 297.785095801226 2745.01781086511 48 53 47
176.421342837842 297.300725903427 2739.77033723756 41 46 40
141.336199347137 295.887697609298 2761.26413633404 20 25 18
132.857472912824 295.314855607916 2758.82022940378 16 21 14
116.858550107652 294.508540984949 2763.27454429651 23 29 19
84.3923224477918 293.194852628115 2782.96195018096 27 33 23
99.256390708256 293.348161716384 2759.1546255849 42 45 38
99.8099537802064 293.056095481965 2748.43822280247 44 47 40
80.9670507974789 292.169636801116 2755.77120529634 29 32 25
57.0020250514442 291.131222988186 2768.03612736331 25 28 21
65.7036428760787 291.085909344349 2749.64138685745 27 30 23
109.732743061153 292.099019391984 2697.57577248529 30 33 26
68.8620020497521 290.555200144126 2725.99072460313 35 38 31
53.1341981184745 289.770734443312 2730.64198449964 36 39 32
36.0000708603381 288.947457404611 2736.7436472754 29 32 25
32.7825425567734 288.537710235479 2729.46867589868 23 26 19
23.7315690566069 287.955943018945 2727.84492627924 25 28 21
24.1172563799719 287.650229458243 2717.00705213463 20 22 17
20.1276469173415 287.215478436454 2710.40729262843 20 22 17
-7.64379671024229 286.093925155006 2727.32324875153 21 24 17
-9.43523863530116 285.724510914185 2718.61191438359 21 24 17
-4.81186190020777 285.536638360944 2703.43552541199 19 22 15
-29.5139697275091 284.513387528768 2717.63656548705 17 20 13
-27.7804565786386 284.241666918797 2705.30556349295 17 20 13
-40.2805914411459 283.568209073161 2707.35675086213 16 19 10
-40.016038742535 283.25259908577 2696.43071903852 16 19 10
-44.7258483301782 282.796970606914 2690.54380197263 16 19 10
-51.5534392102432 282.282477478974 2686.82706073277 17 20 11
-63.9804179419101 281.614872259616 2688.93101571011 14 15 9
-63.80196643441 281.292250799038 2677.9428262581 13 16 9
-58.7924863761851 281.098025840467 2661.8112630199 12 15 8
-89.2357754130157 279.947544931226 2682.96567248471 11 16 9
-84.9486612384296 279.732344635155 2667.54567566342 14 17 10
-71.7673799169334 279.749318856015 2642.51747786285 19 19 11
-210.474297393605 275.126473852464 2759.32480610869 125 107 93
-223.075879782533 274.482076777852 2762.53763582871 176 154 140
-228.85139018541 274.015015635357 2758.3484793254 170 142 121
-231.247279868171 273.633910736717 2750.43394529206 166 135 114
-232.318596296153 273.284975838481 2741.0097123679 159 128 108
-233.421664131363 272.933458453689 2731.56244909024 153 126 105
-235.225918889741 272.562681373482 2722.84181952294 151 126 104
-231.05273187053 272.33808461129 2707.33918688043 140 122 102
161.160290617337 289.696020246152 2774.36834999015 43 50 43
159.522261523879 289.322094916997 2765.76820500828 53 58 52
178.376492227498 289.519613602276 2738.67788615184 48 53 47
147.82792923073 288.335801475386 2756.05070155964 31 36 29
118.93018502906 287.205061549749 2772.15013182797 21 26 19
119.545524365767 286.892721803326 2761.47870376591 18 24 14
113.359508611827 286.392269792227 2756.99179404167 25 31 21
91.4433735496396 285.464203555689 2767.03715525846 21 24 17
87.5416792439618 285.027835242105 2760.50111913384 28 31 24
83.6255895290785 284.59029887284 2753.95464155344 41 44 37
70.7863686747512 283.913715951465 2755.76000242157 39 42 35
73.5298888078817 283.652804144039 2742.92589968748 33 36 29
78.4332777791037 283.445921146094 2727.95269574697 21 24 17
56.7809349439292 282.539172746001 2738.18939355778 20 23 16
27.8838671509782 281.448684881026 2755.52455468305 18 21 14
23.2580903839228 280.9939503835 2749.69885380737 17 20 13
17.1640837738938 280.500897062844 2745.27868095094 18 21 14
40.1485678213809 280.750836896922 2712.53689105246 19 22 15
32.514714794849 280.213664878983 2709.47030045526 22 24 19
27.0561132052203 279.731765965586 2704.27576612841 21 23 18
22.3125206568366 279.267461781523 2698.36431512916 22 24 19
15.4042303229609 278.748746170677 2694.5890517453 24 27 20
-25.151148480232 277.399077371018 2724.46863669753 22 25 18
-33.3766590275286 276.854254930709 2722.20843329226 21 24 17
-33.7629155611081 276.501022421535 2712.04575650801 20 23 16
-38.4414854614905 276.041947523731 2706.18146830131 18 21 12
-36.0585724835099 275.751771172792 2693.08580551403 17 20 11
-35.1395757170074 275.423633942362 2681.39909407961 16 19 10
-50.4287572883291 274.709690883127 2686.3686778966 16 19 10
-69.8647269926378 273.901689091072 2695.74249880235 16 18 7
-68.9665520315252 273.571844525258 2684.04068454885 14 17 6
-74.3786401427577 273.093625040119 2678.87988747217 14 17 8
-86.7351918317374 272.455957938092 2681.03534263523 13 19 9
-94.9026389938477 271.915749573893 2678.81695951119 16 19 12
-76.857728859526 271.967120239319 2648.66913337537 16 16 8
-163.860898651183 269.31404193742 2720.21395081359 50 36 25
-221.683867036154 267.694001330847 2772.15819799364 202 180 166
-228.123576254857 267.213067628238 2768.72251595598 199 173 158
-229.132351607934 266.849593014696 2759.34354674519 185 154 136
-230.849158476256 266.469061767916 2750.68626061285 174 143 125
-231.245397830768 266.114887048827 2740.51634229618 162 131 113
-234.365023360854 265.701328636013 2733.31232342461 155 128 109
-234.824698227895 265.34199150562 2723.09609872547 153 131 110
-229.981723396767 265.08972848404 2706.84353832053 143 126 108
169.234551064982 282.163324723028 2767.83214939098 37 44 37
145.467613501132 281.228491407872 2779.00615783507 35 40 34
131.682529336549 280.542468375454 2781.36083101705 39 44 38
145.22621792379 280.520083849834 2759.06551835318 45 50 43
141.272387874841 280.070672278893 2752.49162184896 42 47 40
120.726090306435 279.224490263105 2761.0603490001 24 30 20
100.262169830239 278.384979960174 2769.68882685694 17 23 13
86.6231594052129 277.710786679045 2772.14945193011 20 23 16
95.9664647420069 277.219016323401 2743.10140991099 21 24 17
82.3482051290791 276.546502455852 2745.57708619726 36 39 32
59.8884306398566 275.674491842581 2756.46396663056 37 40 33
55.2401383672594 275.211877185581 2750.62160939282 30 33 26
34.3908982916554 274.38420417951 2760.20585743637 29 32 25
45.1798626741478 274.267849746149 2739.61851479626 25 28 21
10.5104046035676 273.138789648212 2762.65012810906 25 28 21
54.0514186719365 273.737871041017 2710.22859255786 25 28 21
0.582047955543619 272.20544363834 2751.74271854712 25 28 21
33.6655197240829 272.560233807851 2709.03074074144 28 30 25
20.9775638852499 271.920016336603 2710.94594104563 27 29 24
16.2541166782031 271.451309091024 2705.04907153186 27 29 24
-7.15580775293345 270.588433383125 2717.71728752356 26 29 22
-16.138768346289 270.033047422267 2716.14327001502 25 28 21
-27.9606031076345 269.41992020872 2717.4511460835 21 24 17
-30.4961869812743 268.999270243371 2709.43543892343 20 23 16
-38.0213352999579 268.475839801623 2706.44772029262 18 21 12
-32.1001112477026 268.223523245694 2689.74176885869 17 20 11
-36.8313095621156 267.754182239619 2683.83927719165 15 18 9
-54.2244532431431 267.034222408231 2690.98902786302 15 18 7
-68.7452900758467 266.374699790745 2695.28084019938 13 15 2
-62.2599619937667 266.125009660645 2677.74850201239 12 15 4
-73.9581781290512 265.521898541286 2679.14633707156 12 15 4
-90.480193565619 264.82943402053 2685.69239536108 10 16 6
-84.7981081168379 264.55774048672 2668.8129891018 13 16 9
-90.915915428234 264.062191944325 2664.37554997024 12 12 4
-99.7843656560204 263.516058939422 2662.88429586049 24 20 9
-198.399237558433 261.340703225189 2758.12727056706 78 61 51
-229.483995346263 260.415880637751 2781.28847086098 201 178 162
-234.535660836422 259.963623463505 2776.38878886131 198 170 156
-234.16420011662 259.60621132111 2765.54033968466 193 162 144
-234.509545803139 259.233778406784 2755.40692831567 180 151 133
-234.891284965122 258.858406873328 2745.24741413197 168 139 121
-239.340830951341 258.411864760406 2739.54921372929 160 135 115
-241.121099896142 258.009314399829 2730.84581105221 158 135 117
-237.588668918627 257.692653301979 2716.11325098586 146 129 113
158.093907612141 273.797330710132 2768.35952914835 24 31 24
114.620767422589 272.519530546155 2797.35966173853 35 40 33
136.557930418626 272.601311002205 2767.56319906313 42 45 38
143.213504477417 272.361243964892 2751.38965566696 51 54 47
118.137947887028 271.474499974227 2764.08533509171 43 46 37
99.9344559789503 270.732221984469 2770.64753399373 25 28 19
93.0397418157902 270.218978695331 2766.88213998414 14 17 10
91.3781295648293 269.80901234599 2758.26471651324 13 16 9
76.2807625115669 269.135143004985 2762.13822264295 18 21 14
102.083682346975 269.255209867519 2727.7335147987 18 21 14
58.0888469275811 268.026871044202 2758.8260776501 27 30 23
45.3260149940564 267.40472754282 2760.68709022353 28 31 24
48.7960180543268 267.089833012892 2747.1443204049 33 36 29
33.1261849311377 266.415433014101 2751.83816208183 36 39 32
65.0729663356211 266.62091813798 2710.77149017198 32 35 28
45.7248221533799 265.877580788135 2718.9739741049 28 31 24
43.1824444448297 265.44209922413 2710.95326682395 30 33 26
0.0119712410446837 264.280624058167 2742.64347163879 27 29 24
8.39000227840891 264.042679411849 2724.01318045115 25 27 22
-11.4278899833979 263.307141575203 2733.11050458856 16 19 12
-13.2011298807651 262.88817274872 2724.41211425521 14 17 10
-17.1506957162904 262.430332687263 2717.84126627833 15 18 11
-23.9711010248629 261.923177389352 2714.12977118014 19 22 15
-32.9235670670527 261.380728340312 2712.57763087352 19 22 15
-31.9243012308932 261.003137182303 2700.94885770682 18 21 12
-34.5074649476331 260.564381745524 2692.89827271829 18 21 14
-44.1663372691805 260.010539719275 2692.06931682284 18 21 14
-58.7253479073442 259.380407406931 2696.33331054363 18 21 12
-57.8142374582593 258.99569148238 2684.64059556717 20 24 10
-63.9345223412826 258.499471746508 2680.20135699133 20 24 10
-69.3595192698928 258.013776575087 2675.03116417162 20 23 12
-67.1536227597627 257.642336107875 2661.8067667503 20 23 14
-66.3857701494448 257.246029636681 2650.01014240084 21 24 15
-83.5975716478283 256.584291265131 2657.29164679361 27 24 15
-208.280384533581 253.996084214107 2769.4540361305 120 102 92
-228.406888272183 253.327329065654 2780.79805274817 182 156 143
-236.184494652476 252.834361656379 2778.86280728826 197 168 154
-235.126159052379 252.461642623245 2767.27687973233 183 154 136
-237.495605767287 252.040310422874 2759.38160548852 178 149 131
-235.8419368549 251.670008621826 2746.99192889325 171 144 125
-242.303184067787 251.192085425689 2743.5409432298 167 140 121
-242.73162112385 250.790560193939 2733.34714979544 162 136 119
-241.861054468953 250.402654986607 2721.62502760298 143 126 110
-226.395481074549 250.189221269755 2693.31144829684 107 91 76
119.565213206099 266.166146453401 2823.14424105144 39 46 39
263.403917976187 268.30193820472 2685.34195807121 38 43 37
121.885610155357 265.039929348935 2791.47229700347 36 39 32
127.127397473076 264.735192456567 2776.74361511983 42 43 37
141.374571138103 264.577384064455 2753.72255122418 36 37 31
114.794081686911 263.733817806757 2767.79785914043 22 21 16
104.867518728604 263.17129571217 2766.77451014631 24 25 19
107.702443376779 262.817234337791 2754.00649115194 21 24 17
78.1929358275035 261.541145091914 2761.01585953252 13 16 9
128.512274354627 261.926458151689 2703.62581679467 15 18 11
64.2071293564994 260.113587933292 2743.45921036211 27 30 23
57.3165745858848 259.602862160684 2739.69654985965 32 35 28
50.4291531592678 259.092411784225 2735.93645665707 30 33 26
47.6090062341661 258.23064287787 2717.83105284907 28 31 24
33.4240117959772 257.614574255487 2721.13121350128 28 31 24
0.430037809047601 256.737244242231 2742.90832831 25 27 22
-12.1570051785846 256.153565389238 2744.89696887286 19 21 16
-16.7761774848183 255.681256926302 2739.07567221916 13 15 10
-19.249618726588 255.237126020938 2731.10489464354 14 16 11
-24.6117952721436 254.753207019886 2725.98025065681 16 18 13
-22.8371420657787 254.361871019289 2713.6781716158 21 23 18
-30.3684455999487 253.847920293672 2710.68633343158 23 25 20
-28.6643502813224 253.450879519249 2698.33307657617 23 26 19
-35.5013704597851 252.944641028584 2694.60954164803 19 21 16
-49.3888098800297 252.352829841112 2698.12552915158 19 21 16
-59.7129217999854 251.806917246303 2698.04940366766 21 24 17
-65.8056649258314 251.312447482154 2693.63013956332 17 23 11
-65.6104285186527 250.890340002681 2682.65331944998 17 23 11
-55.7041073245643 250.575104896372 2661.42512255624 17 23 13
-50.7608737480396 250.197724041441 2645.24460810897 19 22 13
-45.889565496704 249.81453425939 2629.01221851216 20 21 13
-67.3073427916817 249.146954456313 2640.65520595423 27 23 12
-208.569041134533 246.831198535085 2770.44352787095 118 100 88
-230.063157652462 246.206125647737 2783.26672179326 183 157 144
-237.153485391095 245.728136921224 2780.59473852873 188 159 145
-238.804712804726 245.302284524764 2771.98476278207 182 154 133
-240.483287289927 244.8742241785 2763.35495137591 175 147 125
-238.142640501033 244.480408302287 2750.22841844855 169 143 120
-241.233642086974 244.035068008747 2743.04469422643 169 142 121
-242.333218040245 243.605387075496 2733.59956637472 163 138 116
-242.796813941738 243.178678356412 2723.38045246068 154 136 116
-231.315489496719 242.845488084615 2699.5885137247 118 101 85
134.559384280905 258.826334244371 2810.50919524226 17 24 17
143.748055120105 258.54315213734 2792.46632501023 23 28 22
143.694332366823 258.126714400828 2782.54409443598 30 33 26
128.392345745685 257.500860615198 2786.26980515942 30 33 26
138.927565253316 257.224143716765 2766.73274180605 26 27 21
140.290590817968 256.819887171669 2755.36753076411 27 26 21
139.346436823854 256.382607474877 2746.03503311822 31 28 23
130.10063468418 255.837043419941 2744.27023143631 27 26 21
121.620763854903 255.302247667829 2741.82568762146 24 27 20
99.6995868921147 254.601918831793 2751.86884186876 21 24 17
77.8697840871438 253.90900996811 2761.97797829969 14 17 10
122.258882145086 254.015102851761 2710.16844537053 14 17 10
95.2299615240255 253.2601302201 2725.15445581215 16 19 12
74.232095070224 252.583381611513 2734.63172588411 21 24 17
64.3670106917464 252.039061177032 2733.65333069656 25 28 21
52.3204002175728 251.471920170211 2734.79849498306 24 27 20
46.1638320246989 250.971556403574 2730.33293287125 23 26 19
40.006107513932 250.471113898246 2725.86653212109 25 28 21
38.2127961682763 250.016441281771 2717.15341071979 24 27 20
17.5317424787291 249.365518601789 2726.8604759391 21 23 18
