ply
format ascii 1.0
comment KinectMotionCapture
element vertex 786
property float x
property float y
property float z
property uchar red
property uchar green
property uchar blue
end_header
81.9764866377732 -232.083993579353 2180.42030971046 14 16 11
58.1487408216734 -235.681883522893 2169.18794442813 13 16 9
63.6974975939109 -231.892285894764 2187.20699366434 13 16 9
61.5718263056011 -230.039504042247 2197.54610791847 13 16 9
74.2885816015884 -224.512304934559 2222.36051862144 13 16 9
89.9414224136281 -218.298706781718 2249.8262164794 11 14 7
68.8174578572807 -221.179631169757 2241.47096435378 9 11 6
9.90106423763049 -233.29098150414 2196.90714441754 9 11 6
-57.8991510716387 -205.643403355041 2362.1723639144 15 18 11
-31.8860071807072 -197.5619685815 2396.07798756339 14 17 8
-5.70460205587953 -189.501701583433 2429.81965390774 12 15 6
-38.9558035901576 -194.806877602778 2412.61023957334 11 14 5
-36.7964050553806 -192.166667027176 2425.66271895737 14 17 8
-28.5266324602262 -188.184352741465 2443.78543229702 18 21 14
-38.4290142377499 -188.247369383379 2446.54307318777 24 26 21
-57.4972278054142 -190.322822804012 2441.69535679646 24 26 21
-81.9800643039015 -193.563378097928 2432.4779395003 24 26 21
-104.257230122464 -196.289545395543 2425.24529808712 24 27 20
-109.717850296398 -195.327254149069 2431.94245773438 24 27 20
-117.483661866604 -194.866065916652 2436.7520413686 23 25 20
-105.957412137645 -190.236847174009 2457.21304984947 20 22 19
-95.114429463885 -185.785299696634 2476.96224087637 15 17 16
117.560918779676 -256.261429909443 2090.56018311743 19 22 15
162.850605252523 -241.700592983157 2151.12764811907 17 20 13
115.432378804786 -249.333400841525 2127.07533078638 13 16 9
161.215128736774 -234.833557764396 2187.16219134855 14 17 10
150.87216086113 -235.132322343992 2188.97493703031 15 18 11
106.004297920377 -244.416604880209 2155.54893599746 13 16 9
80.9851069695138 -248.466641755663 2142.73270183038 11 14 7
119.008028624342 -236.188311260338 2193.84926199192 12 15 8
121.094928468573 -233.251046222176 2208.34707628727 14 16 11
97.4087681713689 -236.934656685057 2196.98712178897 14 16 11
81.3224087026545 -238.641690924814 2193.3749937986 13 16 9
72.1989369935314 -238.558463178181 2196.75445993798 13 16 9
72.9114961865185 -235.980205440015 2209.83591946123 13 16 9
79.3083741655516 -231.984108097981 2228.39949839373 13 16 9
92.8513627008716 -226.220968260619 2253.77548465699 18 21 14
71.7361220714499 -229.159718745042 2245.42045405675 13 15 10
26.3479606454826 -238.10812792275 2213.87838449315 11 13 10
-70.540048506587 -217.265794305042 2352.35359862961 16 19 12
-35.5549069861185 -206.998107505851 2394.03069424596 15 18 9
-45.502439214006 -207.069702672094 2396.83443810352 17 20 11
-34.3452960555317 -202.333212585807 2417.64645804952 16 19 10
-45.0324670937001 -202.577793592358 2419.7929942515 12 15 6
-48.9174552657863 -201.279055257554 2427.70995777351 12 15 8
-67.2351350283456 -203.228287579275 2423.51554195521 12 15 8
-40.6440431724415 -195.102334880824 2456.84067500148 15 18 11
-68.9040614431016 -199.264889419626 2444.42510385526 16 19 12
-82.7203062180177 -200.18038385933 2444.11004213358 20 23 16
-124.992597953677 -207.376309349604 2420.55113965056 24 27 20
-103.555508588644 -198.32263584435 2460.27406594805 35 37 32
-89.611583389019 -193.135433648023 2482.5032208731 27 29 28
118.996044102958 -264.786677675505 2093.22926683047 16 19 12
119.826549638792 -259.508881788203 2119.96472003537 12 15 8
159.296345594391 -246.433323158751 2173.77774845261 13 16 9
131.789848750515 -251.321671027573 2157.88737269227 15 18 11
111.042658694199 -254.367145244309 2149.18263615318 13 16 9
118.430438648759 -247.487338574834 2181.92270197543 14 17 10
121.168276251708 -244.330599638855 2197.15859662522 14 17 10
121.869190446237 -241.725163455256 2210.24760284171 15 18 11
114.235466974155 -241.3022243591 2214.93167424751 14 17 10
92.5985076605054 -244.50314385524 2205.71621931886 13 16 9
86.3134203037377 -243.710690790339 2211.84027975788 13 16 9
56.1029771413755 -246.637650426244 2206.84720192952 13 16 9
57.5524297547751 -243.855148044769 2220.58363744164 20 22 17
38.4687657612761 -246.29835660242 2214.3887082825 2 4 1
-65.9634425415758 -224.952614357734 2357.44720148878 14 17 10
-42.2250976010066 -217.159700160088 2389.40331154315 17 20 11
-61.2191457145586 -219.337274316616 2384.4973790017 17 20 11
-73.4895049956594 -219.937266548386 2385.43441767917 17 20 11
-47.2171087604938 -211.654998099324 2419.05291678835 17 20 11
-49.591213240141 -209.999428833694 2428.25096749049 17 20 13
-39.0213952747311 -205.395317007072 2448.24852832472 17 20 13
-46.6572552547446 -204.961921705369 2452.93317589187 19 22 15
-59.6493076281788 -205.738988449665 2453.19612869651 21 24 17
-81.8685117349855 -208.585388044731 2445.92370072778 20 23 16
-59.6233415197438 -201.411101157631 2475.20292240876 20 23 16
-104.220903121219 -209.248511107115 2449.79679260408 22 25 18
-104.241141291834 -207.079724221798 2460.83229387791 24 26 21
-120.48053876645 -208.523349834446 2458.75045036938 32 34 33
193.788603683196 -255.599586685929 2160.71961568541 15 18 11
126.53528268875 -271.62019147638 2102.33969784068 16 19 12
97.7031323410094 -276.970658668879 2084.99986016323 14 17 10
114.221161712166 -267.356091528022 2128.1076765996 13 16 9
131.181775295346 -260.243050048186 2158.39286522761 16 19 12
132.450130910494 -257.411328962718 2172.30185823315 11 14 7
148.940847487805 -250.510482562594 2201.66777671475 12 15 8
136.512145612756 -248.946448226558 2213.77849781482 16 19 12
130.297660688088 -248.163927674512 2219.83391701614 16 19 12
112.918523329114 -250.328319734317 2214.73931523219 15 18 11
92.677983437 -253.220382020145 2206.92570269171 13 16 9
77.9973711859689 -252.18563397451 2217.09976657191 13 16 9
84.4074910547614 -248.093774739533 2235.63604254618 13 16 9
40.6521976414775 -257.001752165209 2205.3006915899 10 12 7
-26.9555335186751 -224.42831438611 2392.31863203063 19 22 15
-27.131349353879 -222.220762633448 2403.50323263679 16 19 10
-64.143776468903 -228.703869195967 2383.11764625248 18 21 12
-53.0361694244244 -223.83619409431 2403.95946720398 19 22 13
-34.2752130885753 -217.211847116418 2431.11187053888 20 23 14
-41.1657148656377 -216.605997050341 2436.44778697094 20 23 16
-39.6971880444843 -214.060224501129 2448.7833607609 18 21 14
-47.334954377841 -213.631720865496 2453.47028650922 18 21 14
-60.3283213202741 -214.432561526736 2453.73839631685 18 21 14
-68.759868966088 -214.175494214397 2457.82198753867 21 24 15
-58.0024870339351 -209.53445207905 2477.62783629772 21 24 15
-85.6557318026479 -213.656344187628 2466.02096736459 20 23 16
-101.83891952746 -215.142201352957 2463.88954854862 22 24 19
-107.238234861506 -214.177790761622 2470.52551834537 16 18 15
143.569472928846 -275.742011928728 2121.45913406235 16 19 12
138.59409464868 -274.568752443564 2129.06050748207 15 18 11
153.408424917148 -267.918692269889 2157.29401196721 12 15 8
131.259690332027 -268.980435702174 2159.60687622826 13 16 9
164.197241533731 -254.995242966186 2218.35516740903 12 15 8
113.052193811722 -266.416181018548 2178.72510302452 11 14 7
81.0814214235926 -272.557494640608 2158.95087507458 13 16 9
88.6272201475995 -268.012163482053 2179.12620084038 15 18 11
105.321933705212 -261.046428540787 2208.27995680686 15 18 11
87.1598180301092 -263.429938826425 2202.57834032575 13 16 9
82.9646158728301 -262.076304186401 2210.79523727092 12 15 8
59.7833674244153 -265.750567256584 2200.34908777797 12 15 8
54.1479158996894 -264.764391260262 2207.21666522744 12 15 8
49.2237370556303 -263.592737795863 2214.76709637742 18 20 15
-8.1591299517414 -228.49463510924 2409.67996153272 16 19 12
-31.549840484042 -231.858793575968 2400.81322482023 14 17 8
-21.9247185490818 -227.29185304535 2420.33746736147 18 21 12
-17.4972633845192 -223.993213812389 2435.29182115322 20 23 14
-29.6530863371722 -224.650176434367 2436.12354376218 23 26 17
-25.1582640603694 -221.359604076628 2451.01185545425 24 27 20
-25.9292957092794 -219.328707457755 2461.39671439624 19 22 15
-34.293801292105 -219.088583373723 2465.41623606019 18 21 14
-48.7576639540825 -218.068452275691 2475.37722477279 21 24 15
-53.3094625105468 -216.934042891466 2482.56338145117 22 25 16
-64.0119689454979 -217.222376725899 2484.7316125777 19 22 15
-83.9993689640433 -219.637556131496 2479.43030179667 21 23 18
-111.020364126214 -223.63882365218 2468.59468071418 23 25 22
108.729473832774 -297.055173750114 2072.76795682519 17 20 13
124.656467672372 -289.907386616737 2102.65716258615 16 19 12
137.991301969678 -283.542676719313 2129.56818445239 15 18 11
150.756970822742 -277.383292098473 2155.65783368707 13 16 9
90.1757928018383 -289.182438104101 2118.36866287874 10 13 6
100.270929371108 -283.795631417177 2141.55640171731 14 17 10
146.335808607831 -268.508887514424 2201.24680011087 13 16 9
87.5312111712039 -282.19333203277 2153.97031106819 10 13 6
100.588428459905 -276.068565809093 2179.77522713839 12 15 8
58.0921106375505 -285.146389627231 2149.63170734959 14 17 10
58.6524579162204 -282.441841027623 2162.84564981969 14 17 10
83.7409493893135 -273.113718900959 2200.31936361956 12 15 8
74.6247141376553 -273.074686543409 2203.69817590891 11 14 7
28.2025522457796 -283.044002376526 2170.49995501567 11 14 7
25.3014782393666 -281.28956907858 2180.20634434514 11 14 7
54.9649167808921 -270.871240936423 2221.47806769324 6 8 3
-71.3699553417886 -254.845714267202 2344.56189744059 15 17 12
-54.4800390242934 -248.362404368491 2370.75895991405 19 22 15
-60.7313529386135 -247.565511080742 2376.84882656246 17 20 11
-21.0880811389567 -235.623977458206 2422.15540555457 18 21 12
-20.4306263451834 -233.199801613226 2433.89711063764 18 21 12
-31.8374399762198 -233.694940170623 2435.37838555148 20 23 14
-16.7336086429413 -227.818170504031 2459.18797524572 20 23 16
-28.1254719808084 -228.31463357958 2460.65460006064 21 24 17
-42.592450617811 -229.533217637345 2459.6132760371 21 24 17
-60.1575531210576 -231.470841766777 2456.08707134913 21 24 15
-63.9924861411134 -230.14369578264 2463.95013072706 24 27 18
-51.6882651405441 -225.023100735371 2484.98322419117 24 27 18
-66.2359141942162 -226.230112791388 2484.0206345891 23 26 17
-85.4568012096264 -228.512744849531 2479.35514610047 23 26 19
-88.4933651684783 -227.007589226219 2487.81635061134 31 33 30
81.5468294568453 -316.578556856743 2031.79573850488 26 28 27
168.675494643483 -283.572241675212 2162.86834630441 17 20 13
167.204359889992 -281.428394444034 2173.9313860855 16 19 12
140.203961850191 -278.875952426687 2196.11486486764 14 17 10
107.674566015787 -285.427510185104 2175.53908284429 17 20 13
76.3842656637146 -291.574456891099 2156.50687798839 15 18 11
47.736381665735 -296.933045172001 2140.4021707127 12 15 8
46.174326947459 -294.77478759328 2151.5533655198 11 14 7
44.6395616693556 -292.619586984731 2162.67791332825 10 13 6
55.7612704077881 -287.014385299431 2186.23088145965 11 14 7
-44.6649270463211 -254.622401876767 2380.35880602209 22 25 18
-55.3929967330751 -254.942452086816 2382.55710950202 13 16 7
-72.162407028912 -256.742375085067 2379.63732784026 13 16 7
-24.8718711115026 -242.79723708733 2431.22403536763 14 17 8
-59.7331693528242 -249.041599439909 2412.91812571739 17 20 11
-8.30954472361389 -234.216265247475 2467.35540687308 19 22 15
-16.6391040801304 -233.996527242518 2471.34323947129 18 21 12
-69.1798224133255 -244.45608874086 2438.62531855552 19 22 13
-70.7682491834119 -242.563315496852 2448.42469250894 21 24 15
-76.1621982789746 -241.591545198239 2455.05458363202 21 24 15
-69.2649684942306 -237.685606140508 2471.71738402023 21 24 15
-71.539174351531 -235.985815923532 2480.80936023432 22 25 16
-92.3163975254004 -238.678131027463 2474.91640673972 23 26 19
-128.642089767506 -245.014017371254 2456.66127986819 27 29 26
-131.763557286985 -243.486587377163 2465.2031648856 12 14 11
108.596882370982 -317.744682132501 2061.78741570704 16 19 12
104.152580174996 -316.340420637128 2070.24419004592 15 18 11
189.916949868457 -288.671669567132 2173.70333035877 14 17 10
189.789257583164 -283.569555543118 2198.58209739005 14 17 10
135.739633779638 -296.567752202562 2154.98455369474 15 18 11
112.971508638826 -300.492083864835 2144.16512667895 13 16 9
101.80448314665 -301.067722451787 2145.4201862954 12 15 8
87.8504969391463 -302.423610504124 2143.89008451837 12 15 8
93.9164667420753 -298.096438601335 2162.73298964399 13 16 9
94.5025406961948 -295.341779507892 2175.91431667794 13 16 9
102.78043630907 -290.44366098358 2196.72742690984 10 13 4
116.721829628562 -283.995228671595 2223.02375256415 13 16 7
127.977689667077 -278.339789842388 2246.43574360153 17 20 13
60.0516351109302 -294.67928735344 2191.60548665266 4 6 1
46.6582803957532 -295.820194324703 2190.90380472392 9 11 8
28.2873356999116 -298.314202518059 2185.42555224797 15 17 16
-31.8567461034576 -260.056662921746 2392.5324220265 15 17 12
-53.0562308703506 -263.03384256441 2385.68363623066 22 24 19
-69.0669099942975 -264.684092771183 2383.40521104361 22 25 18
-60.9914962782225 -260.316195593782 2401.66393664034 22 25 18
-16.5437949973417 -246.952395151 2450.49122946848 18 21 14
-25.6629400876975 -246.924082101425 2453.87451557971 16 19 12
-61.4005877536648 -253.442397057513 2435.0624146204 17 20 13
-77.4762170873533 -255.082719677951 2432.84701865885 16 19 12
-86.7257523397482 -255.03673053128 2436.35717160907 19 22 13
-65.3525403073605 -247.534170489206 2465.03683270888 18 21 12
-76.089728912677 -247.865985287676 2467.24593021077 17 20 11
-68.3733776619215 -243.733880601538 2484.479150853 20 23 14
-76.7936796274924 -243.508481993864 2488.55625556882 21 24 17
-125.458836499144 -252.920330689756 2460.33678708407 26 28 25
-156.496740178532 -258.046848416254 2446.57110475642 21 23 20
118.938016145462 -329.145674820914 2047.53560362638 18 19 13
135.988694119196 -321.302294380235 2079.04032252143 19 20 12
104.629650970942 -327.924515232284 2058.72971627185 14 17 10
120.4598261032 -320.497777075877 2088.67383560106 14 17 10
154.050231548641 -307.88190118348 2137.0568385483 13 16 9
155.225943554613 -304.891681559003 2151.03473985442 13 16 9
109.382543154772 -315.685900020567 2115.96647333245 13 16 9
122.820981143194 -309.098552615161 2142.74170947542 13 16 9
114.421795262301 -308.899786853446 2146.80178193001 13 16 9
105.322855872147 -308.898109819054 2150.16894027365 12 15 8
88.6196157245229 -311.079971171423 2145.82265383877 12 15 8
118.169523507806 -297.381491274893 2200.89241661447 13 16 9
127.209356912235 -292.236966100745 2222.32973972032 12 15 6
137.032608591817 -286.90513287765 2244.37834216778 17 20 9
115.462901969903 -290.471365755425 2235.15009748032 12 15 8
53.1166273266748 -305.466633951266 2185.91631031362 13 15 10
31.8966366715343 -306.218323916304 2190.09491099123 0 0 2
-43.9664091597653 -269.388494435331 2394.60078685171 19 21 16
-53.1825908477002 -269.35938833312 2398.08031452596 22 25 18
-36.0158988970323 -262.658347948112 2423.9703542334 23 26 19
-26.3361520408409 -255.573953569124 2454.40456290872 18 21 14
-53.7136774650953 -260.10928924782 2442.58466952777 20 22 17
-53.0047423636351 -257.616519550999 2454.26545360493 19 21 16
-78.9989714811341 -261.754055036848 2443.84728832516 19 22 15
-95.9027429957038 -263.60960080955 2441.0691503616 18 21 14
-52.1991806689375 -250.541386175528 2487.84525298958 18 21 14
-63.6682042494234 -251.082301290095 2489.39473121602 18 21 14
-48.9237438925323 -245.216613993153 2512.14591025397 13 16 9
-65.0215651212536 -246.886955124544 2509.95698789505 25 27 24
-169.593157800676 -269.96194121597 2437.2479389569 13 15 12
110.301331621509 -340.781082053448 2039.41049464156 17 18 12
110.519182331422 -337.930750561225 2052.9429946196 12 13 5
130.328272749659 -329.186763415577 2087.24343501562 14 17 10
117.83266713658 -330.212122739023 2087.05010638317 13 16 9
120.220478833422 -326.768925083475 2102.5912434584 12 15 8
128.779469749169 -321.5077616882 2124.48881118553 12 15 8
104.686609178133 -325.972445660503 2112.23091123514 12 15 8
113.323153934827 -320.720174626762 2134.0527811389 13 16 9
116.557803476621 -317.093654086534 2150.14280999096 12 15 8
82.0135169094147 -324.565444352002 2127.45278841835 11 14 7
108.014267300795 -314.291275675767 2166.71460899527 11 14 7
103.067946645711 -313.092860056305 2174.28307185607 13 16 9
110.61682082204 -308.27811777973 2194.41586264866 13 16 9
124.504558821015 -301.666670418376 2220.74103743431 13 16 7
116.181113951081 -301.483202475149 2224.72815895625 10 13 4
98.0517182858525 -304.1005801859 2219.02861652494 13 16 9
102.305323389381 -300.310767360385 2235.49992007252 4 6 3
39.785543147723 -315.500004770076 2186.46675725304 25 27 24
7.97614108230782 -266.959909952053 2429.09967242005 18 20 17
-26.6238059521604 -273.545757715012 2410.58504639443 16 18 13
-35.1763403431873 -271.00548133302 2425.78727216513 23 26 19
1.77316142400574 -259.217342435813 2468.12350118126 22 25 18
-5.78246092583967 -258.830713192271 2472.7350457565 20 23 16
-41.4668498866098 -265.565907151971 2453.90211273764 16 18 13
-54.4427175262698 -266.513384980932 2454.17418054629 17 19 14
-53.7019514715387 -263.999772721183 2465.82027549461 20 23 16
-55.9889059960188 -262.257464004473 2474.91896494997 22 25 18
-78.21957628942 -265.497024453427 2467.71569423453 23 26 19
-68.2002367346692 -260.692409779701 2486.81368255915 23 26 19
-47.294372072531 -253.223838117252 2514.54520281423 21 24 17
-65.7087895855195 -255.501847605348 2510.49544213376 23 25 22
-118.311915958702 -266.154583199234 2479.28495368894 11 13 10
94.8276723426655 -357.438545189743 2010.47664692042 7 9 4
68.820361278195 -362.607855429895 1995.97290227031 12 14 9
80.345758938404 -356.207890542748 2021.84169215805 21 24 15
110.179408460886 -344.256328278115 2066.96851010533 13 16 9
118.586606163257 -338.917649798184 2089.00535404159 13 16 9
116.907696608038 -336.673249561651 2100.259855582 12 15 8
116.615839643386 -334.0212195734 2112.91056453172 12 15 8
132.045119635543 -326.655523827601 2141.84489138529 12 15 8
110.665480538317 -330.367766761222 2132.44982490058 12 15 8
107.033218240549 -328.7486993713 2141.48539271669 12 15 8
104.792174074562 -326.72239297816 2151.91342709255 11 14 7
103.758116381652 -319.029517170095 2188.64526513763 13 16 9
107.191248437171 -315.388050678035 2204.53632675629 9 12 3
98.8306255615012 -312.588446118816 2220.92690012363 13 16 9
-4.45144679067244 -337.11845814016 2144.31823415748 14 16 13
-56.5496424607881 -289.954998456434 2386.04669623533 17 19 14
-47.744865485388 -285.233615482878 2404.945817605 16 19 12
-35.8449230032716 -279.738021003126 2426.32494086191 16 19 12
-14.0366075380491 -269.368303599975 2466.90197060053 21 24 17
-44.4210087740982 -274.839440064542 2452.53828518509 24 26 21
-41.4028259802253 -271.715549512532 2466.08373857511 23 25 20
-28.4065047496616 -266.066026835101 2487.76830032468 20 23 16
-37.5218871789151 -266.068439136729 2491.1523912513 19 22 15
-66.6151273822733 -271.118454981128 2478.27847887721 18 21 14
-78.1201254190682 -271.69182143598 2479.86881440648 17 20 13
-89.6515723568267 -272.26149977365 2481.48486898329 18 21 14
-73.3584233977065 -265.86239223821 2505.45281886055 25 27 24
-112.794045136392 -273.389661333654 2484.79400868985 24 26 23
76.8609396942548 -372.20254112633 1992.24073587475 16 18 13
50.1317074988057 -377.653124531916 1977.07853231295 12 15 8
71.6855180098221 -368.037991622545 2013.76875069686 10 13 4
111.605589439298 -352.805495476434 2069.65001096669 14 17 10
111.226614162391 -350.119131185384 2082.38215509337 14 17 10
112.916871374874 -346.811765508755 2097.21914067276 13 16 9
106.207235387088 -343.330518199581 2116.12057894876 12 15 8
128.525696679725 -333.808702254146 2152.06494216743 13 16 9
120.1433770252 -333.636518364744 2156.11253284101 13 16 9
72.9921421218545 -342.387248415327 2133.37688884539 11 14 7
79.7064644760419 -337.653638668135 2152.933146127 11 14 7
92.0442470203433 -331.278147461788 2177.99850517293 11 14 7
-53.6763988652704 -295.428315948442 2401.00640214425 16 19 12
4.96463288119831 -277.547906282309 2461.99525922198 14 17 10
8.74656680635466 -274.194984571346 2476.16535506077 16 19 12
-25.322267177188 -280.756992471769 2458.53671172074 19 22 15
-43.6025490605783 -280.778218696612 2465.35648886419 23 25 20
-32.140198245334 -275.454973160046 2485.77871089592 21 24 17
-30.5433792382828 -272.706186751316 2497.956883289 21 24 17
-58.0825684814705 -277.445459552835 2486.32766628778 22 25 18
-86.4997175050708 -282.367109750298 2474.18032230889 24 27 20
-105.768876739558 -284.916960392445 2469.6026014794 24 27 20
-115.046360615886 -284.907723586129 2473.1459398062 25 27 24
84.2259952621616 -381.995765013705 1987.79147035167 10 12 7
67.5832702688934 -384.35226801733 1983.41124127572 14 16 11
63.6163533373715 -382.673321445435 1992.7702759733 11 14 7
99.9968973999867 -368.291461472072 2045.20684062451 12 15 6
115.053885310063 -360.708176610014 2074.47869944271 14 17 10
130.911420745266 -352.928774911415 2104.34352606912 14 17 10
138.082639248092 -347.908167252723 2124.82056987271 13 16 9
119.491451739248 -350.905833551002 2118.21889073808 13 16 9
66.0498917206178 -364.630746062111 2075.54184831875 13 16 9
95.7756549080586 -352.667954357041 2119.35722996746 13 16 9
106.503877986273 -346.611527321385 2143.23390642453 14 17 10
73.5605236524108 -348.395796569471 2147.87064507962 10 13 6
85.1867855997397 -342.154170300745 2172.24543045815 10 13 6
57.7175637605531 -342.251327964593 2182.53320833586 15 17 14
35.9183380067969 -280.058723347358 2478.39025602276 21 24 17
35.213974996315 -277.883944375294 2488.68764627228 16 19 12
32.2690907028926 -276.315796795958 2497.04816349452 14 17 10
-10.0763690832122 -285.194976877273 2472.39345510095 14 17 10
-68.6592076276753 -295.867410912889 2445.70691134196 19 21 16
-35.873588840182 -284.86986143178 2483.79231704857 22 25 18
-35.8180378836837 -282.492339412455 2494.72204547916 21 24 17
-60.2988670591258 -286.50671727361 2485.61666767705 19 22 15
-83.3327785315841 -290.110040721367 2477.84821986315 16 19 12
-95.6487850413432 -290.914399065617 2478.86079213564 14 17 10
-111.862983857853 -292.708852086025 2476.80577812476 15 17 14
-114.942905748175 -291.11984789822 2485.29730707932 21 23 20
82.305082557832 -391.815685440464 1986.89927921875 11 13 8
71.6715801960382 -392.277860533306 1989.02468194264 13 15 10
102.763564836735 -376.465323870856 2049.33590520867 15 18 11
111.760699033824 -370.724476579721 2072.14440242788 13 16 9
125.579756193709 -363.49672707947 2099.86393627477 13 16 9
157.822383788911 -350.512950240976 2146.69710831652 13 16 9
137.248534750635 -354.206909081906 2137.91608732831 13 16 9
124.775615313878 -355.331512905229 2137.71489928114 12 15 8
94.9229576771122 -359.055210200438 2132.48395477293 12 15 8
82.3305953748781 -360.163413107599 2132.39928905061 12 15 8
73.1514010036127 -360.205621064785 2135.85229011748 12 15 8
96.4658789856507 -350.281480359082 2172.16537777559 11 14 7
88.0406724964242 -350.118560102606 2176.25658702892 11 14 7
98.3847154410009 -344.243026969691 2199.12492460202 17 19 14
63.4820426190803 -352.110799190634 2176.84897399636 4 6 1
114.546365946414 -331.321550927458 2252.0169117369 34 35 37
6.72636125581905 -298.739910737976 2443.5399240904 25 27 22
-6.87027382349514 -300.006446029271 2443.05867037912 24 27 20
12.6746378311835 -292.288242482596 2470.68783228801 21 24 17
18.7439723825387 -288.255626968437 2486.73711283886 20 23 16
-61.6404655526686 -305.019799176021 2441.50682501139 18 20 15
-74.6669027968694 -306.056844183496 2441.84234717477 18 20 15
-59.4659023028079 -299.584326148148 2465.4673951072 20 23 16
-52.5788304672279 -295.353927865995 2482.09232755742 21 24 17
-56.372904325432 -293.964443006528 2489.90559952507 21 24 17
-44.7612102565387 -288.534509412887 2510.16375304998 21 24 17
-71.639967773705 -293.207466143563 2499.28616325525 23 26 19
-85.472560839015 -294.439773550692 2499.03416044583 15 17 14
-89.2618399242648 -293.049553312036 2506.84222460234 23 25 22
-73.6020494740801 -286.633487273108 2530.0200309066 32 34 33
87.0130265324347 -402.477883088366 1979.54902361659 10 15 11
73.054828505049 -404.047120107529 1978.05463712309 11 16 10
72.41844535845 -401.257762301488 1991.02750651502 12 17 10
158.783660740228 -361.757115586803 2136.0684785954 13 16 9
130.778049544249 -367.892209868029 2119.44075218053 13 16 9
195.121744012218 -344.612150915342 2199.47477199745 13 16 9
83.7851478432841 -368.62937131696 2135.03998050878 13 16 9
89.0943352981188 -364.169097003161 2153.19779989741 12 15 8
124.902991155848 -350.269810511939 2202.02285418689 12 15 8
126.962446277685 -346.908328311296 2216.48522238593 12 15 8
68.5544255444879 -362.188475395297 2170.46768027432 11 13 8
124.943746477609 -342.127373195155 2239.0381891848 0 2 0
132.022176157399 -337.283928291047 2258.21664892137 7 9 8
-29.1969488977153 -317.116418161038 2413.9119648503 19 21 16
-22.5794766892622 -312.807982848743 2430.7930798767 18 21 14
-12.8789575362669 -307.680613627538 2450.15962075014 14 17 10
-13.6801749368733 -305.454898548151 2460.54532266441 13 16 9
-15.1988502774016 -301.012936676992 2481.23495151907 10 12 7
-31.1531863115415 -302.912369896102 2478.93774379333 11 13 8
-78.4736716507868 -313.232042403275 2450.93408187957 14 17 10
-90.0134017644789 -313.876009190835 2452.56934157298 15 18 11
-67.0332699365308 -305.289668792404 2482.32728177522 16 19 12
-53.0339809439204 -296.763671845654 2515.34393745515 19 22 15
-64.498700847675 -297.415856516683 2516.90592550082 27 29 26
-83.7447004211263 -300.104638400373 2512.32574076239 24 26 23
147.545278764164 -391.570684596426 2046.77573063387 13 18 12
134.431309307121 -392.971424778791 2045.83501824886 13 18 11
109.917961610278 -398.112497675637 2032.67772890028 14 19 12
138.204568463204 -380.07376896938 2102.53025015741 13 16 9
152.775084071555 -372.474309773912 2130.86588328548 13 16 9
172.890024238698 -363.136557122516 2164.7748520771 13 16 9
139.441901416785 -371.10826791817 2142.4871210549 13 16 9
110.610534319558 -377.529606249578 2125.30444204278 12 15 8
96.0110261147049 -379.348204468028 2123.06683219445 12 15 8
140.9463568093 -359.433878380066 2194.53088458786 13 16 9
116.760792323198 -364.306998955132 2182.42540774707 13 16 9
173.661008558112 -338.284130840616 2276.53108560253 4 6 3
-15.7249155084971 -319.429974029254 2437.71798624315 20 23 16
-28.6280683753803 -320.53237320327 2437.94108235664 17 20 13
-12.0733285377255 -308.573120695526 2484.91696707899 13 15 10
-27.2576939026346 -310.300048814793 2483.24624239375 13 15 10
-58.5272527563783 -316.393594673555 2468.43661409664 13 16 9
-42.4499531398728 -309.57526417824 2492.55728243357 12 15 8
-72.3191901618598 -315.235344126422 2479.12686642012 12 15 8
-73.0628069208739 -312.99511457967 2489.45356265585 11 14 7
-64.520003783429 -308.271310017559 2507.19522284985 14 17 10
-68.2784190300354 -306.868570875905 2514.97112631193 25 27 24
-71.2490125410601 -305.260267755812 2523.35123819592 16 18 15
149.434540719206 -402.88187800774 2036.65241412244 4 9 3
146.956437400462 -400.734668158008 2047.29798226329 14 19 12
131.176054791736 -403.055485356346 2043.473069423 13 18 11
91.9531906561546 -413.175359052256 2014.4840420447 14 19 12
130.552593717136 -394.395496243554 2082.48839650972 13 18 11
144.490893274709 -381.113605444843 2136.11802554165 13 16 9
129.999595808162 -382.979238148546 2133.77957466492 13 16 9
95.68737189527 -391.257079950142 2110.97824551109 12 15 8
150.019704220372 -367.999657616399 2192.45524786509 13 16 9
158.903910377169 -362.36239322211 2213.97394664489 13 16 9
145.115045479836 -364.006874880312 2212.32253097484 12 15 8
59.3551674564901 -388.536548165817 2138.15243660756 12 15 8
-8.77161470784404 -328.483962082156 2433.5686783993 22 24 19
-21.6555035102615 -329.613366760324 2433.77629857173 21 24 17
8.40475486606307 -318.643341415655 2470.32136755705 19 22 15
-39.9669984628441 -329.738305674581 2440.64239944451 21 24 17
-13.5236839244612 -319.84798067363 2473.85350409585 21 24 17
-7.42828127360218 -315.687681694006 2489.8580270781 20 22 17
-55.3576710910466 -326.529344689556 2461.11925696096 21 23 18
-40.8733937939822 -320.0463451378 2484.03722529987 20 23 16
-29.3460348449361 -314.419290848527 2504.34999049276 19 22 15
-59.1808610789202 -320.167044813029 2490.89870008145 17 20 13
-56.0436845610242 -316.861038970244 2504.29873654203 16 19 12
-60.5741372155326 -315.660015758516 2511.4541887716 14 17 10
-58.1349275311456 -312.572670597108 2524.1627252512 21 23 20
-47.122356449544 -307.186691466973 2543.60540389195 12 14 11
-43.0197969195789 -303.694187365196 2557.43648354904 10 12 11
109.1067693314 -425.654401724649 1993.62636894597 14 19 12
117.138634356869 -419.856745219342 2015.96808702713 13 18 11
101.27118408582 -422.204650532889 2012.23363727422 13 19 9
141.0760830221 -402.750358350865 2081.77539262516 15 20 13
111.13833739146 -409.832629156882 2062.95523074767 13 18 11
80.5959605219479 -414.054713548539 2057.06593971097 13 16 9
114.059836427668 -399.989927667209 2105.36077794 13 16 9
104.920600828918 -400.082916425435 2108.78194257727 13 16 9
94.4017804806245 -400.621525244932 2110.80476123787 12 15 8
111.211007143516 -392.205057997609 2141.04763355643 12 15 8
155.582041334209 -374.863134741547 2199.28213403202 12 15 8
158.980219043944 -370.954807898637 2215.16812614745 12 15 8
128.64064696731 -377.982395769673 2196.739239599 12 15 8
49.7529724643875 -400.588900801275 2129.63080882122 11 14 7
91.1317227802724 -384.417557334474 2183.92481816963 11 14 7
8.56600886738157 -332.010338782628 2449.46463802971 26 28 23
-9.5367588670312 -334.675552753459 2445.16263316553 25 28 21
-29.9632401796357 -337.977110699488 2439.01109580178 23 26 19
-30.0528909945492 -335.473577128148 2450.0663872855 23 26 19
-17.2270600333357 -329.329218673128 2471.84711188103 23 26 19
-17.9800199680953 -327.051443951182 2482.1771990259 16 18 13
-55.2699435979549 -335.04350252159 2462.29053107274 17 19 14
-61.4064905570624 -334.255534362428 2468.26775156816 19 22 15
-54.5260784884145 -329.839753568364 2484.8718978111 19 22 15
-48.3463064364353 -325.645215415373 2500.78758019596 20 23 16
-66.7294598904524 -328.270895524423 2496.7581594087 20 23 16
-42.7414096157719 -319.193200584789 2526.85950902468 21 24 17
-67.3280913607366 -323.515096470418 2517.90503326061 19 21 18
-85.8043275202447 -326.127656257995 2513.96610579814 18 20 17
-44.4869028980408 -312.41672460909 2557.34837219137 9 11 10
89.3135839929311 -441.650684370395 1973.13521806376 15 18 11
107.915130359249 -432.123719650747 2007.1021344929 11 14 7
76.0317329008533 -439.99466478976 1986.07953356923 15 18 11
125.516221704497 -419.976765336851 2053.01123445532 16 19 12
178.008227914445 -399.086419532068 2122.49545402075 15 18 11
110.543223920049 -419.042289454894 2063.49046167446 13 15 10
80.4678713520231 -426.201474389098 2044.81831339455 13 15 10
81.597204093133 -419.789669766068 2072.50666793094 13 16 9
118.595516373305 -404.447366195793 2124.18782646565 13 16 9
116.979781991313 -402.059616184908 2135.3584070911 13 16 7
133.029693937778 -390.957999926988 2177.29437652244 13 16 7
116.421185866785 -393.557863101992 2172.9158002219 15 18 11
108.719198147904 -393.215036812292 2177.67949967172 6 9 2
100.317598906599 -393.096223380991 2181.75378554838 15 17 12
5.21463290697088 -421.133472671685 2098.95876136119 9 11 6
-5.69092830053775 -342.046297650227 2449.51794386856 23 26 19
-23.0908715854654 -344.529830638796 2445.90841872627 20 23 16
-36.0868017323099 -343.177911330449 2457.19684707615 19 22 15
-33.0894504827741 -339.790591958257 2470.72371399107 20 22 17
-42.2324172105379 -339.874353477653 2474.14721991274 20 22 17
-65.1368208408103 -343.849955729851 2466.30485369979 22 25 18
-84.2979312376175 -346.733746310256 2461.66919495427 23 26 19
-80.4970081477294 -343.133544473914 2475.78388637723 23 26 19
-58.1761732524328 -334.365463414405 2504.75240982975 23 26 19
-57.3117572024526 -331.645067756617 2516.24515600898 17 20 13
-27.0217082476778 -320.755608444122 2551.15670001763 17 19 14
-77.9612867889985 -332.447238679811 2521.28198863579 20 22 19
-80.1553624284725 -330.590668371069 2530.27122232995 9 11 10
82.8234160656276 -456.320772523016 1953.40806997379 19 21 16
78.1314835145173 -454.793360886212 1962.09254337883 11 14 7
75.4435045028994 -452.571928121157 1972.93555107077 13 16 7
122.044731450386 -424.104164831587 2076.90658525455 14 16 11
81.9612247435799 -425.698596528947 2087.18863354201 12 15 8
123.874962758105 -408.595090997937 2143.64743768653 12 15 6
154.441962010223 -395.421930827791 2187.86581471643 12 15 6
137.220852870066 -398.300897631483 2182.7199024102 9 12 3
65.6134839482108 -419.238918218867 2122.3055259987 13 16 9
44.6653085997695 -423.224109375772 2113.93926057917 14 17 10
77.5752444262721 -409.398116047743 2159.98530645326 9 11 6
-4.7642022007568 -352.817056673123 2440.27056372372 24 26 21
-6.35695706217421 -350.711964302038 2450.04319270353 20 23 16
-16.9729119415849 -351.253011008277 2452.16282770803 16 19 12
-34.4144354449387 -353.771047138679 2448.5996918866 17 20 13
-35.2417961627531 -351.445946576008 2458.9966653703 17 20 13
-51.9963364378815 -353.734236995109 2456.13429804969 16 18 13
-61.9494438439352 -354.041699215487 2458.97810134718 18 20 15
-68.1029177462405 -353.251036942326 2464.97173235855 17 20 13
-78.0836729081122 -353.554024291638 2467.84266674428 18 21 14
-42.7976250004161 -340.96043025433 2507.46028047817 20 23 14
-48.8536579321472 -340.181137946973 2513.3588316413 18 21 12
-18.6510348826059 -329.15378577981 2548.33681036254 19 22 15
-63.2836949189679 -339.275041583255 2523.30308524236 14 16 11
-75.5459692065572 -340.234404911148 2524.28554813481 23 25 20
-108.825338543397 -347.056189458182 2508.74516824053 15 17 14
92.7786863766662 -458.87802647026 1979.32573608451 15 18 11
115.374166675762 -447.741468102802 2017.59051358731 14 17 8
171.456200898443 -418.89518584452 2117.75933401133 14 17 10
162.442183309802 -419.038561985786 2121.06326470472 13 15 10
151.390493934117 -419.878738862701 2122.24289249623 13 15 10
99.7147811971577 -428.649719246654 2106.83760918332 12 15 8
108.271269148514 -422.735589787965 2128.64081645008 11 14 5
161.355168099133 -401.758682774024 2196.10757474762 11 14 5
113.984822796871 -414.875909917135 2160.06477027734 13 16 7
53.3156956525889 -432.359854751742 2110.95028548946 15 18 11
36.4707257700765 -435.010502097476 2106.81436298356 8 11 4
47.9192713349801 -428.18588470601 2131.27945752363 13 15 10
23.07198941033 -353.010890909958 2465.08716143445 23 25 20
-16.7981447626779 -362.2838606521 2442.28368585008 20 23 16
-37.2416274077407 -365.736358383575 2436.17133989515 16 19 12
-44.9091677889597 -365.392407073775 2440.90032850997 17 20 13
-51.8259402370225 -364.82452335073 2446.2679435156 17 20 13
-60.2655549300128 -364.700357263852 2450.37918817761 15 17 12
-68.7161438953581 -364.57427697613 2454.50104753624 17 19 14
-48.1596103546553 -356.020260653032 2482.41936835415 16 19 12
-61.1518012867864 -357.229094419499 2482.74627372695 17 20 13
-66.5028742109586 -356.22056663263 2489.3281554373 19 22 13
-45.6875190818717 -347.698723579145 2516.99387994507 18 21 12
-37.8491217075374 -342.946556671963 2534.01426205693 22 25 18
-38.447099669773 -340.628554984578 2544.18450428411 18 20 15
-80.8838629779185 -350.206521212279 2521.14065124262 22 24 19
-121.170756771837 -359.100677709883 2500.11228285025 13 15 12
125.864113982535 -462.579848729289 1989.52886520212 23 25 20
111.369971387149 -464.612535257672 1987.21793006272 22 24 19
171.000838893076 -440.064504206775 2066.07681372808 16 19 12
149.988486983536 -444.481865702301 2056.42090401002 15 18 9
126.225397092558 -449.835150732233 2043.96687174768 15 18 11
133.628129697793 -431.881014406953 2117.56596623152 14 16 11
123.180065782582 -432.494588284772 2119.52960251097 13 16 9
130.846253226616 -423.848116738991 2153.14934044309 12 15 6
121.776607067283 -423.992306422439 2156.50896921269 12 15 6
91.4361197023026 -431.398817485542 2138.13665839941 10 13 6
62.3342102368616 -438.319376757295 2121.29675443724 13 15 10
68.2702650051645 -433.296519156981 2140.16618291245 8 10 5
-9.0921065398355 -371.09880660644 2438.76813977645 24 26 21
-58.8192637639855 -383.419573025223 2407.78246215689 21 24 17
-37.1541839722149 -374.27058877547 2437.34586279588 18 21 14
-38.018913031769 -371.902830899724 2447.77363886309 19 22 15
-42.6445189453939 -370.664219637068 2455.01802418808 19 22 15
-51.0603799619647 -370.550890932455 2459.10728285862 15 17 12
-41.9690643841957 -365.267893193019 2477.63886074319 17 19 14
-49.598658051941 -364.932234314575 2482.3313933283 16 19 12
-71.0151914374308 -368.630631297862 2475.80473562726 16 19 12
-78.6938192588149 -368.287771968678 2480.54523347032 19 22 13
-64.0657770103483 -361.45667037652 2503.2689917577 17 20 11
-39.3038917200532 -351.734158486495 2533.92351741785 20 23 16
-32.9455668530065 -347.387758933028 2549.63944916918 20 22 17
-62.9626163994539 -353.527196503486 2536.42666202482 20 22 17
80.6379883066892 -508.262670272613 1855.56234333585 212 213 218
97.8139474003385 -498.475583186057 1889.48919586886 226 227 231
86.5097406768847 -499.328447702943 1890.92145234725 219 220 224
75.177659650786 -500.177326470463 1892.3807993282 236 237 239
88.6863126300188 -491.866461931742 1921.66573234515 233 235 234
137.759675292853 -470.572485542922 1990.23365542851 24 26 23
135.813960805963 -468.07455555145 2001.71562662311 22 24 19
129.933489687281 -467.020694394385 2008.81650831424 13 16 9
136.638653476459 -461.407340925539 2029.66874376615 13 16 9
173.309338148493 -445.015397685698 2082.93735223391 17 20 11
89.7435858924829 -468.785564811281 2019.22906340924 14 17 10
142.780141796334 -440.560600611421 2115.42869708941 15 17 12
132.352368273729 -441.193509046763 2117.37504234822 14 16 11
117.834114804417 -443.250972855977 2115.09204957633 13 16 9
114.145005449056 -441.49769065453 2124.16423047045 12 15 8
102.290707809741 -442.596143081983 2124.76212382833 11 14 7
89.7212110223329 -443.927434595188 2124.68738686834 11 14 7
81.2301813015117 -443.831578434724 2128.85387160779 19 22 15
75.4775053015631 -442.786473226149 2135.82880714023 12 14 9
84.208594584815 -436.773511467684 2157.44436317459 14 16 11
-42.7532997658413 -389.875277375009 2411.20404519003 23 25 20
-42.1893942278331 -387.022516494339 2422.97530138588 21 24 17
-72.4971745781264 -393.537726946629 2408.69018181963 19 22 15
-22.0594914084931 -375.625724309039 2462.23339985366 21 24 17
-51.6494804256533 -381.907128556101 2448.6175179034 20 23 16
-59.3284922102622 -381.571061206123 2453.35940087917 17 19 14
-55.5904314538571 -377.822900057417 2467.51430936481 19 21 16
-41.1107134048554 -370.900876068613 2490.37225532637 17 20 13
-66.332679616985 -375.790249976266 2480.71525227354 17 20 13
-57.8824743410062 -370.694721365817 2498.49426070281 19 22 13
-50.1271699711077 -365.83476766353 2515.58088671318 18 21 12
-60.0422240829173 -366.184603286668 2518.39350313938 20 23 16
-52.9633948454946 -361.562236063444 2534.77008481656 19 21 16
-55.8959410310869 -359.881303344099 2543.1016805209 19 21 16
-113.993036850106 -374.20427801363 2507.97020377608 13 15 12
112.032075930761 -509.255089679649 1878.38083756743 225 226 231
118.864227851887 -503.283015081444 1900.47086241855 219 220 225
116.697567641603 -500.741516178599 1912.16579651659 226 227 231
112.605979993493 -498.935136440174 1921.62979651235 224 225 229
103.96216403022 -498.837385465574 1925.94772019646 226 227 229
167.487374057 -465.462634055878 2037.89413306978 18 20 15
157.078829497758 -466.118399305963 2039.82476191095 18 21 14
161.215010720837 -461.431862456821 2057.6970430063 21 24 17
145.488480741406 -464.025359073365 2053.85895560797 14 17 8
139.924368290338 -459.754549747259 2074.33999379221 12 15 8
102.862870757062 -466.84046335318 2061.17745194895 12 14 9
160.377029317754 -443.112685228941 2135.17426963941 14 16 11
145.269518153786 -445.454983451459 2132.10126971132 14 16 11
129.433309437835 -448.031115190951 2128.36952839846 12 15 8
124.41823096572 -446.75219107898 2135.99470750996 12 15 8
83.2806326617734 -458.206193879233 2106.27006668737 10 13 6
89.1155623533813 -453.075369647927 2125.22361859574 10 13 6
81.9942820627584 -452.507857136376 2130.79436777711 5 8 1
80.3692303285151 -450.023403026296 2141.95990784745 14 16 11
75.3239268882009 -448.737985495222 2149.61414107468 10 12 9
-26.1674373421443 -393.377025611805 2426.42562752108 20 22 17
-51.1238983760718 -398.370734748799 2416.52073244473 19 22 15
-52.0551614681368 -395.956760698886 2427.00774705942 18 21 14
-60.516226607545 -395.854274052153 2431.1434965436 21 24 17
-32.6182147372203 -384.681683917676 2465.55470349064 21 24 17
-43.2869482747118 -385.278466053862 2467.73498615503 21 23 18
-34.9382451705491 -380.119752619625 2485.60544905203 22 24 19
-33.3869255734243 -377.038660926269 2497.77968845583 20 23 16
-40.9820105970353 -376.717318142414 2502.44006935972 19 22 15
-38.6074396754648 -373.413251498624 2515.18076174588 20 23 14
-41.5749223969404 -371.717932295634 2523.5452614728 18 21 12
-53.7823466429792 -372.770380244787 2524.48667748753 20 23 16
-20.3965676268227 -360.332002223965 2561.76349922814 19 21 16
-87.5907509639981 -377.602213179993 2519.09690192395 19 21 16
124.354519531659 -513.899589745727 1893.7538902406 214 213 219
130.577017946477 -508.122959785609 1915.06128735025 212 211 217
129.094278590812 -505.320059186072 1927.45569003254 224 223 228
124.389523827886 -503.754588370968 1936.14727095353 234 233 238
128.177658068233 -498.984429680366 1954.35280857617 108 109 111
101.925551374631 -505.552974630493 1938.88204656588 10 12 11
195.009699020824 -467.317185479173 2056.18263600336 21 23 20
175.460181677974 -471.440976543631 2047.86487683183 18 20 15
176.959676086518 -467.695027780815 2062.82613246493 25 28 21
154.667003248342 -472.787541438834 2051.70756891495 16 19 12
150.211893047214 -471.249443953992 2060.15529486191 17 20 11
140.439321234406 -471.671303110842 2062.83673146375 15 18 11
139.331402045872 -468.909787150785 2074.86504881086 15 18 11
120.409601969746 -469.500653978818 2080.98880847575 15 17 12
148.322122540818 -456.254877830973 2123.58132367139 14 17 10
154.806519542841 -450.830815975236 2143.26351386452 13 16 9
101.042919533516 -467.079932960734 2099.8624289178 12 15 8
97.3056553499094 -465.299174394025 2108.97836727344 11 14 7
96.9921861856529 -462.305096770538 2121.60032080775 11 14 7
83.7247166882693 -463.925987722553 2120.84457441955 11 14 7
117.722563525293 -448.812650258072 2168.45419615419 10 12 7
53.6345610962186 -468.362368543094 2115.9548032056 12 14 11
51.2714162393313 -466.094347061734 2126.46835998803 12 14 13
-47.0771118882642 -408.472967450102 2409.7442534261 16 18 13
-41.261665157581 -403.931493926702 2425.97043934449 21 24 17
-41.4137569663771 -401.267995034533 2437.06375501163 19 22 15
-27.9308064434001 -394.404383408317 2459.50289202344 19 22 15
-18.89211532104 -388.953088482312 2478.06185251949 18 21 14
-12.81344556803 -384.443560057961 2494.03137555724 16 18 13
-37.8964824855319 -389.48595857395 2484.25903063138 18 20 15
-40.9339113606664 -387.771914784043 2492.6902204371 14 17 10
-33.2387811227224 -382.807577847628 2509.82117245362 15 18 11
-42.3558836336175 -382.956635167984 2513.22864551647 18 21 12
-46.1023942070744 -381.48088968728 2520.9819371571 17 20 11
-62.1773600217734 -383.710748344328 2518.85301548013 14 17 10
-59.7442915818069 -380.38312709273 2531.53213760502 19 21 16
-68.8955087363539 -380.526144139813 2534.97259426356 21 23 18
121.204978789279 -524.445700509195 1891.35525689111 189 188 194
131.297199771547 -517.114210417345 1917.09228622814 204 203 209
131.762033849069 -513.540968125529 1931.68959148831 209 208 213
129.667253394035 -510.970613852528 1943.3088831157 216 215 220
123.684766775327 -509.898555341929 1950.50837814551 38 39 41
199.675997240467 -474.416191537599 2062.51720379387 21 23 20
190.67317889817 -474.619017884982 2065.81913802657 15 17 12
157.886639837215 -483.758450607162 2043.04703334051 18 21 14
152.092321374901 -482.707270140964 2050.06242253324 16 19 12
142.316753523856 -483.142874633532 2052.74886579996 17 20 11
144.082360640739 -476.090258070896 2081.12758806825 16 19 12
109.063155392072 -482.63352129037 2070.10788210076 15 17 12
123.464558548629 -474.178438788311 2098.48464780036 13 16 9
134.607539076622 -466.969654292299 2123.19639320889 12 15 8
119.419255784768 -469.371588995233 2120.21241544359 11 14 7
79.0311504311245 -480.864027865887 2091.16644503593 10 13 6
64.3506555836697 -482.997511571599 2089.05579605841 10 13 6
85.1701818861921 -472.364395340725 2123.49055554829 10 13 6
102.717641081619 -462.975961912321 2154.2732673476 10 12 7
68.839156048488 -471.971427829967 2132.564202923 6 8 5
41.0096379405935 -478.744828186651 2117.27320198743 9 11 10
-37.9905122525517 -414.239264442865 2418.57764502109 19 21 16
-46.4362989781599 -414.155451029675 2422.70098271027 18 21 14
-11.1752123934918 -400.353669658573 2463.58172316434 12 15 8
-16.5073259603212 -399.335531843761 2470.14335759465 14 17 10
-2.13614188854461 -392.182069992905 2493.07453514309 16 19 12
-11.2067450975792 -392.349372742664 2496.4385303783 17 19 14
-36.2848956807973 -397.45955275209 2486.67135132538 18 20 15
-35.5008393094023 -394.558842446731 2498.21724542721 15 18 11
-27.0267200347183 -389.312478907509 2515.95021356566 15 18 11
-46.8713470973618 -392.760379640934 2510.6594250481 17 20 11
-52.9373010657315 -391.978244470954 2516.56740777341 16 19 10
-49.6026888770493 -385.733500071083 2540.67333148666 18 20 15
-74.2315026335403 -390.564823433558 2531.83598659146 20 22 17
105.807837434157 -539.823116969108 1874.90943278627 135 134 140
126.197928273172 -528.372840742223 1912.48367078453 145 144 150
132.483938664792 -522.496186585832 1933.71321602982 188 187 192
132.99324495723 -518.898489659746 1948.26308318088 193 192 197
129.63026308215 -516.817369952987 1958.37986974364 2 3 5
162.275499025642 -500.892877507021 2008.63001289851 14 16 15
167.589325564725 -495.559345875024 2028.07106787537 10 12 9
164.415757571494 -493.500053926718 2038.00332762855 13 15 10
153.338679387425 -494.454807333909 2039.22476340125 10 13 6
138.26119358827 -496.910042028561 2036.13863980331 18 21 14
135.750271012094 -494.598505972819 2046.79251061046 17 20 11
133.262323841944 -492.289306128219 2057.42391179078 17 20 13
151.504802319214 -482.231378011864 2090.25166462388 19 22 15
87.8274555465421 -496.288940200794 2062.03914103631 12 15 8
90.7576928768381 -491.985896062133 2078.33180366401 12 15 8
117.46243926543 -478.980592282941 2119.32470386869 11 14 7
118.530439819971 -475.44433489984 2133.32886009609 10 13 6
87.6045248196915 -483.584368819661 2114.22939261903 11 14 7
116.009059840331 -470.122803731512 2156.30109883981 11 14 7
124.73214366938 -463.872957452421 2177.88959297983 16 18 13
3.43879735836028 -412.332582604439 2443.75538911737 18 20 17
-29.6544072839269 -420.179139436174 2426.76469650781 20 22 17
-23.794384471266 -415.556807652158 2442.93466690223 19 22 15
-31.4387625218946 -415.247324644329 2447.64574938035 15 18 11
-41.3572545694021 -415.653248481227 2450.47006954101 14 17 10
-1.29149877014001 -400.303286136627 2494.85301355746 14 17 10
-18.7149723726101 -403.10425987347 2491.31377197229 14 16 11
-23.2505954287339 -401.848261523365 2498.46589534366 17 19 14
-24.7237874321868 -399.641188829738 2508.10472399092 17 20 13
-46.8390508368 -403.854026369594 2500.93104029988 18 21 14
-87.4520077668013 -413.754392826039 2478.95792765452 19 22 13
-50.5399065409828 -399.676791369703 2519.57566723501 16 19 10
-42.716468160982 -394.630194295427 2536.56738719927 15 18 11
-51.832748986512 -394.799214658893 2539.97665700346 18 20 15
-50.8869238659884 -391.892302934018 2551.36099577893 19 21 18
126.072359618677 -534.251005627863 1927.64725922085 148 147 152
133.717027328697 -527.817443112192 1950.27948332946 170 169 174
134.923059196007 -523.940662883692 1965.51315261268 15 16 18
155.15055053962 -512.690621317606 2001.86153959124 12 14 13
119.754145237448 -523.065607685983 1976.19570984007 13 15 12
149.349700331809 -508.278264031797 2022.55707898292 12 14 9
87.3954249198397 -528.781482648637 1968.0797904967 16 18 13
139.145173325064 -502.308215999522 2051.64603647535 15 18 9
