ply
format ascii 1.0
comment KinectMotionCapture
element vertex 757
property float x
property float y
property float z
property uchar red
property uchar green
property uchar blue
end_header
40.0802346757514 518.148106823567 2535.83158727721 181 182 184
30.1182017414927 517.145048612189 2534.78029393828 183 184 186
18.1158602672977 515.850094322934 2535.95415772687 179 180 182
2.72356786446926 514.069662356581 2540.84359232503 181 182 184
-5.10288152798033 513.365093786655 2537.63653661543 177 178 180
-12.2412858205021 512.758071356352 2533.69401142063 172 173 175
-17.341261864575 512.442404344545 2527.52496329634 177 178 180
-24.4791179527164 511.834997759827 2523.58253908375 177 178 180
-30.2659765274951 511.421063092812 2518.15038851532 176 177 179
-37.4012528438483 510.81335767595 2514.20983292071 173 173 173
-46.5413727431865 509.916524686565 2512.52015778081 170 168 169
-56.9988112273201 508.828400095575 2512.34434013751 153 151 152
-63.4408208222677 508.31817551901 2507.67180551477 148 146 147
-65.2443385083958 508.478560185146 2497.71936407664 178 176 177
-67.7401736301193 508.540480461004 2488.49958484231 198 196 197
-73.5551215538934 508.122462993049 2483.04705102514 202 200 201
-79.3752784125621 507.703754696108 2477.59073764073 193 191 192
-85.200619308101 507.284342651245 2472.13066267273 174 172 173
-89.7276923221404 507.054225029145 2465.14232087659 146 144 145
-94.9181905044261 506.727893996915 2458.9075973071 151 149 150
-101.412874481815 506.211281302491 2454.19684554332 187 185 186
-104.037845201117 506.260947840328 2444.88339109082 183 181 182
-106.690090843788 506.30819570184 2435.55015221321 145 143 144
-108.088366720756 506.541099959272 2424.65680990766 126 124 125
-111.437820836426 506.489128739038 2416.0526837938 138 136 137
-116.718783820649 506.15380658051 2409.75262929397 141 139 140
-132.152890967663 504.320483746533 2415.84652021822 143 141 142
-161.424582235226 500.437377808393 2439.07173573083 146 144 145
-187.389445860196 497.032706556712 2458.52079243872 144 142 143
-203.180115139157 495.12711397002 2465.5911689098 162 160 161
-212.653551885422 494.154955132115 2464.89452036315 180 180 180
-221.482289289728 493.276914778954 2463.43037375051 164 164 164
-227.190171049913 492.862422537803 2458.05517785918 171 171 171
-232.284614980003 492.539536967049 2451.89039799597 183 183 183
-239.236954607687 491.939213357146 2448.08249450135 182 182 182
-244.343232574284 491.614756723353 2441.90912793478 184 184 186
-248.846776868545 491.381033823004 2434.93782434829 187 187 189
-253.363935859708 491.145909261294 2427.95664407777 190 190 190
-259.109395179975 490.726520760428 2422.55418261067 190 190 188
-268.490800600713 489.758964719078 2421.92427285001 177 178 173
-286.894633070699 487.426760345584 2433.27362830646 153 154 148
273.041495194312 537.186196853504 2439.25459206168 152 153 155
258.905681958557 535.665552841617 2441.35078673524 127 128 130
227.683834143792 531.817241783938 2460.69210065589 132 133 135
163.881456164082 523.520774880707 2513.20836979219 175 176 178
116.744395223094 517.477584773479 2549.40948686283 197 198 200
106.626660436662 516.477147648512 2548.24533520474 182 183 185
99.3494115278182 515.863885377947 2544.20183250143 176 177 179
89.264614295455 514.865663905998 2543.06186367895 179 180 182
76.3989393331936 513.484588681951 2544.84447900728 184 185 187
67.0632930061208 512.585900501679 2543.01275871324 184 185 187
60.5285030116614 512.07128129238 2538.27294333918 182 183 185
53.2988348066339 511.460768328878 2534.26394682927 176 177 179
43.9976015221117 510.564195870916 2532.45718400074 177 178 180
33.3340493670393 509.47824824196 2532.13225566246 179 180 182
17.8853859211037 507.728841970348 2536.98098283971 177 178 180
1.80814560588471 505.888823476867 2542.60861889037 179 180 182
-8.06299665126731 504.905565495913 2541.62360891207 176 177 179
-13.1486470972566 504.585353482964 2535.46492269822 171 172 174
-16.2090498733252 504.547130505146 2527.07070018368 177 178 180
-21.9970311833197 504.130241758505 2521.63742628052 177 178 180
-27.1165834101061 503.806636499638 2515.45444123183 176 177 179
-34.9327524710994 503.106799035151 2512.25486191788 171 169 170
-44.7498369408017 502.126352062701 2511.30905382167 173 171 172
-55.212930261354 501.053940427283 2511.12951093301 159 157 158
-60.9944800603839 500.636283635153 2505.70118995612 144 142 143
-62.8035909634681 500.776668602394 2495.74429809621 155 153 154
-65.9661317332429 500.728378993555 2487.27598258083 172 170 171
-73.7609305180975 500.028644740799 2484.09189555891 196 194 195
-80.8915154290799 499.421897304713 2480.15504019355 205 203 204
-86.7101222611701 499.000003373045 2474.69953984359 202 200 201
-89.2748540492823 499.038578823925 2465.42999217635 183 181 182
-93.8156895842408 498.798504199499 2458.43162320091 183 181 182
-98.3704878045451 498.55708933849 2451.42312558832 179 177 178
-102.29411404635 498.405929365893 2443.63759854242 156 154 155
-105.593030916007 498.344609867775 2435.07006060585 141 139 140
-107.633233724153 498.463849611404 2424.94583266451 140 138 139
-112.259359479482 498.215566099963 2417.8855934085 141 139 140
-117.53566658376 497.874905226907 2411.58859253674 142 140 141
-132.333631112592 496.170804591298 2416.90925472759 152 150 151
-157.81741781192 492.929956652065 2435.47314201076 138 136 137
-183.798374803473 489.608952299371 2454.91095608311 162 160 161
-200.230107175827 487.652989071797 2462.75139372879 181 179 180
-208.462801846873 486.873813622975 2460.4847953547 174 172 173
-214.813447224825 486.365180480882 2455.8785006636 153 153 151
-220.543571066156 485.946033615931 2450.48715743639 152 152 150
-228.134603608435 485.257410244392 2447.45113566812 161 161 161
-236.333522721429 484.479746244236 2445.20902957266 171 171 171
-242.676916358654 483.970505697711 2440.60798874655 179 179 181
-247.796612380222 483.639051991696 2434.424565227 177 177 179
-253.535365423802 483.217648148356 2429.02724955191 186 186 186
-261.101510349378 482.529472676176 2426.00927161681 188 188 186
-271.080196414857 481.48766009101 2426.18074639832 181 182 177
-284.651394338842 479.91762817253 2431.1563603368 160 161 156
275.690095559349 528.827427599244 2437.42687581144 175 176 178
260.113930656185 527.143905757642 2440.94817707275 148 149 151
228.170423055511 523.293266225749 2461.00166372565 137 138 140
165.067144478259 515.308979060356 2512.79126956103 179 180 182
118.628429185192 509.514777929314 2548.26456236732 196 197 199
109.919792709589 508.714894351258 2545.65283873125 181 182 184
102.633459992044 508.103226199674 2541.60275905568 176 177 179
91.1333813479387 506.930461598678 2541.90601169726 180 181 183
76.8604201878849 505.386419487681 2545.13799750385 187 188 190
68.9209414035576 504.684598231651 2541.8490182916 186 187 189
61.6852653041073 504.076118160313 2537.83597130483 181 182 184
57.2290899397712 503.839048477784 2530.89898951443 175 176 178
47.9160810109573 502.952051908737 2529.08373877381 176 177 179
35.8612646502112 501.69625502777 2530.21946626024 178 179 181
19.7163129378821 499.889087171807 2535.79847774607 177 178 180
4.31766042316584 498.178716924734 2540.68336216279 179 180 182
-6.24398929508918 497.116229330575 2540.43242390537 178 179 181
-13.3763248840904 496.514448166244 2536.49432459131 173 174 176
-17.1122661195782 496.370745589838 2528.84459770805 178 179 181
-22.2197107435369 496.042475391292 2522.6703660902 178 179 181
-28.6850890744952 495.530686277478 2517.98088304733 177 178 180
-37.1671580912314 494.745333586169 2515.53347659919 173 171 172
-47.6459847205957 493.688017182638 2515.34260475953 173 171 172
-55.429017389149 492.995434537349 2512.16708347071 163 161 162
-61.2083991449481 492.574876574416 2506.74031945963 152 150 151
-63.6775932104325 492.605543344292 2497.53969459034 151 149 150
-68.1567624860375 492.363205501049 2490.58601733868 160 158 159
-73.3085949223318 492.029462042075 2484.37928584822 192 190 191
-80.4395534280631 491.42508902921 2480.44217168299 201 199 200
-84.9498556688675 491.179482270891 2473.46590892274 204 202 203
-88.1701156891892 491.111480831156 2464.95535716952 192 190 191
-92.7128777154933 490.862766517688 2457.95554787766 190 188 189
-96.6221045220004 490.70181006985 2450.18040966863 169 167 168
-100.549756210371 490.539092153933 2442.39190594735 142 140 141
-103.85271776888 490.463385680809 2433.82165753367 129 127 128
-107.819165708455 490.297051462931 2426.00471678763 138 136 137
-111.804151914191 490.128912142097 2418.17462259065 140 138 139
-118.989906541451 489.517729793207 2414.19745657986 134 132 133
-133.783453434866 487.849489797512 2419.52150285011 141 139 140
-157.369190808752 484.954697100489 2435.75767506908 145 143 144
-181.465506505418 481.981484685267 2452.85806310644 174 172 173
-197.906587374256 480.068481661988 2460.69194142941 186 184 185
-205.521219165086 479.384189716818 2457.63883400176 169 167 168
-211.257624362875 478.96189032812 2452.24292131706 143 143 141
-217.620017389422 478.451872352817 2447.62810349033 151 151 149
-226.457933817448 477.594133155269 2446.15740563686 173 173 173
-234.661984025184 476.824178638081 2443.91161895136 177 177 177
-242.853118269046 476.054926931074 2441.67519888359 178 178 180
-248.582768281549 475.631691550717 2436.2844729129 178 178 180
-254.927042264146 475.121647824663 2431.68278983738 185 185 185
-260.663958506348 474.69721142456 2426.28679033831 187 187 185
-269.432926149851 473.843235661134 2424.86609399272 184 185 180
-279.994215014271 472.733559094077 2425.85021493369 164 165 160
268.999571947173 519.255281714763 2444.87953737918 189 190 192
261.321956022149 518.615918095278 2440.54566787311 165 166 168
237.225017843815 515.868424459886 2452.70630697652 145 146 148
175.506349755387 508.280175299891 2503.03157925648 168 169 171
120.512727463958 501.540237902108 2547.11977004971 200 201 203
111.091618660307 500.656577582635 2545.22646677864 175 176 178
101.687197680925 499.774079573213 2543.34497227782 175 176 178
89.4873487010477 498.529519865541 2544.37561944199 183 184 186
76.6208252949001 497.196843078152 2546.15786486286 192 193 195
69.3816358609261 496.590577269398 2542.14198772358 190 191 193
63.5385044767363 496.164944491333 2536.66898454144 180 181 183
56.9957584962446 495.648590433811 2531.92339291597 174 175 177
49.0679351842607 494.952085057912 2528.64318440737 178 179 181
36.3198880425029 493.627785998589 2530.51106375853 181 182 184
20.1725953117755 491.858440496445 2536.08856976784 179 180 182
4.08631331384424 490.093758338524 2541.71003290312 181 182 184
-7.15726388691795 488.958217700155 2542.19941746171 178 179 181
-14.2853514775692 488.359100321482 2538.26411662788 171 172 174
-18.6952224624641 488.115535745783 2531.36066897241 175 176 178
-23.7958663600661 487.78193171612 2525.19134032933 178 179 181
-28.9061572110243 487.447341649872 2519.01471893239 180 181 183
-36.7145803186684 486.758343308813 2515.82110420465 185 185 185
-45.1849151239518 485.98158842784 2513.38224768642 185 183 184
-52.3074863460642 485.381543828789 2509.45094108932 174 172 173
-59.4265056678078 484.78154799802 2505.52220958762 160 158 159
-62.5627082523501 484.707461842313 2497.0728565202 148 146 147
-68.3657566836891 484.281466307204 2491.62861401155 152 150 151
-74.1741780555312 483.854777015203 2486.18076750667 177 175 176
-83.2706752751839 482.991832385061 2484.52259255242 191 189 190
-87.7696469996503 482.738570287447 2477.55450474946 185 183 184
-90.9784135654728 482.657455571558 2469.05251290238 203 201 202
-92.2600274852499 482.834052321576 2458.24316165364 194 192 193
-94.87346741394 482.834642831155 2448.93811201459 165 163 164
-99.4505891685415 482.574138616364 2441.91333490424 164 162 163
-104.684984487568 482.226178922407 2435.64667981008 145 143 144
-109.929011150391 481.877135685538 2429.37333173792 150 148 149
-112.626875742489 481.869950468337 2420.00674699605 153 151 152
-116.625219751703 481.68926278151 2412.16661140528 155 153 154
-130.793214579773 480.141082640982 2416.70970521528 136 134 135
-153.127643768474 477.48961212072 2431.38384218131 195 193 194
-177.241776697647 474.591697241576 2448.47169552344 199 197 198
-194.954492355943 472.551525227509 2457.85346224893 171 169 170
-205.080821451305 471.533220223055 2457.91832099477 155 153 154
-212.064109005411 470.93903740322 2454.08801379213 159 159 157
-217.801173989671 470.513468756817 2448.69190073172 158 158 156
-225.39978219904 469.834900520346 2445.65014365492 164 164 164
-233.60672745169 469.072776887285 2443.40229795456 171 171 171
-241.186298718544 468.395163775689 2440.37464047858 177 177 179
-247.532701832699 467.885141733633 2435.77141405998 177 177 179
-252.049200934939 467.624948355997 2428.79058517853 184 184 184
-260.226447420485 466.864050713932 2426.56427495813 185 185 183
-268.996259057847 466.020924759817 2425.1430217398 187 188 183
-281.369129593509 464.68169327215 2428.51813008991 171 172 167
265.180127282648 510.09410724819 2449.47485152834 200 201 203
268.977359198944 510.883572787354 2433.70481743393 168 169 171
241.997873603546 507.843640996188 2448.714796135 150 151 153
183.101741753277 500.819149138896 2496.14859971797 167 168 170
122.397172548786 493.553995402476 2545.97531935664 193 194 196
110.848368798 492.415220847087 2546.24342229483 174 175 177
99.3293330119154 491.278603917607 2546.53311559471 175 176 178
87.8400876127703 490.144176302394 2546.84441567114 186 187 189
76.3805861055626 489.011904362927 2547.17728864854 196 197 199
71.938254540497 488.758929195199 2540.25026195925 193 194 196
63.9988872023771 488.066955183531 2536.96170789199 178 179 181
57.4560223684162 487.550128482984 2532.21602771307 174 175 177
47.4516287096214 486.597094359142 2531.13427956277 179 180 182
37.4680283786057 485.645501173906 2530.06790671519 182 183 185
22.0040324603055 484.000688969654 2534.90604884559 179 180 182
10.0239965381839 482.7934578627 2536.09623226309 181 182 184
-1.92185912406218 481.588707377286 2537.31150072228 176 177 179
-11.1089345049207 480.73179258458 2535.58769426826 169 170 172
-16.8850862755714 480.306627165529 2530.16324840466 175 176 178
-24.0198521893089 479.708895506246 2526.22311333085 180 181 183
-28.453371348161 479.454423720539 2519.30246736223 184 185 187
-36.2623165976415 478.770476240413 2516.10849970634 182 182 182
-44.063142276012 478.086967074369 2512.92012584394 192 192 192
-51.1883943996632 477.489135275288 2508.98718148939 196 196 196
-59.641201850368 476.721163730729 2506.56107541388 176 176 176
-64.1012586926193 476.463406964221 2499.62117507314 149 149 149
-69.2365244598474 476.119594521496 2493.42640211326 151 151 151
-73.0636825317774 475.943853462715 2485.71068239439 169 169 169
-81.5065183620605 475.175718893621 2483.29180413357 185 185 185
-86.0096159346544 474.913579190723 2476.32068044844 191 191 191
-89.8744829624318 474.734111168055 2468.57760582492 183 183 183
-91.1572849046012 474.888327231944 2457.7672799908 172 172 172
-95.715748804813 474.621030121125 2450.75599394992 179 179 179
-100.933958286017 474.268865716013 2444.50134549435 177 177 177
-106.805011822134 473.832342528526 2439.0077513093 161 161 161
-111.398725130044 473.561443024882 2431.97089397369 168 168 168
-112.811260187502 473.704024485496 2421.06675738112 150 150 150
-116.807123017714 473.512271515098 2413.22865887915 146 146 146
-127.801873673704 472.40998743333 2413.89859156127 145 145 145
-150.14907033122 469.825953595495 2428.56352021975 164 164 164
-174.906858279016 466.921410035071 2446.42007183325 173 173 173
-193.884999295731 464.765614310813 2457.35399231241 163 163 163
-203.388995055404 463.845197364306 2456.63545296766 154 154 154
-211.624191360924 463.089746653177 2454.36716127583 155 155 153
-218.603849003742 462.498128161616 2450.53949846218 158 158 156
-226.817722415577 461.743852212384 2448.28667014144 170 170 170
-233.168070021665 461.233884021337 2443.68058454923 174 174 174
-240.13340877707 460.642633913793 2439.86330366859 174 174 176
-247.09478295802 460.051386748388 2436.0491912845 173 173 175
-251.611044237347 459.78287837484 2429.06849268886 182 182 182
-257.356833492495 459.352007269006 2423.66573388327 183 183 181
-265.53060825982 458.599247186532 2421.44198160384 188 189 184
-279.123514645763 457.126153423233 2426.40234962584 174 175 170
265.170872052408 501.713839628375 2438.30977588996 174 175 177
236.057176318574 498.492268871633 2455.47710444283 134 135 137
187.139324489523 492.872534070099 2492.85950633776 165 166 168
127.831590220281 485.985320506614 2541.23066251401 187 188 190
114.850838034523 484.692593523549 2542.93000893139 163 164 166
101.908453944167 483.40270135936 2544.65747803589 178 179 181
88.3014663047828 482.030420631996 2547.13778115923 195 196 198
75.4385246684297 480.746486242027 2548.92286997132 207 208 210
68.2054146663766 480.145268400966 2544.91142551093 203 204 206
64.4589758229372 479.96816538034 2537.25421398482 166 167 169
58.6104309159561 479.53550729093 2531.7772508399 172 173 175
50.6797085148492 478.848883274779 2528.49469629373 181 182 184
38.6162480484007 477.656994483402 2529.62477566756 180 181 183
26.5872228094932 476.46760118799 2530.77953603588 177 178 180
11.1642407632515 474.861076632616 2535.6476039319 178 179 181
-0.101662115808754 473.761380904848 2536.12098569137 178 179 181
-8.61276823918788 472.9981708483 2533.65264178175 167 168 170
-14.3955601221362 472.569345891755 2528.22336382277 163 164 166
-20.8604539771386 472.056669996761 2523.53422749513 174 175 177
-26.6516078791188 471.626798802151 2518.09858795367 190 191 193
-33.793096582996 471.030474554264 2514.15388099165 202 202 202
-42.9414292019639 470.186108008235 2512.45822355187 195 195 195
-50.069055812916 469.590448307478 2508.52327440589 208 208 208
-57.1932704563443 468.994836397258 2504.59109338707 211 211 211
-62.3231938924518 468.645825888352 2498.4001668678 161 161 161
-68.1241853450485 468.213793993058 2492.9576794086 141 141 141
-73.2712246559322 467.862963764753 2486.75433600919 147 147 147
-79.0849034201473 467.429485849019 2481.30264392266 166 166 166
-85.5584608697213 466.91388264913 2476.60721234305 200 200 200
-90.0753242642807 466.641845420298 2469.62605938688 170 170 170
-93.3056309298741 466.530701597189 2461.10800608142 165 165 165
-98.5031188853511 466.174644755987 2454.86835938611 188 188 188
-103.064214129309 465.898337200192 2447.85512018831 196 196 196
-108.926597948196 465.459494716244 2442.36809359563 195 195 195
-112.228314270243 465.341654821397 2433.79823998933 191 191 191
-115.552990336797 465.221726314306 2425.21202627203 148 148 148
-116.989347625723 465.339888939655 2414.29020227224 148 148 148
-124.809438626731 464.656128853982 2411.08815577239 152 152 152
-143.374279827021 462.617750382201 2421.08694974404 161 161 161
-167.52859246971 459.870072717773 2438.1467314125 174 174 174
-187.790668568385 457.608097265848 2450.61972986439 161 161 161
-199.193115798865 456.462055543831 2452.22892958711 156 156 156
-208.065900048755 455.634574801518 2450.7331085705 165 165 163
-217.54296621754 454.729333732005 2450.03416792969 172 172 170
-223.901982252787 454.218812661061 2445.42179560775 176 176 176
-230.261397863229 453.707975436947 2440.80913202384 168 168 168
-236.621202663006 453.196852772943 2436.19618486247 169 169 171
-245.431676052633 452.373030861518 2434.74555285093 176 176 178
-250.562461227237 452.017871608987 2428.55397049443 181 181 181
-255.702559606786 451.661669522293 2422.35592599177 181 181 179
-262.669504315881 451.071797845924 2418.53748790305 188 189 184
-273.254628410643 450.017648973653 2419.5046114356 176 177 172
254.912070468646 491.82337584979 2449.3495818854 187 188 190
176.220068492618 483.148726779688 2504.65671008851 158 159 161
134.687996409655 478.543881871805 2535.04711223605 180 181 183
117.438600976135 476.776003536464 2541.06043005974 167 168 170
103.782590900922 475.42694981695 2543.50531342254 186 187 189
89.4658782827973 473.998507453368 2546.70616839897 202 203 205
75.898026652371 472.656087728623 2549.21499330228 207 208 210
68.6646459487146 472.057133158645 2545.20336406843 201 202 204
63.5249907356519 471.704491858475 2539.0056588627 178 179 181
57.6810473193388 471.268999888637 2533.53172260539 181 182 184
49.7541926493303 470.587718040692 2530.25229339619 185 186 188
39.7645674461784 469.662242284913 2529.18139080312 183 184 186
29.1079102139289 468.656835254189 2528.86186869555 181 182 184
15.0476283607861 467.247284712189 2532.24871149683 182 183 185
3.76946939500789 466.165385534591 2532.71329870052 178 179 181
-5.4346152596878 465.328257047543 2530.97726208243 163 164 166
-9.86782859003754 465.056947345516 2524.05675252805 164 165 167
-16.3461335900761 464.54279666341 2519.35788670508 164 165 167
-23.5001205459631 463.948063351263 2515.40383307484 177 178 180
-31.9957024458515 463.193130828233 2512.94678493347 210 210 210
-41.8196816387038 462.278963699563 2511.99631442578 214 214 214
-50.95417070514 461.446143931428 2510.31075095938 201 201 201
-58.7401723527106 460.773599213409 2507.13347336738 204 204 204
-64.5269048701316 460.339874261286 2501.7010194619 203 203 203
-68.3346243902001 460.143274139385 2493.99928550885 196 196 196
-73.4792956641928 459.786810726496 2487.79763021673 173 173 173
-76.0056144299866 459.744976206938 2478.55552167679 162 162 162
-83.1429768852985 459.149588246931 2474.61351618588 149 149 149
-88.3187860760597 458.789945133556 2468.38927224756 194 194 194
-92.8537981860007 458.507685187453 2461.39491112022 201 201 201
-97.4028451995768 458.224079154281 2454.39036897352 168 168 168
-101.966028464704 457.939084374243 2447.37586659913 171 171 171
-107.830489676717 457.497061113194 2441.88702347156 187 187 187
-111.775520455957 457.287380638015 2434.0856834018 164 164 164
-116.378187354019 456.998519703031 2427.04224443942 176 176 176
-120.357700856126 456.785582728169 2419.21589061314 163 163 163
-126.260260902516 456.339542429933 2413.6997029574 171 171 171
-140.392739041929 454.892223971773 2418.26875998025 161 161 161
-165.190848044423 452.143422120382 2436.09687086316 173 173 173
-183.578334882391 450.170726689535 2446.22485997156 160 160 160
-196.24765018428 448.892450510915 2449.38537793485 155 155 155
-204.506330060543 448.151228198762 2447.10013457107 164 164 162
-214.617010329679 447.182523670244 2447.1765887212 166 166 164
-222.223809303097 446.519303233011 2444.12897172437 168 168 168
-229.205134198635 445.932220051347 2440.3004177329 168 168 168
-234.95230010173 445.496308556923 2434.89663543528 173 173 175
-243.155328537788 444.758265332181 2432.65175109087 176 176 178
-248.903296756252 444.321761505304 2427.24767865445 175 175 175
-253.439313795476 444.034625707553 2420.25256433527 180 180 178
-258.594970814033 443.671327817226 2414.04291062449 182 183 178
-266.779200010405 442.933747087834 2411.81165659276 181 182 177
-279.763721105427 441.601158843977 2415.97873115468 168 169 163
174.557169884706 474.558912751631 2507.11313466274 157 158 160
138.705943879909 470.731025740803 2531.74446234787 173 174 176
120.735008242399 468.922502961272 2538.46984551336 170 171 173
107.068455560535 467.599584441558 2540.90721869554 191 192 194
90.6303181479315 465.960427984989 2546.27454462121 206 207 209
77.7600961361973 464.72436061512 2548.05430371269 204 205 207
71.2212353531814 464.206842642496 2543.31152265432 194 195 197
67.4692000730119 464.006404366863 2535.65013595413 182 183 185
60.9193329454905 463.487651230651 2530.89936990539 183 184 186
52.2906907633764 462.731707454614 2528.3458584036 182 183 185
41.6030671148109 461.740071988461 2528.00395783567 180 181 183
30.2528023617308 460.671643626206 2528.41634224766 180 181 183
16.8745867591609 459.370022463917 2531.06284500736 182 183 185
4.90704966731093 458.228192798431 2532.26242036486 165 166 168
-4.30011751096804 457.401384670307 2530.52449591132 157 158 160
-8.73521297090285 457.121289513499 2523.60257746098 155 156 158
-13.8615728759994 456.762097586734 2517.41418265049 146 147 149
-21.6974753991044 456.091574338528 2514.20074108803 144 145 147
-32.2160386207244 455.111846915493 2513.98116187109 182 182 182
-42.038735135864 454.211166312626 2513.03168951576 208 208 208
-50.5035737342039 453.466087765104 2510.59697776211 214 214 214
-56.9578479350565 452.952464930119 2505.91553505196 216 216 216
-61.4214169427587 452.668674054693 2498.97295679964 191 191 191
-65.2375382007169 452.460071845345 2491.26507145455 200 200 200
-70.3909157341294 452.097093042321 2485.05707180744 167 167 167
-74.2396333040927 451.885446897424 2477.32554128201 156 156 156
-81.3817049273051 451.292126938721 2473.38013248962 148 148 148
-89.1730478161805 450.623017932622 2470.19900032038 152 152 152
-94.3538694051989 450.256964505662 2463.97109031809 159 159 159
-98.2476892278006 450.040828161894 2456.20684146345 178 178 178
-100.86754966475 449.973586772508 2446.89649940198 202 202 202
-106.734425841701 449.528331296169 2441.40618372 169 169 169
-110.68122961363 449.307245479645 2433.6035005997 144 144 144
-115.925266216492 448.934980606942 2427.32973322261 148 148 148
-119.904362915102 448.710830624602 2419.50362474999 154 154 154
-123.266592077949 448.559441355406 2410.88973415979 164 164 164
-134.878735676953 447.44091645368 2412.34735436497 147 147 147
-157.807315447198 444.991962630673 2427.82684131083 160 160 160
-181.877909830088 442.404239862719 2444.94782785852 154 154 154
-196.431993566232 440.931643308151 2450.44645705447 159 159 159
-206.561069177574 439.978072268341 2450.50965268256 167 167 165
-214.798682037636 439.246338251375 2448.2397293085 167 167 165
-221.784255413417 438.66175330423 2444.40781368007 168 168 168
-228.148505180401 438.150225740448 2439.79164221621 168 168 168
-233.282988651142 437.784023356328 2433.5976174273 171 171 173
-239.039398892624 437.344211481147 2428.18711395529 173 173 175
-245.411352808071 436.831312997731 2423.56535064582 174 174 174
-251.17519823643 436.390386389488 2418.14974607885 177 177 175
-256.337399675933 436.020942409451 2411.93531704651 179 180 175
-264.528940202636 435.290924411538 2409.69880118211 180 181 176
-278.123769613828 433.916087861323 2414.65827285421 171 172 166
172.180376209259 465.906943114746 2510.28676326603 144 145 147
134.910738305467 462.035945097552 2536.36000326485 163 164 166
118.366864643702 460.426627740388 2541.65053539088 179 180 182
106.119356059206 459.285830978721 2542.64745314735 193 194 196
92.4985112506396 457.993305855931 2545.11811489089 200 201 203
83.8317031981069 457.242738904556 2542.53696336981 200 201 203
75.8764523966686 456.56978069401 2539.23669688278 186 187 189
71.4144166839277 456.280239625155 2532.29549549986 172 173 175
64.1585318242792 455.683748586308 2528.26756500134 173 174 176
53.4422543951831 454.706042162108 2527.90496324975 174 175 177
41.3704313392453 453.578033677613 2529.02900949332 176 177 179
28.6444636068874 452.376649304415 2530.91381174369 181 182 184
16.6434882032465 451.253917255304 2532.08924368856 184 185 187
5.36067379258398 450.209279538323 2532.55064479754 160 161 163
-5.21052741667694 449.242205709331 2532.29326574998 162 163 165
-9.64088169528421 448.953801915975 2525.37474219828 155 156 158
-14.7627946758169 448.58908089632 2519.18983752939 159 160 162
-21.2445598320097 448.073664130025 2514.48845695241 164 165 167
-31.7642052677376 447.109949993774 2514.26817432583 160 162 161
-40.9171583247747 446.297077888561 2512.56962143446 155 157 156
-48.71631226787 445.633987176976 2509.38256287214 176 178 177
-53.1764814267113 445.342092657143 2502.44240819626 180 182 181
-57.650794641884 445.048858143608 2495.49199340477 214 216 215
-62.8011346751809 444.680475043855 2489.28646280951 222 224 223
-68.6206950888872 444.237514268778 2483.83045895719 207 209 208
-75.1027811790628 443.720473356196 2479.1288375017 199 201 200
-82.2407721105798 443.129873731637 2475.18640066884 200 202 201
-89.375093253697 442.539377233466 2471.24662466626 210 212 211
-94.5537340589342 442.167670874755 2465.02056140449 220 222 221
-96.4991581632573 442.158706020316 2454.96409670965 189 191 190
-101.06177293273 441.856715371483 2447.94992036246 178 180 179
-105.638233702206 441.55336864455 2440.92540540857 211 213 212
-112.154215971408 441.032088168066 2436.19919041529 218 220 219
-116.112138779842 440.798635350641 2428.38808974982 186 188 187
-121.363492611966 440.419753933807 2422.10927892 137 139 138
-122.812824767938 440.469982249117 2411.17770506151 136 138 137
-133.793424412619 439.444595137169 2411.85858008907 145 147 146
-154.20511421698 437.351677003693 2424.22368220441 150 152 151
-180.177143739093 434.626036426578 2443.67127810179 170 172 171
-196.616757504855 432.975581540822 2451.50725534015 176 178 177
-206.744723400877 432.038395525922 2451.57133841794 174 174 172
-214.35888310745 431.385462519957 2448.51873205345 172 172 170
-221.964604967996 430.732989034314 2445.47224479118 168 168 168
-227.709236317924 430.291711756195 2440.07027266648 167 167 167
-232.228234732476 429.989958250321 2433.08742146996 166 166 168
-236.760881235929 429.686860121778 2426.09466967174 165 165 167
-243.750617919059 429.103531469786 2422.26003681337 172 172 172
-250.736080654993 428.520329593452 2418.42820839565 176 176 174
-257.717389671479 427.937225239455 2414.59939159178 180 181 176
-265.298788216092 427.285019514931 2411.57053817657 183 184 179
-278.89121008339 425.943266972886 2416.53192270565 177 178 172
196.533702392806 459.915195455448 2498.26771931913 148 149 151
164.099911040268 456.675352347456 2519.20391925064 136 137 139
137.508184797756 454.047267067484 2534.49707906559 164 165 167
119.538710832996 452.325685399176 2541.22396220271 182 183 185
106.581561645524 451.131471693791 2542.94121240346 193 194 196
92.9591782689849 449.865796262395 2545.41089480522 195 196 198
87.8003883025977 449.494029793765 2539.19892705868 193 194 196
77.7349598284927 448.60298953655 2538.07354195639 180 181 183
73.2690884138787 448.304479457441 2531.1292200845 174 175 177
63.9232490851693 447.488801039029 2529.29053112685 174 175 177
53.2080858402431 446.527181282691 2528.92881855329 176 177 179
40.446363875061 445.347410318075 2530.78781127343 179 180 182
24.9694979349093 443.877844561203 2535.61751130813 188 189 191
15.0392248490112 442.996592970909 2534.58985833562 191 192 194
4.44582053448261 442.04398569646 2534.31645705916 169 170 172
-5.44006251634421 441.165897051398 2533.32099939135 163 164 166
-11.9067797197836 440.651654529235 2528.63053334424 149 150 152
-17.6970266707734 440.209455388541 2523.19578330445 138 139 141
-22.1422193172867 439.91087301367 2516.26645154667 143 144 146
-31.3126012288967 439.107392249038 2514.55501719865 178 180 179
-39.7954145189832 438.376839021588 2512.10734878096 188 190 189
-44.9230988127078 438.00500396176 2505.91822432995 216 218 217
-49.394009703235 437.703621196524 2498.9702346837 189 191 190
-53.8790903733799 437.40092622562 2492.01196641523 213 215 214
-61.6880475792376 436.741592228754 2488.81811476404 226 228 227
-68.8291579108489 436.153607601128 2484.87342985696 241 243 242
-78.596671759843 435.282867788436 2483.96381777296 242 244 243
-85.0664261333698 434.766273252139 2479.27113810302 239 241 240
-90.8839042066742 434.319777053315 2473.81662587608 231 233 232
-94.7539307830689 434.083179233096 2466.06952161197 217 219 218
-97.9936166754665 433.914907298381 2457.54437973969 216 218 217
-103.195674814369 433.535105453659 2451.30129974776 217 219 218
-107.118809004954 433.293607886266 2443.51567182257 225 227 226
-112.986175236619 432.842059122965 2438.02467453571 214 216 215
-115.01993808042 432.805620370704 2427.90432651969 202 204 203
-118.998154677034 432.559078011928 2420.07874262998 200 202 201
-119.817750613371 432.655503327096 2408.36887536406 159 161 160
-127.009357707796 432.06088878638 2404.38755069414 130 132 131
-147.446906695804 430.0261825745 2416.73449626727 129 131 130
-174.074694715335 427.31496790877 2436.94182853458 157 159 158
-195.549024511223 425.160697070697 2451.00665721408 161 163 162
-205.056053993711 424.307574741884 2450.28625951942 163 163 161
-213.297159645242 423.591718471866 2448.0138845702 163 163 161
-220.285628805815 423.012036901964 2444.17989456215 163 163 163
-226.034861958363 422.567499609853 2438.77486445694 163 163 163
-229.942488972494 422.324365299234 2431.00017524744 166 166 168
-235.09482841631 421.945170889873 2424.79314047541 168 168 170
-242.089182822565 421.364131328163 2420.95487724867 172 172 172
-250.297019752051 420.649551280043 2418.70662597037 177 177 175
-257.885319339199 420.002417348693 2415.67279553179 181 182 177
-267.277872458739 419.156437618139 2415.03512589733 184 185 180
-279.659145425448 417.980686508047 2418.4049712062 179 180 174
-299.195126967813 416.015253453473 2431.40583314328 151 152 144
171.265826682518 448.907673966739 2524.35929960556 186 187 189
156.015521203177 447.508718333956 2528.11826470132 160 161 163
136.552617659771 445.680564456117 2536.23235679169 150 152 151
119.293609235606 444.074559898189 2542.2395258759 199 201 200
103.512106965467 442.617266750885 2546.84845069692 211 212 214
91.3071130643583 441.522571236757 2547.8764217666 203 204 206
88.2608904857802 441.359905155165 2539.49155397397 187 188 190
78.1945855680588 440.482042087261 2538.36560026406 178 179 181
70.241847334886 439.819145152272 2535.06720615373 182 183 185
59.5157279166525 438.872813461673 2534.69762865339 181 182 184
49.5080449885945 437.99917667032 2533.61419268177 184 185 187
38.1397564052373 436.985805825978 2534.01379011173 193 194 196
26.1127997361217 435.904223526811 2535.17059611438 217 218 220
15.4929306119858 434.965752497281 2534.87808153552 224 225 227
6.26700162567717 434.169302356452 2533.12641553911 242 243 245
-6.3523223759252 433.024456918601 2535.08881248665 247 248 250
-14.1743539410908 432.370650508446 2531.88551095169 254 255 255
-21.9883182069809 431.717352857541 2528.6877656741 251 252 254
-25.7424096561694 431.480767296586 2521.02470531997 247 248 250
-30.8612721739434 431.104125173665 2514.84165713688 241 243 242
-37.3318521684181 430.588464461768 2510.1483836867 221 223 220
-41.1284305342199 430.347973972172 2502.45450388077 132 134 131
-48.2762957009968 429.762409804795 2498.50522898665 131 133 132
-53.4274740504106 429.38246268524 2492.29873762708 151 153 152
-61.8989326566006 428.659938827825 2489.85934113242 168 170 167
-71.0178132418502 427.87003989588 2488.18530998962 198 200 197
-81.4351590506666 426.945376657534 2488.03967882328 197 199 198
-87.8939894814696 426.429323555488 2483.35492089503 180 182 179
-92.3938522615553 426.115872058393 2476.38588227567 152 154 151
-95.6056302707382 425.936000408331 2467.88091266866 143 145 144
-99.4892122895792 425.686803761674 2460.1239179595 163 165 162
-104.037768632863 425.368869848578 2453.11955763268 160 162 159
-106.66728953576 425.250312944437 2443.80224704711 149 151 148
-111.250441055652 424.92918810142 2436.77279177578 120 122 119
-114.567533557662 424.739843837849 2428.19142946475 105 107 104
-117.907599491083 424.54843972515 2419.5936972665 97 99 98
-119.363657777158 424.553643878499 2408.6570194365 119 121 120
-125.28907388554 424.093534374136 2403.12419167034 145 147 146
-143.210111737361 422.381824704464 2412.35631044143 119 121 120
-168.598454572375 419.888267112558 2430.99287771463 146 148 147
-190.721126801832 417.732529099178 2445.82303280241 141 143 142
-199.620055671595 416.956983567877 2444.30852205498 156 156 156
-207.879517925434 416.247720559359 2442.02287340917 158 158 158
-213.646109447896 415.799088574015 2436.60523911073 158 158 158
-221.270774995387 415.155525247745 2433.54476982021 156 156 156
-228.271587453576 414.577004868804 2429.70213225098 159 159 161
-234.041384954905 414.127445623074 2424.28187469626 162 162 164
-241.038441376957 413.548781446334 2420.44195922942 168 168 168
-247.422338481608 413.034317993247 2415.81153012033 171 171 171
-256.839977778145 412.200181503666 2415.15573496914 173 173 171
-265.02680893996 411.494995173196 2412.92275880114 179 180 175
-273.200562230652 410.79064425683 2410.69926729256 177 178 173
-282.561371413151 409.960434944776 2410.0849838728 153 154 146
144.36149665722 438.05885140345 2540.61953771827 155 157 156
133.463647376321 437.115848347049 2540.12519195875 143 145 142
117.630456558049 435.689736189492 2544.69680458601 220 222 219
104.679226674182 434.544409439973 2546.41859343833 228 230 229
95.2877781186667 433.746663426642 2544.54693220999 223 225 224
90.1248872834497 433.362611401288 2538.33222390437 177 181 180
80.0534878595651 432.497588390165 2537.20234763862 171 175 176
70.7007016720147 431.702511445246 2535.35872710527 178 179 181
57.8872913778739 430.567423590367 2537.18047618142 177 178 180
46.4990816659778 429.57140757377 2537.56572026579 201 202 204
37.2135175987922 428.78123409837 2535.77114979615 222 223 225
27.2560077875399 427.924541258776 2534.72387673508 242 243 245
18.6925769795132 427.204409420862 2532.21781974456 244 245 247
7.40399920237156 426.215688032509 2532.67532609341 251 252 254
-4.53675525129471 425.162044217328 2533.89476343562 252 253 255
-13.0435355604517 424.445934135363 2531.42979397171 252 253 255
-20.8603035516819 423.797497934105 2528.230335315 240 241 243
-23.9404249420556 423.616044456328 2519.82079838839 204 205 207
-26.3704911228586 423.499053182199 2510.64808471766 124 129 125
-32.8544590148678 422.98193450245 2505.94509870996 122 127 121
-40.0081758752398 422.398454908309 2501.99129788002 130 135 129
-51.1584195969284 421.419416653906 2502.54913458485 141 146 142
-55.6339796620309 421.100286739412 2495.59768475992 151 156 152
-62.7725972632536 420.517492659316 2491.65483317744 150 155 149
-69.9078277949772 419.934759288693 2487.71473173844 166 171 165
-80.9862419728262 418.960733486902 2488.32466460158 192 197 193
-88.1007546256967 418.379309674251 2484.39929415126 211 216 210
-91.9447338514836 418.122373241361 2476.6709691484 199 204 198
-97.1094545477364 417.734383822167 2470.45461991677 177 182 178
-100.985900986378 417.474473656014 2462.70274367588 131 134 127
-104.234081744571 417.277235204315 2454.17159145 123 126 119
-105.571341693791 417.270510766494 2443.320972649 177 180 173
-108.229408352247 417.132693607817 2433.98257660202 171 173 168
-110.914831335532 416.992491408675 2424.62463176768 146 148 143
-113.627354850719 416.849904174392 2415.24673462171 118 120 117
-117.638488336995 416.57799253068 2407.39716007578 109 111 108
-123.568163724615 416.114585235923 2401.86093348622 129 131 130
-140.234149565027 414.577746261778 2409.53367874067 139 141 140
-161.232935030968 412.605853645008 2422.70912680601 138 140 139
-185.891188921393 410.265424077222 2440.64069013044 133 134 136
-196.055667744993 409.374195356675 2440.67853699056 145 146 148
-204.326831307391 408.672079698624 2438.3844420192 149 150 152
-208.864127235183 408.344050206813 2431.38819347179 155 156 158
-215.268994394688 407.828589935246 2426.74255767333 154 155 157
-223.521435988442 407.127348719436 2424.46203908581 158 159 163
-231.760931286009 406.426917322738 2422.19090964657 161 162 164
-238.764805613229 405.850319189136 2418.34576772267 168 170 169
-246.373596831342 405.212537582675 2415.29683535783 166 168 167
-254.580757012703 404.514083444987 2413.04915634961 174 176 173
-263.379610333207 403.755467720369 2411.60757273338 178 180 175
-269.751145287713 403.241229069713 2406.98610634942 177 179 174
-274.92241094982 402.847974737939 2400.76498586455 155 158 151
137.69439376983 429.169607672303 2548.09263650327 248 248 246
130.372571059149 428.577841765022 2544.01693018307 236 237 232
120.927613906094 427.786559653142 2542.10651217138 211 212 207
111.499129950388 426.996477630376 2540.20804201069 153 155 150
103.495794510744 426.339962219377 2536.87329570628 119 121 116
93.3938037756388 425.485873457392 2535.72129853031 120 125 121
82.6126694856746 424.567481032427 2535.31198109326 119 123 122
73.2523032941397 423.782285420595 2533.46321018118 139 141 140
61.8220504096314 422.801817163507 2533.81805502494 167 169 168
49.7282759908613 421.758240699138 2534.92661592195 168 170 169
39.0510071409191 420.847545607373 2534.59263174748 131 133 132
31.1548324938871 420.198606155085 2531.3356069623 97 99 98
20.5197768497687 419.290991854407 2531.0319451694 98 100 99
8.54097156908962 418.255992733082 2532.22418757113 113 115 114
-4.76799289496022 417.094718924538 2534.92160284605 111 113 112
-12.5929019522704 416.450840431589 2531.71597116547 97 99 98
-21.0879023802337 415.743376667579 2529.25958498413 96 98 97
-26.1923703172071 415.356246044697 2523.08721309055 98 100 99
-29.9594281471214 415.095702886748 2515.41433730335 111 116 112
-35.0878577014833 414.706362258461 2509.22458392785 106 111 105
-42.2329906129275 414.125937940613 2505.27702126126 75 80 74
-54.0425299880285 413.103157649968 2506.59203002104 56 61 55
-57.1773885299389 412.902378706533 2498.14271507785 34 39 33
-62.3224446286241 412.511023602387 2491.9406040848 33 38 32
-69.4579292165425 411.930689274895 2488.00033062668 45 50 44
-80.5375334374152 410.975490919809 2488.60949616696 48 53 47
-87.6523482920064 410.396462249964 2484.68391877603 45 50 44
-94.7636332910433 409.817535728762 2480.76119524715 37 42 36
-100.568415135121 409.362648056828 2475.31554980624 41 46 40
-107.676802807421 408.783582852559 2471.39492590888 42 45 38
-104.43076633687 409.190459100449 2455.22308610554 37 40 31
-101.251884622891 409.591745704588 2439.00253607337 32 35 26
-104.565063166377 409.374888255804 2430.42416619171 24 27 20
-110.462017047699 408.911707565886 2424.91195574521 14 16 11
-114.449758648544 408.630613025627 2417.07899748603 16 18 13
-116.548479310772 408.530049371724 2406.91123535589 20 22 19
-125.648515965816 407.760720349372 2405.2509687709 7 9 6
-135.994276692776 406.871832760269 2405.15741236882 19 21 18
-156.380897352211 405.021798120485 2417.54221237212 145 147 146
-179.805251094664 402.87933890823 2433.89889127001 129 131 130
-193.73925744031 401.643740360012 2438.61319161187 137 139 138
-202.017701658183 400.949070430816 2436.31385645206 142 144 143
-207.801885968138 400.493177853126 2430.88313751316 151 152 154
-213.591061355433 400.036682197534 2425.4490918581 152 153 155
-222.464405360601 399.28398523733 2423.95324385754 158 159 163
-229.479486575006 398.709312474528 2420.10028205135 162 163 167
-237.713285899546 398.017243634727 2417.83332410252 168 169 171
-243.497059018456 397.56036872324 2412.40289826907 170 172 171
-251.106745128808 396.927692818918 2409.35363751617 173 175 174
-258.102913236511 396.353735328802 2405.51409537063 178 180 177
-263.287291022713 395.954037247803 2399.28373146533 179 181 176
-269.08091265789 395.495543019205 2393.8461580301 163 165 160
138.157490636657 420.976098776359 2548.38684356714 188 189 184
133.680073168219 420.642509747742 2541.43397403263 155 156 151
125.64353444027 419.98856653341 2538.0748765076 91 92 87
116.907814556443 419.271474474357 2535.44393888629 97 98 93
108.184233947338 418.555246344306 2532.82180566026 106 108 103
95.9609539387403 417.523383668594 2533.83683900109 111 116 112
83.0719233105972 416.431014869816 2535.60369118673 113 118 114
73.0130364821382 415.593333027437 2534.48331853386 115 117 116
62.2794484699751 414.694430324852 2534.10856712757 121 123 122
50.8778506770029 413.734863776275 2534.48429052999 144 146 145
38.8148182686074 412.715106299614 2535.61525761426 148 150 149
29.5423935527612 411.946897235147 2533.83002891785 113 115 114
19.5996318028606 411.117786405782 2532.79388122654 95 97 96
8.30871204188233 410.16646908633 2533.24987928031 59 61 60
-1.58745158082962 409.340819569915 2532.24752909808 70 72 71
-11.4623776270379 408.516700944222 2531.26028776553 59 61 60
-18.6040397783045 407.939530051461 2527.3152576063 39 41 40
-27.7699059684524 407.178948129469 2525.60760856925 22 24 23
-30.8562556360039 406.968552035749 2517.19341003154 20 25 19
-36.6514126844109 406.512871226878 2511.75503227005 22 27 21
-44.4593000711444 405.874688169724 2508.56176881023 19 24 18
-54.9273388328377 404.995072460801 2508.37961741513 14 19 13
-59.3867068364591 404.659988321275 2501.43982474983 17 22 16
-72.3099164077827 403.626342285187 2492.06627871568 21 26 20
-80.7471542711578 402.929875841552 2489.65182155372 21 26 20
-89.1719366128452 402.234239202636 2487.24639786837 20 25 19
-93.0082854598147 401.955278009569 2479.52349273021 23 28 22
-111.195759955988 400.371627321423 2488.56311453575 29 34 28
-124.759492096027 399.207492977144 2492.31115990238 45 48 41
-115.627935802001 400.107656154967 2469.29214452398 43 46 37
-117.565888074285 400.001192680127 2459.24089694693 25 28 19
-94.4728981541689 402.174296721742 2419.17669774775 27 30 23
-104.245591562857 401.355363759806 2418.26388777933 25 28 21
-103.785560433782 401.468596943041 2405.01166135848 42 44 39
-116.094412603585 400.41798654994 2407.19930880475 34 36 33
-113.153750017707 400.757716357136 2390.80605132247 22 24 21
-131.121183856707 399.190084165774 2400.00526643315 12 14 11
-151.526832364049 397.398819439542 2412.37657042462 88 90 89
-176.852346822806 395.156974115911 2431.05995830086 140 142 141
-193.296787403894 393.724935349851 2438.89383727551 139 141 140
-200.953045843445 393.095212324261 2435.81053572716 143 145 144
-207.360013592894 392.579477329805 2431.1633757747 151 152 154
-211.912768981556 392.233163884348 2424.15612219937 150 151 153
-221.407291479236 391.434530052961 2423.44477260287 154 155 159
-228.424748348746 390.862268269139 2419.58980636867 157 158 162
-236.661374626217 390.178110509444 2417.3208391725 167 168 170
-241.838175059097 389.774007798092 2411.09594594202 170 172 171
-248.845489182882 389.201985187591 2407.2483336121 171 173 172
-255.243720831721 388.685583806963 2402.60750327003 174 176 173
-261.642189323243 388.168984007991 2397.96650023062 177 179 174
-271.043335885078 387.376540561017 2397.32287219827 168 170 165
139.83375498365 412.929806008508 2535.97466647709 33 32 27
131.779059884303 412.279375956599 2532.60271928284 26 25 20
115.956149873481 410.959499685055 2537.18232279252 65 64 59
106.531765015998 410.190540582647 2535.28693114737 49 50 44
92.9089703277306 409.059494389859 2537.75699730412 17 19 14
80.0293445571594 407.992079157007 2539.53108814347 25 27 22
72.0750422656837 407.349084629896 2536.23166102352 31 33 28
62.7365134977662 406.586508684417 2534.39883509892 48 50 45
52.7211524024374 405.7652920254 2533.30980410126 71 73 68
36.5036806397026 404.408547202701 2538.83823125934 67 69 66
25.171484285651 403.472999462166 2539.26468138295 50 52 49
12.495394720256 402.421091736459 2541.18610403267 45 47 42
5.33644459196436 401.845293834588 2537.22884288144 25 27 22
-5.23199560991916 400.974770221607 2536.97365991591 20 22 19
-15.7750254650684 400.106151192981 2536.73720157713 23 25 22
-41.2128022968314 397.949856880669 2552.86956813771 27 29 24
-63.1477705756989 396.095439065455 2565.36695233587 29 31 26
-44.2600684885794 397.812468012595 2521.01660902478 27 32 26
-110.801881803047 392.179777566257 2560.44457696054 22 27 21
-98.9417716888736 393.28946605948 2523.34825015297 29 34 28
-90.8316520735799 394.033754091267 2502.0583517247 33 38 32
-126.776576921415 390.961232913364 2531.56631666658 34 39 33
-144.214964908999 389.491220198805 2539.91450623804 45 50 44
-108.144108508804 392.659427864866 2485.79581699079 64 69 63
-138.603508471954 390.060180751509 2509.40157675026 74 77 70
-147.541867741567 389.326393561436 2507.85898805574 66 69 60
-135.089918664654 390.70091679077 2405.73109192595 11 13 10
-147.929640709052 389.627468257275 2408.76911589734 41 43 40
-180.171072067319 386.866753152284 2436.02296067169 123 125 124
-190.979266951595 385.968596663871 2436.82916556053 127 129 128
-196.77421866584 385.506166502286 2431.39090246335 133 135 134
-203.815206263993 384.935149953273 2427.51888460913 147 149 148
-210.852171476276 384.364309902837 2423.64978356228 151 152 154
-220.349961254954 383.578998525631 2422.93642740193 161 162 164
-227.369933712415 383.009146743046 2419.07964977147 165 166 168
-233.774106825907 382.492727052088 2414.43451224213 168 169 171
-237.740495487234 382.188504333367 2406.61721051274 169 171 170
