ply
format ascii 1.0
comment KinectMotionCapture
element vertex 756
property float x
property float y
property float z
property uchar red
property uchar green
property uchar blue
end_header
-120.45107036829 697.438716888428 2298.00009727478 168 168 166
-114.168249070644 697.14367389679 2296.99993133545 173 172 170
-107.890658080578 696.848213672638 2296.0000038147 168 167 165
-101.529724895954 695.94544172287 2292.99998283386 170 169 167
-95.3511223196983 696.256041526794 2293.99991035461 171 171 169
-89.1280695796013 696.262955665588 2293.99991035461 171 171 169
-82.9771235585213 696.876227855682 2296.0000038147 171 171 169
-76.6480267047882 695.971608161926 2292.99998283386 170 170 168
-70.3657642006874 695.370018482208 2290.99988937378 170 170 168
-64.1222223639488 695.071399211884 2289.99996185303 170 170 168
-57.9598397016525 695.683002471924 2292.00005531311 171 171 169
-51.7864935100079 696.294188499451 2293.99991035461 171 171 169
-45.582327991724 696.601390838623 2295.00007629395 171 171 169
-39.3383465707302 696.300983428955 2293.99991035461 166 166 166
-33.1141501665115 696.30366563797 2293.99991035461 169 169 169
-26.8781669437885 696.00236415863 2292.99998283386 169 168 166
-20.6475537270308 695.700585842133 2292.00005531311 167 166 164
-14.4349187612534 696.005463600159 2292.99998283386 179 174 170
-8.22040997445583 696.613371372223 2295.00007629395 187 180 174
-1.99589994736016 697.52436876297 2298.00009727478 162 153 146
4.2393603362143 697.524309158325 2298.00009727478 144 133 127
10.4654943570495 696.916580200195 2296.0000038147 152 139 131
16.6880283504725 696.612119674683 2295.00007629395 149 136 127
22.8851307183504 695.699989795685 2292.00005531311 150 140 131
29.1040055453777 695.698082447052 2292.00005531311 188 181 175
35.3073999285698 695.392072200775 2290.99988937378 185 180 176
41.5415614843369 695.692837238312 2292.00005531311 175 172 167
47.781053930521 695.993006229401 2292.99998283386 170 166 163
54.002333432436 695.989191532135 2292.99998283386 168 167 163
60.1972453296185 695.681512355804 2292.00005531311 170 171 166
66.3866028189659 695.373237133026 2290.99988937378 168 169 164
72.6021006703377 695.368111133575 2290.99988937378 167 168 163
78.8174495100975 695.362508296967 2290.99988937378 168 167 163
85.1068720221519 695.963501930237 2292.99998283386 170 169 165
91.4070010185242 696.564137935638 2295.00007629395 171 170 166
97.6326912641525 696.55704498291 2295.00007629395 166 165 163
103.812955319881 696.246206760406 2293.99991035461 167 167 165
110.035546123981 696.238338947296 2293.99991035461 168 168 166
116.257943212986 696.230113506317 2293.99991035461 168 168 166
122.373335063457 695.614516735077 2292.00005531311 168 168 166
128.645941615105 695.908904075623 2292.99998283386 169 169 167
135.041370987892 696.809947490692 2296.0000038147 170 170 168
141.452819108963 697.710454463959 2299.00002479553 164 164 162
147.816032171249 698.307037353516 2301.00011825562 166 166 164
154.055923223495 698.296248912811 2301.00011825562 167 167 165
160.43484210968 698.891997337341 2302.99997329712 166 166 164
166.824325919151 699.487328529358 2305.0000667572 171 171 169
173.299416899681 700.385868549347 2308.00008773804 167 167 165
179.401502013206 699.766516685486 2305.99999427795 169 171 168
185.653433203697 699.753761291504 2305.99999427795 174 176 173
191.821783781052 699.437260627747 2305.0000667572 163 165 162
198.58592748642 701.244354248047 2311.00010871887 180 182 179
204.939037561417 701.533913612366 2312.00003623962 168 170 167
211.479917168617 702.430009841919 2315.00005722046 167 172 168
217.754498124123 702.415466308594 2315.00005722046 171 176 172
224.512591958046 703.917622566223 2319.9999332428 176 181 177
231.396913528442 705.722808837891 2325.99997520447 193 198 194
239.233061671257 710.25812625885 2341.00008010864 203 208 204
-218.863040208817 707.015514373779 2351.0000705719 207 209 206
-211.405768990517 703.421473503113 2338.99998664856 198 200 197
-204.45154607296 701.330602169037 2332.00001716614 193 195 192
-197.619900107384 699.540138244629 2325.99997520447 193 195 192
-190.820440649986 697.749197483063 2319.9999332428 190 190 188
-184.053137898445 695.957779884338 2313.99989128113 178 178 176
-177.548557519913 695.068299770355 2311.00010871887 176 175 173
-171.282276511192 695.080637931824 2311.00010871887 177 177 175
-164.801448583603 694.190382957459 2308.00008773804 173 173 171
-158.542633056641 694.201827049255 2308.00008773804 168 170 167
-152.085617184639 693.310678005219 2305.0000667572 168 173 169
-145.834386348724 693.321406841278 2305.0000667572 175 180 176
-139.401212334633 692.42936372757 2302.00004577637 171 176 172
-133.041858673096 691.837549209595 2299.99995231628 170 172 169
-126.69312953949 691.245555877686 2298.00009727478 171 171 169
-120.354995131493 690.652966499329 2296.0000038147 169 169 167
-113.977767527103 689.759075641632 2292.99998283386 173 172 170
-107.757583260536 689.767241477966 2292.99998283386 170 170 168
-101.448625326157 689.173340797424 2290.99988937378 171 171 169
-95.2334553003311 689.180612564087 2290.99988937378 171 171 169
-89.0180841088295 689.187407493591 2290.99988937378 171 171 169
-82.8386917710304 689.494609832764 2292.00005531311 171 171 169
-76.5534192323685 688.898861408234 2289.99996185303 171 171 169
-70.3402757644653 688.904404640198 2289.99996185303 171 171 169
-64.1830042004585 689.511120319366 2292.00005531311 171 171 169
-57.964164763689 689.515709877014 2292.00005531311 171 171 169
-51.7677813768387 689.820528030396 2292.99998283386 170 170 168
-45.5261468887329 689.523458480835 2292.00005531311 170 170 168
-39.3069945275784 689.526617527008 2292.00005531311 165 165 165
-33.0877602100372 689.529299736023 2292.00005531311 169 167 168
-26.8684606999159 689.531624317169 2292.00005531311 169 168 166
-20.6400938332081 689.232528209686 2290.99988937378 168 167 165
-14.4360037520528 689.835548400879 2292.99998283386 173 169 166
-8.21744464337826 690.137147903442 2293.99991035461 176 172 169
-1.99431274086237 690.739274024963 2296.0000038147 182 177 173
4.23229858279228 690.137505531311 2293.99991035461 163 156 150
10.4434872046113 689.234435558319 2290.99988937378 140 131 124
16.6383776813746 688.330948352814 2288.00010681152 151 142 135
22.8469055145979 688.329458236694 2288.00010681152 189 182 176
29.0807839483023 688.929080963135 2289.99996185303 182 179 174
35.2946370840073 688.926696777344 2289.99996185303 177 176 172
41.5446646511555 689.525485038757 2292.00005531311 170 169 165
47.7846264839172 689.822971820831 2292.99998283386 168 167 163
54.0299192070961 690.119981765747 2293.99991035461 168 167 163
60.2017268538475 689.514100551605 2292.00005531311 168 167 163
66.3915351033211 689.208388328552 2290.99988937378 169 168 164
72.6074874401093 689.203262329102 2290.99988937378 169 168 164
78.8232982158661 689.197659492493 2290.99988937378 168 167 163
85.0760489702225 689.492404460907 2292.00005531311 170 169 165
91.3340821862221 689.786672592163 2292.99998283386 171 170 166
97.5973308086395 690.080404281616 2293.99991035461 169 169 167
103.820577263832 690.073013305664 2293.99991035461 169 169 167
110.043615102768 690.065205097198 2293.99991035461 168 168 166
116.114385426044 689.154386520386 2290.99988937378 168 168 166
122.16866761446 688.243329524994 2288.00010681152 169 169 167
128.486961126328 688.835740089417 2289.99996185303 169 169 167
134.992331266403 690.33020734787 2295.00007629395 170 170 168
141.46301150322 691.523313522339 2299.00002479553 168 168 166
147.698149085045 691.512823104858 2299.00002479553 168 168 166
154.066950082779 692.103564739227 2301.00011825562 168 168 166
160.515904426575 692.99453496933 2303.99990081787 169 169 167
166.908532381058 693.584501743317 2305.99999427795 172 174 171
173.236563801765 693.873167037964 2306.99992179871 170 172 169
179.258480668068 692.958354949951 2303.99990081787 173 175 172
185.585901141167 693.246424198151 2305.0000667572 170 172 169
192.001581192017 693.834543228149 2306.99992179871 158 160 157
198.513731360435 694.72324848175 2309.99994277954 177 179 176
204.953163862228 695.310771465302 2312.00003623962 165 167 164
211.585745215416 696.499288082123 2315.99998474121 168 170 167
218.051537871361 697.086036205292 2318.00007820129 169 171 168
224.43100810051 697.371602058411 2319.00000572205 172 174 171
230.915009975433 697.957694530487 2321.00009918213 186 188 185
238.329276442528 701.249718666077 2332.00001716614 191 193 190
-218.412563204765 699.196398258209 2345.99995613098 207 209 206
-211.330026388168 696.826994419098 2338.00005912781 184 186 183
-204.290449619293 694.457113742828 2329.99992370605 187 189 186
-197.548761963844 692.980945110321 2325.00004768372 190 192 189
-190.998375415802 692.100465297699 2322.00002670288 184 184 182
-184.463888406754 691.219508647919 2319.00000572205 183 183 181
-177.868515253067 690.040171146393 2315.00005722046 176 175 173
-171.368613839149 689.15843963623 2312.00003623962 174 174 172
-164.884656667709 688.276290893555 2309.00001525879 173 173 171
-158.554047346115 687.989830970764 2308.00008773804 166 168 165
-152.096599340439 687.106847763062 2305.0000667572 163 168 164
-145.781680941582 686.819493770599 2303.99990081787 171 176 172
-139.411345124245 686.233758926392 2302.00004577637 167 172 168
-133.051574230194 685.647547245026 2299.99995231628 169 171 168
-126.647278666496 684.762716293335 2296.99993133545 172 172 170
-120.206579566002 683.579385280609 2292.99998283386 171 171 169
-113.886751234531 682.991802692413 2290.99988937378 173 172 170
-107.671551406384 682.999968528748 2290.99988937378 174 174 172
-101.411864161491 682.709693908691 2289.99996185303 172 172 170
-95.1573923230171 682.418823242188 2289.00003433228 171 171 169
-88.7915715575218 681.23322725296 2285.00008583069 170 170 168
-82.6641544699669 681.835889816284 2286.99994087219 170 170 168
-76.4588564634323 681.841850280762 2286.99994087219 172 172 170
-70.2841207385063 682.145535945892 2288.00010681152 172 172 170
-64.07580524683 682.150661945343 2288.00010681152 172 172 170
-57.8673593699932 682.155251502991 2288.00010681152 171 171 169
-51.6813695430756 682.457506656647 2289.00003433228 170 170 168
-45.4501174390316 682.163000106812 2288.00010681152 170 170 168
-39.2413586378098 682.166218757629 2288.00010681152 170 170 168
-33.0180712044239 681.870818138123 2286.99994087219 169 169 167
-26.8353186547756 682.469367980957 2289.00003433228 170 170 168
-20.6236373633146 682.4711561203 2289.00003433228 171 170 166
-14.4245028495789 683.068811893463 2290.99988937378 167 166 162
-8.20731930434704 683.069586753845 2290.99988937378 166 165 161
-1.99272623285651 683.964490890503 2293.99991035461 183 180 175
4.22892905771732 683.368146419525 2292.00005531311 189 184 178
10.4351611807942 682.473063468933 2289.00003433228 171 164 158
16.6250895708799 681.577563285828 2286.00001335144 176 169 163
22.8286609053612 681.576132774353 2286.00001335144 185 180 174
29.0575847029686 682.170450687408 2288.00010681152 176 173 168
35.2818891406059 682.466089725494 2289.00003433228 171 170 166
41.5115468204021 682.761371135712 2289.99996185303 167 166 162
47.7257072925568 682.758033275604 2289.99996185303 168 167 163
53.9868772029877 683.350443840027 2292.00005531311 168 167 163
60.1799860596657 683.048009872437 2290.99988937378 167 166 162
66.396526992321 683.043241500854 2290.99988937378 170 169 165
72.5812241435051 682.739853858948 2289.99996185303 170 169 165
78.7947773933411 682.734191417694 2289.99996185303 169 168 164
85.0452780723572 683.026194572449 2290.99988937378 170 169 165
91.261200606823 683.019518852234 2290.99988937378 171 170 166
97.5194871425629 683.310627937317 2292.00005531311 170 170 168
103.737764060497 683.30317735672 2292.00005531311 169 169 167
110.003776848316 683.593392372131 2292.99998283386 169 169 167
116.021573543549 682.392537593842 2289.00003433228 169 169 167
122.017435729504 681.191265583038 2285.00008583069 169 169 167
128.271907567978 681.480169296265 2286.00001335144 170 170 168
134.649232029915 682.364881038666 2289.00003433228 171 171 169
141.165599226952 683.845281600952 2293.99991035461 169 169 167
147.51610159874 684.430956840515 2296.0000038147 169 169 167
154.011085629463 685.612380504608 2299.99995231628 168 168 166
160.527467727661 686.793327331543 2303.99990081787 169 169 167
166.848093271255 687.079608440399 2305.0000667572 170 172 169
173.173785209656 687.365472316742 2305.99999427795 175 177 174
179.349020123482 687.054932117462 2305.0000667572 175 177 174
185.760036110878 687.638103961945 2306.99992179871 171 173 170
192.181527614594 688.220739364624 2309.00001525879 153 155 152
198.699489235878 689.101219177246 2312.00003623962 173 175 172
205.144703388214 689.683139324188 2313.99989128113 166 168 165
211.691737174988 690.562725067139 2316.99991226196 168 170 167
218.066513538361 690.845966339111 2318.00007820129 169 171 168
224.639922380447 691.724896430969 2321.00009918213 171 173 170
231.129691004753 692.305326461792 2322.99995422363 184 186 183
238.754153251648 696.163535118103 2335.99996566772 189 191 188
-229.194760322571 706.450700759888 2391.99995994568 206 208 205
-217.869117856026 691.108465194702 2339.99991416931 206 208 205
-211.073607206345 689.64684009552 2335.00003814697 180 182 179
-204.041734337807 687.298536300659 2326.99990272522 187 189 186
-197.137832641602 685.245156288147 2319.9999332428 189 191 188
-190.682888031006 684.668242931366 2318.00007820129 180 180 178
-184.238418936729 684.090971946716 2315.99998474121 184 184 182
-177.804410457611 683.513045310974 2313.99989128113 176 175 173
-171.306848526001 682.63965845108 2311.00010871887 172 172 170
-164.896562695503 682.060956954956 2309.00001525879 172 172 170
-158.634275197983 682.072758674622 2309.00001525879 165 167 164
-152.305662631989 681.788802146912 2308.00008773804 162 167 163
-145.855635404587 680.91344833374 2305.0000667572 170 175 171
-139.361023902893 679.742276668549 2301.00011825562 166 171 167
-133.06137919426 679.456889629364 2299.99995231628 167 169 166
-126.656651496887 678.580224514008 2296.99993133545 171 171 169
-120.215490460396 677.407741546631 2292.99998283386 171 171 169
-113.895229995251 676.82558298111 2290.99988937378 172 171 169
-107.632584869862 676.538467407227 2289.99996185303 172 172 170
-101.419448852539 676.546275615692 2289.99996185303 171 171 169
-95.0813740491867 675.667345523834 2286.99994087219 170 170 168
-88.837094604969 675.378799438477 2286.00001335144 170 170 168
-82.634225487709 675.385355949402 2286.00001335144 171 171 169
-76.4646157622337 675.686776638031 2286.99994087219 173 173 171
-70.2279880642891 675.396919250488 2286.00001335144 172 172 170
-64.0806555747986 675.992965698242 2288.00010681152 172 172 170
-57.7958598732948 675.111174583435 2285.00008583069 171 171 169
-51.6175478696823 675.410747528076 2286.00001335144 170 170 168
-45.3542470932007 674.528121948242 2282.99999237061 170 170 168
-39.1928851604462 675.122261047363 2285.00008583069 171 173 168
-33.0061502754688 675.420522689819 2286.00001335144 168 170 165
-26.8256403505802 676.013708114624 2288.00010681152 168 170 165
-20.6161998212337 676.015555858612 2288.00010681152 171 172 167
-14.4130093976855 676.312267780304 2289.00003433228 169 170 165
-8.19719862192869 676.017701625824 2288.00010681152 166 167 162
-1.98853458277881 676.313579082489 2289.00003433228 167 166 162
4.2218710295856 676.018059253693 2288.00010681152 170 166 163
10.4313986375928 676.017463207245 2288.00010681152 179 175 172
16.6409052908421 676.016449928284 2288.00010681152 180 177 172
22.870346903801 676.605820655823 2289.99996185303 167 164 159
29.0978979319334 676.899194717407 2290.99988937378 165 164 160
35.2999903261662 676.601350307465 2289.99996185303 166 165 161
41.4784476161003 676.007568836212 2288.00010681152 168 167 163
47.6459637284279 675.413191318512 2286.00001335144 167 166 162
53.9203025400639 676.295697689056 2289.00003433228 170 169 165
60.1845420897007 676.882207393646 2290.99988937378 171 170 166
66.4015412330627 676.877439022064 2290.99988937378 172 171 167
72.5867226719856 676.576793193817 2289.99996185303 171 170 166
78.7663087248802 676.275610923767 2289.00003433228 171 170 166
84.9774330854416 676.269471645355 2289.00003433228 171 170 166
91.1883860826492 676.262736320496 2289.00003433228 171 170 166
97.3991379141808 676.255643367767 2289.00003433228 171 171 169
103.609710931778 676.248073577881 2289.00003433228 170 170 168
109.916001558304 676.830947399139 2290.99988937378 170 170 168
115.979507565498 675.936341285706 2288.00010681152 170 170 168
122.240088880062 676.222801208496 2289.00003433228 170 170 168
128.50584089756 676.508903503418 2289.99996185303 171 171 169
134.776785969734 676.794588565826 2290.99988937378 171 171 169
141.114428639412 677.375257015228 2292.99998283386 171 171 169
147.398367524147 677.660048007965 2293.99991035461 171 171 169
153.821393847466 678.535282611847 2296.99993133545 169 169 167
160.330086946487 679.705381393433 2301.00011825562 169 169 167
166.715368628502 680.284261703491 2302.99997329712 167 169 166
173.186242580414 681.158185005188 2305.99999427795 179 181 178
179.517477750778 681.440889835358 2306.99992179871 176 178 175
185.85379421711 681.723177433014 2308.00008773804 171 173 170
192.195162177086 682.005047798157 2309.00001525879 152 154 151
198.7134963274 682.877242565155 2312.00003623962 166 168 165
205.247759819031 683.749079704285 2315.00005722046 163 165 162
211.797878146172 684.620440006256 2318.00007820129 164 166 163
218.17572414875 684.90082025528 2319.00000572205 165 167 164
224.752202630043 685.771405696869 2322.00002670288 167 169 166
231.344550848007 686.641752719879 2325.00004768372 181 183 180
238.872647285461 690.169453620911 2336.99989318848 187 189 186
246.885076165199 694.877982139587 2352.9999256134 199 204 200
-224.611207842827 685.96351146698 2344.00010108948 208 210 207
-217.69817173481 684.223055839539 2338.00005912781 195 197 194
-210.726872086525 682.189583778381 2331.00008964539 175 177 174
-204.056188464165 681.033611297607 2326.99990272522 187 189 186
-196.981951594353 678.413927555084 2318.00007820129 186 188 185
-190.532013773918 677.842438220978 2315.99998474121 177 177 175
-184.172093868256 677.563309669495 2315.00005722046 182 182 180
-177.894100546837 677.576422691345 2315.00005722046 180 179 177
-171.467512845993 677.003622055054 2312.99996376038 170 170 168
-165.122866630554 676.723301410675 2312.00003623962 171 171 169
-158.783301711082 676.442503929138 2311.00010871887 163 165 162
-152.382850646973 675.868511199951 2309.00001525879 161 166 162
-146.056234836578 675.586760044098 2308.00008773804 171 176 172
-139.492467045784 674.133777618408 2302.99997329712 164 169 165
-133.071273565292 673.265755176544 2299.99995231628 162 164 161
-126.555785536766 671.811819076538 2295.00007629395 166 166 164
-120.329335331917 671.821057796478 2295.00007629395 168 168 166
-113.953478634357 670.951664447784 2292.00005531311 172 171 169
-107.687674462795 670.667231082916 2290.99988937378 170 170 168
-101.338498294353 669.796884059906 2288.00010681152 170 170 168
-95.0469747185707 669.218897819519 2286.00001335144 170 170 168
-88.843822479248 669.225811958313 2286.00001335144 171 171 169
-82.6404988765717 669.232368469238 2286.00001335144 172 172 170
-76.5038728713989 669.823944568634 2288.00010681152 172 172 170
-70.2026039361954 668.951272964478 2285.00008583069 172 172 170
-64.0015080571175 668.956398963928 2285.00008583069 172 172 170
-57.699091732502 667.789995670319 2280.99989891052 171 171 169
-51.5311732888222 668.087005615234 2282.00006484985 171 171 169
-45.3378483653069 668.09070110321 2282.00006484985 171 171 169
-39.1958877444267 668.972253799438 2285.00008583069 171 173 168
-33.0086797475815 669.267773628235 2286.00001335144 167 169 164
-26.8042497336864 669.270098209381 2286.00001335144 167 169 164
-20.5997601151466 669.271886348724 2286.00001335144 170 171 166
-14.3889300525188 668.980479240417 2285.00008583069 169 170 165
-8.17991327494383 668.395817279816 2282.99999237061 168 169 164
-1.9843433983624 668.688952922821 2283.99991989136 163 162 158
4.21850476413965 669.27444934845 2286.00001335144 167 166 162
10.4367602616549 670.152187347412 2289.00003433228 177 173 170
16.6640039533377 670.73667049408 2290.99988937378 171 167 164
22.8721033781767 670.442342758179 2289.99996185303 165 161 158
29.0747303515673 670.147597789764 2289.00003433228 165 164 160
35.2872796356678 670.145153999329 2289.00003433228 167 166 162
41.4816252887249 669.849455356598 2288.00010681152 169 168 164
47.6913005113602 669.846057891846 2288.00010681152 167 166 162
53.9008639752865 669.842123985291 2288.00010681152 170 169 165
60.1103231310844 669.837713241577 2288.00010681152 173 172 168
66.2906616926193 669.540107250214 2286.99994087219 172 171 167
72.4337473511696 668.949365615845 2285.00008583069 172 171 167
78.7034630775452 669.529020786285 2286.99994087219 172 171 167
84.9467441439629 669.815599918365 2288.00010681152 172 171 167
91.1554470658302 669.808924198151 2288.00010681152 172 171 167
97.3213762044907 669.508934020996 2286.99994087219 171 171 169
103.481702506542 669.208645820618 2286.00001335144 171 171 169
109.876275062561 670.371532440186 2289.99996185303 170 170 168
116.089574992657 670.363068580627 2289.99996185303 170 170 168
122.409425675869 670.939564704895 2292.00005531311 171 171 169
128.515407443047 670.344710350037 2289.99996185303 171 171 169
134.610295295715 669.749557971954 2288.00010681152 171 171 169
140.817135572433 669.739365577698 2288.00010681152 171 171 169
147.152170538902 670.313954353333 2289.99996185303 171 171 169
153.631761670113 671.473801136017 2293.99991035461 170 170 168
160.063043236732 672.340333461761 2296.99993133545 170 170 168
166.582703590393 673.499226570129 2301.00011825562 167 169 166
173.1988042593 674.950301647186 2305.99999427795 176 178 175
179.60824072361 675.522923469543 2308.00008773804 174 176 173
186.108738183975 676.387786865234 2311.00010871887 169 171 168
192.458629608154 676.666796207428 2312.00003623962 158 160 157
198.985487222672 677.530825138092 2315.00005722046 164 166 163
205.528259277344 678.394436836243 2318.00007820129 164 166 163
211.995527148247 678.964972496033 2319.9999332428 165 167 164
218.285083770752 678.94983291626 2319.9999332428 165 167 164
224.767833948135 679.519593715668 2322.00002670288 167 169 166
231.261000037193 680.088877677917 2323.99988174438 181 183 180
238.684624433517 683.291673660278 2335.00003814697 188 190 187
246.272325515747 686.786472797394 2346.99988365173 197 202 198
-224.435329437256 679.071962833405 2342.00000762939 208 210 207
-217.527329921722 677.347838878632 2335.99996566772 188 190 187
-210.561022162437 675.333380699158 2328.9999961853 171 173 170
-203.719973564148 673.608303070068 2322.99995422363 184 186 183
-196.741133928299 671.302974224091 2315.00005722046 183 185 182
-190.216660499573 670.446991920471 2312.00003623962 174 174 172
-183.708071708679 669.590592384338 2309.00001525879 179 179 177
-177.676528692245 670.473694801331 2312.00003623962 183 182 180
-171.405926346779 670.486509799957 2312.00003623962 170 170 168
-165.277823805809 671.078860759735 2313.99989128113 171 171 169
-158.932417631149 670.800864696503 2312.99996376038 162 164 161
-152.658104896545 670.812368392944 2312.99996376038 159 164 160
-146.256953477859 670.243442058563 2311.00010871887 171 176 172
-139.745160937309 669.094026088715 2306.99992179871 163 168 164
-133.196949958801 667.654156684875 2302.00004577637 160 162 159
-126.565292477608 665.633738040924 2295.00007629395 165 165 163
-120.285950601101 665.352940559387 2293.99991035461 169 168 166
-113.962076604366 664.78168964386 2292.00005531311 171 170 168
-107.695825397968 664.499998092651 2290.99988937378 171 171 169
-101.390480995178 663.927912712097 2289.00003433228 173 173 171
-95.0542017817497 663.065195083618 2286.00001335144 173 173 171
-88.928334414959 663.652360439301 2288.00010681152 173 173 171
-82.6468169689178 663.078844547272 2286.00001335144 172 172 170
-76.4762833714485 663.375020027161 2286.99994087219 171 171 169
-70.1465383172035 662.220358848572 2282.99999237061 171 171 169
-64.0344396233559 663.095712661743 2286.00001335144 172 172 170
-57.7541254460812 662.23019361496 2282.99999237061 172 172 170
-51.5577271580696 662.234425544739 2282.99999237061 172 172 170
-45.3413389623165 661.948025226593 2282.00006484985 172 173 168
-39.1989089548588 662.821590900421 2285.00008583069 169 171 166
-33.0401137471199 663.694620132446 2288.00010681152 171 174 167
-26.8180463463068 663.406848907471 2286.99994087219 171 174 167
-20.5923411995173 662.82856464386 2285.00008583069 169 172 165
-14.3774468451738 662.249743938446 2282.99999237061 168 170 165
-8.18412937223911 662.540674209595 2283.99991989136 167 169 164
-1.98449706658721 662.541031837463 2283.99991989136 168 169 164
4.21698577702045 662.83106803894 2285.00008583069 168 169 164
10.4330079630017 663.700759410858 2288.00010681152 170 169 167
16.6507456451654 663.989722728729 2289.00003433228 170 169 167
22.8638853877783 663.98823261261 2289.00003433228 166 165 163
29.0769767016172 663.986206054688 2289.00003433228 173 172 168
35.3054217994213 664.273798465729 2289.99996185303 170 169 165
41.5029563009739 663.980782032013 2289.00003433228 167 166 162
47.7366596460342 664.267361164093 2289.99996185303 169 168 164
53.905013948679 663.683295249939 2288.00010681152 171 170 166
60.0623935461044 663.098812103271 2286.00001335144 170 169 165
66.1797970533371 662.223696708679 2282.99999237061 171 170 166
72.3124742507935 661.638200283051 2280.99989891052 172 171 167
78.6062255501747 662.502586841583 2283.99991989136 173 172 168
84.8789736628532 663.076519966125 2286.00001335144 173 172 168
91.0826921463013 663.069784641266 2286.00001335144 173 172 168
97.2436591982841 662.772536277771 2285.00008583069 172 172 170
103.444278240204 662.76490688324 2285.00008583069 171 171 169
109.884589910507 664.206981658936 2289.99996185303 171 171 169
116.149015724659 664.48849439621 2290.99988937378 171 171 169
122.472047805786 665.059566497803 2292.99998283386 171 171 169
128.581166267395 664.470016956329 2290.99988937378 172 172 170
134.855687618256 664.750218391418 2292.00005531311 170 170 168
140.950694680214 664.159834384918 2289.99996185303 171 171 169
147.227361798286 664.439082145691 2290.99988937378 172 172 170
153.509169816971 664.717972278595 2292.00005531311 172 172 170
159.935459494591 665.576338768005 2295.00007629395 171 171 169
166.52250289917 667.014360427856 2299.99995231628 168 170 167
173.136323690414 668.451905250549 2305.0000667572 167 169 166
179.621309041977 669.309079647064 2308.00008773804 169 171 168
186.122193932533 670.165777206421 2311.00010871887 165 167 164
192.472472786903 670.44198513031 2312.00003623962 171 173 170
198.999747633934 671.297788619995 2315.00005722046 165 167 164
205.365568399429 671.573221683502 2315.99998474121 165 167 164
212.010562419891 672.718226909637 2319.9999332428 164 166 163
218.206375837326 672.412991523743 2319.00000572205 163 165 162
224.686801433563 672.977328300476 2321.00009918213 164 166 163
231.277123093605 673.831045627594 2323.99988174438 177 179 176
238.496705889702 676.424145698547 2332.99994468689 183 185 182
246.289297938347 680.466413497925 2346.99988365173 194 199 195
-223.684534430504 670.46719789505 2334.00011062622 209 211 208
-216.984063386917 669.333815574646 2329.99992370605 184 186 183
-210.395261645317 668.487310409546 2326.99990272522 178 180 177
-203.559249639511 666.77862405777 2321.00009918213 183 185 182
-196.755349636078 665.069341659546 2315.00005722046 187 189 186
-190.230473875999 664.221584796906 2312.00003623962 178 178 176
-183.801054954529 663.660645484924 2309.99994277954 175 175 173
-177.766397595406 664.535820484161 2312.99996376038 181 180 178
-171.492680907249 664.548695087433 2312.99996376038 172 172 170
-165.361493825912 665.135860443115 2315.00005722046 164 164 162
-159.01292860508 664.860546588898 2313.99989128113 166 168 165
-152.801513671875 665.159523487091 2315.00005722046 155 160 156
-146.394476294518 664.596080780029 2312.99996376038 167 172 168
-139.93738591671 663.744807243347 2309.99994277954 160 165 161
-133.2648396492 661.743760108948 2302.99997329712 160 162 159
-126.629993319511 659.742176532745 2296.0000038147 165 165 163
-120.24262547493 658.889532089233 2292.99998283386 169 168 166
-113.921001553535 658.323705196381 2290.99988937378 170 169 167
-107.704035937786 658.332169055939 2290.99988937378 168 168 166
-101.398229598999 657.765507698059 2289.00003433228 171 171 169
-95.0199067592621 656.623601913452 2285.00008583069 172 172 170
-88.8185501098633 656.630635261536 2285.00008583069 171 171 169
-82.5446993112564 656.062543392181 2282.99999237061 173 173 171
-76.3818472623825 656.356036663055 2283.99991989136 175 175 173
-70.0597614049912 655.212163925171 2279.99997138977 175 175 173
-63.9273226261139 655.79217672348 2282.00006484985 174 174 172
-57.7332973480225 655.796825885773 2282.00006484985 172 172 170
-51.5617243945599 656.088471412659 2282.99999237061 171 171 169
-45.3647263348103 656.09222650528 2282.99999237061 171 172 167
-39.2019525170326 656.670272350311 2285.00008583069 171 173 168
-33.0137982964516 656.960487365723 2286.00001335144 171 173 168
-26.7966799438 656.675517559052 2285.00008583069 171 173 168
-20.5849278718233 656.389892101288 2283.99991989136 171 173 168
-14.372268691659 655.816495418549 2282.00006484985 170 172 167
-8.17759986966848 655.81738948822 2282.00006484985 170 172 167
-1.98291381821036 655.817806720734 2282.00006484985 168 170 167
4.21546818688512 656.392455101013 2283.99991989136 168 168 166
10.4246996343136 656.966745853424 2286.00001335144 166 166 164
16.6302155703306 656.965613365173 2286.00001335144 167 167 165
22.8257067501545 656.676709651947 2285.00008583069 169 169 167
29.0411245077848 656.962037086487 2286.00001335144 169 168 164
35.261906683445 657.246887683868 2286.99994087219 170 169 165
41.5061749517918 657.818734645844 2289.00003433228 172 171 167
47.7195158600807 657.815217971802 2289.00003433228 172 171 167
53.9091974496841 657.523930072784 2288.00010681152 171 170 166
60.0407682359219 656.657338142395 2285.00008583069 171 170 166
66.1559253931046 655.790328979492 2282.00006484985 171 170 166
72.3180547356606 655.497610569 2280.99989891052 172 171 167
78.543446958065 655.779182910919 2282.00006484985 173 172 168
84.8112180829048 656.347513198853 2283.99991989136 173 172 168
90.9701362252235 656.053423881531 2282.99999237061 173 172 168
97.2085371613503 656.333565711975 2283.99991989136 172 172 170
103.406891226768 656.325817108154 2283.99991989136 171 171 169
109.844960272312 657.75454044342 2289.00003433228 170 170 168
116.107136011124 658.03325176239 2289.99996185303 170 170 168
122.42791056633 658.598899841309 2292.00005531311 170 170 168
128.534749150276 658.014714717865 2289.99996185303 170 170 168
134.806975722313 658.292055130005 2290.99988937378 169 169 167
141.022816300392 658.281683921814 2290.99988937378 170 170 168
147.238358855247 658.270835876465 2290.99988937378 169 169 167
153.587579727173 658.834278583527 2292.99998283386 168 168 166
160.086691379547 659.97177362442 2296.99993133545 169 169 167
166.679605841637 661.396265029907 2302.00004577637 165 167 164
173.224180936813 662.532925605774 2305.99999427795 166 168 165
179.712295532227 663.381934165955 2309.00001525879 171 173 170
186.216309666634 664.230406284332 2312.00003623962 163 165 162
192.486420273781 664.216578006744 2312.00003623962 174 176 173
199.014127254486 665.064215660095 2315.00005722046 166 168 165
205.468982458115 665.624141693115 2316.99991226196 165 167 164
212.117105722427 666.758298873901 2321.00009918213 164 166 163
218.504190444946 667.030096054077 2322.00002670288 166 168 165
224.896296858788 667.301654815674 2322.99995422363 165 167 164
231.293395161629 667.572736740112 2323.99988174438 174 176 173
238.206669688225 669.279634952545 2329.99992370605 187 189 186
245.991587638855 673.28417301178 2344.00010108948 191 196 192
-230.718269944191 666.157186031342 2341.00008010864 207 212 208
-223.317086696625 663.043141365051 2329.99992370605 206 208 205
-216.720208525658 662.205278873444 2326.99990272522 182 184 181
-210.410431027412 662.22071647644 2326.99990272522 177 179 176
-203.573986887932 660.528242588043 2321.00009918213 183 185 182
-196.769684553146 658.835291862488 2315.00005722046 186 188 185
-190.326690673828 658.280253410339 2312.99996376038 176 176 174
-183.973699808121 658.00940990448 2312.00003623962 174 174 172
-177.779510617256 658.307433128357 2312.99996376038 176 175 173
-171.505406498909 658.320367336273 2312.99996376038 173 173 171
-165.445223450661 659.186780452728 2315.99998474121 166 166 164
-159.162268042564 659.198880195618 2315.99998474121 162 164 161
-153.010994195938 659.779906272888 2318.00007820129 153 158 154
-146.46877348423 658.652603626251 2313.99989128113 165 170 166
-140.069127082825 658.09428691864 2312.00003623962 159 164 160
-133.332788944244 655.827403068542 2303.99990081787 158 160 157
-126.8050968647 654.414117336273 2299.00002479553 163 163 161
-120.304241776466 653.000235557556 2293.99991035461 169 168 166
-114.029183983803 652.72456407547 2292.99998283386 171 170 168
-107.759311795235 652.44847536087 2292.00005531311 169 169 167
-101.450316607952 651.887118816376 2289.99996185303 171 171 169
-95.0272157788277 650.471389293671 2285.00008583069 172 172 170
-88.747650384903 649.909138679504 2282.99999237061 172 172 170
-82.5149193406105 649.631083011627 2282.00006484985 173 173 171
-76.2874335050583 649.352610111237 2280.99989891052 173 173 171
-70.0344815850258 648.788928985596 2279.00004386902 174 174 172
-63.8202354311943 648.509442806244 2278.00011634827 174 174 172
-57.712484151125 649.368166923523 2280.99989891052 172 172 170
-51.5431575477123 649.657249450684 2282.00006484985 172 172 170
-45.3285276889801 649.376273155212 2280.99989891052 173 173 171
-39.1363874077797 649.37961101532 2280.99989891052 172 172 170
-32.9730473458767 649.951815605164 2282.99999237061 172 172 170
-26.7753191292286 649.954199790955 2282.99999237061 173 173 171
-20.5775294452906 649.956047534943 2282.99999237061 172 172 170
-14.3670961260796 649.387955665588 2280.99989891052 171 171 169
-8.17824061959982 649.673581123352 2282.00006484985 171 171 169
-1.98306911624968 649.673938751221 2282.00006484985 168 168 166
4.21210704371333 649.673879146576 2282.00006484985 169 169 167
10.40727365762 649.673342704773 2282.00006484985 170 170 168
16.6024174541235 649.672329425812 2282.00006484985 169 169 167
22.8175017982721 650.240063667297 2283.99991989136 166 167 162
29.0306974202394 650.522768497467 2285.00008583069 169 168 164
35.2492481470108 650.804936885834 2286.00001335144 171 170 166
41.4731502532959 651.086628437042 2286.99994087219 171 170 166
47.6606972515583 650.798439979553 2286.00001335144 172 171 167
53.8662634789944 650.794446468353 2286.00001335144 172 171 167
60.0191578269005 650.220692157745 2283.99991989136 171 170 166
66.1320686340332 649.361670017242 2280.99989891052 172 171 167
72.2602531313896 648.786962032318 2279.00004386902 173 172 168
78.480675816536 649.065732955933 2279.99997138977 174 173 169
84.7806334495544 649.913430213928 2282.99999237061 174 173 169
90.9373089671135 649.621963500977 2282.00006484985 174 173 169
97.1308946609497 649.614691734314 2282.00006484985 171 171 169
103.278994560242 649.322330951691 2280.99989891052 171 171 169
109.661422669888 650.452852249146 2285.00008583069 171 171 169
115.963883697987 651.013433933258 2286.99994087219 172 172 170
122.330375015736 651.858270168304 2289.99996185303 173 173 171
128.544494509697 651.848673820496 2289.99996185303 173 173 171
134.993731975555 652.977287769318 2293.99991035461 172 172 170
141.156584024429 652.682185173035 2292.99998283386 171 171 169
147.377982735634 652.671277523041 2292.99998283386 171 171 169
153.599068522453 652.659952640533 2292.99998283386 169 169 167
160.098642110825 653.786659240723 2296.99993133545 165 165 163
166.692018508911 655.197620391846 2302.00004577637 163 165 162
173.312127590179 656.608045101166 2306.99992179871 167 169 166
179.881229996681 657.733500003815 2311.00010871887 174 176 173
186.229974031448 658.004462718964 2312.00003623962 160 162 159
192.500501871109 657.990634441376 2312.00003623962 171 173 170
199.028611183167 658.830165863037 2315.00005722046 164 166 163
205.483853816986 659.384548664093 2316.99991226196 165 167 164
211.949601769447 659.938633441925 2319.00000572205 163 165 162
218.425750732422 660.492360591888 2321.00009918213 165 167 164
224.912315607071 661.045551300049 2322.99995422363 164 166 163
231.409311294556 661.598384380341 2325.00004768372 173 175 172
238.121181726456 662.719964981079 2328.9999961853 186 188 185
245.588973164558 665.832996368408 2339.99991416931 190 195 191
253.869593143463 670.937240123749 2358.00004005432 197 202 198
-230.241924524307 658.442616462708 2335.99996566772 208 213 209
-223.237276077271 656.485795974731 2328.9999961853 205 207 204
-216.735869646072 655.937969684601 2326.99990272522 181 183 180
-210.69698035717 656.799077987671 2329.99992370605 177 179 176
-203.764259815216 654.841065406799 2322.99995422363 182 184 181
-196.784108877182 652.600646018982 2315.00005722046 184 186 183
-190.258413553238 651.76910161972 2312.00003623962 175 175 173
-183.907762169838 651.50111913681 2311.00010871887 173 173 171
-177.639007568359 651.51458978653 2311.00010871887 174 173 171
-171.369910240173 651.527583599091 2311.00010871887 173 173 171
-165.386185050011 652.667880058289 2315.00005722046 167 167 165
-159.242957830429 653.243958950043 2316.99991226196 159 161 158
-153.088554739952 653.819561004639 2319.00000572205 151 156 152
-146.606490015984 652.985155582428 2315.99998474121 163 168 164
-140.140354633331 652.150213718414 2312.99996376038 158 163 159
-133.51659476757 650.46900510788 2306.99992179871 157 159 156
-127.035424113274 649.351060390472 2302.99997329712 162 162 160
-120.523266494274 647.950828075409 2298.00009727478 165 165 163
-114.137411117554 647.113919258118 2295.00007629395 171 170 168
-107.76761174202 646.276593208313 2292.00005531311 170 170 168
-101.369552314281 645.156860351563 2288.00010681152 171 171 169
-95.034584403038 644.318580627441 2285.00008583069 172 172 170
-88.7156650424004 643.479704856873 2282.00006484985 173 173 171
-82.5213491916656 643.486440181732 2282.00006484985 174 174 172
-76.2599259614944 642.928600311279 2279.99997138977 172 172 170
-70.009209215641 642.370402812958 2278.00011634827 173 173 171
-63.7691915035248 641.811609268188 2276.00002288818 173 173 171
-57.6157979667187 642.098367214203 2276.99995040894 173 173 171
-51.5020154416561 642.948627471924 2279.99997138977 172 172 170
-45.3320853412151 643.234431743622 2280.99989891052 174 174 172
-39.1051471233368 642.673790454865 2279.00004386902 172 172 170
-32.9178646206856 642.676651477814 2279.00004386902 173 173 171
-26.7422385513783 642.960965633392 2279.99997138977 173 173 171
-20.5791480839252 643.808782100677 2282.99999237061 172 172 170
-14.3619272857904 642.964124679565 2279.99997138977 172 172 170
-8.17530043423176 643.247067928314 2280.99989891052 171 171 169
-1.98061810806394 642.683506011963 2279.00004386902 169 169 167
4.21059317886829 643.247365951538 2280.99989891052 169 169 167
10.4080941528082 643.528938293457 2282.00006484985 169 169 167
16.6182778775692 644.091784954071 2283.99991989136 169 170 165
22.8292904794216 644.372224807739 2285.00008583069 167 168 163
29.0329772979021 644.370198249817 2285.00008583069 170 169 165
35.2211743593216 644.085586071014 2283.99991989136 170 169 165
41.4038673043251 643.800616264343 2282.99999237061 171 170 166
47.581035643816 643.515169620514 2282.00006484985 171 170 166
53.7997931241989 643.793165683746 2282.99999237061 172 171 167
59.9975772202015 643.788635730743 2282.99999237061 172 171 167
66.1372318863869 643.219709396362 2280.99989891052 173 172 168
72.2975954413414 642.9323554039 2279.99997138977 173 172 168
78.4868001937866 642.926454544067 2279.99997138977 174 173 169
84.7872272133827 643.765985965729 2282.99999237061 175 174 170
90.8646509051323 642.913162708282 2279.99997138977 175 174 170
97.0532819628716 642.906010150909 2279.99997138977 174 174 172
103.196419775486 642.616212368011 2279.00004386902 173 173 171
109.525881707668 643.453896045685 2282.00006484985 172 172 170
115.820668637753 644.009113311768 2283.99991989136 170 170 168
122.286334633827 645.409822463989 2289.00003433228 167 167 165
128.554314374924 645.682156085968 2289.99996185303 167 167 165
134.945169091225 646.517992019653 2292.99998283386 165 165 163
141.228854656219 646.789312362671 2293.99991035461 176 176 174
147.453397512436 646.778345108032 2293.99991035461 175 175 173
153.744637966156 647.048950195313 2295.00007629395 166 166 164
160.180389881134 647.882878780365 2298.00009727478 166 166 164
166.849300265312 649.562180042267 2303.99990081787 155 157 154
173.400178551674 650.67720413208 2308.00008773804 163 165 162
180.050238966942 652.073562145233 2312.99996376038 176 178 175
186.404824256897 652.341842651367 2313.99989128113 155 157 154
192.847728729248 652.89169549942 2315.99998474121 165 167 164
199.301093816757 653.44101190567 2318.00007820129 162 164 161
205.676212906837 653.708100318909 2319.00000572205 164 166 163
212.147757411003 654.256701469421 2321.00009918213 161 163 160
218.723818659782 655.086636543274 2323.99988174438 161 163 160
225.315749645233 655.916333198547 2326.99990272522 160 162 159
231.525346636772 655.618071556091 2325.99997520447 171 173 170
238.138049840927 656.446874141693 2328.9999961853 181 183 180
245.186418294907 658.402740955353 2335.99996566772 189 194 190
253.241360187531 662.894725799561 2351.99999809265 193 198 194
-230.455651879311 652.70870923996 2338.00005912781 208 213 209
-223.349288105965 650.491654872894 2329.99992370605 203 205 202
-216.844767332077 649.949312210083 2328.00006866455 181 183 180
-210.531517863274 649.964869022369 2328.00006866455 176 178 175
-203.603804111481 648.025751113892 2321.00009918213 179 181 178
-196.798622608185 646.365225315094 2315.00005722046 180 182 179
-190.519422292709 646.37964963913 2315.00005722046 172 172 170
-184.160187840462 646.114349365234 2313.99989128113 173 173 171
-177.729144692421 645.569443702698 2312.00003623962 170 169 167
-171.531066298485 645.861744880676 2312.99996376038 170 170 168
-165.470093488693 646.712124347687 2315.99998474121 167 167 165
-159.392461180687 647.562146186829 2319.00000572205 157 159 156
-153.166204690933 647.853255271912 2319.9999332428 148 153 149
-146.744266152382 647.306263446808 2318.00007820129 157 162 158
-140.332847833633 646.758675575256 2315.99998474121 154 159 155
-133.758336305618 645.372927188873 2311.00010871887 158 160 157
-127.155542373657 643.707394599915 2305.0000667572 162 162 160
-120.637439191341 642.320573329926 2299.99995231628 164 164 162
-114.096499979496 640.654027462006 2293.99991035461 170 169 167
-107.728943228722 639.82480764389 2290.99988937378 170 170 168
-101.333126425743 638.715863227844 2286.99994087219 169 169 167
-95.0419828295708 638.16499710083 2285.00008583069 170 170 168
-88.7225940823555 637.334287166595 2282.00006484985 173 173 171
-82.5278013944626 637.341022491455 2282.00006484985 173 173 171
-76.2993469834328 637.067854404449 2280.99989891052 172 172 170
-70.0454488396645 636.515140533447 2279.00004386902 173 173 171
-63.8022199273109 635.961711406708 2276.99995040894 173 173 171
-57.5950257480145 635.687291622162 2276.00002288818 173 173 171
-51.4608956873417 636.250197887421 2278.00011634827 172 172 170
-45.2561601996422 635.974705219269 2276.99995040894 174 174 172
-39.0567556023598 635.698676109314 2276.00002288818 174 172 173
-32.8915752470493 635.980904102325 2276.99995040894 174 172 173
-26.7091635614634 635.983169078827 2276.99995040894 174 172 173
-20.5717645585537 637.381672859192 2282.00006484985 173 171 172
-14.375664293766 637.383043766022 2282.00006484985 172 172 170
-8.1867016851902 637.942492961884 2283.99991989136 171 171 169
-1.9842516630888 637.663662433624 2282.99999237061 170 170 168
4.21461835503578 637.663543224335 2282.99999237061 169 170 165
10.4180406779051 637.942314147949 2283.99991989136 168 169 164
16.6195910423994 637.941122055054 2283.99991989136 168 169 164
22.841090336442 638.498246669769 2286.00001335144 169 170 164
29.0225669741631 637.937605381012 2283.99991989136 170 169 165
35.1931154727936 637.376427650452 2282.00006484985 170 169 165
41.3345843553543 636.53552532196 2279.00004386902 171 170 166
47.5013740360737 636.252701282501 2278.00011634827 171 170 166
53.7333264946938 636.807262897491 2279.99997138977 172 171 167
59.9760189652443 637.361407279968 2282.00006484985 172 171 167
66.1424323916435 637.07709312439 2280.99989891052 173 172 168
72.3666995763779 637.350976467133 2282.00006484985 173 172 168
78.5273686051369 637.065649032593 2280.99989891052 174 173 169
84.7567245364189 637.338697910309 2282.00006484985 175 174 170
90.8717438578606 636.773228645325 2279.99997138977 175 174 170
97.0608294010162 636.765837669373 2279.99997138977 174 174 172
103.204436600208 636.47872209549 2279.00004386902 173 173 171
109.486348927021 637.028992176056 2280.99989891052 172 172 170
115.829616785049 637.858152389526 2283.99991989136 170 170 168
122.242338955402 638.966023921967 2288.00010681152 167 167 165
128.620326519012 639.794051647186 2290.99988937378 166 166 164
134.955495595932 640.342533588409 2292.99998283386 154 154 152
141.239628195763 640.611171722412 2293.99991035461 167 167 165
147.528901696205 640.879452228546 2295.00007629395 175 175 173
153.890281915665 641.426384449005 2296.99993133545 174 174 172
160.262182354927 641.97301864624 2299.00002479553 167 167 165
167.006701231003 643.915295600891 2305.99999427795 153 155 152
173.638582229614 645.298600196838 2311.00010871887 157 159 156
180.297210812569 646.681487560272 2315.99998474121 171 173 170
186.66036427021 646.947026252747 2316.99991226196 154 156 153
193.111822009087 647.491335868835 2319.00000572205 162 164 161
199.401766061783 647.47679233551 2319.00000572205 163 165 162
205.868691205978 648.020267486572 2321.00009918213 163 165 162
212.163239717484 648.00500869751 2321.00009918213 161 163 160
218.833804130554 649.106025695801 2325.00004768372 160 162 159
225.428834557533 649.927496910095 2328.00006866455 160 162 159
231.641471385956 649.631679058075 2326.99990272522 170 172 169
238.05283010006 649.894118309021 2328.00006866455 178 180 177
244.993910193443 651.551783084869 2334.00011062622 189 194 190
253.474563360214 657.117187976837 2354.00009155273 191 196 192
-240.559369325638 656.62282705307 2375 208 213 209
-230.472296476364 646.410226821899 2338.00005912781 205 210 206
-223.365500569344 644.214868545532 2329.99992370605 199 201 198
-216.767460107803 643.401503562927 2326.99990272522 182 184 181
-210.185214877129 642.587661743164 2323.99988174438 176 178 175
-203.531086444855 641.496956348419 2319.9999332428 177 179 176
-196.898221969604 640.405714511871 2315.99998474121 177 179 176
-190.698191523552 640.69664478302 2316.99991226196 172 172 170
-184.253558516502 640.157699584961 2315.00005722046 173 173 171
-177.896246314049 639.894783496857 2313.99989128113 170 169 167
-171.692356467247 640.184581279755 2315.00005722046 168 168 166
-165.625527501106 641.026973724365 2318.00007820129 167 167 165
-159.542083740234 641.868948936462 2321.00009918213 157 159 156
-153.375953435898 642.434000968933 2322.99995422363 147 152 148
-146.945431828499 641.892433166504 2321.00009918213 154 159 155
-140.464827418327 641.073703765869 2318.00007820129 153 158 154
-133.884429931641 639.70148563385 2312.99996376038 159 161 158
-127.275690436363 638.052105903625 2306.99992179871 163 163 161
-120.751716196537 636.678874492645 2302.00004577637 164 164 162
-114.105373620987 634.475409984589 2293.99991035461 169 168 166
-107.643291354179 633.101165294647 2289.00003433228 169 169 167
