ply
format ascii 1.0
comment KinectMotionCapture
element vertex 793
property float x
property float y
property float z
property uchar red
property uchar green
property uchar blue
end_header
92.8102406994329 255.426194532144 2586.31224202992 29 28 23
76.3873886454212 254.774578513725 2591.69535624822 30 29 24
67.8087267963177 254.22430787637 2589.17911833145 24 23 18
53.5989360874085 253.606346323074 2592.46158852679 24 23 18
57.7196531231317 253.210821040738 2576.91975900982 23 22 17
56.8660449614766 252.752251865861 2566.41775550562 20 21 15
27.8836295648452 251.519390388516 2573.80944319352 22 25 18
19.3690205416508 250.974395559628 2571.33966526022 25 28 21
-42.4695650212801 249.410880132462 2614.19742006159 25 28 21
-76.9376805976334 248.608780053989 2639.8470146977 30 33 26
-67.3523469168575 248.267564716775 2618.38599551036 32 35 28
-52.4031156042151 247.97238225082 2590.93243688852 24 27 20
-56.6626725154049 247.480826345728 2584.13669898796 24 27 20
-54.8266339845109 247.046041023844 2570.64415724718 24 27 20
-67.2545523765573 246.475531129933 2572.74792285162 26 29 22
-75.5969536721604 245.944646675502 2570.40305344697 26 29 22
-73.843318169525 245.503221262235 2556.85074235907 25 28 21
-74.1536167516399 245.040285832852 2545.50724234172 25 28 21
-85.1899121197708 244.485464807189 2546.14983138372 23 26 19
-97.5273416492875 243.922389228391 2548.31952642903 22 25 18
-105.845385950679 243.393561976868 2545.99232434943 20 23 16
-102.249539645681 242.95573848413 2530.06979058968 19 22 15
-115.195245293424 242.392004097531 2533.03356658784 20 23 16
-116.932630808455 241.910684282127 2523.12581541216 20 23 16
-131.138138972727 241.342067003999 2527.64667668318 22 25 18
-127.02593254867 240.897568117707 2510.86339295202 24 27 20
-122.335291961567 240.451378653329 2493.26438329775 21 26 19
-128.734921204053 239.932383750201 2488.62252667352 19 24 17
-135.135249691405 239.413352737378 2483.98016296885 20 23 16
-155.692377727541 238.815933866144 2496.24740880477 19 22 15
-99.6082902006425 237.627064868407 2391.15330994961 18 19 13
-99.2437574354155 237.121895723222 2377.82842792004 14 15 9
-114.738281237425 236.546169833107 2383.88489149819 13 14 8
-113.156886987126 236.042502140529 2368.97236715204 19 20 14
-132.355928762619 235.458116896514 2379.75411146079 31 27 16
-192.765286469449 234.740724623107 2442.17925163996 84 76 65
-210.394473851663 234.186436080637 2451.62880161105 137 123 110
-218.003574327878 233.666832649089 2448.5805381312 141 122 107
-221.270498561772 233.159029322397 2440.03393081044 144 117 100
-227.644378990521 232.642392941498 2435.41075199717 146 117 99
-230.330703853735 232.13309871361 2426.0499893699 144 117 100
-236.106189224803 231.616414947619 2420.62556303512 140 117 101
-243.717058549855 231.096768103779 2417.5760170591 138 125 109
-268.950982372035 230.557951410445 2437.56946374739 138 131 115
118.455177057436 249.02037146271 2594.98947494152 23 26 19
121.271063476794 248.579936194623 2580.97188612177 25 26 20
117.599004259195 248.075658160893 2573.36693676783 28 29 23
103.225779769567 247.474059619213 2576.53071873253 35 34 29
87.4799102920441 246.863907913943 2581.16976546378 39 38 33
69.6669833544989 246.240252836687 2588.01569409644 29 26 21
58.2734414834096 245.674910625179 2588.39925423255 25 22 17
45.502921527059 245.10066422087 2590.2549362024 23 22 17
74.839183767061 244.859059987257 2548.52861527244 21 22 16
50.8306674736616 244.195380687161 2561.9992393239 19 22 15
37.3822937020254 243.617587121136 2564.59854925907 20 23 16
24.6714448644809 243.048269959628 2566.49751306398 23 26 19
11.9994674883244 242.482119466535 2568.42437718359 27 30 23
-17.1960840376331 241.808866381582 2588.01564219268 27 30 23
-62.8107131765656 240.573957080964 2614.22854436329 28 31 24
-68.3738989461862 240.070734227885 2608.95808672247 22 25 18
-56.9112232292082 239.664007364439 2585.15225664822 25 28 21
-53.0338007485327 239.207222553374 2569.43374742454 26 29 22
-60.0529540093548 238.6887253332 2565.57782376818 28 31 24
-79.2117197269806 238.110452920872 2575.1537593843 29 32 25
-88.201256809957 237.58633064637 2573.5748383178 29 32 25
-83.1000560660158 237.126144709072 2556.27338158811 27 30 23
-83.4188561663589 236.637412379978 2544.9238824494 22 25 18
-88.4385554039648 236.127070722077 2538.81204262985 22 25 18
-96.1222991448853 235.606206393337 2535.70966226775 20 23 16
-104.459104608257 235.083763108605 2533.36859768047 19 22 15
-114.760992247423 234.556114083466 2533.30867556057 20 23 16
-116.497259271144 234.055295441428 2523.40163643771 22 25 18
-128.085794737107 233.52611039066 2524.87935580489 25 28 21
-123.327439418547 233.038296619523 2507.32892869221 24 29 22
-110.19176631371 232.562035354793 2479.79509692868 23 28 21
-128.296228515208 232.018245471878 2488.90045769521 19 24 17
-146.967399656109 231.479895598769 2498.83006324132 20 23 16
-145.60276051672 230.973836574412 2484.9951385291 18 21 14
-117.994477695893 230.489771268147 2439.54486706974 17 20 13
-88.7041208734025 229.988017646295 2391.608472992 17 20 13
-118.900895630418 229.439816086776 2415.41500431818 19 20 14
-97.5191849463537 228.913237143824 2376.56695558916 15 16 10
-119.978115286851 228.376123011789 2391.16125416819 12 13 7
-127.829500165963 227.842084886009 2387.9372804395 18 19 13
-152.003103568365 227.320100329871 2404.99405692191 22 18 9
-210.477013960448 226.84207632668 2465.11834672392 91 83 72
-206.839882923462 226.315076646995 2447.99025282328 137 121 108
-213.217380509699 225.797933465161 2443.36444928831 140 118 104
-217.737591931895 225.277322244834 2436.37961019919 145 118 101
-222.271453951847 224.755629444778 2429.38487002202 149 120 102
-227.433747579076 224.234378297073 2423.16960522759 143 116 97
-231.380161320181 223.709022688699 2415.36566366247 140 117 101
-239.617146007676 223.19535594432 2413.09730021784 135 122 106
-252.706197589849 222.69921798023 2417.19254070739 136 127 112
102.323093496376 241.347390740063 2622.78023503693 27 32 25
130.404124623844 241.025667162858 2583.84896882989 22 25 18
131.753162681596 240.538234334639 2571.23816001222 23 24 18
116.61869204982 239.95865059278 2575.08524654119 28 29 23
105.097451951504 239.40155679622 2575.37627728701 30 29 24
92.8957324367898 238.843439304917 2576.40933990273 32 31 26
77.8966885684036 238.274946128845 2580.35465635853 25 22 17
63.654992814524 237.713808600821 2583.61428573078 23 20 15
80.4143757096463 237.285679791079 2555.00219796378 23 20 15
65.4693700366464 236.721657661196 2558.98671050738 22 23 17
54.0713035269134 236.174756159729 2559.36737851922 20 23 16
27.3722582544318 235.577598898115 2575.82806415905 21 24 17
8.44125977614718 235.015173770505 2584.33415674819 24 27 20
-23.5677170742721 234.420451092945 2606.82674846392 28 31 24
-83.65822723266 233.279109135563 2648.48378556528 32 35 28
-82.2714160840916 232.795119082774 2635.9003767056 21 24 17
-67.2618527050166 232.333498528509 2608.48971104454 22 25 18
-55.7973937685752 231.8549957742 2584.68481010509 25 28 21
-52.5991819090463 231.35559260594 2569.70904184291 26 29 22
-43.3709865624989 230.858132877552 2547.98833404674 26 29 22
-72.0323874806175 230.318772114533 2567.96749442179 28 31 24
-95.8408028512048 229.794175656546 2582.81891701378 28 31 24
-91.38076909378 229.288976403267 2566.28747328026 23 26 19
-80.9792856274183 228.77853445393 2542.94716806544 20 23 16
-90.0008049966352 228.262524735456 2541.3451034488 17 20 13
-102.324032710796 227.749415960081 2543.52534678485 22 25 18
-118.577049344181 227.242382468967 2550.26734729224 22 25 18
-115.645625256381 226.721609225144 2535.09807063715 24 27 20
-123.946950858882 226.210035697502 2532.78307569268 25 28 21
-123.722782813475 225.686273945724 2520.59167721319 26 29 22
-122.890861954405 225.15769463164 2507.60549621029 22 27 20
-106.498622114458 224.592064077554 2476.25648887554 21 26 19
-85.7246083751073 224.002920721812 2439.43766401971 19 22 15
-131.674101789615 223.577629060802 2481.46857089123 18 21 14
-139.371307948233 223.061132193799 2478.35615898028 15 18 11
-150.909828161398 222.557926783463 2479.87026706359 15 18 11
-104.872844899917 221.852635115542 2411.9595207465 14 17 10
-103.798528952916 221.289829778607 2397.91384712505 21 22 16
-116.745996808558 220.780719042105 2400.87662234066 17 18 12
-153.691950632789 220.382238790768 2433.37786892362 10 11 5
-144.400996652249 219.782261820362 2409.2317691951 15 16 10
-188.131143472823 218.88762146341 2438.04753297362 123 115 104
-193.926543933061 218.363349971578 2432.60863133236 126 110 97
-205.942680800878 217.875887157746 2435.0113268014 125 103 89
-211.725604072361 217.352708605098 2429.58147567649 128 101 84
-217.513338044595 216.829179538918 2424.14813539653 129 102 83
-222.690810339712 216.301049225313 2417.92183241749 133 107 90
-227.877638893553 215.772216116645 2411.68903780406 128 107 90
-233.073489264083 215.242679121719 2405.44940504083 123 111 97
-243.753199440116 214.755605091161 2406.35083345037 130 122 109
130.893998327259 233.437552163266 2595.28186652734 26 31 24
121.503875147325 232.901296445595 2593.41249059194 22 25 18
122.883307771328 232.385561585377 2580.82357208863 21 22 16
117.06653338707 231.854843383507 2575.36884890282 26 27 21
95.5695878800582 231.303517338948 2585.72029231448 26 27 21
81.2669361497673 230.767043734057 2588.93556384917 25 24 19
66.3035123592821 230.23390610151 2592.90717561943 21 20 15
64.0972791545598 229.711830919438 2583.89437694302 23 22 17
75.9362766634752 229.191519974656 2560.36077524109 27 24 19
65.2133770486518 228.661195132003 2559.99563900165 21 22 16
34.9375917446921 228.137464595556 2580.03961348212 19 22 15
6.90191281990904 227.624884651086 2598.00214099842 21 24 17
-3.62769199732838 227.110390606192 2597.77720846898 27 30 23
-0.27982609258892 226.584014358523 2582.90979099398 30 33 26
-50.1550452328929 226.120275540663 2624.56473402371 35 38 31
-74.98830288168 225.126805860664 2628.78996965406 23 26 19
-74.3552012816635 224.607898526826 2616.89504042397 25 28 21
-56.0468851599412 224.043797720415 2585.69971431922 27 30 23
-54.8821902794163 223.511167906192 2572.95474778964 27 30 23
-65.9554990711144 223.00979695082 2573.57077574613 24 27 20
-76.3238872154675 222.508773993098 2573.46278085711 27 30 23
-90.7029168200093 222.023781614479 2577.85827630955 27 30 23
-92.960770553995 221.498114564023 2568.80803861632 23 26 19
-87.8950208936995 220.940803357145 2551.48039068089 19 22 15
-98.8909246769773 220.445938311972 2552.15256413361 17 20 13
-119.150676614709 219.99609047382 2563.40109509675 23 26 19
-110.867823794761 219.415418729787 2542.22999794939 24 27 20
-119.168814497491 218.911752915384 2539.91528583504 25 28 21
-116.284514658845 218.348327578554 2524.71133728778 24 27 20
-135.078100812947 217.903843199131 2534.55267702558 21 24 17
-134.857524866889 217.352002105204 2522.35853232921 20 23 16
-121.670593356607 216.71419947251 2494.86104063883 20 23 16
-115.100818861218 216.108564871038 2474.9180432717 17 20 13
-107.327987452445 215.486770715767 2453.37671794884 16 19 12
-145.371911576136 215.187705484449 2486.31756261575 16 19 12
-162.664677448238 214.751486157901 2494.77655313377 15 18 11
-145.350251308178 214.050469205405 2461.62500483418 20 21 15
-125.651394127747 213.315345882304 2425.26136773272 21 22 16
-134.896401139543 212.223163542871 2411.14312400354 10 11 5
-159.719730092484 211.859039203329 2428.96503126789 13 14 8
-154.251341858014 211.221360408692 2409.45848981451 28 21 11
-166.401088811108 210.74756780853 2411.7646922007 130 120 110
-188.494856857311 210.377446669682 2426.62455057224 119 103 90
-201.151902993619 209.919494845849 2429.79811782008 121 99 85
-211.286919825913 209.438613517211 2429.85940079688 122 95 78
-214.605204413242 208.884936200546 2421.27562337605 121 94 77
-217.330810877254 208.322481223012 2411.88611540837 118 95 77
-217.631876297189 207.729191636422 2399.31361180863 113 92 75
-220.420228176992 207.161758132129 2389.87859313278 106 89 73
-240.272105948877 206.803196370251 2402.65859427141 124 118 104
158.033388444445 225.316714813623 2569.21476695976 25 28 21
145.684055691868 224.789318491802 2570.14097719792 23 26 19
141.256335579795 224.248684338203 2563.22308561326 18 21 14
134.66965443439 223.711822468772 2558.44554057301 20 23 16
120.243077811441 223.194905157976 2561.57107536481 22 23 17
62.5284585581971 222.803736898432 2608.65965062962 19 20 14
53.9967649888826 222.288162501988 2606.17763676453 16 15 10
77.2472702624567 221.667534123124 2571.15391399496 19 18 13
80.6049067899459 221.102791067993 2556.29338511746 22 21 16
55.134664657368 220.644350213836 2571.17548574491 21 22 16
26.2856062937953 220.210062662013 2589.78410482028 18 21 14
3.15420981253745 219.762623819252 2602.65633593655 19 22 15
2.3663959245086 219.219572957114 2592.20160018903 22 25 18
0.849529355226863 218.677034560743 2582.45339781904 28 31 24
-50.4635678965988 217.850017553778 2614.4183068858 26 29 22
-70.4469389577889 217.419761079714 2624.63225484954 23 26 19
-66.4058946273276 216.851204460992 2609.03179245039 24 27 20
-61.0688052516695 216.26853902555 2591.90071604113 24 27 20
-65.3207428784526 215.742959223123 2585.1103291847 27 30 23
-83.1324548662915 215.310183187053 2593.19314202951 25 28 21
-88.0437066210029 214.79086169107 2587.16016709706 26 29 22
-87.5817462339583 214.230350210168 2575.14096321614 27 30 23
-91.1888482270715 213.697625855316 2567.58295865426 26 29 22
-92.1406540612273 213.141783546715 2557.00898237701 26 29 22
-103.788436951526 212.672576025453 2558.44405581989 25 28 21
-112.745513060904 212.183126673708 2556.88884203109 22 25 18
-121.023924702294 211.689153794756 2554.59054705679 22 25 18
-116.75783734195 211.079657578385 2537.91797915633 20 23 16
-139.515258595811 210.723362053371 2552.29681118404 18 21 14
-137.92235008631 210.135691920787 2538.62724491039 16 19 12
-138.342013556348 209.563732475651 2527.20391172369 18 21 12
-129.041537611842 208.885679091686 2504.29965030386 18 21 12
-126.332986854215 208.2693469349 2488.96802951362 17 20 11
-124.979948434617 207.662408945419 2475.12447869723 17 20 11
-135.274006249534 207.184296403094 2475.07048349607 18 19 11
-136.556013426614 206.60227166945 2464.25700459934 18 19 11
-142.991301641754 206.079429290324 2459.58927853661 24 25 17
-150.702114144603 205.572473048183 2456.46734589851 21 22 14
-112.034201848759 204.47373355489 2396.79889623612 17 18 10
-122.422170949997 203.988293200178 2396.67678562253 13 13 5
-133.414800029958 203.51350225122 2397.35143465683 13 13 5
-144.376944875382 203.041251811009 2398.04819523148 34 25 16
-170.967141958845 202.792470188639 2418.29525067939 127 115 103
-188.053977300509 202.419985520112 2426.90384746231 131 113 99
-199.468773011383 201.970869838965 2428.50792005288 129 107 94
-207.749984617886 201.47778659416 2426.20759983029 116 90 75
-212.313410034936 200.928466402291 2419.19128857746 117 91 76
-212.583713623006 200.309951470887 2406.64095711479 113 92 75
-212.285585397708 199.677953909584 2393.26729460615 105 88 72
-214.479946069365 199.082424067435 2383.0276938908 101 88 72
181.001860460803 217.593260896267 2558.65340897464 31 36 29
172.916299122476 217.058833035794 2555.25937928199 23 26 19
167.715624689361 216.509019038922 2549.01644122285 24 27 20
168.242492705736 215.924875931233 2537.04417056878 18 21 14
95.0815423513225 215.787496705731 2598.87419234413 19 22 15
89.3300083815434 215.255561987537 2593.46705164221 24 25 19
105.600483507309 214.576497330588 2565.73430978906 24 25 19
95.3451247776185 213.489242171935 2553.35403323017 17 16 11
90.2025148498651 212.944457748135 2547.15291836888 20 19 14
52.0682587309729 212.655196018998 2575.08788810754 23 26 19
4.33817900076594 212.46095554071 2613.35881254359 20 23 16
9.16668885253458 211.85195631186 2597.09395922719 20 23 16
41.7279896756924 210.997443918546 2551.52695546821 23 26 19
-22.9656475019215 210.986944963972 2608.37954284657 29 32 25
-43.1506365166427 210.030905055534 2607.32875183946 25 28 21
-35.0217407469717 209.377915362021 2587.28042378825 20 23 16
-44.7725342336949 208.896561587244 2586.38519944576 20 23 16
-53.1384218502124 208.402828264086 2584.02349248366 19 22 15
-58.0937108054573 207.873894780031 2577.95825088111 25 28 21
-82.0269749033489 207.552365051342 2592.72019653928 24 27 20
-97.743460674903 207.148814862087 2598.61662725267 25 28 21
-91.8627479053593 206.500889596452 2580.64426786004 26 29 22
-90.0872562527098 205.89431233252 2567.10666975801 27 30 23
-95.7202209213592 205.373092044609 2561.78553674357 27 30 23
-98.0265504571343 204.809828539741 2552.69996747365 27 30 23
-98.3678036573463 204.21885621738 2541.33337926093 22 25 18
-129.199309561382 204.024591564735 2564.68186767004 20 23 16
-134.797772420856 203.50640986098 2559.38546666738 17 20 13
-133.826496611632 202.897324503352 2546.50019373987 17 20 13
-124.385762077002 202.164217176843 2523.69732990621 17 20 13
-122.889030405667 201.535445580403 2509.95754032602 19 22 13
-126.002232831486 200.969530520799 2501.52207487713 19 22 13
-120.057303877417 200.264963353718 2482.3609436355 18 21 12
-125.186578860606 199.72280881435 2476.16950888099 17 20 11
-125.17165019369 199.098862002881 2463.82592085357 19 20 12
-130.979808518522 198.564177202752 2458.37771801854 19 20 12
-130.394915100954 197.924179740727 2445.21189719658 25 26 18
-117.107999997036 197.066724190824 2416.55073653245 20 21 13
-128.102756926206 196.610666045869 2417.22393792878 16 17 9
-132.1024898758 196.035753716908 2409.38109311699 13 13 5
-113.407078603926 195.055625172746 2373.52383229127 13 13 5
-160.275436075425 195.246387988306 2418.59686532333 11 1 0
-183.680243951802 195.031891786266 2434.9774789494 103 89 78
-191.983180731975 194.54499075354 2432.66144099891 126 108 94
-200.27323067379 194.059208378208 2430.35475065878 128 106 93
-207.930599956374 193.562432792824 2427.27161171862 118 92 77
-212.491280063152 193.004929793704 2420.25724915226 122 96 81
-211.526916166859 192.334094657059 2406.13132175053 114 92 78
-212.455860649572 191.696964464614 2394.33876426349 106 88 74
-219.53457818001 191.185010002157 2390.43969433728 103 91 77
192.314987180715 209.25680690664 2548.28528836194 29 32 25
182.75258883501 208.737717773001 2546.29111343447 23 26 19
162.413444106361 208.3212202566 2555.01218653671 21 24 17
136.418278927563 207.966940783843 2569.51428684348 28 31 24
96.2382775828359 207.764501965512 2598.43705972015 25 28 21
88.3461647944643 207.250976912803 2595.1833708866 22 25 18
95.3864422501822 206.581308544564 2576.81645791901 20 21 15
105.17593444819 205.874152419222 2555.50158403554 15 16 10
111.331367521251 205.197816916256 2537.72793687327 15 16 10
97.6913950055844 204.739192279553 2540.18895640409 16 17 11
61.6339915335584 204.546179153273 2565.92456410223 21 24 17
29.9590078779075 204.318047141143 2587.42609483741 18 21 14
-1.55806711672635 204.102864319118 2609.0421625211 19 22 15
22.7040659251569 203.202276928872 2572.28000452698 21 24 17
25.2858974149146 202.561991264782 2558.09173201212 25 28 21
-34.3669719795348 202.735090112743 2609.95385860945 22 25 18
-15.369409943119 201.274419230425 2566.90239055025 16 19 12
-23.8142985440657 200.782022770551 2564.48342086005 13 16 9
-34.2929223208661 200.32011099261 2564.29571191436 12 15 8
-33.8692729743926 199.700497265387 2552.24843617801 11 14 7
-70.0801888735969 199.626510341543 2580.34343559114 16 19 12
-54.7692275889455 198.781663181031 2551.91428195647 21 24 17
-90.0877326551282 198.715162571729 2579.42121031791 23 26 19
-88.9858248081925 198.085705101759 2566.6305321536 24 27 20
-93.2832337177913 197.539410896996 2559.80707727132 23 26 19
-89.5964807806156 196.859164830957 2543.94921575115 23 26 19
-95.2774493770625 196.331057296815 2538.59324877974 21 24 17
-95.0047147246995 195.69969948083 2526.43651227482 21 24 17
-115.233332315889 195.424753448742 2537.70849910234 18 21 14
-111.03626956723 194.721023473647 2520.98571095226 19 22 15
-112.154227944387 194.107323833412 2510.29099409192 23 26 19
-113.308511124766 193.490755315191 2499.57022455211 23 26 17
-117.753996618209 192.932991748111 2492.63936769951 24 27 18
-123.511206816421 192.39920068043 2487.22810277568 22 25 16
-115.048407162719 191.585773741572 2464.9509428712 22 23 15
-109.909993919767 190.828459737873 2446.43962615774 22 23 15
-128.612112120402 190.547731113132 2456.34810242221 23 24 16
-129.951987187635 189.91652422866 2445.49242473965 24 25 17
-121.124377181399 189.067801007583 2422.24450823333 22 22 14
-111.132688360462 188.18328248099 2397.36990825676 16 16 8
-120.889077642195 187.716486017979 2396.4707011387 14 14 6
-170.381725353294 188.130799513901 2444.58290349303 14 14 6
-173.666572817897 187.537677981471 2436.02316556331 21 8 0
-180.733818391907 187.028699101094 2432.13242697505 72 56 43
-189.67037487833 186.563610983434 2430.59221169329 115 96 82
-197.967461618212 186.085346367964 2428.280458307 103 81 68
-205.011775374654 185.578489490144 2424.40664870807 111 85 72
-209.580789454084 185.011902404307 2417.38619865439 117 94 80
-208.007898213629 184.292106785118 2402.46612108736 108 89 75
-210.786368629477 183.675486886232 2393.03801655683 101 85 72
-225.814214765211 183.368312641852 2399.43414500169 111 101 89
191.322435155439 200.993579053585 2549.994279074 31 34 27
175.9888033472 200.559628616924 2553.69772707724 22 25 18
160.706734949792 200.129955365692 2557.43887063922 20 23 16
130.409288315588 199.907470168786 2576.23363159695 28 31 24
96.6796644997125 199.746053610547 2598.71641549414 24 27 20
88.0740725011138 199.247493986041 2596.18091726376 21 24 17
88.7218600767534 198.617342253807 2584.296070736 18 21 14
106.332304685487 197.73434473124 2555.06330066183 14 17 10
113.194681524785 196.997507749852 2536.56678904152 14 17 10
109.408335587121 196.414939105773 2528.87859424783 15 18 11
74.011333497114 196.322517106918 2553.85841388615 19 22 15
35.9951087618953 196.289272519407 2581.87994939403 18 21 14
19.8026208335342 195.922396136604 2587.43179622264 20 23 16
3.67102712800804 195.560539590286 2593.02751752238 23 26 19
2.85084497514498 194.947506229673 2582.54866837673 23 26 19
-5.60678728816488 194.461649919603 2580.12049366087 22 25 18
-13.3634914725089 193.964862642506 2576.96534467129 17 20 13
-22.485427511348 193.493165655677 2575.29071032057 16 19 12
-27.4845594042292 192.948689724224 2569.19390178833 14 17 10
-8.6179255841603 191.964297835658 2537.16585213479 12 15 8
-18.4737075201655 191.501144311016 2536.1946116127 9 12 5
-35.0855494655691 191.168880397356 2542.67737723606 13 16 9
-38.7971549701294 190.593337398885 2535.04339896365 14 17 10
-62.7267041930288 190.414437054231 2549.80876005993 20 23 16
-89.8977091098858 190.312182871343 2568.40048107554 21 24 17
-88.170142398925 189.634993045078 2554.82778349396 21 24 17
-75.8297947280187 188.732520900296 2529.18531776656 20 23 16
-85.5415594976907 188.281654214335 2528.31854059708 19 22 15
-94.5696367905466 187.818449521924 2526.71198946951 19 22 15
-100.280749181372 187.284935217435 2521.3341432319 19 22 15
-114.548575135407 186.940007944877 2525.81066756415 20 23 16
-105.162422266723 186.069754275274 2502.96754164275 23 26 19
-101.110340992158 185.310024796382 2486.13907520249 25 26 18
-114.060447158625 184.936456945341 2489.10062440171 25 26 18
-123.073370542106 184.475005537374 2487.5053620242 23 24 16
-123.014519562513 183.798947732861 2475.19305578911 21 22 14
-108.176665716633 182.76017648302 2445.18491758251 23 24 16
-111.470520265316 182.151800061261 2436.6185729563 25 26 18
-123.748533256586 181.765323757303 2438.83223482834 23 23 15
-155.7614691345 181.882946513833 2465.03096909523 22 22 14
-138.015815036556 180.74084281734 2430.95446184763 18 18 10
-134.375052406657 179.948434187087 2413.82765621754 14 14 6
-152.267766970454 179.71799499107 2423.08810454856 14 14 6
-160.645884888215 179.240940110458 2420.71761605969 33 21 9
-172.772007681709 178.8673660446 2423.04145172997 74 56 44
-184.858528198744 178.497079462138 2425.39371811034 103 84 70
-195.660937876703 178.095272774033 2426.2066309283 96 74 61
-202.711960662181 177.590463778025 2422.32796818396 105 81 69
-204.197389895217 176.926084564994 2411.36660715595 112 88 76
-203.256005057241 176.187067655915 2397.22397086735 97 79 65
-203.59507069036 175.480061550507 2384.62334410552 94 80 67
150.501451019623 194.034460422032 2601.88533427075 61 63 58
171.498537006938 193.049743569519 2570.16665658414 28 31 24
168.499441374038 192.448472831068 2561.81402497814 30 33 26
172.675602290631 191.723194879336 2546.31071765136 27 30 23
141.620199314596 191.599910311238 2565.79185345827 22 25 18
103.559445974598 191.614637914734 2592.54631558966 20 23 16
97.0733831203909 191.083854885427 2587.84174168653 21 24 17
102.673315455661 190.333098500849 2570.90035433425 17 22 15
118.829399539938 189.379388600715 2543.0832968416 15 20 13
112.231729166306 188.839676137305 2538.29777103646 15 20 13
113.381162598157 188.151658886788 2525.54124856607 16 21 14
58.3057994383003 188.552488388126 2570.84168415767 14 17 10
31.5334127623021 188.424565823026 2587.25157981515 19 22 15
13.9589241549034 188.124810214476 2594.27199809652 21 24 17
20.1031825638025 187.347979389564 2576.49003563013 21 24 17
3.28623789265725 187.039232775604 2582.82423703025 21 24 17
7.26879419930837 186.299005443463 2567.18080034546 20 23 16
-23.262852609687 186.290539877924 2588.27723638546 17 20 13
-26.8581920683253 185.71265823977 2580.72723552828 14 17 10
-32.5259930430042 185.178649807393 2575.38078415769 12 15 8
-22.506104868369 184.292718140497 2552.996987072 13 16 9
-10.5528998750086 183.351715675323 2528.30871482114 13 16 9
-21.0903592844722 182.917310417152 2528.07849399567 10 13 6
-29.575245854401 182.43759540247 2525.63059315817 10 13 6
-71.0473442796804 182.743338848663 2559.79474895281 14 17 10
-81.4128717482423 182.323220458036 2559.6892376263 19 22 15
-81.7171184147707 181.659752299138 2548.34910903391 18 21 14
-70.0593011151738 180.695181489803 2523.44687903867 16 19 12
-75.801743195411 180.155843221238 2518.04629174106 15 18 11
-89.4980902496503 179.819086278956 2521.70209807887 16 19 12
-107.107695959299 179.588874705421 2529.93244810684 19 22 15
-108.851564133454 178.950313293606 2520.01920105353 20 23 16
-114.561794240635 178.413972888895 2514.6419800874 20 23 16
-104.592104435873 177.454136839976 2490.98608768562 17 18 10
-111.01709061795 176.930624243074 2486.32582639172 17 18 10
-131.074078545765 176.78498477481 2497.72288618822 17 18 10
-114.812684588586 175.629270976515 2466.2760369927 17 18 10
-109.666444654392 174.772983146212 2447.7698926928 24 24 16
-91.7514922295926 173.539567765554 2413.81594538069 27 27 19
-88.0909234184975 172.704209706683 2396.70328012671 23 23 15
-139.372695609016 173.488104417431 2445.99074770123 18 18 10
-143.930232486313 172.904792815575 2438.97853300334 16 16 8
-119.623540920744 170.705017725174 2383.71536844606 19 16 9
-141.327669133777 170.638730338537 2397.62448187367 67 50 40
-162.925721023328 170.581167850284 2411.61024200826 80 61 47
-178.170510956205 170.332554763396 2417.84939988856 93 71 58
-187.128514629955 169.887483401084 2416.29373847182 97 73 61
-193.588026510689 169.362577817206 2411.6084417064 96 74 61
-193.249092938439 168.612059993337 2398.26405401313 94 72 59
-193.575124472914 167.878358793122 2385.67274073165 87 67 56
-196.400399178903 167.224632579811 2376.21051882154 105 93 81
167.657677761245 185.60849967372 2585.8716662047 58 60 55
153.114455051413 185.230073351384 2588.91334324293 27 30 23
161.006432160849 184.397710935953 2569.92769034685 28 31 24
157.289194032427 183.797306283626 2562.28950293601 26 29 22
99.7077660979811 183.663908286515 2597.12468736441 24 27 20
105.362307554613 182.870303556013 2580.2226702943 21 24 17
116.630090836062 181.945159725437 2557.50796927938 18 23 16
111.480320353021 181.37559523766 2551.30153806284 16 21 14
116.214902810079 180.580803803918 2534.96794817638 16 21 14
101.8551679329 180.21801871194 2538.14271868624 17 22 15
80.5194520061181 180.023154886804 2548.61255193581 15 18 11
57.1747525641428 179.88561855173 2561.33201937806 17 20 13
36.7267473171622 179.689690309581 2571.21033102342 21 24 17
26.801807826871 179.246919920984 2570.18876548192 21 24 17
9.96268368530107 178.977139630883 2576.50738035973 19 22 15
0.101958773431665 178.539780442632 2575.53239274533 19 22 15
-1.46880971466112 177.894466124118 2565.74459514377 16 19 12
-20.9304012738096 177.705820504287 2575.10297938127 13 16 9
-30.0388721188609 177.256408466763 2573.43821911454 12 15 8
-8.42018021210666 175.997447574599 2538.46365783694 13 16 9
-19.6354952709206 175.59743232878 2538.97725580649 13 16 9
-19.9722260158932 174.905807052214 2527.61343619103 9 12 5
-17.6464300620744 174.136688156686 2513.23890548639 9 12 5
-69.268017486787 174.862501692267 2558.5743351884 12 15 8
-74.9390197421331 174.325612660563 2553.22554855033 16 19 12
-75.2617134502274 173.635512875329 2541.87191240939 17 20 13
-69.622433267611 172.768611490483 2523.72342422485 16 19 12
-77.3589538171149 172.284594066459 2520.58297146474 15 18 11
-97.0131988912519 172.154985604338 2531.03703272183 15 18 11
-104.033308445171 171.655896732484 2527.18051413531 19 22 15
-121.579743779058 171.47735803187 2535.45691945008 19 22 15
-124.621844236529 170.860818955478 2527.07303539183 17 20 13
-117.88122566184 169.936950678541 2507.25198015045 14 15 7
-125.562594475441 169.458035938231 2504.15153390679 15 16 8
-105.96683048584 168.109152511526 2468.94509016445 16 17 9
-103.372156317331 167.289598601538 2453.53018292329 16 17 9
-98.9056930597021 166.401762640854 2435.76642531213 22 22 14
-102.226504009776 165.763134902368 2427.18009170936 25 25 17
-83.1561985736013 164.371870172177 2391.59251717815 23 23 15
-82.1328768873539 163.57199259598 2377.50867591119 16 16 8
-113.836540993784 163.125201264868 2390.34246266453 14 14 6
-114.751665325011 162.388631459473 2378.55912554197 20 17 10
-135.845412213207 162.364274280303 2391.67559869668 63 47 34
-162.48163513966 162.551123802274 2411.8914955864 74 55 41
-174.604112400051 162.22710384088 2414.21822498274 92 70 57
-182.951074835577 161.76903232287 2411.8704179223 99 75 63
-186.941898308955 161.150591107316 2404.03351682054 93 71 58
-187.241557370848 160.391238029453 2391.46119157543 87 68 54
-188.20205160074 159.651824592123 2379.64524491855 76 58 46
-199.023411055513 159.287122073238 2380.44460857882 120 108 96
188.338394738983 176.27090831633 2555.11666802152 22 25 18
160.010597171989 176.249836344588 2571.63488545555 25 28 21
126.052827791916 176.381065414468 2593.95346959516 32 35 28
133.183291134779 175.507665549677 2575.65090236163 15 18 11
96.569738661564 175.728203722925 2600.98514602184 21 24 17
105.805437009337 174.79736811503 2580.50301328333 17 22 15
88.6243962714568 174.539645386076 2586.57353212051 16 21 14
136.037351574202 172.595746847955 2527.06479224209 15 20 13
97.5783703926938 172.895495255935 2554.76734530535 16 21 14
117.102195945246 171.657528863987 2523.21442355901 16 21 14
99.2294294059315 171.4201707367 2530.01892985752 20 23 16
58.3168602491382 171.825899558638 2560.88380244084 22 25 18
45.542464762423 171.469611354962 2562.73777895729 22 25 18
24.4565423432923 171.352666243291 2573.38908752506 19 22 15
-0.699891760996607 171.362471387723 2588.50134052453 16 19 12
3.30300982663001 170.540516865736 2572.87194412675 16 19 12
7.23855334717838 169.713150396979 2557.19369101608 12 15 8
-14.3133765396222 169.635072160622 2568.74270880005 12 15 8
-26.181686276521 169.27689305269 2570.01848000636 13 16 9
-1.8371827424366 167.821347576385 2532.0781865386 13 16 9
-22.598872960655 167.731609854018 2542.96467575906 9 12 5
-77.1781015133066 168.705530733283 2591.09804047169 8 11 4
-91.5617475134927 168.448359611251 2595.49134335999 7 10 3
-97.3393949650112 167.210544206442 2578.94518944215 17 20 13
-75.4974211507387 165.780737479477 2542.89658798734 16 19 12
-77.8585248485943 165.128670921592 2533.77086195341 14 17 10
-87.5610326055689 164.718743918168 2532.91070828054 15 18 11
-99.230516718466 164.377821971589 2534.33069983577 15 18 11
-108.883737073326 163.972134240643 2533.50629712528 18 21 14
-119.174003256105 163.591046631627 2533.4555420096 17 20 13
-120.253683351364 162.891178653665 2522.78843191011 12 15 8
-124.638668695974 162.304019589448 2515.90128401254 18 19 11
-115.353564171966 161.226744992064 2492.98385738779 19 21 10
-112.020089527776 160.352075421307 2476.86891210033 19 21 10
-109.424617240776 158.729669713709 2449.09926710661 19 20 12
-148.059128183575 159.400841594231 2482.85193385605 21 21 11
-101.919946022736 156.896666516055 2415.00616200302 21 21 13
-112.752142439527 154.945347688158 2389.85209711854 14 14 4
-137.040348201464 155.105574516795 2406.82925143995 20 17 10
-161.834516098526 155.301102856113 2424.67513292718 37 23 12
-165.173917972929 154.647803002151 2416.07524804946 65 46 32
-170.411222297811 154.069156237548 2409.80561015641 94 72 59
-178.14892577133 153.592418454263 2406.66404226522 99 75 63
-183.395951054769 153.013230626843 2400.38735470126 87 65 54
-187.415395701676 152.381428529607 2392.52993230153 83 63 52
-194.533703770622 151.879171456087 2388.60221146823 70 52 40
154.00568315508 168.975064744411 2589.47707869183 25 28 21
154.678913311479 168.234610964538 2577.61011733222 28 31 24
145.943088811368 167.755977868741 2574.98031171399 27 30 23
117.112893972105 167.855197995316 2592.37027105307 19 22 15
134.234709297144 166.635646293902 2564.01661509922 22 25 18
110.530136312679 166.598966198299 2576.47571338718 19 22 15
102.582824003236 166.105815327924 2573.18211244203 20 23 16
84.7133768775081 165.911905952587 2579.98924513078 18 21 14
98.0237310507266 164.77756677504 2555.04907784266 18 21 14
79.4912965148318 164.608953565099 2562.61076156819 19 22 15
91.9489328997667 163.484338641011 2538.28752684191 22 25 18
66.4629419076466 163.540562073625 2553.16081766106 23 26 19
25.7341316940387 164.095593535506 2584.15965727121 20 23 16
16.5414012126099 163.659922336125 2582.43388499594 16 19 12
13.6096020794936 163.022384355309 2574.12955988106 14 17 10
-3.86898975269268 162.861266282203 2581.22019800777 16 19 12
22.8429134079478 161.236947217401 2541.29011829301 13 15 10
-0.1351279938544 161.260928642515 2554.27590761573 12 14 9
4.39065328348809 160.361014819043 2537.79012635541 11 13 8
-6.85875160744986 159.995757032582 2538.27918793152 11 13 8
-15.022567497746 158.77187548025 2523.7090190084 9 12 5
3.52100706061043 157.352786870736 2491.44486945405 7 10 3
-96.912548067676 159.452327011116 2579.2153229678 19 22 15
-108.538557329015 159.13628542629 2580.66695639465 17 20 13
-70.7514994736731 156.990727129262 2526.5304263064 14 17 10
-110.404656617852 157.714786664341 2559.54492257188 13 16 9
-121.334780729556 157.376633865884 2560.26557489075 12 15 8
-115.058185995857 156.383134096262 2541.34311727326 12 15 8
-119.401245650145 155.790604075649 2534.4863349984 14 17 10
-121.789887278787 155.120036806996 2525.34084689803 16 19 12
-129.437574072031 154.654138667735 2522.26458892436 20 23 16
-126.648791504728 153.772582999241 2506.99008095283 20 23 14
-127.820152370018 153.043279728533 2496.25636041102 19 22 13
-119.964628045426 151.941694468533 2474.77255071106 19 22 15
-154.140974178106 152.559327132535 2503.11091972819 17 20 13
-132.225683174275 150.070948652549 2452.28848813566 14 15 7
-119.534396555824 146.277936606275 2386.12663085249 17 16 11
-124.874380570166 145.684949561929 2379.78219114789 40 30 20
-160.33914060568 146.436062253212 2410.892641898 64 52 40
-168.717404483141 145.991481247748 2408.52221208641 74 62 50
-175.836931103352 145.491338869548 2404.59391308767 79 69 59
-185.435294900398 145.10587496675 2403.80937950432 76 66 57
-203.671448832904 145.124632298669 2414.05716016634 55 46 37
192.867346817285 159.640121050253 2552.13979171948 21 24 17
197.038495013848 158.747328983624 2536.63229654998 24 27 20
140.62560265752 159.793934946724 2580.96639966787 21 24 17
147.720292997223 158.812126601695 2562.63705623357 15 18 11
133.965157494477 158.505353824118 2565.01536081696 17 20 13
116.683918566158 158.320683365212 2571.01361387171 20 23 16
91.6397929116286 158.404090428778 2584.9723233652 20 23 16
74.5127002433463 158.232283825268 2591.08267996848 20 23 16
72.3021141021229 157.556855830074 2582.06594899327 19 22 15
79.2288302049431 156.561775757515 2563.61477022599 20 23 16
43.9030516690027 157.035983661925 2588.64909143081 20 23 16
2.45199914529826 157.748092810987 2620.36019443561 21 24 17
18.4874817773206 156.431220713391 2592.45387088833 18 21 14
0.964468117824691 156.30977343502 2599.51250762482 13 16 9
-12.3250602447906 156.042176283888 2602.22853919291 14 17 10
42.911605158384 153.252898088242 2532.33043763022 15 18 11
4.66617250665946 153.89949500515 2561.42459006536 13 15 10
-3.13453928686869 153.424459062611 2558.23764919551 12 14 9
10.9965992373917 152.116500241361 2531.4209443697 11 13 8
20.2136384083729 150.981362885083 2509.68891926087 10 12 7
16.3946589547028 150.339782272634 2501.97676882774 10 12 7
2.37966457917782 150.095738495439 2505.40234500957 8 11 4
18.8449421740327 148.650771620864 2475.3365724424 7 10 3
-62.5804834000623 151.102351636863 2553.42103953504 12 15 8
-68.2683944211222 150.554683155672 2548.05994077182 16 19 12
-73.9614432212983 150.006692650373 2542.69482141473 17 20 13
-64.9764997354389 148.853372797279 2520.79445309266 15 18 11
-113.302736961491 150.07240396643 2563.58110420769 12 15 8
-124.222761402931 149.754000675338 2564.30917802822 12 15 8
-110.002580086124 148.372539607141 2536.32161329042 13 16 9
-103.823381662419 147.31861243273 2517.32824493256 15 18 11
-126.60900150252 147.507725621967 2531.689692283 18 21 14
-128.35196315555 146.791182353923 2521.77670739272 19 22 15
-126.215041923913 145.899582095051 2507.26463697893 19 22 15
-136.481055355501 145.553363135573 2507.23163981675 17 20 13
-118.878661038647 143.956867215082 2474.28431001655 16 19 12
-82.4393292529981 139.799707231101 2393.22276482702 18 19 13
-116.533104816754 140.542515953521 2421.62162505311 12 13 7
-110.342372876187 139.408934372031 2401.40117749329 13 14 8
-90.6445842946573 136.755673811601 2351.44046916915 15 16 10
-144.576420270607 138.503091484896 2404.98750148425 41 34 24
-147.971857689436 137.817354655615 2396.34712542187 58 50 39
-161.395191703446 137.624853576505 2400.20157542331 55 49 37
-172.277753132794 137.31199444743 2400.95683506308 58 51 41
-211.070400256685 138.41007652762 2437.06739563981 72 68 59
131.719286622241 152.773384602074 2601.64703333664 21 24 17
130.981910204171 152.031301967807 2591.22785265232 18 21 14
63.3985219846851 153.710628266352 2647.22948823434 18 21 14
124.38470499737 150.722124274488 2575.3225534696 16 19 12
106.418156021371 150.606909886605 2582.05969356046 18 21 14
77.8445799625955 150.896685624742 2599.63635205475 18 21 14
66.4360558387722 150.554667478107 2600.01018241652 20 23 16
82.6439856831134 149.163160872388 2572.22878597218 20 23 16
70.503783033792 148.846310831925 2573.30737106665 20 23 16
35.2006696136362 149.434531344483 2598.35870019394 18 21 14
26.004670314383 149.019416053998 2596.6306624026 17 20 13
52.2266511226923 146.40919944374 2546.45925728908 12 15 8
29.056978384447 146.548144553827 2559.30671128013 11 14 7
26.0572279616005 145.876763678797 2550.95324988125 11 14 7
19.5859540286838 145.34572246155 2546.259395475 12 14 9
10.3638007077951 144.929123181671 2544.51239055852 13 15 10
21.7163924112658 143.650383658272 2520.62234131753 11 13 8
39.7835944047813 142.072553089869 2489.24709169452 9 11 6
24.3290430023682 141.910107805656 2494.09958883673 7 9 4
23.3523663733375 140.300911979645 2471.15099802322 8 11 4
-18.9986057496361 141.332585943332 2505.91704760571 13 16 9
-29.5316510658459 140.979323959637 2505.69014318029 13 16 9
-57.4537267872699 141.409788749167 2524.97513189684 15 18 11
-79.2268645568335 141.579771484416 2537.60008447271 17 20 13
-103.56050219691 141.87983559245 2553.30997593028 14 17 10
-119.154614396927 141.791925955934 2559.29701111591 15 18 11
-118.824947186235 140.970422942552 2547.18058311461 18 21 14
-121.175198634581 140.269215028635 2538.06247519729 19 22 15
-121.583220230101 139.472467901428 2526.64644285996 21 24 17
-121.377605262032 138.641228927953 2514.44003742602 19 22 15
-112.087911608536 137.365379196645 2491.52493173697 18 21 14
-115.902398281013 136.714645456608 2483.81569737739 16 19 12
-125.564324303569 136.349359104743 2482.98548286058 16 19 12
-79.2151176983933 132.337180804403 2402.93307415272 18 21 14
-89.1987335944306 129.320822245578 2363.56715130265 13 14 8
-122.426915678293 130.168067235243 2391.35899107608 13 14 8
-127.122847606446 129.531514316854 2384.24618117457 25 21 12
-147.525281852357 129.731338199365 2396.62990050909 27 23 12
-145.312872708323 128.726958408777 2380.93665053721 108 104 93
235.829997602766 141.458415654087 2511.55481514004 18 21 14
55.9240699113519 146.172911188156 2655.3592047429 19 22 15
92.5934333735254 143.91433775386 2607.82267042155 18 21 14
121.141760064239 141.954777722313 2567.98682414715 18 21 14
100.350579547676 142.00236752485 2577.61759418277 18 21 14
88.1630334671644 141.702891192865 2578.66194701487 21 24 17
66.7114945257858 140.993122436071 2577.92929097755 20 23 16
54.6176870998947 140.701688059128 2579.04163769495 19 22 15
43.2587785345597 140.382922256974 2579.45184768865 17 20 13
75.6516872966149 137.334295631726 2522.63544621591 12 15 8
46.1572480390129 137.809684414196 2542.01585922726 10 13 6
39.6452054335441 137.274713169748 2537.29243083387 10 13 6
27.6134395754752 136.989066585349 2538.44978212412 12 14 9
1.17571048165255 137.364580409592 2555.10512268645 12 14 9
31.0695346872776 135.165651825952 2511.30300283222 11 13 8
22.4683564564581 134.723063789829 2508.77098774343 9 11 6
17.2845121113672 134.122181395561 2502.53969702575 7 9 4
-10.3092746193258 134.578925787644 2520.82776591988 7 10 3
-1.90825083167545 133.337700348386 2499.73869311719 9 12 5
-1.69790959329363 132.477726613586 2487.53556831023 13 16 9
-27.0743848855965 132.853461818185 2503.72490441667 12 15 8
-45.628695458982 132.91151158488 2512.50720893465 14 17 10
-75.4555737016887 133.536720225464 2534.11775643364 17 20 13
-89.1559297818099 133.378937164748 2537.77156308103 16 19 12
-98.8285968917335 133.025189552224 2536.93332608972 18 21 14
-96.5804186657431 132.069976275324 2522.501586033 20 23 16
-98.3438677851831 131.312372247898 2512.57354136026 20 23 16
-104.735650417687 130.789458475276 2507.93735306121 20 23 16
-110.473806691239 130.232589068152 2502.53978383766 17 20 13
-113.608228132317 129.538461595366 2494.08858132765 17 20 13
-97.9148580216964 127.844314459372 2463.46197440469 17 20 13
-79.7817393222562 125.999545285806 2429.66308385347 18 21 14
-47.6145533355994 123.37580923322 2378.86068090122 19 22 15
-88.4150793198713 124.681803917178 2414.75207146635 21 24 17
-104.617265468951 124.671408806644 2421.53343564789 17 18 12
-124.587256673915 124.878569437621 2432.99534822744 13 14 8
-96.0739537544959 122.39467696961 2385.72094237441 14 15 9
-92.5506278455266 121.282945633611 2368.50738692663 13 14 8
-74.5561010142408 119.340524842177 2333.37220244158 13 14 8
192.047068401572 134.919540987799 2555.12534414338 25 28 21
85.7286735637421 137.865562625099 2637.39900272945 21 24 17
117.390024324145 134.847310627846 2583.75783746719 24 27 20
127.299738763028 133.576487642503 2562.52726016802 19 22 15
126.425794262429 132.778526141129 2552.00879532868 18 21 14
119.126785032929 132.268037782546 2547.95003867467 21 24 17
79.2788030618929 133.250391118523 2577.11950068681 22 25 18
67.8551028704275 132.944797080686 2577.48251408857 18 21 14
61.3838715707606 132.41211636229 2572.78868228367 16 19 12
47.2002465435031 132.242344159268 2576.09209623044 14 17 10
66.3452556449986 129.64688414282 2533.14176776471 12 15 8
66.0421411146901 128.806173120136 2521.80156211198 11 14 7
54.6229734851433 128.501693068053 2522.16786690716 10 13 6
53.583424474573 127.691331399355 2511.52928901507 11 13 8
2.29963724480831 129.36589094814 2554.64432961462 9 11 6
8.20447413003977 128.220481223433 2536.6866439744 7 9 4
0.361457781028918 127.757424576448 2533.46909630696 7 9 4
17.0476188471089 126.048707336033 2503.5624054114 8 10 5
-19.3744903370323 127.042506808879 2531.5097148538 11 14 7
-0.111427414853704 125.183444127815 2498.5295781074 11 14 7
-13.3941418625603 124.99871848914 2501.25096898837 11 14 7
-29.3228427301204 124.959100133887 2506.99569831328 11 14 7
-92.0966478284546 127.411830933839 2565.25248968147 12 15 8
-85.0404243065697 126.180998992388 2545.6589628472 12 15 8
-90.0556401103143 125.589097859452 2539.55025452673 16 19 12
-77.8305745893686 124.058579624722 2513.82103713132 18 21 14
-82.2613014031546 123.424423129294 2506.90049221532 20 23 16
-98.3899775764165 122.555944191981 2501.37984373733 16 19 12
-108.729773286938 122.252003221388 2501.29327989589 15 18 11
-74.6819905261844 119.435617618406 2449.38340708977 16 19 12
-95.5233913367843 119.718506236325 2461.44903645578 19 22 15
-52.120888023224 116.312468623267 2397.79059169124 20 23 16
-100.754867810725 118.207173621414 2442.82764933548 19 22 15
-104.054865614393 117.486105220133 2434.25598604851 18 21 14
-122.769135941655 117.672664161093 2444.1580198807 12 13 7
-92.1897235107567 114.934981831843 2394.67439656818 12 13 7
-85.7500001960763 112.663580632884 2361.04239853625 14 15 9
-77.2582811263873 111.191485372105 2337.54783001948 13 14 8
201.024103522409 125.395500878444 2535.6472112658 18 21 14
140.046281869324 125.698169988349 2561.84671407075 20 23 16
127.029707967101 125.466588753719 2563.52576195083 17 20 13
139.691535697779 123.984934639041 2539.34844693782 16 19 12
103.242317804583 124.908306943478 2564.80567471262 19 22 15
91.7504561775728 124.61569671596 2565.11934220067 20 23 16
78.8770540065569 124.396386106175 2566.90224047728 15 18 11
91.3642965331585 122.900852912529 2542.59858910075 13 16 9
43.4296583769425 124.467833895141 2580.73014570221 11 14 7
88.7180497014115 121.280768357798 2522.14504042795 11 14 7
96.0531236516031 120.015605490943 2502.75348432722 11 14 7
79.9917126142704 119.067480948762 2496.04586325487 11 14 7
38.8458743696489 120.353005947409 2527.98142154552 11 13 8
35.7562408430105 119.631907603425 2519.5622556607 9 11 6
-8.08553133497902 120.229288768526 2543.36421622476 7 9 4
-24.748839866096 120.260115655396 2549.81151174827 10 12 7
-33.1978547513339 119.84598537734 2547.38994726017 12 15 8
-21.3282493043012 118.301327785346 2522.63830875887 12 15 8
-81.6156510828463 119.043033912045 2554.28127094505 11 14 7
-97.3023719905761 119.061692394136 2560.2014174136 11 14 7
-76.9740474696004 116.999435502492 2525.52240905683 15 18 11
-72.7499739436372 115.854259377488 2508.81667110686 17 20 13
-86.4549752910331 115.756209744377 2512.46741286246 19 22 15
-105.385594044997 115.975680765964 2522.2127778092 18 21 14
-101.896054297718 114.863984805354 2506.20976686017 15 18 11
-91.9263537000763 113.351604378391 2482.55137801319 17 20 13
-91.2034087336737 112.386332134193 2469.48398612425 18 21 14
-97.0332114962944 111.816183445495 2464.01991314277 21 24 17
-88.609812755718 110.364013621227 2441.71095531686 21 24 17
-64.1418797292643 107.897044270355 2400.14990557331 20 23 16
-137.081715751505 111.519848859424 2474.51051364225 17 20 13
-116.554503716293 109.289470038264 2437.50446378288 12 13 7
-82.1508344607635 106.146306040211 2383.38055775941 11 12 6
-160.933921292983 108.363002383361 2441.14689667651 14 15 9
161.021622282549 119.999783268405 2586.90420450772 16 19 12
213.519373735566 115.564274043819 2512.54219402814 19 22 15
138.002464698166 115.881928802959 2541.78836436623 10 13 6
125.895955017378 113.823538706981 2519.41538462902 9 12 5
96.7329404922901 114.500054953982 2537.80203662298 10 13 6
89.4514196740981 113.996001832228 2533.75599028729 10 13 6
104.865533615552 111.319760458731 2494.27641922534 10 13 6
89.8573104488789 111.238186282628 2498.21754775265 10 13 6
70.0534247174969 111.435335302308 2507.32974976568 10 13 6
10.2958151204589 113.922893955729 2559.12737667306 9 11 6
68.752253593948 108.731154753679 2473.0244610377 7 9 4
12.1769403306602 111.096362334215 2522.18794174487 6 8 3
