ply
format ascii 1.0
comment KinectMotionCapture
element vertex 797
property float x
property float y
property float z
property uchar red
property uchar green
property uchar blue
end_header
-91.1781359776362 283.05211278455 1858.97945970255 17 20 13
-100.433028503526 282.389381001255 1855.97243809883 17 20 13
-86.972963501549 282.36549309279 1818.79487983998 16 19 12
-117.247142962034 281.113200017878 1847.48246795323 12 12 4
-144.592711892217 279.951624243889 1872.11775574051 15 12 5
-128.015262207273 280.004261063334 1829.78963505022 21 11 1
-135.05964750509 279.40308999747 1823.44492813404 54 40 29
-143.192991168773 278.772231318222 1818.7807349437 157 139 127
-150.240631311273 278.170669618032 1812.43366654251 149 126 112
-155.677559831118 277.611619896598 1803.5490483378 140 117 103
-156.3079504639 277.178170628086 1787.03321512122 118 96 83
200.620482039405 293.201361581116 1913.70077662793 32 35 28
158.752913436331 291.573288329299 1951.27385685273 36 39 32
139.919041364228 290.625225151018 1959.84840511374 31 34 27
131.598181117842 289.983891564738 1955.04822409333 22 25 18
138.7311176292 289.377103248212 1914.51637396476 22 25 18
101.196100246792 287.907376783193 1947.8202063591 28 31 24
96.5407704794297 287.37047335244 1938.26696683932 29 32 25
60.5255268499305 285.959630660984 1970.20244618322 27 30 23
39.7291132010413 284.980366950643 1982.29458912948 31 34 27
30.9942257218969 284.337161465449 1978.42959255694 31 34 27
40.1478071704107 284.181562313918 1950.48075504492 31 34 27
7.79991379578915 282.490834005896 1962.8412254672 32 35 28
10.2862979759095 282.147510566913 1943.64482433904 32 35 28
0.954955323178908 281.487767348346 1940.58239754451 28 29 23
-5.43854492838713 280.905718365797 1933.47429683983 25 26 20
-57.8722965932734 279.125782109777 1990.55952895807 19 20 14
-64.1083367032196 278.556380025491 1983.56593300647 20 21 15
-49.5364248205035 278.518796575022 1947.19430690883 21 22 16
-58.7499113833052 277.868335900928 1944.21736352699 22 25 18
-58.1953385829859 277.464288123725 1927.32564788658 23 26 19
-53.7016282667167 277.154945650184 1904.64413143945 23 26 19
-60.6880402742778 276.556526502973 1898.34117006057 21 24 17
-58.6044129496814 276.180030104707 1878.85263386501 18 21 14
-53.2063470072783 275.879678333237 1854.35638191542 16 19 12
-33.2795381758713 275.922932331325 1808.28075800041 18 21 14
-57.2881679696753 274.906832676387 1826.68995568824 19 22 15
-78.3763453007313 273.967018478518 1841.04086599271 20 23 16
-87.1245215875276 273.321713338868 1837.16622544475 22 25 18
-88.6634965433424 272.843711817619 1822.46188213173 22 25 18
-87.4926308159474 272.424918914533 1803.54648796412 18 18 10
-129.795094938176 271.016352307252 1850.68629697802 24 20 11
-122.570955368375 270.735264420734 1822.57346135283 29 19 9
-131.269977789802 270.093680756755 1818.73417786386 113 96 86
-142.673394673137 269.393225127601 1819.10989501674 138 119 105
-151.342556587694 268.753966304393 1815.29256429926 153 127 112
-157.310567880221 268.173208373489 1807.2578795316 135 109 94
-157.930187060133 267.705143886561 1790.74967943818 120 97 83
179.441763935979 282.937509738596 1941.52540473469 31 34 27
171.651169470522 282.307008279781 1935.87464293297 35 38 31
152.154096872344 281.389388108158 1945.20361380825 38 41 34
138.879760230957 280.627790290923 1946.6931193393 20 23 16
139.713439470051 280.208560527441 1930.00336253602 19 22 15
97.8230479632751 278.764430374037 1968.79586628812 16 19 12
84.9681947159762 277.584605474999 1954.53069179347 30 33 26
3.61097198391125 274.822733750961 2031.40315679174 25 28 21
28.1499273858676 274.514075893729 1967.67180429237 29 32 25
50.889998389974 274.581481197765 1921.16562323706 30 33 26
4.17453790802247 273.094131495019 1968.81136232451 30 33 26
0.194724896283027 272.562977517689 1958.51281181003 31 34 27
-8.50995367839968 271.927446874485 1954.66975319162 33 34 28
-17.2056275125594 271.292594283437 1950.83293125924 30 31 25
-21.2299791424404 270.757717451092 1940.50236937 28 29 23
-27.022602507794 270.183955699581 1932.59486249074 28 29 23
-33.4068059975969 269.597027136839 1925.49347649103 28 29 23
-37.4951053037214 269.05684185054 1915.11623620118 28 31 24
-52.5150276107202 268.292291088601 1920.28075546716 27 30 23
-57.185924239689 267.73963784968 1910.71644589833 26 29 22
-60.7397075463467 267.207826647617 1899.49169345082 26 29 22
-58.651181626612 266.785021339254 1880.00617931062 24 27 20
-53.2474451078491 266.421929326206 1855.51372029116 22 25 18
-41.7540047914251 266.169289329812 1821.85009062432 21 24 17
-71.338041043099 265.129539852868 1848.56868711783 21 24 17
-83.4374114482852 264.427283880972 1849.67492022045 18 21 14
-77.1461616060805 264.066307812101 1823.3557760089 19 22 15
-81.4911015024271 263.504911702157 1812.79238404122 19 22 15
-110.555498312456 261.531236976665 1805.29927182935 18 6 0
-131.839353400421 260.676394955608 1820.74409265891 96 78 66
-141.610719547958 260.023254950843 1818.5977535182 135 113 99
-150.823101262131 259.380553394085 1815.62165036617 143 116 99
-156.252271500932 258.800659879359 1806.74255072704 143 114 98
-159.553390286452 258.253890137626 1794.46555330885 132 106 91
-162.355437139196 257.712713754571 1781.31562996475 126 104 91
193.213958079963 273.106619754309 1909.46517662396 33 36 29
177.952503576313 272.321347420104 1913.21916798097 36 39 32
165.813961731337 271.60125667423 1913.06187790508 17 20 13
135.96325453083 270.535397961391 1935.88162232369 20 23 16
132.484776405931 269.991015509635 1924.71139653367 15 18 11
92.7547921547962 268.275232903434 1945.30659118523 26 29 22
77.8460123294487 267.51835667726 1949.3166822519 20 23 16
41.3639721813821 266.365802647255 1982.15041022677 23 26 19
32.6263465783727 265.733227157514 1978.28318809582 24 27 20
70.4258947768248 265.453157939581 1895.75725778307 31 34 27
37.2420320838454 264.379891394902 1924.80653448843 27 30 23
-1.05786924655304 263.23014386837 1961.26291130647 23 26 19
-9.75622294139877 262.600620174974 1957.42446815482 30 31 25
-14.9344948246737 262.030895776561 1948.72730159662 27 28 22
-11.9686690227205 261.595115118712 1928.64265851165 26 27 21
-15.4711283290021 261.048425859945 1917.45503656703 25 26 20
-31.7324176897817 260.294331223819 1924.18978858438 24 25 19
-39.8586572192121 259.673458732971 1919.53109039161 23 26 19
-44.535523166513 259.106656358556 1909.96208739134 22 25 18
-59.5284324356513 258.380121573115 1915.14638154336 23 26 19
-66.4881291947301 257.778557950799 1908.86306516788 24 27 20
-68.9123419311464 257.243934967895 1895.98678055532 20 23 16
-47.6365628684996 257.051881452071 1848.41778881204 18 21 14
-41.7879428778738 256.624033709257 1823.01217620886 18 21 14
-78.1053238524747 255.596999981599 1859.67130928228 18 21 14
-95.2043571613379 254.849915459396 1868.26916607634 15 18 11
-72.7260866285933 254.642474381175 1817.86640375652 15 18 11
-62.1238624222509 254.261596186944 1784.79109958944 15 18 11
-42.4563496503416 253.450329785902 1719.99615628986 18 15 6
-103.461022515412 252.150848700997 1795.57337224086 19 12 2
-128.046861799828 251.322895610165 1816.03516470853 97 79 67
-138.918336547049 250.667004473017 1815.56168716683 138 116 102
-148.140083752631 250.032061434661 1812.57883406863 137 108 92
-154.116143423009 249.434677492806 1804.53823064608 138 109 91
-157.959242755614 248.859832494713 1793.1035288624 131 105 90
-166.640295753691 248.231048411336 1789.2773366243 127 105 92
190.041921755673 263.327555864877 1914.52697564062 24 27 20
185.270866209699 262.73970592854 1904.88958598012 22 25 18
163.893927832489 261.894946690467 1916.56157545347 23 26 19
138.330395305046 260.993174998533 1933.84417006009 22 25 18
131.797618826023 260.383489152395 1926.63496505967 15 18 11
117.965149208389 259.666147315201 1928.95512887955 19 22 15
80.5693288839704 258.611966025215 1962.36197301008 24 27 20
97.7631794302853 257.828370595143 1908.12520905458 26 29 22
69.0629073590978 256.91424588287 1930.54466038336 28 31 24
45.2893954968787 256.076748616323 1946.65483699836 27 30 23
31.1430350823958 255.374201615816 1949.98286072583 23 26 19
-2.49070020701203 254.423140953302 1979.94167081137 19 22 15
-14.1071406264801 253.764270098998 1980.16317329185 20 23 16
8.41034321442802 253.008661152755 1917.43481123459 22 23 17
-7.95099952609046 252.287827134585 1924.09720089331 23 24 18
-20.1794903208834 251.619630471836 1925.11029886407 24 25 19
-12.696679980321 251.177733724139 1898.41920130153 23 24 18
0.435642038327799 250.790401451674 1863.47258197775 23 26 19
-46.8887163857188 249.737865623866 1914.38452473506 22 25 18
-52.2961758730069 248.614345859924 1889.46175602123 20 23 16
-60.4482997778162 247.994118970606 1884.78400248542 22 25 18
-55.0265360511062 247.506090919933 1860.30397894806 22 25 18
-51.9591337362137 246.988550025955 1839.05752008415 20 23 16
-40.0006315824388 246.54632727503 1804.4950267649 20 23 16
-65.6317574761063 245.759637952752 1825.43431430032 17 20 13
-64.4080256950592 245.213620450385 1806.55659944554 16 19 12
-73.7864680867313 244.574579929349 1803.46013390834 16 19 12
-88.1198501273852 243.896910392434 1807.88774430622 16 19 12
-107.898104407602 243.18122925259 1820.71930780511 20 20 12
-91.9815250824423 242.737070202563 1779.14492282454 19 15 6
-127.524920786563 241.913192732662 1816.36586888767 94 78 65
-134.594915610557 241.299855905787 1810.00253545745 134 115 100
-141.66858531256 240.686197945474 1803.63624192611 123 96 79
-148.2074573977 240.075550695116 1796.42290769804 125 96 78
-153.681382953533 239.470538663069 1787.51123674422 123 100 84
-164.515605960387 238.834362705274 1787.06456916835 122 103 89
184.150404375005 254.093200880016 1938.61721894239 30 33 26
194.293304256326 253.666103798441 1910.14914765567 28 31 24
175.945318023377 252.911798045275 1917.84157524414 29 32 25
160.129646858798 252.190388363819 1922.42945769921 21 24 17
140.086391298841 251.427930678353 1932.59831144716 23 26 19
126.840414288771 250.742443324453 1934.10876099468 14 17 10
120.318710644812 250.128002176428 1926.90755884216 19 22 15
91.9908900761484 249.297267308236 1948.36209949341 25 28 21
89.1501140099402 248.722652522307 1936.41896777304 20 23 16
65.9959001689168 247.406738108802 1935.68397274603 30 33 26
33.8792788149114 246.570495651424 1963.03774831238 25 28 21
16.209325616884 245.871108540602 1971.22226916857 19 22 15
6.90516839661459 245.246550925495 1968.1794334192 19 22 15
-2.97592941933877 244.618332903833 1965.95396816205 22 25 18
-5.78646918784398 244.04614440126 1954.03247319175 26 27 21
2.49193014266114 243.554104817657 1926.68282445417 25 26 20
-3.93148477272254 242.947605499169 1919.55291412551 25 26 20
-11.5259102348801 242.332368607301 1914.04443673878 24 25 19
-10.437620998345 241.774596279142 1896.30380825871 23 24 18
-12.8754320447932 241.189534725463 1883.4174104597 21 24 17
-28.5644598344454 240.521409863258 1889.33240592728 19 22 15
-36.1805488727069 239.904410628836 1883.80821522529 15 18 11
-40.3766983071612 239.306096686995 1873.3527921197 17 20 13
-93.9936889376638 238.450555714645 1934.52539229836 20 23 16
-103.139297256228 237.838831333394 1931.59785151132 21 24 17
-103.821472681265 237.266797002444 1916.27881306223 21 24 17
-87.7237074914383 236.762261844842 1876.07079887099 19 22 15
-53.368635731412 236.315699922102 1808.33874147776 17 20 13
-75.5689876568475 235.63682384664 1824.35510212223 17 20 13
-86.5646769649995 235.004401044365 1823.79169766618 16 19 12
-111.338940712734 234.332313444837 1844.11768670866 14 17 10
-93.6243817611608 233.786488046386 1800.14077620535 16 17 9
-111.719980088087 233.13870067569 1810.48707244514 15 7 0
-119.91028987558 232.518220585666 1805.78163586553 95 81 68
-128.639053938104 231.897187901955 1801.921190598 135 116 101
-137.358205345221 231.276921958539 1798.06742315619 127 100 83
-143.373307301661 230.660405237564 1789.99842023598 125 96 78
-149.937816608128 230.042448018239 1782.76646401261 122 99 83
-159.182940356267 229.422636923004 1779.7667414061 120 102 88
168.175482327847 244.902035102238 1975.15976974803 29 32 25
190.897047450708 244.497612595602 1931.107856742 27 30 23
176.264838721107 243.816043982592 1934.08378491699 26 29 22
172.78189543417 243.213021578188 1922.9100252128 28 31 24
153.290715510802 242.504352865154 1932.24403171712 22 25 18
130.821815106247 241.783560040973 1945.59543026297 21 24 17
136.521880460396 241.23726369217 1922.55189500338 13 16 9
108.084949077977 240.491161280524 1943.92776757727 18 21 14
96.7559003762233 239.848175384463 1943.12265027841 26 29 22
104.236140222762 238.713009861443 1901.60485478541 30 33 26
72.5105029235831 237.975428347315 1928.00752614505 27 30 23
45.736095237404 237.272446008579 1948.11874277964 22 25 18
17.9145648731276 236.57627262232 1969.94098558525 22 25 18
-12.7178285621692 235.88148114411 1995.90135286357 23 26 19
-23.7041939314611 235.266337633941 1995.34479505281 24 27 20
9.42658866224733 234.789019122239 1934.13587725634 27 28 22
-4.01557464601998 234.158210350058 1936.73942075647 25 26 20
-11.5789855380999 233.545502787198 1931.25343930502 23 24 18
-11.005192326913 232.950584626959 1914.3743956775 22 23 17
-8.1776128842137 232.355011425299 1894.18901995267 21 22 16
-21.5795716998197 231.727504473258 1896.8217252719 20 23 16
-25.1694822397246 231.116033099761 1885.57037992755 17 20 13
-38.5200920287505 230.492707461967 1888.24033043118 15 18 11
-66.0793106603901 229.863728213581 1911.48840006756 16 19 12
-86.1000669106244 229.249845860132 1924.14438986704 19 22 15
-117.336847075069 228.643667311462 1953.37247751372 19 22 15
-97.111161509249 228.037330774997 1907.51022541771 20 23 16
-84.9600243342641 227.418291759432 1873.0861872501 19 22 15
-94.7662592993497 226.807283368921 1870.91507884138 17 20 13
-67.2475808872008 226.150392473118 1813.04772611517 17 20 13
-118.206216375615 225.595909325643 1872.44354522106 17 20 13
-107.50424171619 224.951158183802 1839.43921571769 9 14 8
-90.8963977272759 224.280898375516 1797.12976137009 11 14 7
-77.7707410660651 223.603440414925 1759.70647290723 16 13 6
-117.748778937788 223.068063748267 1803.59529000121 97 83 70
-128.115065793375 222.457571837663 1802.25322727023 131 114 98
-136.834535686995 221.843044204582 1798.39925801643 124 98 81
-141.232075774694 221.212148603237 1787.79767749589 122 95 78
-149.413405408058 220.595427421032 1783.09876986127 116 95 78
-158.124259006151 219.981629542883 1779.25105044033 116 98 84
189.280446379983 235.432656407022 1949.65209078794 25 28 21
212.557567161199 234.889581137206 1904.76717300201 23 26 19
188.562175512648 234.208080377986 1919.48225774861 25 28 21
165.915411317708 233.538722732103 1932.70468508931 27 30 23
145.218492868973 232.881659745982 1943.63554961048 20 23 16
139.925094782727 232.258273329349 1934.85465380213 19 22 15
139.495369824069 231.640368949049 1919.71838974283 13 16 9
126.244147906154 231.00374394641 1921.22528464217 15 18 11
102.734403036736 230.361752154873 1936.29262522388 24 27 20
66.6651220153271 229.722260464448 1968.19283875406 23 26 19
66.2830647907917 229.108314785918 1953.09115010412 34 37 30
53.8650521397623 228.490729379155 1953.96711599269 27 30 23
34.9166434792134 227.878373308156 1963.69507681126 17 20 13
13.0787860965844 227.274823473807 1977.50452576969 19 22 15
-17.5395545755193 226.688505791114 2003.4756296371 24 27 20
-9.61898441137721 226.067329861933 1977.10096542853 23 26 19
-8.87004784528767 225.448010429566 1960.34876335947 26 29 22
7.04761574154444 224.794777911309 1922.47950974962 26 29 22
-9.89315524039092 224.199514044751 1929.95782665431 24 27 20
-13.9726969562424 223.577660834752 1919.58652126441 18 21 14
-5.91665179894152 222.919018913864 1892.07483936773 16 19 12
-33.1731265104571 222.362370585162 1914.30740979684 18 21 12
-43.6119872822733 221.759678844661 1912.91277619458 19 22 13
-55.7458565029716 221.165391250341 1913.99454725071 23 26 17
-66.1333184862143 220.566910059785 1912.63719505446 24 27 18
-71.9537952235632 219.949877745382 1904.7092774975 24 27 18
-73.2606604513169 219.309978930635 1890.17237543811 24 27 18
-77.4340659317838 218.680717743297 1879.73298867922 18 21 12
-91.1776093192445 218.101851031773 1883.35335505415 19 22 13
-106.549565473947 217.536795684711 1889.49872458396 18 21 12
-99.5803061963643 216.838928230237 1862.43404635405 16 19 10
-86.623740250704 216.091884532077 1826.12315906365 19 22 13
-118.586084890482 215.639934386901 1857.29641847054 14 15 7
-60.6511197426547 214.554137036844 1752.30895679745 18 18 8
-99.1607099887506 214.154636981151 1793.55756679068 12 8 0
-117.769818247459 213.618890636409 1804.76750733818 96 80 65
-125.959869820445 213.004432334139 1800.06228844532 111 89 75
-133.062057333433 212.380997159603 1793.6755666977 93 66 49
-136.932536143418 211.727974435057 1782.22032648394 107 80 63
-146.203651565488 211.123142005083 1779.2018378282 103 81 67
-156.530407729287 210.529953928752 1777.88851938666 100 82 68
209.370197686961 225.134304949702 1909.81797718044 21 24 17
194.672757344205 224.507600711574 1912.7466009888 22 25 18
148.555731805673 223.95296284613 1955.89044171348 23 26 19
138.986417790675 223.331220676103 1952.65569688269 20 23 16
127.592275709593 222.715648825262 1951.80353086154 19 22 15
138.197448703986 222.034739825559 1922.43424898328 14 17 10
129.208679244831 221.408808151148 1918.38500096356 17 20 13
97.8090966296854 220.866288213155 1943.78998771815 26 29 22
93.1453630224635 220.231574626513 1934.23045512481 25 28 21
62.5953182655863 219.7066342376 1959.01604794055 30 33 26
55.585117367897 219.087191464469 1952.69602947575 24 27 20
36.6292737878386 218.526487539841 1962.41915666783 16 19 12
-5.44081043962263 218.094850487783 2003.55659906743 20 23 16
-3.40031796113927 217.438905838809 1985.27070914711 27 30 23
11.5580136743989 216.700399030812 1949.17565665992 27 30 23
8.70221896279322 216.058447499894 1937.2212965291 28 31 24
0.537380389373787 215.448326267676 1932.53437704582 26 29 22
-9.95793730085293 214.85473186246 1931.09856822133 23 26 19
-22.757215833771 214.27982851955 1932.93339915777 18 21 14
-16.978732221149 213.567665964102 1908.71083419303 18 21 14
-40.156401677591 213.075855424939 1925.2547006553 20 23 14
-48.8425581205687 212.475014837302 1921.42524483742 21 24 15
-52.3657914308506 211.830574597702 1910.22206824597 23 26 17
-58.7719584450834 211.209220483523 1903.10458604648 24 27 18
-41.8901632701187 210.370317973171 1862.22790718071 23 26 17
-48.4046545383201 209.740277158488 1855.03214889493 22 25 16
-55.4913122463001 209.115233211809 1848.65638240861 19 22 13
-71.204840647779 207.176453178825 1821.19883593631 16 19 10
-44.0077725245094 205.429149270207 1745.80112717444 21 22 14
-73.8763337458097 205.062886380852 1773.55191341694 16 14 2
-119.466266980397 204.91132522438 1825.72574162289 17 5 0
-122.705149556692 204.239056229887 1813.49351935953 122 104 90
-128.154026835757 203.59305681726 1804.59950434991 121 99 85
-128.204183553794 202.871270987261 1787.26779797021 93 66 49
-133.170259091987 202.213154657024 1777.48897271929 114 87 70
-140.843593820159 201.592346712047 1771.92326410314 97 75 61
187.778730908111 214.83971397011 1922.52162180562 23 26 19
155.87381913532 214.363211232912 1947.56061905971 25 28 21
136.440472957688 213.81563896334 1956.93766094281 21 24 17
155.69330435331 212.995467314372 1916.54456060311 16 19 12
161.319068228155 212.261036788861 1893.44650415582 11 14 7
125.482818243981 211.844804991213 1924.28174108419 15 18 11
85.6078090215022 211.479966334485 1960.83530092415 27 30 23
66.726712012807 210.274070257078 1954.55239691083 26 29 22
56.7062119937134 209.678314795766 1952.22604045091 22 25 18
44.911803132671 209.101107636722 1952.31894345277 19 22 15
17.6786603608257 208.679193617552 1973.33407352951 22 25 18
5.41107897519311 208.117832457312 1974.3190805626 27 30 23
-28.0809877584198 207.783806327472 2004.38400908617 27 30 23
-17.841354335139 206.991045317289 1974.74917321933 25 28 21
-3.63195036992359 206.141392771707 1939.34568073514 23 26 19
-4.18422778736804 205.447815097282 1924.12048695993 19 22 15
-17.0046705899183 204.895989872401 1925.93979788385 16 19 12
-25.729065466374 204.297531173254 1922.08263427422 18 21 14
-33.2899467612262 203.685224570375 1916.59848861273 21 24 15
-40.8506891043794 203.072974031993 1911.11444396426 21 24 15
-40.3920792481045 202.353396858101 1894.15156451917 21 24 15
-28.013088633321 201.463984104206 1859.89133267642 20 23 14
-29.4299586376385 200.754800683501 1845.27433486669 19 22 13
-39.9535622267142 200.173102094139 1843.81808124513 17 20 11
-63.4251349142545 199.786236606541 1861.38475365657 18 21 12
-94.0742539247521 199.520902711281 1889.80524475421 18 21 12
-75.6931493424549 197.766825063747 1829.01371665068 17 20 11
-58.9308476710178 196.746251060148 1786.81445756296 18 21 12
-53.4198322091601 195.895711957351 1761.16196721697 20 21 13
-102.526277794785 195.973838077424 1818.19857271413 22 15 7
-116.750262823643 195.471272751754 1822.70637427786 79 65 54
-121.089065405461 194.796248209759 1812.14685583005 113 95 83
-123.278046315744 194.07915272569 1798.20513489996 91 69 56
-120.634962139473 193.266911123627 1776.64958604479 116 90 75
-129.405818612662 192.66558094023 1772.75872688752 113 87 72
-135.48046032024 192.012359691962 1764.6463764154 104 85 71
153.935350183416 204.815561279442 1951.04746181203 25 28 21
138.198704313655 204.278629771083 1955.69356580811 20 23 16
159.292356782075 203.315843205316 1912.92908368888 16 19 12
155.750505770834 202.63041899842 1901.71220313681 10 13 6
124.188779640021 202.289160752773 1927.00037354971 14 17 10
76.4314158843824 202.170305771928 1973.89774641429 26 29 22
59.1671831412826 201.680457254226 1981.14211293483 23 26 19
79.2849297439138 200.695717126928 1938.9051012567 23 26 19
68.61996826686 200.115504398561 1937.34667628862 21 24 17
41.2511063668193 199.773324067771 1958.2638245398 21 24 17
17.5993797082028 199.391373220768 1974.46459328033 24 27 20
-3.5610054931432 198.983999343158 1987.53081884462 26 29 22
-31.7078768694321 198.692658592077 2010.35459667083 26 29 22
-29.6868196867504 197.947079794382 1992.05386919816 22 25 18
-18.356536975199 197.046472070609 1960.73875427571 22 25 18
-14.1768204890547 196.248586489463 1939.0621790622 21 24 17
-15.3222747657442 195.530828074152 1924.64189287169 18 21 14
-33.9046790255626 195.105374787385 1934.63641926774 17 20 13
-36.8130479725977 194.415393321061 1922.64340919356 17 20 11
-39.7569056069653 193.722618179439 1910.62495293906 18 21 12
-33.5686966893132 192.860451900505 1885.46331568726 18 21 12
-32.6235414230258 192.08506807963 1867.61782409241 18 21 12
-46.5259738505588 191.584437035054 1871.12340469041 18 21 12
-73.0555359228273 190.573005427219 1876.58893532095 17 20 11
-103.671071784086 190.423404192403 1905.03465224593 17 20 11
-54.0753275791324 188.645672341965 1814.99579611741 18 21 12
-70.1503151359859 188.196648038659 1821.86714752968 20 23 14
-70.6126088439647 187.42135946527 1805.47143987779 20 23 14
-72.7910896564676 186.677587643371 1791.53719557175 18 13 7
-91.536585209584 186.296531928652 1802.64875512041 12 3 0
-108.547311996015 185.88560209829 1811.31262436395 110 93 85
-117.833158728308 185.304949563002 1808.28328466595 97 77 68
-123.840639300001 184.64901697537 1800.21990147808 61 39 26
-122.815932155372 183.824108022695 1781.19649677679 122 96 83
-128.337687309344 183.150812669616 1772.24951278104 107 81 68
-135.489058788874 182.516046423 1765.82707913232 102 84 70
252.658287336447 195.284823548177 1858.29389997617 26 29 22
204.963860517523 195.23287682578 1902.76686833743 20 23 16
164.34496928631 195.098873435875 1938.78234146017 21 24 17
162.721786106037 194.370584672302 1925.25072268312 18 21 14
175.153673302447 193.41066065493 1893.49884728323 18 21 14
157.508664045941 192.933633988019 1900.46724572822 10 13 6
133.848311896343 192.565175458298 1915.42679337831 14 17 10
79.9838923840608 192.728949358476 1970.24971248794 25 28 21
97.143501727504 191.675688249864 1932.04370900862 20 23 16
106.295810977548 190.748331185049 1904.0900401468 15 18 11
82.9383173346954 190.404751098886 1919.26926240597 17 20 13
62.0860200841204 190.025877524371 1931.32393523115 23 26 19
12.7573491816686 190.200059422534 1982.02415929504 24 27 20
-26.7716705916654 190.214907411835 2020.06549408739 19 22 15
-25.2924406513513 189.440894245322 2002.60717156409 16 19 12
-10.3410798165808 188.387980995538 1966.50547326404 15 18 11
-18.4285864465714 187.792384095618 1961.87468692551 18 21 14
-20.0855198362973 187.062440311349 1948.31859351835 19 22 15
-20.6229050332707 186.304100698927 1933.1038673996 17 20 13
-4.98011174354751 185.188355914982 1895.03301172954 17 20 13
-15.5039586115073 184.634022688607 1893.57672036089 15 18 9
-28.8821636364618 184.146441737134 1896.22735406267 15 18 9
-33.6193336363948 183.465250273066 1886.61435044143 16 19 10
-33.8113173770707 182.675699877465 1870.41452401459 18 21 12
-46.5713380496935 182.17882736811 1872.2779145763 20 23 14
-58.1584793228811 181.657912215416 1872.52164988304 20 23 14
-66.8929151524129 181.070249900769 1868.65696758104 21 24 15
-68.3120904871843 180.30076250855 1854.03799313656 19 22 13
-58.0239226316295 179.22861044094 1821.96655800924 20 23 14
-96.3866219903511 179.398651543477 1862.08950055059 22 25 16
-81.7457607746588 178.20265764883 1823.29191646021 20 23 14
-79.450891301136 177.317311107176 1802.71860567401 25 18 12
-86.0502973411039 176.66478131027 1795.46117694687 30 19 13
-93.7554112775039 176.041891781489 1789.87242036084 98 85 79
-108.564345104527 175.618093691252 1795.19161565813 44 26 16
-117.327964581445 175.028746761598 1791.30576897442 45 23 12
-121.745704975765 174.314927558675 1780.6888303191 96 74 61
-127.269173454493 173.630768548768 1771.74084374813 87 67 56
-133.347267911628 172.961334660566 1763.62590818396 89 75 62
272.478977139549 185.79786621818 1850.38186151201 31 34 27
225.837632610262 185.882412795517 1893.14884980598 28 31 24
209.223229137526 185.407711937682 1898.39400042311 19 22 15
177.229779685175 185.245533066545 1923.37040693615 20 23 16
179.256290380772 184.41120601611 1905.07318330398 20 23 16
183.050992712951 183.533212823865 1884.35213398201 17 20 13
164.765942195412 183.110576084496 1892.09215945965 8 11 4
97.4882216517572 182.956875774024 1948.30580094499 22 25 18
80.7503274981434 182.535220157064 1954.69703032295 17 20 13
98.3984041341643 181.346285832516 1915.60910889061 16 19 12
109.860996704451 180.279692303875 1884.38936193459 18 21 14
59.6225650203421 180.635038626258 1935.66603525532 24 27 20
4.3399952396852 181.142869995208 1994.40309068331 23 26 19
-5.59654847193158 178.218075665174 1945.19087326753 14 17 10
-30.6724359916553 178.056763182313 1964.06575934818 15 18 11
-18.358857880302 176.935148978287 1930.99226354582 15 18 11
9.46167533297082 175.386839824057 1875.80928985603 15 18 11
-1.11625499033652 174.84195881826 1874.31413459078 16 19 10
-18.0020401626342 174.471816930905 1881.83345216954 16 19 10
-23.9247401930889 173.805573275345 1873.8311815007 17 20 11
-28.7184295968246 173.106197298924 1864.1768191723 18 21 12
-33.5341949974659 172.405147830609 1854.50673948307 19 22 13
-84.99562317417 172.227188753245 1896.24828989085 22 25 16
-70.5991777445996 170.963500396128 1858.50821732442 21 24 15
-81.0131481471474 170.432603962274 1857.13199093942 21 24 15
-90.8467400595117 169.886459433031 1854.94108496701 21 24 15
-69.5156661200078 167.5032903197 1788.87405740444 30 23 17
-78.9077330970369 166.930883406271 1785.76805262691 27 16 12
-88.8348137494308 166.377531177337 1783.50933816329 75 62 56
-104.210020136475 166.006206294122 1789.6533328133 19 0 0
-111.356241933127 165.366663251317 1783.23460808419 83 65 55
-117.42183799842 164.690098043432 1775.12869674945 67 47 36
-118.100198662839 163.826759393146 1758.57591155873 77 59 47
246.805309140242 176.430262230004 1883.59838954277 21 24 17
160.4671559303 176.004625694479 1945.75569213726 19 22 15
144.091547038651 175.587849429485 1951.17424344183 14 17 10
170.098137732537 174.113786425248 1902.08748890892 18 21 14
192.193604894543 172.713463172588 1857.57665969585 12 15 8
150.136401099634 172.950069947632 1896.25675092422 16 19 12
68.8926597021915 174.242847436013 1986.81830491365 17 20 13
45.6099544634996 174.048113762962 2002.0524968195 16 19 12
60.9864139850584 172.819810500709 1966.25807324456 16 19 12
107.395580365395 170.721109384987 1888.72919053192 17 20 13
7.66877682999212 165.960712575377 1879.40256974688 12 15 8
-1.16727601770106 165.375489887982 1875.464235457 15 18 9
-14.5994085818082 164.938736021683 1878.07603338399 16 19 10
-25.6934005605023 164.431150889682 1877.44199955159 15 18 9
-17.6453475547307 162.416201948261 1832.62596329438 11 14 5
-66.1819684564675 163.171272876991 1886.37337688283 11 14 5
-67.5425484371026 162.346150034714 1871.79659765653 15 18 9
-95.9427927625831 162.454681696336 1896.90879871563 19 22 13
-90.572568045181 161.394011342083 1872.38851290436 22 25 16
-83.0724853613884 160.245673847038 1844.47132154118 17 20 11
-57.3548135506674 158.425531831593 1788.99789296259 15 18 9
-62.8958155941934 157.717888269649 1780.03707698243 22 15 9
-75.6199458785205 157.274500155555 1781.92675616156 22 11 7
-86.107744641609 156.752058400486 1780.49705284703 24 13 7
-97.6663534311737 156.27311423208 1780.76139007435 73 60 52
-102.658470399182 155.545261990797 1770.96333360908 80 67 58
-108.214345863819 154.836910979922 1761.99143750815 66 52 41
249.224877388904 166.517455557829 1881.59677151769 19 22 15
243.727344821812 165.798845633078 1872.66741194189 22 25 18
154.818671191457 166.597476050628 1953.96458566098 16 19 12
172.942977571696 165.215099072148 1915.22091350829 16 19 12
180.451233236338 164.126006114198 1889.78002025701 16 19 12
160.340826294682 163.852285453021 1899.90267008466 13 16 9
119.001779629147 164.233279478134 1937.86906346304 15 18 11
91.4706720050362 163.357757057653 1942.60924075583 14 17 10
119.939350904755 161.592925766813 1889.13035608518 16 19 12
113.931233192193 160.901981073399 1881.06603920005 16 19 12
125.108669527396 158.753677914008 1833.57714876645 14 17 10
27.9231160442341 155.76509148693 1852.03924502145 11 14 7
-1.79666322409244 155.935828205487 1877.43053322731 15 18 9
-29.6202061560251 156.056757243591 1900.49049249374 14 17 8
5.22972929005894 153.860655348345 1834.3436416888 13 16 7
19.3095134936954 151.4754875984 1780.3116800399 10 13 4
-27.1124927670165 152.328859174316 1830.6523743051 14 17 8
-80.5733492849086 153.49393846516 1891.94839427405 15 18 9
-94.864251570896 153.151528345199 1896.4084973077 18 21 12
-94.5349661582688 152.22987603378 1879.35084426308 21 24 15
-84.7807002080023 150.918648479201 1848.12619791531 16 19 10
-42.9262229840632 148.273566767082 1768.52779293507 14 17 8
-60.7012126344806 148.056420994335 1777.87364990199 19 14 8
-77.2930795404474 147.799533723744 1785.6066087615 21 12 7
-89.9691985416446 147.385119993425 1787.53123910535 18 9 4
-94.4008626787871 146.621208177923 1776.90424757977 81 70 64
-96.679515387226 145.760494221943 1762.89679419364 48 38 29
-100.629317575878 144.968010878605 1751.3833443743 72 62 52
199.453034537548 157.370023347755 1929.45844170649 17 20 13
214.567583438841 155.980733560557 1894.70837473419 12 15 8
173.272113106106 156.445290251181 1931.47174415836 17 20 13
182.716560180262 155.232216261157 1903.72840502721 18 21 14
150.30854295627 155.428807159302 1929.64113638408 17 20 13
130.305966298687 155.218766750139 1939.84257171593 13 16 9
123.185373846459 154.570027902518 1933.44208518996 10 13 6
94.8151807210289 154.670675334836 1954.87092118252 10 13 6
108.324965798617 153.293406811873 1921.42795529256 11 14 7
95.1667837767425 152.861869471336 1923.00333560754 12 15 8
63.4379936529648 153.114374028806 1949.40873639849 12 15 8
101.267994061008 150.813438835058 1882.95129954546 11 14 7
86.9175642934032 150.426882724592 1886.13269512293 10 13 6
25.1213483530894 151.844190142829 1953.73905694646 10 13 6
-0.191986985658144 151.911048345224 1972.44296776522 10 13 6
23.5348578709154 150.091708174601 1924.17219566115 8 11 4
14.7402885709012 149.520435708448 1920.2640043409 12 15 8
18.2353322845099 148.462484802196 1899.32510904702 13 16 9
47.2944189964681 144.464552768443 1809.20886885768 10 13 6
-35.5451412099963 146.014307167564 1893.67444038088 14 17 8
-0.852097099664384 143.601997531497 1827.41246608657 15 18 9
-10.8909018294252 143.072187547902 1825.07317417809 16 19 10
-24.8809476724325 142.7165217852 1828.51597621918 19 22 13
-32.0438916318897 142.066976143468 1822.08507857224 15 18 9
-72.4055673503374 142.892852911571 1864.46735231469 15 18 9
-89.5330721684504 142.706894598715 1873.04741171896 17 20 11
-92.6301714286462 141.892956496797 1860.91725362529 13 16 7
-90.2025195070426 140.820838825288 1840.43925363683 13 16 7
-50.7530395223514 138.018696634902 1764.03735476123 17 18 10
-93.3070410735846 139.020429811771 1811.00702756836 13 10 5
-88.3398912894582 137.801531861144 1786.19374268195 22 17 11
-81.2857885231619 136.4695127315 1757.9523205752 29 24 18
-85.2483637667674 135.656869139423 1746.4295091801 29 25 16
190.648813511145 148.030972619069 1941.55549720605 20 23 16
167.954737950665 147.950550180732 1954.74690507815 13 16 9
183.697172428011 146.436903173738 1919.21633923664 21 24 17
164.773868638088 146.222183939651 1927.72947659146 16 19 12
144.088453365995 146.08490360315 1938.67131281246 16 19 12
138.173788594253 145.38416659387 1930.67469235851 14 17 10
131.236591669411 142.838079343199 1892.28452902215 10 13 6
50.9490741187739 143.299025208496 1951.42174851844 10 13 6
63.6079592003727 141.830272817967 1918.59652030765 10 13 6
37.516631033383 141.989869221287 1937.97224836552 11 14 7
31.0861428178049 141.321959129479 1930.83689939292 11 14 7
8.73295532628982 141.344603208882 1945.51098298255 11 14 7
18.1982794608055 139.984411774031 1916.54699626994 12 15 8
48.0085184868226 137.705479257151 1859.09729767025 12 15 8
9.93696307470637 138.435481647131 1895.7287286215 11 14 7
-15.9040982541754 136.710567247977 1883.16302685718 12 15 6
-30.4325311167299 136.414585000748 1887.45087959602 16 19 10
-42.0493723669382 135.987896549367 1887.67326755539 16 19 10
-24.594080082605 134.176030101248 1845.97236409988 16 19 10
-28.8876753994287 133.389455638273 1835.44505234089 16 19 10
-19.082848257189 131.911586638674 1804.25650928546 14 17 8
-57.6219311340498 131.799822096638 1826.95817505525 15 18 9
-62.9557308428164 129.02689309987 1783.55372195783 15 16 10
-93.3310808021279 129.575339368233 1812.17679604015 15 14 9
-97.6990751188098 128.783865421059 1801.59552604156 15 15 7
-85.6755453800087 127.12031312573 1765.8386552253 25 25 17
-60.7302200034361 124.743685379512 1709.80251752397 24 24 16
162.532401506367 139.569278651616 1977.94625758318 24 27 20
175.575462519708 137.12117870422 1930.57324313412 21 24 17
197.347350297164 135.23044463893 1887.06069139844 17 20 13
177.771647302033 135.088457104844 1896.33629567612 12 15 8
149.103693381839 135.351540122979 1917.5501012823 15 18 11
155.328487022454 134.104067261921 1893.64836452935 12 15 8
157.199889279396 133.036749891982 1875.23751933791 10 13 6
153.554329647338 132.207484901165 1863.94472961144 9 12 5
84.3832020147026 132.38436006003 1907.67155570375 10 13 6
63.5379046018119 132.369180193162 1919.73314504098 11 14 7
52.2939960416378 131.914418654766 1918.99040656419 12 15 8
43.443514984169 131.349351085919 1915.04200952379 12 15 8
35.1915044287567 130.756797338802 1910.2919861932 10 13 6
38.1030398910687 129.622952813122 1890.16474552832 11 14 7
76.0414308828312 126.760992781934 1821.31267388578 11 14 7
24.4513095373602 128.289221316686 1876.55615487498 11 14 7
9.19578403599042 128.043104774754 1881.55250632886 13 16 9
-36.6600443114322 129.351282976737 1929.83557099605 14 17 8
-40.1576811347082 128.536040140808 1918.65008469547 15 18 9
-37.9460293659921 127.422516288232 1899.25062296226 17 20 11
-37.524876677999 126.392385422823 1882.25872252381 15 18 9
-25.7741099913695 124.758346512802 1848.77463717652 14 17 8
-17.3196055418618 121.186739094415 1785.7183396398 13 16 7
-73.35398132081 123.193249932778 1851.3287946915 14 17 8
-49.7006483357711 120.850265996134 1799.29667553941 13 16 7
-51.8838987758259 119.914684863345 1785.35800207661 15 18 9
-79.0436498092599 120.380015127452 1808.90119719341 13 14 8
-94.4590013112823 120.198948259622 1815.01705348719 16 17 11
200.767760425883 129.327871591688 1946.32612962124 5 8 0
163.681399372337 130.026405484038 1977.49581749392 17 20 11
200.850125581302 126.330842647817 1899.43573170388 17 20 11
208.365592190015 124.966309962587 1873.99867066332 15 18 9
154.359744330141 126.502638798299 1927.49098097769 12 15 6
159.523083556799 124.236591543176 1889.22832763513 16 19 12
155.916697276703 123.390986207105 1877.96385274043 13 16 9
78.3670754190866 121.124298789571 1884.72628089079 12 14 9
93.6897195399298 119.290185612319 1847.65474020755 12 14 9
53.4075134942498 120.363434213332 1886.39076631126 15 18 11
35.1060581279432 120.300113850523 1895.35575620141 13 16 9
46.7329146953865 118.640191603834 1863.01675128934 13 16 9
23.2308096348559 118.865548331798 1879.32906005201 14 17 10
-15.2529068316134 119.927458981694 1916.89842446898 16 19 12
-11.8416456621044 118.70636830024 1895.89767260872 17 20 13
-28.6882024608608 118.604047046004 1903.44678423695 16 19 12
-40.2960310310105 118.216638418973 1903.67590464048 13 16 9
-43.8653231097674 117.376741534534 1892.43834903839 13 16 9
-75.3824116671502 118.136458906044 1921.47015368107 13 16 9
-82.309614027777 117.497912785523 1915.20991138782 13 16 9
-41.1907340574358 114.049877929687 1838.77959350868 15 18 11
-17.3454095107788 111.568121708064 1786.88595022792 15 18 11
-84.0469782479185 114.445371094003 1868.23540273438 15 18 11
-77.6586821232563 112.99396389768 1841.98108619542 15 18 11
-66.9293673112386 111.263653299946 1808.99107757948 15 18 11
-62.4422166310976 109.895151655138 1785.06410995589 17 20 11
-95.0357364722581 110.805342778725 1817.02175313262 0 6 0
-119.732242907389 111.251585274256 1837.40977467283 20 26 16
-62.36981306186 105.419003211279 1714.69183030035 13 19 9
156.504440864741 119.882934439759 1972.24170842731 19 22 13
237.266278304554 113.691505027357 1838.0764780677 12 15 6
209.559979769301 114.055890981859 1857.51755356908 10 13 4
187.503571935892 114.143779305777 1869.93674180601 14 17 10
165.548839442771 114.240158377389 1882.42967967428 16 19 12
160.100903933426 113.470758884975 1873.53601680492 14 17 10
102.184182490376 113.426243363302 1901.95281792063 6 8 3
109.989372984737 111.9360367654 1875.49011071545 5 7 2
130.80210657639 109.704541027996 1831.28052161607 9 11 6
129.413286186571 108.693863354124 1816.68203596565 11 13 8
104.884707083825 108.991268435272 1833.4859278344 11 13 8
19.1794058920025 111.758612898099 1918.3503031515 12 15 8
46.0943233488278 109.124743161055 1864.97569843012 12 15 8
32.5069919783974 108.840406474249 1867.47576145336 13 16 9
21.8689195006188 108.387199288567 1865.93747220281 14 17 10
1.99310354358095 108.491388427022 1877.46713285847 17 20 13
-23.5549461553834 108.952268249241 1897.23822113186 17 20 13
-27.1408374140658 108.091674227563 1885.98823311789 15 18 11
-25.6088805149584 106.911472040572 1867.33103943561 14 17 10
-40.674263230118 106.753280708524 1872.46567481159 13 16 9
-68.1703392466308 107.383378629828 1895.76560087428 13 16 9
-58.1912710690946 105.664055991837 1864.70214585355 15 18 11
-62.9933205889603 104.869039958526 1855.0412386628 15 18 11
-85.7697061270082 105.229197130145 1871.88031978576 15 18 11
-90.5445378108432 104.436739930408 1862.23945082323 14 17 10
-75.8608005465795 102.364973479657 1823.46851253482 14 17 10
-77.4304153889105 101.342980156552 1808.73890781144 12 18 8
-68.5576652761939 99.6168625609388 1778.10846142692 5 11 1
-76.8653038294469 99.0285427489881 1773.31842809627 13 19 9
-132.818637591103 101.679096494346 1841.46096769852 15 21 11
207.956944850324 107.575634772982 1908.19802219826 24 27 18
244.628151758909 104.470570173427 1845.83691912744 15 18 9
263.714153763688 102.302799512431 1805.31634922435 17 20 11
249.426921638203 101.986437254624 1807.3088770378 13 16 7
199.677054293857 103.689714092018 1855.24114424409 14 17 10
189.876171754456 103.146815013072 1851.83892980384 14 17 10
172.130030948188 101.958857426808 1842.67376073721 8 11 4
141.245577816051 102.660887274261 1867.22344310826 8 10 5
85.2836296766206 104.874368993127 1925.47664212061 7 9 4
130.287603173642 101.096196253431 1849.39067150207 7 9 4
128.361653326144 100.095868854896 1835.63819277727 8 10 5
121.635617733263 99.3817121728906 1828.2886554325 9 11 6
129.114035917821 97.793983041407 1801.58857003541 11 13 8
9.70979911906733 102.96693424153 1932.43814660624 9 12 5
61.8508999968306 98.5871204971538 1844.23129379267 8 11 4
15.2560086130613 98.1883908982066 1859.85664189254 8 11 4
6.37871418153857 97.6389473359799 1855.88888640374 9 12 5
-5.36183617038044 97.2795007567152 1856.02193558853 12 15 8
-22.2214994170042 97.2647028760115 1863.56198939613 13 16 9
-38.4399455569224 97.2176624165733 1870.33167522442 14 17 10
-40.3960131324659 96.2174491942837 1856.55736409414 13 16 9
-58.7985346493913 96.3312431784015 1866.68472824612 13 16 9
-76.5532394440356 96.4133545205785 1876.04680593417 13 16 9
-82.1975931716095 94.5269965440957 1850.94844360404 13 16 9
-93.7050465880083 94.1878971396514 1851.25057279438 13 16 9
-89.6545063645009 92.7476355390592 1828.24177008392 14 17 8
-65.2617720447066 89.8347807089418 1774.27269897218 12 15 6
-109.885715929419 91.8741596134877 1824.68752328101 17 20 11
-97.234257610697 89.78180656791 1788.14864270346 19 22 13
240.693189013621 97.0498892469577 1883.70594697906 48 51 42
255.081302003365 93.9414614157903 1833.599240357 13 16 7
271.054882748722 91.8357844677314 1796.99820200051 10 13 4
229.701458772391 93.1865833789483 1833.72404858321 13 16 7
224.715149734057 92.3447370724075 1823.92933053066 13 16 9
227.027630566039 91.0492019987215 1804.6020400145 13 16 9
121.266532902611 94.2352569634138 1894.69171976097 9 11 6
103.847718837272 94.2165640944952 1901.82641347833 9 11 6
102.074447003617 93.2008393796843 1888.18453631363 8 10 5
105.627980599126 91.832915901258 1867.28617703417 8 10 5
43.1930801202114 92.5227491196394 1903.54758645906 12 15 8
3.17460732786223 94.0716176862514 1942.47720753535 11 14 7
30.7577917798607 91.0801064384513 1888.35019566634 10 13 6
63.3263626970222 87.7087078114314 1826.71905954101 10 13 6
20.022296224103 89.5146343389662 1870.67869994168 10 13 6
30.8417134452528 87.6046744097808 1838.98842963194 9 12 5
15.5613472511136 87.5002219022659 1843.96749109377 10 13 6
0.338960120363829 87.4006501545087 1848.98831306098 12 15 8
-26.8463874515597 88.1613395856242 1871.27941212399 12 15 8
-37.3449513351147 87.7480261450649 1869.84216322331 12 15 8
-38.7336367627196 86.6792689027394 1855.24377570243 11 14 7
-36.7762477318858 85.3592241798963 1835.65894741538 10 13 6
-46.1647091520896 84.8622521403392 1832.55593847545 11 14 7
-52.7328261166158 84.1584586454968 1825.32063772908 12 15 8
-66.0187141143507 83.955866424349 1828.03963753815 13 16 9
-61.9964756605682 82.4555352179105 1805.01030848346 13 16 9
-61.3947884226316 81.2009405721494 1786.91310781056 12 13 7
-72.4607009438749 80.8303898324974 1786.30012348233 14 15 9
-78.5473708822653 80.0795436063629 1778.17855899924 17 18 12
236.248275722137 87.5180663765041 1890.31663037758 33 36 27
253.770986705894 85.2503700974074 1852.36740119571 3 6 0
244.48823371701 84.6749056011176 1848.1055883446 11 14 5
233.363280600172 84.2199585787876 1846.21404563861 13 16 7
245.618801657993 82.2449372151284 1814.32917699283 9 12 3
221.590788227334 82.6320787479158 1829.02602639728 9 12 5
158.070353926824 84.4905667173843 1879.32804611365 11 14 7
127.175117184493 85.4004126961943 1903.87066936819 11 14 7
118.781812940037 84.8087973806119 1899.01851845741 10 12 7
103.777540850752 84.670248967071 1902.96222261929 10 12 7
116.388457811683 82.6356781244615 1870.09964978915 10 12 7
89.4489260180915 83.327816674566 1890.0982309967 8 10 5
91.7936820043024 81.9895656285376 1870.7941210638 8 10 5
90.5078930600958 80.8965584752907 1856.26990809206 12 14 9
38.996980993129 83.3728168363962 1910.34057490643 15 18 11
20.1594118477124 83.554036857226 1920.1529052743 16 19 12
26.5984293580659 81.9193689302568 1895.16946612775 16 19 12
20.09061683655 81.2129434054952 1887.97816250435 16 19 12
23.45849818153 79.7791977814092 1866.94488654432 16 19 12
1.83590881409623 80.184977124381 1880.91520585526 17 20 13
9.16979682374652 78.443976466784 1854.10957109946 16 19 12
-5.45318691009178 78.3389706844825 1858.33014370436 13 16 9
-37.7721029104046 79.5861092820513 1888.01819203562 11 14 7
-53.9303517158642 79.6266803037092 1894.83166548873 9 12 5
-5.25552146462593 74.6763257398535 1807.814553587 9 12 5
-33.9831459035791 75.6759067693015 1832.69423763294 12 15 8
-21.9604702780321 73.5074817266511 1798.16922700096 12 15 8
-33.674550167051 73.1901630984063 1798.32167857559 12 15 8
-80.031054487292 75.6373786439913 1849.95296635844 12 15 8
-78.7329119295821 74.3080128841852 1831.12522565031 12 15 8
-59.7511039689702 71.5362872598913 1785.58562311622 15 16 10
-57.559635313178 70.1000753209367 1764.93456462873 17 18 12
-64.0180671480841 66.8036893369504 1721.9472269186 20 20 12
228.837787670344 77.0463382956338 1884.89156807401 11 14 5
234.508950732678 75.4651929887483 1861.82183921228 14 17 8
206.760011828199 76.1774182311386 1881.23376567459 8 11 2
230.800600405238 73.3067338314713 1834.42014445252 11 14 5
235.618423416748 71.7496830312321 1811.9669698494 10 13 6
159.15664102694 75.9248039535256 1894.8934545194 10 13 6
158.000295408773 74.8103604424373 1880.4632636748 10 13 6
158.006909302668 73.6051338516503 1864.40529942967 10 13 6
167.615897185576 71.696318219678 1835.54267874449 10 13 6
174.689717715982 69.9528043527753 1809.78383389919 10 12 7
125.914784361583 72.2975945440307 1858.42610095252 10 12 7
104.908435908995 72.6323114241525 1870.37271325008 7 9 4
113.74430912228 70.7544283987633 1842.18513302777 7 9 4
97.5635400475063 70.739650225167 1847.74696407327 11 13 8
60.1882842464891 72.342035162803 1882.41720852654 13 16 9
57.7410448156455 71.3103452126689 1869.5217136296 14 17 10
47.6354446708163 70.8623873655964 1867.13441489645 15 18 11
39.2991920970709 70.2801630184382 1862.3233750494 15 18 11
23.9883613660932 70.2444571713991 1867.28070033373 15 18 11
14.5289796483858 69.7569147258776 1864.12632751937 14 17 10
91.0383764062246 59.845843244636 1704.62743972674 10 13 6
-17.7902716291831 66.1283581910829 1827.0924523578 11 14 7
-36.8492009890144 66.4388291568443 1837.98029976992 15 18 11
-72.7345287463457 68.1644942246001 1873.73154377389 14 17 10
-58.4129347260212 65.7159592549267 1835.93120834181 13 16 9
-81.5490413712929 65.1443676694262 1836.44814637849 11 14 7
-80.3054692800933 63.7669681081549 1817.58060307392 15 16 10
-90.74036283205 63.3883514135629 1816.18998037829 9 10 4
-58.7609743692272 59.3159154919048 1750.42277806132 14 15 9
-37.262212667329 54.7697601721549 1681.99598724937 21 21 13
228.241020932885 66.0782488808374 1870.81682276592 16 19 10
229.521400629185 64.7484047344541 1853.21153406357 12 15 6
225.199858348392 63.8231711256383 1842.66326061807 15 18 9
234.332761290125 61.8902844589922 1814.69043050354 10 13 6
210.370108133265 62.4257924043092 1829.43541247045 9 12 5
184.089070833449 63.1551464759225 1847.44117115803 11 14 7
153.697731652674 64.2193430402141 1871.11512017262 10 13 6
212.24658253022 58.471350494971 1777.66527552203 10 13 6
199.30635384156 58.1843937286353 1778.16435055953 9 11 6
130.050045895129 62.2991957250255 1853.96268217566 8 10 5
126.185037747779 60.0772035505088 1826.44710101176 7 9 4
64.7453438876151 61.2022251649609 1860.96179353295 14 17 10
57.545869930189 60.5239257937894 1854.50426886759 13 16 9
52.6779358848897 59.6532987165322 1844.79521759347 13 16 9
36.7348234530298 59.6975328904451 1850.52962992043 13 16 9
-2.67252437996279 56.6080564644941 1823.18208478088 12 15 8
11.1634703264669 54.1076605494283 1786.26450198624 13 16 9
-21.0321332975789 55.6022406181778 1816.0431954305 13 16 9
-56.9846433482544 57.4601772425308 1851.74611306078 14 17 10
